x,y,z,nx,ny,nz
32.427275,8.432148,2.370626,0.769920,0.192855,-0.608301
-7.116465,29.296628,3.161749,0.224524,-0.896350,0.382290
2.632906,34.554066,6.738796,-0.006412,-0.130523,0.991424
12.683699,29.927779,5.759974,-0.260476,-0.550731,0.792999
-10.108584,40.701438,3.969326,-0.192855,0.769920,0.608301
9.961685,27.723936,0.847139,-0.334015,-0.933508,0.130371
33.195608,27.379486,1.860896,0.684671,0.620549,0.382289
22.907435,24.828059,6.422121,-0.257259,-0.283842,0.923716
-2.212885,42.356833,-3.235924,-0.045341,0.922930,-0.382288
28.397917,25.304544,6.727762,0.096828,0.087760,0.991424
26.970963,24.471902,-3.676464,-0.096828,-0.087760,0.991424
15.680626,31.745148,3.574602,0.055873,0.118134,-0.991424
27.074947,27.868391,2.666946,-0.409129,-0.451404,-0.792999
32.302491,2.865589,5.703751,-0.608490,-0.029893,0.792998
39.994465,0.000000,0.417070,0.000000,-1.000000,0.000000
1.501344,41.487200,-4.526418,0.038945,0.792752,-0.608299
20.429163,34.340652,0.204553,-0.509714,-0.850408,-0.130374
32.399730,0.000000,-1.062064,-0.000000,-1.000000,0.000000
-7.944475,29.826704,4.240921,0.192855,-0.769921,0.608300
14.506756,36.935686,-1.427335,-0.311301,-0.870027,0.382288
31.618754,8.022557,-0.092499,0.961752,0.240906,0.130374
9.488634,39.526410,-5.351347,0.148029,0.590966,-0.792999
22.334579,30.827877,-3.228788,-0.228199,-0.307691,0.923716
25.314428,26.200820,3.677101,-0.087760,-0.096828,-0.991424
21.250294,26.447903,-6.472662,-0.228199,-0.307691,-0.923716
20.757378,36.693849,-3.699314,0.408047,0.680786,-0.608299
30.730496,19.154695,-3.680617,0.112089,0.067183,0.991424
2.532222,30.599999,-4.011545,-0.038945,-0.792751,-0.608300
36.287085,23.155928,1.642538,0.850408,0.509715,0.130372
28.339958,16.281715,0.533313,0.850408,0.509715,-0.130371
25.142505,31.355957,5.723712,0.362914,0.489333,0.792999
36.971377,18.167971,4.934852,0.550731,0.260476,0.792999
-6.683509,37.790219,-6.609133,-0.056209,0.378931,-0.923716
34.059383,12.385056,3.685218,0.123042,0.044025,-0.991424
41.962230,9.883450,1.055748,0.961752,0.240906,0.130371
14.689930,40.590996,0.592274,0.334015,0.933508,0.130371
30.850642,14.280212,2.845858,0.550731,0.260476,-0.792999
31.061423,3.439803,-4.719480,-0.785116,-0.116461,-0.608300
32.304097,14.608157,-3.580763,0.118134,0.055873,0.991424
36.723212,5.564562,-3.581067,-0.129266,-0.019175,0.991424
25.835496,17.283551,-4.480846,-0.637512,-0.472811,-0.608300
-0.574033,38.905448,2.624530,0.029893,-0.608490,-0.792998
-2.816236,32.921759,6.107030,0.018797,-0.382616,0.923716
9.477721,41.298763,-3.357759,0.224524,0.896351,-0.382289
1.013056,38.987483,-6.348545,0.018797,0.382616,-0.923716
-6.450614,33.831621,3.166771,-0.089391,0.602629,-0.792999
1.403557,35.842219,6.900433,-0.006412,-0.130523,0.991425
30.985361,9.906849,5.786269,-0.573610,-0.205241,0.792999
-0.931533,35.097428,-6.799327,0.006412,-0.130523,-0.991424
13.089480,37.077182,-2.069292,-0.267392,-0.747311,0.608299
11.398594,35.303910,-3.589235,-0.044025,-0.123042,0.991424
37.463816,13.155867,1.325437,-0.870026,-0.311301,-0.382291
26.910643,18.510697,-0.253245,0.796352,0.590615,0.130372
16.637954,36.913439,-5.477654,0.260476,0.550731,-0.792999
-8.821885,28.414672,2.141396,0.311299,-0.870027,0.382290
22.246340,31.488729,-2.887762,-0.362914,-0.489333,0.792999
1.486846,37.329357,-3.522624,-0.018797,-0.382616,0.923716
37.246360,0.000000,-4.756093,0.000000,-1.000000,0.000000
10.994771,41.730294,-0.713188,0.240907,0.961752,-0.130372
8.694219,31.547320,0.806653,0.240907,0.961752,-0.130372
-10.027506,34.259377,-3.609867,-0.031753,0.126764,0.991424
-7.969501,42.155123,-2.138957,-0.135585,0.914041,-0.382290
23.070849,19.695094,3.533204,-0.588098,-0.533021,0.608300
24.598854,29.620695,-6.565506,0.257259,0.283841,-0.923716
29.705984,1.303179,-2.161886,-0.922930,-0.045341,-0.382289
20.725300,27.339997,3.085176,0.362914,0.489332,-0.792999
-11.000990,36.688663,6.650480,-0.093080,0.371597,0.923716
25.406100,29.996458,-6.225220,0.257259,0.283841,-0.923716
-11.812023,38.574000,5.619415,-0.205242,0.573610,0.792999
3.927480,39.089043,-6.244031,0.056209,0.378931,-0.923716
33.054363,6.022150,2.469681,0.785115,0.116461,-0.608301
-8.709578,38.423760,6.183375,-0.093080,0.371597,0.923716
29.754142,22.364160,3.570675,-0.104964,-0.077847,-0.991424
26.526225,16.415362,4.669285,-0.680785,-0.408047,0.608300
17.809016,35.518900,-1.284036,-0.395079,-0.835323,0.382293
2.872007,38.329103,-6.583427,0.018797,0.382616,-0.923716
11.699502,31.171114,2.091538,0.267392,0.747310,-0.608300
36.912377,12.391046,6.373918,0.360685,0.129055,0.923716
16.334619,27.018606,5.064652,-0.313204,-0.522548,0.792998
7.748069,28.428953,0.849435,-0.240907,-0.961752,0.130371
32.269847,23.445876,0.748849,-0.796352,-0.590615,-0.130373
22.607234,36.298059,-2.409433,0.475052,0.792578,-0.382290
-2.480606,30.591439,-3.997085,0.038945,-0.792751,-0.608300
32.579451,22.770353,1.261547,-0.742198,-0.550452,-0.382289
37.943749,11.961162,1.206049,-0.870026,-0.311301,-0.382291
8.143926,38.144016,-6.352911,0.093080,0.371597,-0.923716
16.140055,29.851332,6.472681,-0.196941,-0.328576,0.923716
39.862289,0.000000,-3.473168,-0.000000,-1.000000,0.000000
35.585255,1.149381,-3.600592,0.130523,0.006412,0.991424
29.928882,26.244139,1.097228,-0.684671,-0.620549,-0.382288
37.705224,13.122095,-0.476947,-0.933508,-0.334015,0.130372
27.670921,25.995000,-3.272707,-0.283841,-0.257259,0.923716
-3.506254,40.864386,-5.090293,-0.029893,0.608489,-0.792999
-8.944571,40.440650,-4.668440,-0.192855,0.769920,-0.608301
28.268761,24.297123,3.561867,-0.283841,-0.257259,-0.923716
27.976683,32.887333,-0.677467,0.665827,0.734627,-0.130373
37.501256,0.000000,4.222455,0.000000,-1.000000,0.000000
7.684831,35.394731,-3.680005,0.031753,0.126764,0.991424
2.101461,37.538313,-3.423565,-0.018797,-0.382616,0.923716
18.799902,28.688865,6.626272,-0.196941,-0.328577,0.923716
30.137624,30.853642,1.100807,0.665827,0.734627,0.130372
29.486609,2.127592,-1.578646,-0.990271,-0.048649,-0.130371
26.787404,30.877770,-5.181689,0.409130,0.451405,-0.792999
12.926576,34.664788,6.865070,0.044025,0.123042,0.991424
-12.643646,39.104516,-2.202237,-0.951500,-0.307648,-0.000000
39.085974,0.505450,-2.403085,-0.792752,-0.038945,0.608299
5.830353,41.833480,3.580059,0.116460,0.785116,0.608301
-3.578769,38.671551,6.427198,-0.018797,0.382616,0.923716
13.195633,33.832958,3.691991,-0.044025,-0.123042,-0.991424
29.127729,3.822619,0.193581,-0.980734,-0.145478,0.130372
28.751585,26.332177,-2.502986,-0.588098,-0.533021,0.608300
33.412639,0.000000,3.927167,0.000000,-1.000000,0.000000
14.295824,36.617608,-6.222895,0.129055,0.360684,-0.923716
20.731719,32.803220,-2.695406,-0.313203,-0.522549,0.792998
37.923156,12.483462,0.552675,-0.933508,-0.334015,-0.130372
-9.671593,29.912491,-3.871925,-0.951500,-0.307648,0.000000
35.938056,5.718695,3.680458,-0.129266,-0.019175,-0.991424
23.091884,25.000774,6.526563,-0.257259,-0.283842,0.923716
33.572916,16.501396,-6.810823,0.118134,0.055873,-0.991424
-11.877018,36.733473,3.060644,-0.951500,-0.307648,-0.000000
39.225595,16.794357,-2.690533,0.835324,0.395080,-0.382289
21.230163,37.587825,-0.687047,0.509715,0.850408,-0.130372
-0.667729,32.610184,5.857001,0.029893,-0.608490,0.792998
-3.565927,39.322449,-1.898960,0.038946,-0.792752,0.608299
35.760650,24.084189,1.329517,0.796352,0.590615,0.130372
21.858343,27.895265,3.577907,0.077847,0.104964,-0.991424
6.644232,42.698268,-0.258149,0.145478,0.980734,-0.130371
21.290895,33.824290,-5.881160,0.313203,0.522548,-0.792999
38.310035,3.530498,-2.969958,-0.608489,-0.029893,0.792999
16.235258,26.919858,4.960338,-0.313204,-0.522548,0.792998
-8.311720,35.616629,6.921015,-0.031753,0.126764,0.991425
8.649352,32.579903,2.623769,0.148029,0.590966,-0.792999
35.356079,18.593193,-0.558313,-0.896274,-0.423906,0.130370
-10.035324,37.529612,6.409486,-0.093080,0.371597,0.923716
-3.234670,41.473840,4.432856,-0.038945,0.792752,0.608299
32.101374,12.467263,-3.176763,0.573610,0.205241,0.792999
19.083923,33.437491,-6.555419,0.196941,0.328577,-0.923716
42.417076,7.556111,1.355911,0.980734,0.145478,0.130371
0.384233,41.366814,-4.754828,0.038946,0.792751,-0.608301
15.905012,38.387405,-4.537931,0.339354,0.717503,-0.608300
21.314622,32.846297,-6.290117,0.196941,0.328577,-0.923716
36.792365,6.470607,-6.818894,0.129266,0.019175,-0.991425
-12.119027,37.481965,-5.823887,-0.951500,-0.307648,0.000000
6.342952,32.656104,-2.017078,0.116461,0.785115,0.608301
31.340095,14.566340,6.727907,-0.118134,-0.055873,0.991424
37.102255,17.841752,4.951111,0.550731,0.260476,0.792999
28.906009,22.776914,6.892427,0.104964,0.077847,0.991424
31.180798,28.906574,-2.990531,0.684670,0.620549,-0.382289
22.415913,20.844786,3.907434,-0.588098,-0.533021,0.608300
39.596215,0.464496,-1.650785,-0.922929,-0.045341,0.382291
16.054529,36.607998,-0.206181,-0.423906,-0.896274,0.130373
2.056965,43.063485,-1.007167,0.048648,0.990271,-0.130371
34.410433,19.913704,1.212820,-0.792576,-0.475053,-0.382292
12.676153,33.520301,-6.895608,-0.044025,-0.123042,-0.991424
36.985575,13.812204,1.864144,-0.747311,-0.267392,-0.608299
36.974800,2.554412,-3.592486,-0.130524,-0.006412,0.991424
-11.912865,37.578319,1.970841,0.267394,-0.747311,-0.608298
33.406205,21.926617,-0.445297,-0.850408,-0.509714,0.130374
38.983320,7.983020,-6.031486,0.371597,0.093080,-0.923716
23.521637,29.502623,6.770787,0.077847,0.104964,0.991424
10.791474,38.292383,1.177969,-0.224523,-0.896350,-0.382291
30.857649,16.204078,6.762718,-0.118134,-0.055873,0.991424
-1.283647,38.953504,6.357113,-0.018797,0.382616,0.923716
4.593272,42.916097,0.908126,0.145478,0.980734,0.130371
8.946137,41.373063,-3.487797,0.192855,0.769920,-0.608301
14.845822,35.173655,3.195138,-0.260476,-0.550731,-0.792999
38.444861,19.421536,-1.425615,0.896274,0.423906,-0.130371
-5.919355,39.456769,0.656203,0.145478,-0.980734,-0.130374
26.880945,27.960639,-6.440040,0.257259,0.283842,-0.923716
-9.078097,40.859447,4.096039,-0.192855,0.769920,0.608301
13.591124,35.693444,-3.163142,-0.205241,-0.573610,0.792999
29.537062,0.610904,1.395918,-0.990271,-0.048649,0.130373
13.692604,27.796529,4.396091,-0.339353,-0.717503,0.608300
1.723535,39.641326,1.392551,-0.045341,-0.922929,-0.382291
1.503773,32.732932,1.036146,0.045341,0.922930,-0.382288
2.044156,39.755876,1.077976,-0.045341,-0.922929,-0.382290
18.599684,30.852895,6.921213,-0.067183,-0.112089,0.991425
-12.425798,38.430751,2.464690,-0.951500,-0.307649,0.000001
30.791609,18.338485,3.632217,0.112089,0.067183,-0.991424
38.091668,4.255173,-6.633238,0.378931,0.056209,-0.923716
-12.024523,37.189681,-4.399523,-0.951500,-0.307648,0.000000
2.240178,36.684576,3.632727,-0.006412,-0.130524,-0.991424
34.421747,17.296947,-2.912211,-0.550732,-0.260477,0.792998
31.629965,28.866519,-2.251105,0.684670,0.620549,-0.382289
29.409324,17.601545,-3.060963,0.522548,0.313203,0.792999
32.401274,21.662522,-6.373814,0.307691,0.228199,-0.923716
9.087202,38.017613,6.308710,0.093080,0.371597,0.923716
-0.972582,29.594867,1.854413,0.045341,-0.922929,0.382290
29.661167,23.480934,-6.757197,0.104964,0.077847,-0.991424
31.276067,19.310389,-6.896620,0.112089,0.067183,-0.991424
18.894706,26.631081,0.285245,0.590615,0.796352,-0.130372
39.911544,1.855886,0.228260,-0.990271,-0.048649,-0.130371
23.697031,26.953566,-3.638348,0.087760,0.096828,0.991424
30.055674,6.419290,-4.047182,-0.769921,-0.192855,-0.608300
36.835243,10.457294,-6.646300,0.371597,0.093080,-0.923716
-6.155783,39.196088,1.399935,0.135585,-0.914042,-0.382288
21.774766,36.773433,-2.458335,0.475052,0.792578,-0.382290
43.115181,1.985411,0.641196,0.990271,0.048649,0.130373
-6.890084,41.671473,3.586270,-0.116461,0.785117,0.608299
-2.568419,39.869338,0.282960,0.048649,-0.990271,-0.130371
24.532010,21.948542,6.064094,-0.283842,-0.257259,0.923716
31.527241,18.499064,-3.658835,-0.112089,-0.067183,0.991424
23.381751,22.943650,-0.946112,0.734627,0.665827,0.130374
-3.905310,29.597529,2.442424,0.135585,-0.914041,0.382290
28.212763,32.584717,1.176968,0.665827,0.734627,0.130373
4.204395,32.452992,0.838898,0.145478,0.980734,-0.130374
43.159783,1.701269,0.408442,0.990271,0.048649,0.130373
-4.709421,33.775889,6.555352,0.056209,-0.378931,0.923716
-9.908100,30.643967,5.423670,-0.951500,-0.307648,0.000000
24.364900,24.094817,6.610492,-0.283842,-0.257259,0.923716
-0.084415,31.695503,5.133151,0.029893,-0.608490,0.792998
18.129864,33.144446,-3.359972,-0.196941,-0.328576,0.923716
-3.926195,43.028670,-0.574103,-0.048649,0.990271,-0.130371
-3.853957,37.178160,-3.529298,0.056209,-0.378931,0.923716
35.835047,21.271591,-4.315517,0.680786,0.408048,-0.608299
39.918101,0.882014,-0.541856,-0.990271,-0.048650,0.130371
-8.684188,35.973628,6.863440,-0.031753,0.126764,0.991425
-7.807460,28.968135,2.797367,0.224524,-0.896350,0.382290
-8.283978,35.375715,6.952707,-0.031753,0.126764,0.991425
26.956779,32.557477,-3.592614,0.533021,0.588098,-0.608300
39.680487,1.648422,1.306916,-0.922929,-0.045341,-0.382291
-7.307397,30.884164,5.188996,0.148029,-0.590965,0.792999
2.709340,39.865172,0.262010,-0.048649,-0.990271,-0.130374
3.414399,32.524488,-0.495196,0.145478,0.980734,0.130370
3.350657,39.232699,-6.199405,0.018797,0.382616,-0.923716
40.738774,11.576067,-3.438373,0.896350,0.224524,-0.382290
8.279289,29.898376,-4.437786,-0.192855,-0.769921,-0.608300
36.260841,1.629572,-3.692462,-0.130524,-0.006412,0.991424
30.511325,13.192421,-6.190847,-0.346298,-0.163787,-0.923716
-0.689966,33.354110,2.166392,-0.038945,0.792752,-0.608299
-9.152225,36.324605,3.480131,0.093080,-0.371597,-0.923716
20.405286,30.249908,6.936366,0.077847,0.104964,0.991424
-8.714163,42.288254,-0.811323,-0.240907,0.961752,-0.130371
2.978631,38.611538,2.759410,-0.029893,-0.608489,-0.792999
21.050075,22.819102,4.477117,-0.533021,-0.588098,0.608300
31.503353,23.754386,6.156129,0.307691,0.228199,0.923716
-11.545368,35.707741,-5.289372,-0.951500,-0.307647,0.000000
32.685705,3.751774,-6.049858,-0.378931,-0.056209,-0.923716
14.564141,27.076908,-4.043790,-0.408047,-0.680785,-0.608300
14.578425,29.186051,-0.065541,0.423906,0.896274,0.130371
20.320537,25.558852,0.195086,0.590615,0.796352,-0.130372
42.927702,3.147113,-1.631753,0.990271,0.048648,-0.130373
36.751395,11.402376,2.964365,-0.573610,-0.205241,-0.792999
29.908150,17.932414,3.371935,0.328576,0.196941,-0.923716
0.639213,29.565396,1.621695,-0.048649,-0.990271,0.130371
35.011678,12.289854,6.850293,0.123042,0.044025,0.991425
19.260130,31.142023,-6.915181,0.067183,0.112089,-0.991424
27.835819,21.426792,6.802096,-0.104964,-0.077846,0.991425
-13.196059,40.813028,1.259897,-0.951500,-0.307648,-0.000000
4.799899,32.429542,1.073714,0.135585,0.914041,-0.382290
7.659570,31.916446,1.166150,0.224524,0.896351,-0.382288
3.268462,29.364674,-1.357663,-0.145478,-0.980734,-0.130371
24.178886,31.670185,-0.998726,-0.550452,-0.742198,0.382289
30.473735,5.974927,-4.446324,-0.785117,-0.116461,-0.608300
24.162990,19.293748,-4.290481,-0.637512,-0.472811,-0.608300
8.807296,38.621143,6.094124,0.093080,0.371597,0.923716
36.107224,8.520742,-6.851593,0.126764,0.031753,-0.991425
28.001951,9.021070,0.427956,-0.933508,-0.334014,0.130371
36.558824,11.948283,-6.573829,0.360685,0.129055,-0.923716
31.150564,10.263034,5.997954,-0.573610,-0.205241,0.792999
7.562066,40.621864,-4.812318,0.116461,0.785116,-0.608301
8.904667,28.465755,2.325064,-0.311300,-0.870027,0.382290
31.426747,29.075516,2.275809,0.684671,0.620549,0.382289
12.062969,37.364377,6.243261,0.129055,0.360685,0.923716
34.924214,19.134094,6.008215,0.522548,0.313203,0.792999
36.909944,9.104356,-6.730265,0.126764,0.031753,-0.991425
41.194714,7.794528,4.028452,0.785116,0.116461,0.608301
38.064932,19.608542,-2.318309,0.835324,0.395079,-0.382290
0.221901,37.674023,3.405599,-0.018796,-0.382615,-0.923717
-7.946631,35.626937,-3.667023,0.031753,-0.126764,0.991424
25.351364,34.328279,-2.607160,0.550452,0.742198,-0.382290
25.901305,17.216219,4.507113,-0.680786,-0.408047,0.608300
3.263460,33.736523,-6.453617,-0.018797,-0.382616,-0.923716
22.954993,31.123553,2.788786,-0.362914,-0.489333,-0.792999
34.197892,2.782807,-6.634941,-0.382616,-0.018797,-0.923716
39.834325,14.393192,-3.380233,0.870027,0.311301,-0.382289
12.493418,30.586673,1.617022,0.311300,0.870027,-0.382289
-6.659676,42.542813,-1.410349,-0.145478,0.980734,-0.130371
40.286665,7.044445,-5.169383,0.602629,0.089392,-0.792999
28.307745,16.703665,1.279005,0.792578,0.475053,-0.382288
-0.903899,31.047872,-4.490973,0.038945,-0.792751,-0.608300
26.821033,18.534600,5.841817,-0.489333,-0.362914,0.792999
-3.244503,32.490275,-5.865464,0.089392,-0.602630,-0.792998
5.289779,39.624166,-5.870638,0.089392,0.602630,-0.792999
10.535563,27.483601,-0.596540,-0.334015,-0.933508,-0.130372
24.833732,30.860166,-1.628443,-0.550452,-0.742198,0.382288
15.745714,32.959913,6.926453,0.055873,0.118134,0.991424
39.150493,1.902427,6.262926,0.382616,0.018797,0.923716
14.702783,31.642183,-3.379510,0.163787,0.346298,0.923716
26.699531,16.206915,-4.723418,-0.680786,-0.408047,-0.608300
20.480425,21.186727,0.792726,-0.665827,-0.734627,0.130372
0.839659,33.122096,1.873609,0.038945,0.792752,-0.608299
-5.153966,32.201506,-0.006674,-0.145479,0.980734,0.130370
-12.103582,37.933964,-1.112349,0.311298,-0.870027,0.382291
38.317948,10.086426,1.532111,-0.896350,-0.224524,-0.382291
34.859475,10.890969,-6.931301,0.123042,0.044025,-0.991425
22.538048,35.791144,-3.515114,0.408047,0.680786,-0.608299
33.723026,19.414785,-6.383310,0.328576,0.196941,-0.923716
20.326069,21.462842,1.560273,-0.665827,-0.734627,0.130372
36.080211,17.109344,0.404832,-0.896274,-0.423906,-0.130373
0.959912,35.158094,6.807497,-0.006412,-0.130523,0.991424
27.731981,11.487482,-2.758429,-0.835324,-0.395079,-0.382290
5.006300,40.456822,5.269827,0.089392,0.602629,0.792999
28.554072,8.493922,-2.229690,-0.896350,-0.224524,-0.382290
32.981090,8.387579,-2.873880,0.590966,0.148029,0.792999
6.125537,29.287331,-2.557965,-0.224524,-0.896350,-0.382290
32.718547,4.983615,-6.138289,-0.378931,-0.056209,-0.923716
23.402992,29.210294,-6.811052,0.077847,0.104964,-0.991424
-0.488428,38.834171,6.422724,-0.018797,0.382616,0.923716
30.386266,14.593149,6.392329,-0.346298,-0.163787,0.923716
29.202342,17.247739,-6.477992,-0.328577,-0.196941,-0.923716
26.114507,20.647688,-2.071655,0.637512,0.472811,0.608300
18.556678,23.848700,-3.311253,-0.550452,-0.742198,-0.382290
14.051320,29.727797,1.311782,0.395080,0.835325,-0.382289
39.704888,3.059334,1.080667,-0.922929,-0.045341,-0.382291
7.171844,41.395079,-3.889061,0.116461,0.785116,-0.608301
14.150695,30.073256,2.020664,0.339354,0.717503,-0.608300
27.258726,29.238010,-5.871935,0.409130,0.451405,-0.792998
-12.314182,38.085544,3.571558,-0.951500,-0.307650,0.000002
16.354106,33.513378,-6.826218,0.055873,0.118134,-0.991424
17.457810,30.452776,3.464476,0.196941,0.328576,-0.923716
8.884693,37.681073,2.759841,-0.148029,-0.590965,-0.792999
-7.940586,33.799078,3.306985,-0.093080,0.371598,-0.923716
-0.810301,41.395696,-4.689911,-0.038945,0.792751,-0.608301
20.737377,34.053593,0.871997,-0.509716,-0.850408,-0.130370
31.247619,23.209429,-6.375943,0.307691,0.228199,-0.923716
30.032172,26.346885,-0.294221,-0.734627,-0.665827,0.130371
19.074693,26.612805,-0.966284,0.550452,0.742198,0.382289
23.193854,19.496189,3.477302,-0.684670,-0.620549,0.382290
2.362873,37.555776,3.411012,-0.018797,-0.382616,-0.923716
36.899748,4.462052,6.843740,0.129266,0.019175,0.991424
-2.890096,29.595626,2.083672,0.045341,-0.922929,0.382290
8.136303,32.204790,-1.995234,0.192855,0.769921,0.608300
2.617861,29.265377,-0.081169,-0.048648,-0.990271,-0.130371
0.156735,29.521613,1.109094,-0.048648,-0.990271,0.130373
-7.692536,28.922786,2.623542,0.224524,-0.896350,0.382290
32.522366,5.046706,6.061650,-0.378931,-0.056209,0.923716
38.555661,0.979327,-6.528098,0.382616,0.018797,-0.923716
-9.128731,41.884632,-2.189047,-0.224524,0.896350,-0.382290
17.111498,39.693400,-0.353352,0.423906,0.896274,-0.130371
-1.887660,43.124833,0.604362,-0.048649,0.990271,0.130373
42.124447,1.945909,-3.667481,0.792752,0.038946,-0.608299
22.463470,25.370605,-2.761116,0.409129,0.451404,0.792999
31.869719,1.436092,5.317785,-0.608490,-0.029893,0.792998
-2.603194,42.731082,-2.286114,-0.045340,0.922929,-0.382291
-9.375263,39.040261,5.734802,-0.148029,0.590965,0.792999
6.182917,35.624601,-3.672753,0.019175,0.129266,0.991425
-5.619628,35.319822,3.622120,-0.019175,0.129266,-0.991424
22.526779,26.629540,6.767480,-0.087760,-0.096828,0.991425
10.799076,39.622913,5.034810,0.148029,0.590966,0.792999
-6.943033,42.569222,-0.895495,-0.145478,0.980734,-0.130371
1.670895,42.210565,3.572857,0.038946,0.792752,0.608299
38.269284,0.000000,-5.051853,0.000000,-1.000000,0.000000
34.451507,13.532129,-6.864650,0.123042,0.044025,-0.991424
17.281059,39.475842,1.297678,0.423906,0.896274,0.130371
6.652498,38.855890,-1.949324,-0.116461,-0.785117,0.608299
2.559486,34.290731,-3.138398,0.029893,0.608488,0.793000
7.441767,28.438410,-0.353205,-0.240907,-0.961752,-0.130371
7.783860,32.480167,-2.232039,0.192855,0.769920,0.608301
24.491931,30.056052,-2.744129,-0.362914,-0.489333,0.792999
29.016104,4.633937,0.259201,-0.980734,-0.145478,0.130372
33.275469,26.731164,-2.664396,0.742198,0.550452,-0.382289
33.901733,4.743468,-3.027612,0.602630,0.089391,0.792999
-9.333387,35.850379,-3.594039,0.031753,-0.126765,0.991424
15.213155,40.371613,-0.822620,0.334014,0.933508,-0.130371
1.137142,30.447775,3.723845,-0.038945,-0.792751,0.608300
11.636066,37.982961,-1.381535,-0.311301,-0.870026,0.382291
35.295622,10.224265,6.900805,0.126764,0.031753,0.991425
25.241460,34.865040,-1.557472,0.590615,0.796352,-0.130373
-6.707993,39.492604,5.810747,-0.089392,0.602630,0.792999
25.754088,20.363728,1.155181,0.742198,0.550452,-0.382289
12.753836,27.313214,-3.152118,-0.395079,-0.835324,-0.382290
-0.685290,35.157348,-3.486580,-0.018797,0.382616,0.923716
0.939822,39.360275,2.017799,-0.038946,-0.792752,-0.608299
-11.522542,35.637146,4.499557,-0.951500,-0.307648,-0.000000
21.601443,19.926247,-0.299326,-0.734627,-0.665827,-0.130372
23.482702,35.415238,3.151831,0.475052,0.792578,0.382290
-7.425977,41.904585,2.930752,-0.135585,0.914041,0.382290
33.210912,22.710607,5.692033,0.489333,0.362914,0.792999
-13.187681,40.986508,1.609045,-0.334016,0.933508,0.130371
42.038392,1.511752,3.807425,0.792751,0.038946,0.608301
19.509985,31.203194,6.891333,0.067183,0.112089,0.991424
-9.976447,39.019022,-5.638407,-0.148029,0.590966,-0.792999
24.837589,23.470467,-6.581857,-0.283842,-0.257259,-0.923716
4.144919,41.670399,4.113226,0.116462,0.785117,0.608299
3.047151,39.624855,1.275329,-0.045341,-0.922929,-0.382290
18.031119,27.607804,1.477422,0.475053,0.792578,-0.382288
8.949542,32.896211,2.915527,0.148029,0.590965,-0.792999
12.859152,35.443314,-3.379045,-0.129055,-0.360685,0.923716
31.169495,18.690792,3.686289,-0.112089,-0.067183,-0.991424
-10.822509,36.190001,6.767289,-0.031753,0.126764,0.991425
-4.178748,33.345714,2.492796,-0.116461,0.785118,-0.608299
-9.177825,33.663639,6.770849,0.031753,-0.126765,0.991424
0.409994,42.843812,-2.274079,0.045340,0.922930,-0.382288
31.248010,14.443791,6.688911,-0.346298,-0.163787,0.923716
6.835139,36.870174,-6.801699,0.019175,0.129266,-0.991425
16.699493,34.977472,-2.722510,-0.260476,-0.550731,0.792999
-9.822631,33.595938,6.782845,0.031753,-0.126765,0.991424
23.350055,24.190685,-2.502069,0.533021,0.588099,0.608300
-4.676481,29.360782,-2.149878,0.135585,-0.914041,-0.382290
-2.305148,42.465402,2.962876,-0.045341,0.922929,0.382291
5.252338,36.244920,-3.649468,-0.019175,-0.129266,0.991424
28.737664,27.531146,-1.141545,-0.684671,-0.620548,0.382290
20.858180,24.062575,-5.267768,-0.409129,-0.451405,-0.792999
32.724883,12.090873,6.770902,-0.123042,-0.044025,0.991425
-9.660429,30.334046,5.251367,0.205240,-0.573610,0.792999
26.079509,13.766941,-0.865575,-0.896274,-0.423906,-0.130372
25.464087,23.821400,6.768254,-0.096828,-0.087760,0.991425
38.255582,3.255553,-3.022105,-0.608489,-0.029893,0.792999
15.208708,29.984762,2.506519,0.339354,0.717503,-0.608300
31.724607,19.870182,3.493980,-0.328576,-0.196941,-0.923716
18.351296,31.969732,6.883188,0.067183,0.112089,0.991424
16.716484,39.930240,0.009527,0.423906,0.896274,0.130372
39.180982,14.194374,-4.315477,0.747310,0.267392,-0.608300
-1.748997,36.530124,-3.656237,0.006412,-0.130524,0.991424
9.718359,41.271333,-3.280744,0.224524,0.896351,-0.382289
-1.911295,34.327423,-3.142118,-0.029893,0.608489,0.792999
35.941667,6.703845,6.925301,0.129266,0.019175,0.991425
6.315842,37.173829,6.772150,0.019175,0.129266,0.991425
40.058138,3.574525,-5.706375,0.608489,0.029893,-0.792999
7.895664,34.847368,-3.616771,0.031753,0.126764,0.991424
-5.413948,36.878030,-6.828161,-0.019175,0.129266,-0.991425
-5.696599,35.649071,-3.666538,-0.019175,0.129266,0.991424
29.429097,4.258298,-2.164901,-0.914041,-0.135585,-0.382290
-2.417505,30.055643,-3.138200,0.045341,-0.922929,-0.382290
-12.249133,38.383180,5.644311,-0.205241,0.573610,0.792999
35.216148,14.017062,3.305972,-0.360685,-0.129055,-0.923716
25.346571,33.614372,-3.760038,0.472811,0.637511,-0.608300
16.296349,36.292081,1.157862,-0.395078,-0.835324,-0.382292
32.916753,15.135095,-3.683461,0.118134,0.055873,0.991424
13.101847,40.192242,-3.553366,0.267392,0.747310,-0.608300
-10.493193,32.453551,-6.171287,-0.951500,-0.307648,-0.000000
5.522716,39.532795,-0.526892,-0.145478,-0.980734,0.130374
-4.719505,38.971920,6.243882,-0.056209,0.378931,0.923716
25.060022,26.624903,-6.922569,0.087760,0.096828,-0.991425
-6.920692,42.373771,-1.988154,-0.135585,0.914041,-0.382290
30.217603,0.731978,3.329297,-0.922930,-0.045341,0.382289
14.987892,40.442152,-0.894661,0.334014,0.933508,-0.130371
39.740063,1.865793,-1.137308,-0.922929,-0.045341,0.382290
34.431754,16.049004,-6.733982,0.118134,0.055873,-0.991424
41.435770,7.184639,-3.834091,0.785116,0.116460,-0.608301
31.118463,10.188131,0.938009,0.933508,0.334014,-0.130372
25.086978,28.060001,-6.780024,0.087760,0.096828,-0.991424
38.338510,15.413052,-4.814775,0.747310,0.267392,-0.608300
39.481186,17.404179,0.860616,0.896274,0.423906,0.130371
-6.081252,34.521386,3.441553,-0.056209,0.378932,-0.923716
0.749954,36.628506,6.914114,0.006412,0.130523,0.991424
17.965801,26.045867,-5.103179,-0.362914,-0.489333,-0.792999
13.405314,41.066590,0.478064,0.334014,0.933508,0.130372
32.256879,1.118278,5.602884,-0.608490,-0.029893,0.792998
32.175668,1.671822,-5.561435,-0.608490,-0.029893,-0.792998
23.965166,30.864240,2.399524,-0.472811,-0.637511,-0.608300
15.554480,29.971633,-6.407341,-0.163787,-0.346298,-0.923716
26.384423,23.726407,3.585363,0.096828,0.087760,-0.991424
39.998397,0.000000,-4.488404,0.000000,-1.000000,0.000000
40.771112,12.945494,2.427129,0.870027,0.311300,0.382289
26.072384,28.683628,-6.443066,0.257259,0.283842,-0.923716
6.159282,30.537853,4.575041,-0.192855,-0.769921,0.608300
13.540789,27.191603,-3.597873,-0.339354,-0.717503,-0.608300
24.378007,30.395096,6.371228,0.228199,0.307691,0.923716
30.311667,21.129132,6.872991,0.104964,0.077847,0.991424
-7.607995,36.316182,6.854108,-0.031753,0.126764,0.991425
-8.476184,38.999141,0.719538,0.240906,-0.961752,-0.130374
-3.861590,38.818025,6.359218,-0.056209,0.378931,0.923716
32.971814,24.661228,-4.946876,0.489333,0.362914,-0.792999
34.199477,8.295165,-6.811093,-0.126765,-0.031753,-0.991424
33.607858,16.520733,-3.486412,-0.346298,-0.163787,0.923716
25.164251,17.162252,-3.683085,-0.637512,-0.472811,-0.608300
33.880249,1.743293,-6.482216,-0.382616,-0.018797,-0.923716
25.908168,27.321964,-3.404118,-0.257259,-0.283841,0.923716
37.035985,19.913948,-3.882181,0.680786,0.408048,-0.608299
1.119388,41.442407,-4.609247,0.038945,0.792752,-0.608299
27.010401,33.407224,-2.006530,0.550452,0.742198,-0.382289
22.410602,23.871724,5.960064,-0.409130,-0.451405,0.792998
2.551309,43.016710,-1.177995,0.048648,0.990271,-0.130371
29.975475,1.656549,-2.854406,-0.922929,-0.045341,-0.382290
37.736917,3.417538,-3.314520,-0.382616,-0.018797,0.923716
27.382048,23.905016,-6.950862,0.096828,0.087760,-0.991424
22.609730,32.815083,-1.035356,-0.550452,-0.742198,0.382289
29.275334,27.035139,0.983731,-0.684671,-0.620549,-0.382288
19.637973,32.858585,3.090910,-0.313203,-0.522549,-0.792998
15.182787,25.533490,-2.094619,-0.475053,-0.792578,-0.382290
25.991829,26.359230,-6.866034,0.087760,0.096828,-0.991425
-7.873391,33.964889,6.767590,0.031753,-0.126765,0.991424
15.363636,25.724886,2.716162,-0.475053,-0.792578,0.382290
34.135183,8.066897,3.454924,0.371598,0.093080,-0.923716
-1.042133,42.247172,3.565404,-0.038946,0.792751,0.608301
4.408725,42.920391,-1.081757,0.145478,0.980734,-0.130371
27.664806,27.390756,2.619900,-0.451405,-0.409129,-0.792999
31.779985,26.547908,-4.702558,0.588098,0.533022,-0.608300
38.072091,5.572862,-2.938763,-0.602629,-0.089392,0.792999
34.414566,0.000000,6.046212,-0.000000,-1.000000,0.000000
3.753185,34.965991,-6.804255,-0.019175,-0.129266,-0.991425
38.942588,0.000000,2.839018,-0.000000,-1.000000,0.000000
40.042162,0.000000,-2.986880,-0.000000,-1.000000,0.000000
32.794119,15.405798,-3.684104,0.118134,0.055873,0.991424
25.488183,28.913045,-6.535273,0.257259,0.283842,-0.923716
23.394492,22.575362,5.773410,-0.451405,-0.409130,0.792998
17.962419,23.347852,-0.802068,-0.590615,-0.796352,-0.130372
37.831181,10.262541,2.236948,-0.769921,-0.192855,-0.608299
37.918330,0.000000,3.861606,0.000000,-1.000000,0.000000
4.175223,34.871168,6.800054,-0.019175,-0.129266,0.991425
30.508197,0.000000,-3.349206,0.000000,-1.000000,0.000000
34.029960,20.203251,-1.641827,-0.792577,-0.475052,0.382292
39.598418,4.057966,-1.182003,-0.914041,-0.135585,0.382290
10.601158,35.882967,-3.511791,-0.093080,-0.371597,0.923716
-2.967843,43.047739,-0.786880,-0.048649,0.990271,-0.130371
29.042086,26.721181,-1.881269,-0.588098,-0.533021,0.608300
31.277040,4.272373,-5.059349,-0.602630,-0.089392,-0.792998
13.537739,36.857133,2.142584,-0.267392,-0.747310,-0.608301
34.081440,5.603874,6.724717,-0.129267,-0.019175,0.991424
16.456057,24.675867,-1.898794,-0.475053,-0.792578,-0.382290
15.601992,39.448952,-3.272944,0.311301,0.870027,-0.382289
-5.078740,40.147908,5.496416,-0.089392,0.602629,0.792999
9.958146,36.803829,-3.206136,-0.093080,-0.371598,0.923716
34.767920,10.704057,3.686596,-0.123042,-0.044025,-0.991424
19.696771,30.519841,3.691568,-0.067183,-0.112089,-0.991424
13.327487,41.049483,0.799950,0.334014,0.933508,0.130372
38.280347,6.861509,2.635239,-0.602629,-0.089391,-0.792999
12.249879,41.303938,-1.539169,0.240907,0.961752,-0.130372
41.659321,1.872836,4.278320,0.792752,0.038945,0.608299
-4.359291,41.464983,-4.337309,-0.116462,0.785117,-0.608299
1.016591,40.102590,5.768691,0.029893,0.608490,0.792998
19.679590,26.030530,-0.172600,0.590615,0.796352,0.130372
-2.491063,34.763786,3.360307,-0.018797,0.382616,-0.923716
28.453771,9.048263,-2.414720,-0.870027,-0.311300,-0.382290
33.293912,21.912294,1.044082,-0.792578,-0.475053,-0.382288
6.175440,39.089666,6.106984,0.056209,0.378932,0.923716
-10.849422,40.447061,-4.056415,-0.192855,0.769921,-0.608300
19.164379,25.943994,-5.588842,-0.362914,-0.489333,-0.792999
33.824315,22.321130,5.474241,0.522548,0.313203,0.792999
36.175268,20.884802,-4.194214,0.680786,0.408048,-0.608299
-4.517985,38.699098,-2.560352,0.116461,-0.785117,0.608299
17.326220,38.675202,3.343516,0.395080,0.835324,0.382289
34.662534,7.617875,-3.584241,0.126764,0.031753,0.991424
37.163028,14.621539,0.517660,-0.933508,-0.334015,-0.130374
26.900614,23.568125,-6.886133,-0.096828,-0.087760,-0.991425
27.815813,17.327829,1.034729,0.792578,0.475053,-0.382288
22.249936,37.028901,0.345868,0.509715,0.850408,0.130372
28.746549,10.583922,-3.938956,-0.747311,-0.267392,-0.608300
41.268911,12.817520,0.535303,0.933508,0.334015,0.130372
0.674351,40.479731,5.492201,0.029893,0.608490,0.792998
34.767776,0.978148,6.756229,-0.130523,-0.006412,0.991425
25.938647,22.860872,3.247319,0.283842,0.257259,-0.923716
37.465639,12.916489,6.084474,0.360685,0.129055,0.923716
34.229423,7.444870,-3.430155,0.371598,0.093080,0.923716
-5.671702,33.524426,6.510751,0.056209,-0.378931,0.923716
31.985095,0.000000,1.346532,0.000000,-1.000000,0.000000
38.609119,19.150215,-1.178593,0.896274,0.423906,-0.130372
-0.841909,41.904927,-4.024247,-0.038945,0.792751,-0.608301
32.809307,4.900687,-1.938688,0.785117,0.116462,0.608299
2.738534,29.585451,2.041131,-0.045341,-0.922929,0.382290
13.576009,29.531294,5.777715,-0.260477,-0.550732,0.792998
24.858283,34.544059,-2.898210,0.550452,0.742198,-0.382289
-2.168743,30.405182,-3.734383,0.038945,-0.792751,-0.608300
5.302142,37.029860,3.502011,-0.056209,-0.378931,-0.923716
39.239906,16.038462,3.393277,0.870027,0.311301,0.382289
33.122659,26.354046,3.492287,0.637511,0.472811,0.608300
-9.695413,29.986164,4.940442,-0.951500,-0.307648,0.000000
14.834693,29.186461,0.901623,0.423906,0.896274,-0.130371
31.084326,1.284095,-4.562823,-0.792751,-0.038945,-0.608300
-0.129918,29.909171,2.513268,0.045341,-0.922930,0.382289
35.516825,0.000000,-3.917028,0.000000,-1.000000,0.000000
-0.251022,33.613937,-6.341539,0.018797,-0.382615,-0.923717
25.635631,22.755197,6.627875,-0.283842,-0.257259,0.923716
30.051737,25.940383,1.370269,-0.684671,-0.620549,-0.382288
40.764489,0.000000,4.596953,-0.000000,-1.000000,0.000000
-5.556611,42.397982,-2.414059,-0.135585,0.914041,-0.382291
-5.936943,38.448461,2.611705,0.089391,-0.602629,-0.792999
20.688443,24.840072,5.622776,-0.409129,-0.451405,0.792999
31.821898,26.976838,4.286187,0.588098,0.533021,0.608300
40.558741,14.336404,-1.728976,0.933508,0.334014,-0.130372
42.520728,6.624107,-1.616183,0.980734,0.145478,-0.130371
28.903573,6.251995,1.586199,-0.961752,-0.240907,0.130372
-2.023388,43.024973,1.312222,-0.048648,0.990271,0.130371
26.848697,21.947441,3.275295,0.307691,0.228199,-0.923716
20.786632,21.613211,-2.741115,-0.620549,-0.684670,-0.382289
10.134342,41.299546,2.970284,0.224524,0.896350,0.382290
11.297606,34.491791,6.954961,-0.044025,-0.123042,0.991425
-3.272207,29.423405,1.801559,0.135585,-0.914041,0.382290
14.827037,37.063957,0.700550,-0.334015,-0.933508,-0.130374
9.209390,28.141469,-1.835181,-0.311300,-0.870027,-0.382290
19.522189,22.586983,-2.432617,-0.620549,-0.684670,-0.382290
1.876039,43.147221,-0.438646,0.048649,0.990271,-0.130373
30.743619,21.443821,-6.802550,0.104964,0.077847,-0.991424
36.418503,19.319639,-4.940530,0.550731,0.260476,-0.792999
36.084854,17.283938,5.840913,0.550731,0.260476,0.792999
-9.990310,41.906796,-1.267217,-0.240907,0.961752,-0.130371
29.342246,1.739314,0.337218,-0.990271,-0.048648,0.130371
30.441188,29.573262,3.232956,0.684670,0.620549,0.382289
38.186206,3.681079,3.059299,-0.608489,-0.029893,-0.792999
13.587065,40.881345,-1.338830,0.334014,0.933508,-0.130371
23.839733,23.372185,-6.247861,-0.283842,-0.257259,-0.923716
33.411504,0.254991,2.213340,0.792752,0.038945,-0.608299
14.687016,27.643490,4.770332,-0.339353,-0.717503,0.608300
32.494395,24.967054,5.101514,0.489333,0.362914,0.792999
-7.811203,28.444536,-1.081054,0.240907,-0.961752,-0.130371
3.874857,37.099530,-6.829048,0.019175,0.129266,-0.991424
7.803965,29.793437,-4.154269,-0.192855,-0.769921,-0.608300
37.503115,9.716091,-2.737264,-0.590965,-0.148029,0.792999
-10.177396,32.697225,-6.602300,0.129055,-0.360684,-0.923716
-5.803286,32.864775,-6.248153,0.056209,-0.378931,-0.923716
16.052501,29.089537,-6.183035,-0.196941,-0.328576,-0.923716
32.103632,22.687165,-2.093960,-0.637512,-0.472811,0.608300
33.996999,4.570165,3.080472,0.602629,0.089391,-0.792999
7.510387,31.799360,-0.478419,0.240907,0.961752,0.130374
33.311088,18.798155,-6.661310,0.328576,0.196941,-0.923716
42.489854,8.133511,-0.164119,0.980734,0.145478,-0.130371
15.336273,28.324411,5.530808,-0.313204,-0.522548,0.792998
26.460562,20.736525,-6.349955,-0.307691,-0.228199,-0.923716
-1.838810,30.227392,-3.481561,0.038945,-0.792751,-0.608300
32.169034,11.653393,6.602273,-0.360684,-0.129055,0.923716
-4.783286,33.620077,-6.495929,0.056209,-0.378931,-0.923716
34.457884,18.711206,2.257858,-0.680786,-0.408047,-0.608299
18.850300,33.642421,-2.885500,-0.313203,-0.522549,0.792998
14.768160,37.060135,-0.878760,-0.334015,-0.933508,0.130374
17.166645,32.325253,-3.657631,-0.055873,-0.118134,0.991424
19.403002,23.491463,-3.683904,-0.533021,-0.588098,-0.608300
42.944100,0.681755,1.999731,0.922930,0.045340,0.382288
22.807489,30.614756,-3.170253,-0.362914,-0.489333,0.792999
32.851164,16.618095,6.890247,0.118134,0.055873,0.991424
27.931267,23.910845,3.632339,-0.096828,-0.087760,-0.991424
33.881597,15.668474,-6.820982,0.118134,0.055873,-0.991424
-1.545746,42.968959,-1.837244,-0.045340,0.922929,-0.382291
23.636571,31.593873,-1.890259,-0.472811,-0.637512,0.608300
12.960209,41.091937,1.436931,0.334014,0.933508,0.130372
30.609650,15.167115,6.577847,-0.346298,-0.163787,0.923716
2.272349,36.013812,3.664276,0.006412,0.130523,-0.991425
32.919207,0.000000,-2.129288,-0.000000,-1.000000,0.000000
-9.807564,31.846236,-2.089296,-0.267393,0.747310,0.608300
-8.190957,41.594812,-3.400099,-0.135585,0.914041,-0.382290
-0.385391,32.470633,5.739277,0.029893,-0.608490,0.792998
8.099978,34.128566,-6.795775,-0.031753,-0.126765,-0.991424
0.503770,36.654629,6.912267,0.006412,0.130523,0.991424
17.928150,35.840077,-5.799304,0.260476,0.550731,-0.792999
28.908246,18.292484,-6.596124,-0.328577,-0.196941,-0.923716
13.723608,27.555806,-4.129448,-0.339354,-0.717503,-0.608300
43.183894,2.173505,0.049088,0.990271,0.048649,0.130373
31.771253,27.041091,4.278849,0.588098,0.533021,0.608300
23.235838,26.216143,6.789870,-0.087760,-0.096828,0.991425
4.054368,35.407876,3.603328,0.019175,0.129266,-0.991425
7.989546,37.476500,-6.636999,0.093080,0.371597,-0.923716
-0.085778,42.955753,2.042282,-0.045340,0.922930,0.382288
9.518270,29.336842,4.195713,-0.267392,-0.747311,0.608300
24.486985,21.582218,-0.220937,0.734627,0.665828,0.130372
4.163914,38.576835,-6.439764,0.056209,0.378931,-0.923716
6.003170,31.504465,-5.427283,-0.089392,-0.602630,-0.792999
2.447223,34.904131,-3.417548,0.018797,0.382616,0.923716
31.891661,19.111093,3.576160,-0.112089,-0.067183,-0.991424
16.992853,30.512635,-6.773858,-0.067183,-0.112089,-0.991424
-5.300609,33.504140,2.788270,-0.089391,0.602630,-0.792999
7.719234,36.604830,3.511799,-0.093080,-0.371598,-0.923716
4.724036,36.744714,-3.594520,-0.019175,-0.129267,0.991424
13.687518,30.735469,2.543364,0.339354,0.717503,-0.608300
30.705699,6.736315,-4.949395,-0.590966,-0.148029,-0.792999
21.895600,36.829385,2.192179,0.475052,0.792578,0.382290
30.316359,0.000000,2.761463,0.000000,-1.000000,0.000000
6.056369,33.918321,-3.188216,0.089391,0.602629,0.792999
33.423267,16.004385,3.592297,-0.118134,-0.055873,-0.991424
3.632556,32.655072,-1.198932,0.135586,0.914041,0.382290
28.068728,31.832260,-3.183810,0.620549,0.684670,-0.382289
41.286367,9.497281,3.375338,0.896351,0.224524,0.382289
1.409977,43.024912,1.541585,0.048648,0.990271,0.130373
0.810350,34.466508,6.706067,-0.018797,-0.382616,0.923716
30.897495,28.216935,-4.093258,0.588098,0.533021,-0.608300
9.505328,41.002284,3.779804,0.192855,0.769921,0.608300
34.634982,18.853444,-1.964242,-0.680786,-0.408047,0.608299
0.743128,41.653865,-4.357759,0.038946,0.792751,-0.608301
17.122124,27.899655,0.946990,0.509715,0.850408,-0.130372
8.920053,37.345949,-3.002983,-0.148029,-0.590965,0.792999
14.447123,36.813979,-1.752881,-0.311301,-0.870027,0.382288
4.805464,37.417273,6.769621,0.019175,0.129266,0.991425
3.115718,39.012070,-2.332279,-0.038945,-0.792752,0.608299
27.916300,13.812228,-4.604098,-0.717503,-0.339353,-0.608300
-4.314783,39.701076,-0.608880,0.145478,-0.980734,0.130374
37.592990,8.763346,-6.512164,0.371597,0.093080,-0.923716
-5.713881,42.590358,-1.898316,-0.135585,0.914041,-0.382290
5.900756,38.668080,-2.335648,-0.116461,-0.785117,0.608299
-4.938779,32.438156,-1.143565,-0.135585,0.914041,0.382290
7.969416,40.101349,5.205943,0.089392,0.602629,0.792999
1.390320,32.595860,-0.125308,0.048648,0.990271,0.130370
6.381970,33.313945,2.765631,0.089391,0.602630,-0.792999
2.870000,38.646608,-6.451953,0.018797,0.382616,-0.923716
26.529850,33.197057,-3.106499,0.550452,0.742198,-0.382289
35.337488,18.950834,5.808268,0.522548,0.313203,0.792999
25.586143,26.147170,6.922656,0.087760,0.096828,0.991425
33.275371,17.142303,-3.500847,-0.346298,-0.163786,0.923716
23.755780,23.130066,-1.888843,0.588098,0.533022,0.608300
27.813584,13.963050,-4.567082,-0.717503,-0.339353,-0.608300
-0.308902,32.508959,5.765802,0.029893,-0.608490,0.792998
34.607489,25.207626,2.272054,0.742198,0.550452,0.382290
10.547952,39.472650,-5.193668,0.148029,0.590966,-0.792999
41.481586,10.469913,-2.346370,0.896350,0.224525,-0.382289
-5.947183,38.768073,2.197702,0.116461,-0.785117,-0.608299
19.064651,22.558869,1.293997,-0.665827,-0.734627,0.130372
34.119672,14.074372,6.881754,0.123042,0.044025,0.991424
-4.024215,37.915909,-3.216295,0.056209,-0.378932,0.923716
27.887903,15.329576,-5.240525,-0.522548,-0.313204,-0.792998
-2.324742,32.959296,1.680006,-0.045340,0.922930,-0.382288
40.621162,8.722287,4.510440,0.769920,0.192855,0.608301
24.169240,30.750019,-2.360610,-0.472811,-0.637511,0.608300
4.808737,34.285257,6.735913,-0.019175,-0.129266,0.991425
17.511181,27.586248,-0.423744,0.509715,0.850408,0.130372
31.704578,9.473920,-1.734979,0.896350,0.224524,0.382289
11.524962,34.596684,6.935762,0.044025,0.123042,0.991425
31.875481,24.931607,5.499648,0.489333,0.362914,0.792999
-11.689809,36.154471,-6.292856,-0.951500,-0.307647,0.000000
18.200982,28.304523,2.540849,0.408047,0.680786,-0.608300
18.046628,33.996756,6.573152,0.163787,0.346298,0.923716
5.153735,30.744170,4.638148,-0.116461,-0.785117,0.608300
9.478850,31.647832,-6.099676,-0.093080,-0.371597,-0.923716
22.622355,33.703600,-5.428400,0.362914,0.489333,-0.792999
39.894328,0.000000,1.289255,0.000000,-1.000000,0.000000
30.341277,23.028138,-3.219535,-0.307691,-0.228199,0.923716
29.145676,7.596604,3.089806,-0.896350,-0.224524,0.382290
19.222046,29.707900,-3.569568,0.067183,0.112089,0.991424
-8.156949,33.121706,2.935619,-0.148029,0.590966,-0.792999
14.486405,34.384958,6.827621,0.055873,0.118134,0.991424
19.148506,25.605199,-5.372520,-0.362914,-0.489333,-0.792999
31.752892,29.262478,0.503151,0.734627,0.665827,0.130373
23.403846,25.299993,6.705391,-0.257259,-0.283842,0.923716
41.702764,8.688278,-2.874155,0.896350,0.224524,-0.382290
28.113748,16.802922,1.000143,0.792578,0.475053,-0.382288
5.754366,33.024039,2.379275,0.116460,0.785116,-0.608301
1.141455,33.477016,-2.355471,0.038945,0.792752,0.608299
31.566473,11.697023,2.576156,0.747310,0.267392,-0.608300
3.854362,38.923251,-2.398095,-0.116461,-0.785117,0.608299
31.651806,1.312043,-5.145899,-0.608490,-0.029893,-0.792998
17.626431,24.422345,3.085512,-0.550452,-0.742198,0.382290
30.241588,13.640778,1.934746,0.717503,0.339354,-0.608300
41.526239,3.320259,-4.359090,0.792752,0.038946,-0.608299
18.994469,38.816883,-0.256679,0.423906,0.896274,-0.130371
37.417858,14.177831,5.843393,0.573610,0.205241,0.792999
-9.877848,30.550402,-5.146289,-0.951500,-0.307648,0.000000
-2.583211,39.337576,-6.171580,-0.018797,0.382616,-0.923716
33.611660,14.017640,3.681815,-0.118134,-0.055873,-0.991424
39.888052,0.693039,0.840618,-0.990271,-0.048650,-0.130374
27.081614,20.597951,-2.867456,0.489332,0.362914,0.792999
41.911293,1.320057,-3.985338,0.792751,0.038945,-0.608301
7.130350,38.374130,-2.479634,-0.116461,-0.785117,0.608299
31.413292,24.639435,-0.573858,-0.796352,-0.590615,0.130373
20.495545,30.602754,-6.891922,0.077847,0.104964,-0.991424
-3.972221,31.115066,4.890648,0.116461,-0.785116,0.608300
35.570779,7.108491,6.948423,-0.126765,-0.031753,0.991424
42.915806,4.608282,-0.893565,0.980734,0.145478,-0.130371
-6.903808,28.756365,1.704692,0.240907,-0.961752,0.130372
-9.341912,28.892847,-0.761386,-0.951500,-0.307648,-0.000000
-6.817693,38.385339,2.525026,0.116461,-0.785117,-0.608299
16.804943,29.271330,-2.655406,0.313203,0.522548,0.792999
-0.617734,41.272787,-4.862417,-0.038945,0.792751,-0.608301
27.933469,11.011443,-2.829226,-0.870027,-0.311300,-0.382290
30.136889,29.662844,3.561631,0.588098,0.533021,0.608300
28.838442,14.551959,-5.617106,-0.550732,-0.260477,-0.792998
29.702777,1.672490,-2.197945,-0.922930,-0.045341,-0.382289
-5.303274,32.384357,1.144209,-0.135585,0.914042,-0.382288
-2.832975,30.614035,4.049092,0.038945,-0.792751,0.608300
-3.223521,39.975980,5.782649,-0.029893,0.608489,0.792999
23.335781,28.853397,3.589747,-0.077847,-0.104964,-0.991424
11.583960,36.928492,-2.789267,-0.205241,-0.573610,0.792999
35.401517,24.236498,-2.128794,0.742198,0.550451,-0.382290
-12.664528,39.169101,1.487356,-0.951500,-0.307648,0.000001
10.939244,32.058625,6.459386,-0.129055,-0.360684,0.923716
27.499279,20.530669,6.645097,-0.307691,-0.228199,0.923716
13.726077,36.841440,6.215095,0.129055,0.360684,0.923716
26.466040,15.014683,-3.662354,-0.680785,-0.408047,-0.608300
40.507146,15.023937,-0.336941,0.933508,0.334015,-0.130371
40.326612,6.129874,5.242123,0.602629,0.089392,0.792999
20.191495,29.634636,3.631177,0.077847,0.104964,-0.991424
19.609227,35.492035,5.446390,0.313203,0.522548,0.792999
23.072380,30.316102,6.719938,0.077847,0.104964,0.991424
39.112533,2.237520,6.271831,0.382616,0.018797,0.923716
15.461218,30.207800,2.787334,0.260476,0.550731,-0.792999
30.471587,9.578148,5.329560,-0.573610,-0.205241,0.792999
4.895109,41.618844,-4.036141,0.116461,0.785117,-0.608299
-5.990848,28.883836,-0.958041,0.240907,-0.961752,-0.130372
33.011659,27.601156,-1.830518,0.684670,0.620549,-0.382289
6.545498,28.925663,-1.956615,-0.224524,-0.896350,-0.382290
8.952936,32.456550,6.372016,-0.093080,-0.371597,0.923716
32.007855,10.419073,-6.366887,-0.360684,-0.129055,-0.923716
21.732844,24.918287,-6.122718,-0.257259,-0.283842,-0.923716
35.853303,7.580900,3.649793,-0.126764,-0.031753,-0.991424
40.258943,4.845816,5.438294,0.602629,0.089392,0.792999
3.040993,34.210440,-3.094940,0.029893,0.608489,0.792999
-9.875899,30.544375,3.246871,-0.951500,-0.307648,0.000000
33.559750,26.455794,-2.508978,0.742198,0.550452,-0.382289
36.415121,23.312695,0.194452,0.850408,0.509715,0.130372
-4.866356,39.309365,1.586409,0.135585,-0.914041,-0.382290
31.329982,22.279083,-6.578344,0.307691,0.228199,-0.923716
34.483416,25.645255,-1.882801,0.742198,0.550452,-0.382289
12.277431,38.085779,5.852111,0.205241,0.573610,0.792999
35.205682,22.063175,-4.488885,0.680785,0.408047,-0.608300
19.955073,32.030804,6.767604,0.067183,0.112089,0.991424
-2.474309,29.337889,0.578385,0.048648,-0.990271,0.130371
-7.232600,29.451317,3.540104,0.192855,-0.769921,0.608300
29.385363,3.485045,1.754980,-0.980734,-0.145478,0.130371
32.588659,3.530892,-1.004085,0.914041,0.135585,0.382290
28.981544,22.623654,-6.896464,0.104964,0.077847,-0.991424
-3.284542,32.566760,0.668285,-0.145478,0.980734,-0.130370
33.553406,0.195484,6.315337,-0.382615,-0.018797,0.923717
2.132307,38.526477,6.516724,0.018797,0.382616,0.923716
15.054225,32.080767,6.843658,-0.055873,-0.118134,0.991424
35.607238,24.332738,-1.140620,0.796352,0.590615,-0.130372
-9.082662,28.091036,0.438488,-0.951500,-0.307648,-0.000000
37.308659,19.034008,4.064753,0.717503,0.339354,0.608299
40.399560,10.886425,-4.104804,0.769921,0.192855,-0.608300
18.282267,29.174108,3.174825,0.313203,0.522548,-0.792999
11.417948,31.861514,-2.731682,0.205241,0.573610,0.792999
-0.733427,32.626464,5.871969,0.029893,-0.608490,0.792998
-10.241500,41.804232,1.559677,-0.240907,0.961752,0.130372
26.114536,13.505123,0.255070,-0.896274,-0.423906,0.130372
28.090122,18.448414,-6.338353,-0.328577,-0.196941,-0.923716
-10.051738,38.654425,-0.351146,0.240906,-0.961752,0.130372
-1.180916,39.533691,6.118882,-0.018797,0.382616,0.923716
39.494125,16.650793,-2.252145,0.835324,0.395080,-0.382289
32.410656,3.857629,-0.133472,0.980734,0.145479,0.130370
40.500765,9.853915,-4.304055,0.769920,0.192855,-0.608301
28.826883,6.467506,-1.418683,-0.961752,-0.240907,-0.130371
28.158810,31.851581,3.002980,0.620549,0.684670,0.382289
39.824456,2.184126,-0.767264,-0.990271,-0.048650,0.130371
9.485031,33.717194,3.429674,0.093081,0.371598,-0.923716
28.538906,7.353538,-0.931525,-0.961752,-0.240907,-0.130371
-0.260946,30.355109,3.546984,0.038945,-0.792751,0.608300
23.922104,35.097110,3.172475,0.550451,0.742198,0.382290
29.132822,6.027491,2.138107,-0.896350,-0.224524,0.382290
41.009788,10.820905,-3.246447,0.896350,0.224524,-0.382290
26.389725,14.824600,-3.424696,-0.792578,-0.475053,-0.382290
11.748321,32.645830,6.745880,-0.044025,-0.123042,0.991424
10.701585,28.658281,3.882238,-0.267392,-0.747311,0.608300
39.070823,15.336451,-3.948784,0.747310,0.267392,-0.608300
16.683726,39.491369,-2.224132,0.395080,0.835325,-0.382289
24.715458,24.878202,-3.437973,0.257259,0.283842,0.923716
