x,y,z,nx,ny,nz
7.025509,-18.203516,-2.594364,-0.000000,1.000000,0.000000
17.330542,24.038122,-7.510152,-0.000000,1.000000,0.000000
48.070610,7.678828,-14.045726,0.000000,0.000000,-1.000000
34.458461,2.841584,-14.045726,0.000000,0.000000,-1.000000
-44.256313,24.038122,-6.473150,-0.000000,1.000000,0.000000
17.608532,21.179608,-14.045726,0.000000,0.000000,-1.000000
-2.089657,-8.575229,-8.211122,0.000000,-0.000000,1.000000
-25.709502,13.049486,-14.045726,0.000000,0.000000,-1.000000
49.524364,8.448040,-10.740479,1.000000,-0.000000,-0.000000
-20.735882,24.038122,-3.449664,0.000000,1.000000,0.000000
-48.488849,-18.203516,-6.721680,-0.000000,1.000000,0.000000
32.203707,-24.038122,-1.999391,0.000000,-1.000000,0.000000
15.821021,24.038122,7.440469,0.000000,1.000000,0.000000
33.886531,5.223867,-14.045726,0.000000,0.000000,-1.000000
-26.381698,15.068339,-14.045726,0.000000,0.000000,-1.000000
40.282680,23.799398,14.045726,0.000000,-0.000000,1.000000
-8.881128,-24.038122,7.405803,0.000000,-1.000000,0.000000
0.569920,18.203516,-6.930600,0.000000,-1.000000,0.000000
31.947512,-17.458443,-14.045726,0.000000,0.000000,-1.000000
-8.641240,-14.171112,-14.045726,0.000000,0.000000,-1.000000
23.593079,-18.203516,-7.780591,-0.000000,1.000000,0.000000
16.397043,20.253970,-14.045726,0.000000,0.000000,-1.000000
-21.534044,24.038122,13.198851,0.000000,1.000000,0.000000
-27.164359,-11.316293,-8.211122,0.000000,-0.000000,1.000000
-36.191767,-18.203516,-6.401076,-0.000000,1.000000,0.000000
49.524364,20.825644,3.257814,1.000000,0.000000,-0.000000
-47.304210,-18.203516,10.564797,-0.000000,1.000000,0.000000
42.082029,-5.363018,-14.045726,0.000000,0.000000,-1.000000
10.169674,-24.038122,5.526840,-0.000000,-1.000000,0.000000
-28.169937,18.203516,13.965291,0.000000,-1.000000,0.000000
1.949658,-5.254351,-14.045726,0.000000,0.000000,-1.000000
-49.524364,19.919584,12.111543,-1.000000,0.000000,0.000000
-39.952108,19.734492,-14.045726,0.000000,0.000000,-1.000000
16.121254,3.048126,-14.045726,0.000000,0.000000,-1.000000
47.676151,-21.206021,-14.045726,0.000000,0.000000,-1.000000
-48.082669,24.038122,-6.583974,-0.000000,1.000000,0.000000
-49.524364,-23.912951,10.638672,-1.000000,0.000000,0.000000
-6.262162,18.203516,8.164036,0.000000,-1.000000,0.000000
-36.287637,-15.729824,-14.045726,0.000000,0.000000,-1.000000
7.443087,-24.038122,13.199011,-0.000000,-1.000000,0.000000
6.646816,-24.038122,-2.056853,0.000000,-1.000000,0.000000
-7.973050,-21.563502,14.045726,0.000000,0.000000,1.000000
34.430947,-18.203516,1.912392,0.000000,1.000000,-0.000000
-37.042979,-24.038122,13.277713,0.000000,-1.000000,0.000000
38.280202,-23.050088,-14.045726,0.000000,0.000000,-1.000000
-45.845078,24.038122,-6.405895,-0.000000,1.000000,0.000000
8.452923,10.290179,-14.045726,0.000000,0.000000,-1.000000
-13.906037,0.694197,-8.211122,0.000000,-0.000000,1.000000
-21.436026,-18.203516,-0.529210,-0.000000,1.000000,0.000000
-45.008742,-18.203516,13.158386,-0.000000,1.000000,0.000000
40.726247,6.440472,-14.045726,0.000000,0.000000,-1.000000
1.629942,8.254610,-8.211122,-0.000000,0.000000,1.000000
-48.050464,-17.194672,-8.211122,0.000000,-0.000000,1.000000
32.167769,22.079720,14.045726,0.000000,-0.000000,1.000000
-25.697936,14.031682,-14.045726,0.000000,0.000000,-1.000000
-38.175369,8.326697,-14.045726,0.000000,0.000000,-1.000000
1.802679,24.038122,8.209432,0.000000,1.000000,0.000000
17.383115,-24.038122,0.545353,-0.000000,-1.000000,0.000000
13.638856,21.714172,14.045726,0.000000,0.000000,1.000000
10.118190,10.556773,-8.211122,-0.000000,0.000000,1.000000
-45.836891,24.038122,-5.758737,-0.000000,1.000000,0.000000
19.326062,24.038122,-5.462453,-0.000000,1.000000,0.000000
47.241807,24.038122,0.039117,-0.000000,1.000000,0.000000
-1.855766,-24.038122,-9.801579,0.000000,-1.000000,0.000000
1.718784,24.038122,-11.130785,-0.000000,1.000000,0.000000
13.810434,18.203516,0.733694,0.000000,-1.000000,0.000000
42.014565,24.038122,-2.491931,-0.000000,1.000000,0.000000
34.977823,24.038122,7.397956,-0.000000,1.000000,0.000000
-26.494760,-18.658862,14.045726,0.000000,-0.000000,1.000000
39.776657,-24.038122,-13.005314,0.000000,-1.000000,0.000000
-48.764650,18.203516,-6.422045,0.000000,-1.000000,0.000000
-23.537444,-16.098537,-8.211122,0.000000,-0.000000,1.000000
37.458838,-19.234382,14.045726,0.000000,-0.000000,1.000000
-49.524364,21.173765,1.341910,-1.000000,0.000000,0.000000
-7.021644,-24.038122,-2.807685,0.000000,-1.000000,0.000000
19.342800,18.203516,3.083538,-0.000000,-1.000000,0.000000
-37.086371,-5.610588,-8.211122,0.000000,-0.000000,1.000000
0.621404,18.493746,-14.045726,0.000000,0.000000,-1.000000
-9.654258,7.934304,-14.045726,0.000000,0.000000,-1.000000
15.268809,-13.564391,-8.211122,0.000000,-0.000000,1.000000
-7.719492,24.038122,-9.295202,-0.000000,1.000000,0.000000
-28.827797,2.002504,-14.045726,0.000000,0.000000,-1.000000
18.428889,19.035963,7.767857,0.471396,-0.000000,0.881922
-33.101276,-10.879711,-14.045726,0.000000,0.000000,-1.000000
7.054184,-11.994143,-14.045726,0.000000,0.000000,-1.000000
1.591424,-24.038122,-1.409460,0.000000,-1.000000,0.000000
-27.144839,-23.360117,14.045726,0.000000,0.000000,1.000000
1.818204,-18.203516,-0.373755,-0.000000,1.000000,0.000000
-19.540289,-24.038122,-11.903375,0.000000,-1.000000,0.000000
8.943037,18.203516,4.556080,0.000000,-1.000000,0.000000
18.538366,13.224080,-14.045726,0.000000,0.000000,-1.000000
-46.555110,-5.957984,-14.045726,0.000000,0.000000,-1.000000
26.095903,-18.322946,14.045726,0.000000,-0.000000,1.000000
-49.524364,-19.646129,3.247381,-1.000000,0.000000,0.000000
-16.624498,7.768507,-14.045726,0.000000,0.000000,-1.000000
37.613561,24.038122,12.396563,0.000000,1.000000,0.000000
12.354104,21.376479,-14.045726,0.000000,0.000000,-1.000000
5.050459,18.203516,4.599871,0.000000,-1.000000,0.000000
36.857473,-5.654068,-14.045726,0.000000,0.000000,-1.000000
-38.351137,18.203516,0.145696,0.000000,-1.000000,0.000000
-49.524364,21.738329,11.440297,-1.000000,0.000000,0.000000
-28.753276,-24.038122,11.617687,0.000000,-1.000000,0.000000
-6.584942,13.565319,-14.045726,0.000000,0.000000,-1.000000
-39.816147,-1.116570,-8.211122,0.000000,-0.000000,1.000000
-35.961960,-24.038122,11.822598,0.000000,-1.000000,0.000000
49.524364,-20.867251,9.684044,1.000000,0.000000,-0.000000
-33.700092,24.038122,-6.413251,-0.000000,1.000000,0.000000
-11.069520,24.038122,-3.848825,-0.000000,1.000000,0.000000
6.943551,24.038122,-7.484845,-0.000000,1.000000,0.000000
44.474793,18.203516,10.778781,-0.000000,-1.000000,0.000000
2.315953,18.203516,0.415265,0.000000,-1.000000,0.000000
-10.795693,12.633252,-14.045726,0.000000,0.000000,-1.000000
49.524364,-3.433039,-12.609207,1.000000,0.000000,-0.000000
-24.942941,-24.038122,1.872358,0.000000,-1.000000,0.000000
27.140783,19.814601,12.030486,-0.956940,0.000000,-0.290286
27.658554,18.203516,1.099624,0.000000,-1.000000,0.000000
19.200175,18.203516,-2.252594,0.000000,-1.000000,0.000000
26.972258,-12.802113,-14.045726,0.000000,0.000000,-1.000000
-43.149019,-24.038122,2.722226,0.000000,-1.000000,0.000000
45.446673,-24.038122,-11.411614,0.000000,-1.000000,0.000000
9.678281,11.034122,-14.045726,0.000000,0.000000,-1.000000
16.254448,24.038122,4.683329,0.000000,1.000000,0.000000
-5.739956,24.038122,8.080670,-0.000000,1.000000,0.000000
-5.009457,-23.590304,12.813963,0.881921,0.000000,-0.471397
46.400014,-18.203516,2.347088,0.000000,1.000000,-0.000000
-2.735400,1.110954,-8.211122,-0.000000,0.000000,1.000000
12.868216,-16.876874,-8.211122,0.000000,-0.000000,1.000000
25.485225,9.887129,-14.045726,0.000000,0.000000,-1.000000
-0.225543,-15.999576,-14.045726,0.000000,0.000000,-1.000000
-47.015245,-4.523052,-8.211122,0.000000,-0.000000,1.000000
36.645193,-20.734254,-14.045726,0.000000,0.000000,-1.000000
18.325686,9.450573,-8.211122,-0.000000,0.000000,1.000000
-14.400010,-17.796569,-8.211122,0.000000,-0.000000,1.000000
-21.324881,11.614107,-8.211122,-0.000000,0.000000,1.000000
-3.779559,-18.203516,4.604033,-0.000000,1.000000,0.000000
42.688699,-22.903358,14.045726,0.000000,0.000000,1.000000
-37.193928,14.770109,-14.045726,0.000000,0.000000,-1.000000
43.795533,8.790720,-8.211122,-0.000000,0.000000,1.000000
-10.727945,-1.352824,-8.211122,0.000000,-0.000000,1.000000
-10.417779,14.979063,-14.045726,0.000000,0.000000,-1.000000
24.638518,-17.586481,-14.045726,0.000000,0.000000,-1.000000
-18.673471,3.738596,-8.211122,0.000000,-0.000000,1.000000
49.524364,-20.276827,5.779945,1.000000,0.000000,-0.000000
-35.186365,5.964126,-14.045726,0.000000,0.000000,-1.000000
-9.420645,9.871484,-14.045726,0.000000,0.000000,-1.000000
25.935845,-11.456397,-14.045726,0.000000,0.000000,-1.000000
38.009501,6.742579,-8.211122,-0.000000,0.000000,1.000000
36.986950,12.170632,-14.045726,0.000000,0.000000,-1.000000
37.612199,13.966782,-8.211122,-0.000000,0.000000,1.000000
11.115115,-24.038122,0.721917,0.000000,-1.000000,0.000000
24.923736,-24.038122,-0.928659,-0.000000,-1.000000,0.000000
-38.535496,18.203516,-7.576019,0.000000,-1.000000,0.000000
-32.707083,-24.038122,-12.633328,0.000000,-1.000000,0.000000
26.477958,18.203516,13.789757,0.000000,-1.000000,0.000000
-19.277026,6.527372,-14.045726,0.000000,0.000000,-1.000000
-49.524364,10.867626,-9.866279,-1.000000,0.000000,0.000000
36.729614,18.203516,-5.091396,0.000000,-1.000000,0.000000
-43.703660,-18.203516,4.783469,-0.000000,1.000000,0.000000
-47.934233,24.038122,-12.276414,-0.000000,1.000000,0.000000
-24.429318,16.940709,-8.211122,-0.000000,0.000000,1.000000
-44.099033,-3.813553,-14.045726,0.000000,0.000000,-1.000000
14.184982,-12.694247,-8.211122,0.000000,-0.000000,1.000000
49.524364,-10.254503,-12.291510,1.000000,0.000000,-0.000000
3.346019,-18.203516,3.582431,-0.000000,1.000000,0.000000
-49.524364,4.268802,-13.640337,-1.000000,0.000000,0.000000
49.254032,18.203516,-4.928737,-0.000000,-1.000000,0.000000
-28.982615,-11.885623,-14.045726,0.000000,0.000000,-1.000000
42.597345,7.791479,-8.211122,-0.000000,0.000000,1.000000
5.400032,10.946493,-8.211122,-0.000000,0.000000,1.000000
45.169514,19.966303,-14.045726,0.000000,0.000000,-1.000000
30.096350,-22.685597,14.045726,0.000000,-0.000000,1.000000
35.733451,7.541202,-8.211122,-0.000000,0.000000,1.000000
-21.656026,-20.693332,-14.045726,0.000000,0.000000,-1.000000
49.524364,21.686875,1.045737,1.000000,0.000000,-0.000000
-14.819847,23.324909,14.045726,0.000000,-0.000000,1.000000
43.117895,-10.625362,-14.045726,0.000000,0.000000,-1.000000
42.266391,24.038122,2.178215,-0.000000,1.000000,0.000000
-20.323995,-19.369441,14.045726,0.000000,-0.000000,1.000000
-38.105278,24.038122,9.563934,-0.000000,1.000000,0.000000
-34.865902,18.064478,-14.045726,0.000000,0.000000,-1.000000
19.648695,-17.856212,-8.211122,0.000000,-0.000000,1.000000
-48.414130,24.038122,0.444350,-0.000000,1.000000,0.000000
7.518755,-18.203516,9.800168,-0.000000,1.000000,0.000000
-12.554291,-9.278652,-14.045726,0.000000,0.000000,-1.000000
37.647111,-16.850951,-8.211122,0.000000,-0.000000,1.000000
-49.347178,-8.894883,-8.211122,0.000000,-0.000000,1.000000
-41.099143,-3.200927,-14.045726,0.000000,0.000000,-1.000000
49.524364,21.218590,12.757067,1.000000,0.000000,-0.000000
-3.176440,-18.203516,3.310910,-0.000000,1.000000,0.000000
-39.537338,18.203516,-5.693028,0.000000,-1.000000,0.000000
27.190145,-23.612722,11.824123,-0.995185,0.000000,-0.098017
-49.524364,-0.329529,-8.484019,-1.000000,0.000000,0.000000
35.473354,19.768868,14.045726,0.000000,0.000000,1.000000
28.587019,6.251648,-8.211122,-0.000000,0.000000,1.000000
41.252208,11.375123,-8.211122,-0.000000,0.000000,1.000000
34.176236,9.030594,-8.211122,-0.000000,0.000000,1.000000
10.258453,18.203516,2.932830,0.000000,-1.000000,0.000000
46.151594,1.365460,-8.211122,-0.000000,0.000000,1.000000
-31.874663,-24.038122,8.271786,0.000000,-1.000000,0.000000
19.753479,-19.637237,7.291828,0.098017,0.000000,0.995185
-23.031710,-23.322491,-14.045726,0.000000,0.000000,-1.000000
-9.304793,-24.038122,5.152237,0.000000,-1.000000,0.000000
-15.912007,-15.380926,-8.211122,0.000000,-0.000000,1.000000
-36.825927,-18.203516,-6.653685,-0.000000,1.000000,0.000000
-44.317129,-24.038122,-11.157595,0.000000,-1.000000,0.000000
38.171035,24.038122,-3.901722,-0.000000,1.000000,0.000000
-34.026270,-24.038122,-5.549142,0.000000,-1.000000,0.000000
-19.818499,-24.038122,13.941271,0.000000,-1.000000,0.000000
-47.839153,0.045016,-14.045726,0.000000,0.000000,-1.000000
-27.834698,24.038122,-7.021944,0.000000,1.000000,0.000000
-25.428210,-16.378801,-14.045726,0.000000,0.000000,-1.000000
-49.524364,-19.022098,-12.601128,-1.000000,0.000000,0.000000
-1.521396,-7.346152,-8.211122,0.000000,-0.000000,1.000000
-15.318735,-17.295974,-14.045726,0.000000,0.000000,-1.000000
-23.508044,-24.038122,8.195192,0.000000,-1.000000,0.000000
46.579567,-11.630352,-14.045726,0.000000,0.000000,-1.000000
-14.183300,-9.142548,-14.045726,0.000000,0.000000,-1.000000
-22.526304,10.356648,-14.045726,0.000000,0.000000,-1.000000
-16.916460,5.438760,-8.211122,0.000000,-0.000000,1.000000
49.524364,-19.271774,9.462181,1.000000,0.000000,-0.000000
-43.963045,24.038122,-2.796629,-0.000000,1.000000,0.000000
-49.524364,-21.574533,-10.537539,-1.000000,0.000000,0.000000
-27.885483,-24.038122,10.852053,0.000000,-1.000000,0.000000
21.377904,-24.038122,-2.385807,0.000000,-1.000000,0.000000
42.405924,7.556803,-14.045726,0.000000,0.000000,-1.000000
35.419404,-12.980927,-8.211122,-0.000000,0.000000,1.000000
-2.805170,-18.749350,7.467504,0.290285,0.000000,0.956940
-13.171571,-1.565019,-8.211122,0.000000,-0.000000,1.000000
31.284244,-18.203516,11.838235,0.000000,1.000000,-0.000000
-6.207219,18.203516,-3.305666,0.000000,-1.000000,0.000000
36.626346,-24.038122,7.646126,-0.000000,-1.000000,0.000000
-31.701089,-7.060818,-14.045726,0.000000,0.000000,-1.000000
4.536283,24.038122,-0.633732,-0.000000,1.000000,0.000000
6.490999,-23.416433,-14.045726,0.000000,0.000000,-1.000000
-49.524364,-21.959321,-11.262788,-1.000000,0.000000,0.000000
-44.102066,-18.203516,-6.368632,-0.000000,1.000000,0.000000
-38.030601,24.038122,-4.561993,-0.000000,1.000000,0.000000
-15.295782,-12.508418,-8.211122,0.000000,-0.000000,1.000000
46.358943,-18.203516,11.717672,0.000000,1.000000,-0.000000
-8.815018,-24.038122,8.343861,0.000000,-1.000000,0.000000
-27.078954,-21.689481,-14.045726,0.000000,0.000000,-1.000000
-2.265732,-15.603023,-14.045726,0.000000,0.000000,-1.000000
38.320916,2.615462,-8.211122,-0.000000,0.000000,1.000000
10.793408,18.203516,-2.789967,0.000000,-1.000000,0.000000
-19.971522,-8.917188,-14.045726,0.000000,0.000000,-1.000000
-27.434569,16.032982,-14.045726,0.000000,0.000000,-1.000000
15.500367,18.203516,-5.321820,0.000000,-1.000000,0.000000
-41.877001,-18.203516,1.969481,-0.000000,1.000000,0.000000
-5.354532,22.701243,11.690376,0.995185,0.000000,-0.098017
35.856607,-24.038122,10.983513,-0.000000,-1.000000,0.000000
27.706636,5.972081,-14.045726,0.000000,0.000000,-1.000000
-34.175370,-18.203516,11.790445,-0.000000,1.000000,0.000000
-21.450714,-18.203516,1.382514,-0.000000,1.000000,0.000000
-38.916697,6.946490,-14.045726,0.000000,0.000000,-1.000000
35.331915,5.018809,-8.211122,-0.000000,0.000000,1.000000
-13.800703,-18.203516,13.350040,0.000000,1.000000,0.000000
49.524364,-18.487740,3.475124,1.000000,0.000000,0.000000
-8.330577,-18.203516,-7.099525,-0.000000,1.000000,0.000000
-8.283532,2.474690,-8.211122,0.000000,-0.000000,1.000000
30.776195,-18.203516,-7.866111,-0.000000,1.000000,0.000000
49.524364,-5.711996,-12.528994,1.000000,0.000000,-0.000000
33.903519,3.371778,-14.045726,0.000000,0.000000,-1.000000
-5.092492,-13.220300,-14.045726,0.000000,0.000000,-1.000000
-43.675655,-24.038122,4.535250,0.000000,-1.000000,0.000000
19.008084,17.267083,-8.211122,-0.000000,0.000000,1.000000
46.058080,17.462857,-8.211122,-0.000000,0.000000,1.000000
39.357252,18.203516,-3.535635,0.000000,-1.000000,0.000000
-1.810544,-24.038122,-8.546472,0.000000,-1.000000,0.000000
-15.638710,24.038122,-11.789916,-0.000000,1.000000,0.000000
3.183305,18.203516,-6.215048,0.000000,-1.000000,0.000000
-24.113648,-17.560105,-8.211122,0.000000,-0.000000,1.000000
-16.794436,-24.038122,-7.830050,0.000000,-1.000000,0.000000
22.331154,-24.038122,-7.029548,0.000000,-1.000000,0.000000
-27.924762,1.822768,-14.045726,0.000000,0.000000,-1.000000
17.482107,-21.674830,13.723988,0.773010,0.000000,-0.634394
-30.899654,-2.404541,-8.211122,0.000000,-0.000000,1.000000
49.524364,-21.395933,4.505269,1.000000,0.000000,-0.000000
-17.909832,-1.781505,-8.211122,0.000000,-0.000000,1.000000
-36.716899,-24.038122,-9.126641,0.000000,-1.000000,0.000000
-49.524364,-18.839348,-11.128913,-1.000000,0.000000,0.000000
13.113250,-1.123560,-14.045726,0.000000,0.000000,-1.000000
4.164571,0.169996,-14.045726,0.000000,0.000000,-1.000000
-14.773562,11.706931,-14.045726,0.000000,0.000000,-1.000000
-13.122693,-24.038122,-0.527334,0.000000,-1.000000,0.000000
-38.862550,18.203516,4.848996,0.000000,-1.000000,0.000000
-23.808146,-24.038122,-2.770940,0.000000,-1.000000,0.000000
-41.142242,-15.807533,-8.211122,0.000000,-0.000000,1.000000
5.524772,-24.038122,-9.460866,0.000000,-1.000000,0.000000
18.798356,18.203516,5.307346,0.000000,-1.000000,0.000000
-24.155001,24.038122,-5.009902,0.000000,1.000000,0.000000
29.235962,-18.203516,7.336972,0.000000,1.000000,-0.000000
-49.524364,18.590948,12.067108,-1.000000,0.000000,0.000000
-38.365227,15.412488,-14.045726,0.000000,0.000000,-1.000000
-34.906855,-23.215806,14.045726,0.000000,0.000000,1.000000
40.354767,18.203516,13.128293,-0.000000,-1.000000,0.000000
43.183997,24.038122,-0.773312,-0.000000,1.000000,0.000000
39.865480,18.203516,0.525672,-0.000000,-1.000000,0.000000
-0.992939,4.520978,-14.045726,0.000000,0.000000,-1.000000
25.890637,24.038122,-12.695238,-0.000000,1.000000,0.000000
-39.551179,-18.203516,12.048483,-0.000000,1.000000,0.000000
-28.191832,6.954936,-14.045726,0.000000,0.000000,-1.000000
-16.522141,-23.038282,14.045726,0.000000,0.000000,1.000000
-44.095601,18.203516,13.140163,0.000000,-1.000000,0.000000
-7.349952,-24.038122,-8.711948,0.000000,-1.000000,0.000000
14.850812,-18.203516,-2.124416,-0.000000,1.000000,0.000000
-5.361606,4.224405,-14.045726,0.000000,0.000000,-1.000000
0.315901,18.203516,-5.288573,0.000000,-1.000000,0.000000
-17.059629,16.427468,-8.211122,-0.000000,0.000000,1.000000
0.834974,24.038122,-1.535150,-0.000000,1.000000,0.000000
-1.137885,6.750960,-14.045726,0.000000,0.000000,-1.000000
27.200571,18.203516,4.315997,-0.000000,-1.000000,0.000000
-49.524364,21.701387,3.050152,-1.000000,0.000000,0.000000
-22.401945,-24.038122,-2.514251,0.000000,-1.000000,0.000000
-30.880074,24.038122,5.783811,-0.000000,1.000000,0.000000
-36.934362,-21.977442,-14.045726,0.000000,0.000000,-1.000000
-30.632903,24.038122,-2.358716,-0.000000,1.000000,0.000000
-7.380188,4.921393,-14.045726,0.000000,0.000000,-1.000000
5.674334,18.203516,7.177212,-0.000000,-1.000000,0.000000
-5.624615,-18.203516,-3.570131,-0.000000,1.000000,0.000000
8.758097,5.929021,-8.211122,-0.000000,0.000000,1.000000
39.004215,-21.288604,-14.045726,0.000000,0.000000,-1.000000
25.223442,1.842457,-8.211122,-0.000000,0.000000,1.000000
43.305998,18.203516,-3.036933,-0.000000,-1.000000,0.000000
28.889173,-19.225848,14.045726,0.000000,-0.000000,1.000000
35.641522,-1.420329,-8.211122,-0.000000,0.000000,1.000000
-42.497380,8.585807,-8.211122,0.000000,-0.000000,1.000000
23.896406,-24.038122,-9.876998,0.000000,-1.000000,0.000000
-1.787129,-17.440955,-14.045726,0.000000,0.000000,-1.000000
0.625621,-14.529974,-8.211122,0.000000,-0.000000,1.000000
-12.774203,24.038122,8.871347,-0.000000,1.000000,0.000000
-14.722392,24.038122,-1.007954,0.000000,1.000000,0.000000
7.022091,-17.185426,-8.211122,0.000000,-0.000000,1.000000
-34.446703,-20.767089,-14.045726,0.000000,0.000000,-1.000000
17.192833,18.979938,-14.045726,0.000000,0.000000,-1.000000
35.179521,0.240593,-8.211122,-0.000000,0.000000,1.000000
-9.429290,24.038122,1.646128,0.000000,1.000000,0.000000
45.243446,-8.294421,-14.045726,0.000000,0.000000,-1.000000
-28.705301,18.203516,13.536725,0.000000,-1.000000,0.000000
-40.458680,2.155979,-14.045726,0.000000,0.000000,-1.000000
-10.948221,-10.990219,-8.211122,0.000000,-0.000000,1.000000
39.645913,-24.038122,-7.217873,0.000000,-1.000000,0.000000
-15.177642,24.038122,-11.576868,-0.000000,1.000000,0.000000
17.732469,18.203516,6.146125,0.000000,-1.000000,0.000000
-3.626091,2.338534,-8.211122,-0.000000,0.000000,1.000000
-41.411905,-24.038122,-1.411167,0.000000,-1.000000,0.000000
40.241295,-11.704407,-14.045726,0.000000,0.000000,-1.000000
-12.734890,-18.203516,4.681692,-0.000000,1.000000,0.000000
13.231411,-24.038122,-10.780105,0.000000,-1.000000,0.000000
-34.329513,-23.595771,-14.045726,0.000000,0.000000,-1.000000
-42.040798,-10.228343,-14.045726,0.000000,0.000000,-1.000000
-3.023507,18.203516,0.674115,0.000000,-1.000000,0.000000
38.106649,-18.203516,7.788682,0.000000,1.000000,-0.000000
2.859450,-24.038122,-8.186529,0.000000,-1.000000,0.000000
23.173503,-24.038122,-11.790155,0.000000,-1.000000,0.000000
-20.543722,24.038122,10.699926,-0.000000,1.000000,0.000000
-16.583053,-22.886991,-14.045726,0.000000,0.000000,-1.000000
-4.162924,-24.038122,3.683965,0.000000,-1.000000,0.000000
-20.806694,-9.083948,-8.211122,0.000000,-0.000000,1.000000
4.124578,18.203516,-7.868794,0.000000,-1.000000,0.000000
19.399309,24.038122,-9.130950,-0.000000,1.000000,0.000000
-42.861908,21.862649,-14.045726,0.000000,0.000000,-1.000000
-40.617762,-19.062544,14.045726,0.000000,-0.000000,1.000000
-44.771511,0.202993,-8.211122,0.000000,-0.000000,1.000000
2.458757,8.606850,-14.045726,0.000000,0.000000,-1.000000
27.277392,24.038122,8.363371,0.000000,1.000000,0.000000
-34.030219,15.355557,-14.045726,0.000000,0.000000,-1.000000
-40.810846,16.142376,-8.211122,-0.000000,0.000000,1.000000
-34.476706,18.276429,-14.045726,0.000000,0.000000,-1.000000
49.524364,22.182729,-12.592062,1.000000,-0.000000,-0.000000
-6.109962,-24.038122,10.537386,0.000000,-1.000000,0.000000
-20.039950,-18.203516,-4.482192,-0.000000,1.000000,0.000000
22.818920,-0.899391,-14.045726,0.000000,0.000000,-1.000000
-49.524364,21.671511,-2.265663,-1.000000,0.000000,0.000000
-16.007189,8.442919,-8.211122,-0.000000,0.000000,1.000000
-16.581164,6.608697,-14.045726,0.000000,0.000000,-1.000000
44.438941,-18.203516,1.635256,0.000000,1.000000,-0.000000
-40.447928,-21.227464,-14.045726,0.000000,0.000000,-1.000000
-16.972693,-5.936711,-14.045726,0.000000,0.000000,-1.000000
-49.401183,-24.038122,-13.049258,0.000000,-1.000000,0.000000
21.613822,-24.038122,-4.890010,0.000000,-1.000000,0.000000
-42.883600,-20.577687,-14.045726,0.000000,0.000000,-1.000000
-41.970062,-18.203516,6.227459,-0.000000,1.000000,0.000000
-31.696253,18.203516,6.653700,0.000000,-1.000000,0.000000
41.935008,5.943497,-14.045726,0.000000,0.000000,-1.000000
49.198140,18.203516,2.322598,-0.000000,-1.000000,0.000000
47.890358,24.038122,-12.861140,-0.000000,1.000000,0.000000
-31.330168,-24.038122,-11.500747,0.000000,-1.000000,0.000000
14.434434,-13.595533,-8.211122,0.000000,-0.000000,1.000000
28.991527,13.057638,-14.045726,0.000000,0.000000,-1.000000
-10.632102,5.480646,-14.045726,0.000000,0.000000,-1.000000
-11.522339,9.092826,-8.211122,-0.000000,0.000000,1.000000
-25.538585,19.280646,-14.045726,0.000000,0.000000,-1.000000
-5.582446,-24.038122,5.654912,0.000000,-1.000000,0.000000
-22.111554,-20.635352,-14.045726,0.000000,0.000000,-1.000000
-33.156790,-18.318173,14.045726,0.000000,-0.000000,1.000000
22.940106,0.135045,-14.045726,0.000000,0.000000,-1.000000
18.978241,11.121844,-8.211122,-0.000000,0.000000,1.000000
-47.691232,-18.872284,14.045726,0.000000,-0.000000,1.000000
3.460246,4.721675,-14.045726,0.000000,0.000000,-1.000000
19.745898,16.621910,-8.211122,-0.000000,0.000000,1.000000
-39.741505,24.038122,-6.337048,-0.000000,1.000000,0.000000
31.109065,18.203516,8.067188,-0.000000,-1.000000,0.000000
31.900524,-18.203516,8.540592,0.000000,1.000000,-0.000000
36.703845,-18.203516,-2.292832,-0.000000,1.000000,0.000000
7.576653,18.203516,11.240071,0.000000,-1.000000,0.000000
-6.027788,18.124455,-14.045726,0.000000,0.000000,-1.000000
8.668443,-9.612013,-14.045726,0.000000,0.000000,-1.000000
30.745146,-18.203516,1.751564,-0.000000,1.000000,0.000000
14.220116,18.203516,4.571456,-0.000000,-1.000000,0.000000
-48.181781,-24.038122,11.513928,0.000000,-1.000000,0.000000
-44.916070,-24.038122,2.158129,0.000000,-1.000000,0.000000
-42.475800,24.038122,11.894938,-0.000000,1.000000,0.000000
-24.880824,3.523968,-14.045726,0.000000,0.000000,-1.000000
42.971148,-6.194422,-8.211122,-0.000000,0.000000,1.000000
30.901728,-24.038122,-2.025557,0.000000,-1.000000,0.000000
-9.979724,-22.103346,-14.045726,0.000000,0.000000,-1.000000
-44.087131,-24.038122,4.297504,0.000000,-1.000000,0.000000
33.439066,21.167508,14.045726,0.000000,-0.000000,1.000000
-7.375143,19.322429,14.045726,0.000000,0.000000,1.000000
49.524364,11.003964,-12.781153,1.000000,0.000000,-0.000000
-41.327612,-18.203516,8.427410,-0.000000,1.000000,0.000000
1.225376,-24.038122,8.209083,-0.000000,-1.000000,0.000000
-29.699778,8.998151,-14.045726,0.000000,0.000000,-1.000000
48.430001,20.495101,14.045726,0.000000,0.000000,1.000000
28.324412,18.203516,11.754548,-0.000000,-1.000000,0.000000
29.173541,24.038122,9.904338,0.000000,1.000000,0.000000
7.557124,24.038122,2.502204,0.000000,1.000000,0.000000
-33.773912,24.038122,10.893151,-0.000000,1.000000,0.000000
16.510560,-17.134369,-14.045726,0.000000,0.000000,-1.000000
47.583876,24.038122,9.656039,-0.000000,1.000000,0.000000
-30.303364,-18.203516,9.047940,-0.000000,1.000000,0.000000
-37.929099,-24.038122,-12.659032,0.000000,-1.000000,0.000000
-41.799656,18.203516,4.862974,0.000000,-1.000000,0.000000
30.790463,8.354698,-8.211122,-0.000000,0.000000,1.000000
39.674416,-24.038122,-12.352990,0.000000,-1.000000,0.000000
41.624022,-18.203516,1.800645,0.000000,1.000000,-0.000000
40.198409,-23.308475,-14.045726,0.000000,0.000000,-1.000000
-20.460226,-18.203516,12.184583,0.000000,1.000000,0.000000
37.424336,-9.662309,-14.045726,0.000000,0.000000,-1.000000
3.639800,18.203516,7.956344,-0.000000,-1.000000,0.000000
-14.429030,-24.038122,4.560373,0.000000,-1.000000,0.000000
-3.022278,13.376634,-14.045726,0.000000,0.000000,-1.000000
31.873504,-18.203516,-2.771260,-0.000000,1.000000,0.000000
42.212662,24.038122,-0.427934,-0.000000,1.000000,0.000000
-39.500513,7.781738,-8.211122,0.000000,-0.000000,1.000000
25.226590,-4.026542,-8.211122,-0.000000,0.000000,1.000000
25.839912,-4.087286,-14.045726,0.000000,0.000000,-1.000000
-49.524364,-22.764376,4.399598,-1.000000,0.000000,0.000000
47.622408,-18.203516,-6.175591,0.000000,1.000000,-0.000000
-40.400134,21.911208,14.045726,0.000000,-0.000000,1.000000
49.524364,22.293342,2.874870,1.000000,0.000000,-0.000000
13.875765,18.203516,6.812486,0.000000,-1.000000,0.000000
-25.836087,24.038122,-1.865521,-0.000000,1.000000,0.000000
-46.462539,-22.148899,14.045726,0.000000,-0.000000,1.000000
48.129180,-23.694663,14.045726,0.000000,0.000000,1.000000
-19.161998,-24.038122,12.017852,0.000000,-1.000000,0.000000
-42.408689,18.203516,4.943866,0.000000,-1.000000,0.000000
-20.678838,-10.210514,-8.211122,0.000000,-0.000000,1.000000
13.131344,-18.203516,4.922471,-0.000000,1.000000,0.000000
-23.306999,-14.934958,-14.045726,0.000000,0.000000,-1.000000
-27.303320,24.038122,0.028372,-0.000000,1.000000,0.000000
17.786571,-4.057156,-8.211122,-0.000000,0.000000,1.000000
47.255673,-9.611118,-8.211122,-0.000000,0.000000,1.000000
11.877169,-14.488190,-8.211122,0.000000,-0.000000,1.000000
-18.748636,-18.203516,-1.122986,-0.000000,1.000000,0.000000
46.467981,-7.531098,-8.211122,-0.000000,0.000000,1.000000
41.036388,24.038122,13.950947,-0.000000,1.000000,0.000000
1.752421,-24.038122,-1.186245,0.000000,-1.000000,0.000000
32.428745,24.038122,0.187924,-0.000000,1.000000,0.000000
7.140633,-24.038122,-7.284522,0.000000,-1.000000,0.000000
-31.415776,14.819263,-14.045726,0.000000,0.000000,-1.000000
-24.920160,24.038122,-1.755491,-0.000000,1.000000,0.000000
5.078322,-24.038122,-13.602378,0.000000,-1.000000,0.000000
-17.716074,24.038122,5.710358,-0.000000,1.000000,0.000000
-11.775833,3.009213,-14.045726,0.000000,0.000000,-1.000000
38.828998,0.383690,-8.211122,-0.000000,0.000000,1.000000
-11.578580,24.038122,-3.730712,-0.000000,1.000000,0.000000
16.753308,11.886550,-14.045726,0.000000,0.000000,-1.000000
-19.944065,24.038122,-5.393929,-0.000000,1.000000,0.000000
5.109695,-20.855307,14.045726,0.000000,-0.000000,1.000000
35.809127,0.659212,-14.045726,0.000000,0.000000,-1.000000
20.120287,-18.203516,-0.617663,-0.000000,1.000000,0.000000
28.158759,-18.203516,0.087727,-0.000000,1.000000,0.000000
22.655477,-7.624181,-14.045726,0.000000,0.000000,-1.000000
-1.058037,-18.203516,-8.101983,-0.000000,1.000000,0.000000
25.956136,-23.839679,8.240478,-0.634393,0.000000,0.773010
49.458555,7.330425,-14.045726,0.000000,0.000000,-1.000000
10.231967,24.038122,-12.057068,-0.000000,1.000000,0.000000
-42.171771,-18.203516,9.105811,-0.000000,1.000000,0.000000
12.318998,-24.038122,5.125242,-0.000000,-1.000000,0.000000
16.025087,18.203516,0.928761,0.000000,-1.000000,0.000000
40.057803,-24.038122,-3.589560,-0.000000,-1.000000,0.000000
-24.426313,-8.425447,-14.045726,0.000000,0.000000,-1.000000
27.654375,-18.203516,7.332350,0.000000,1.000000,-0.000000
-6.126268,24.038122,5.359502,-0.000000,1.000000,0.000000
49.524364,9.683836,-11.053717,1.000000,-0.000000,-0.000000
-47.932339,-10.340311,-8.211122,0.000000,-0.000000,1.000000
-45.888511,-11.759406,-14.045726,0.000000,0.000000,-1.000000
33.625212,2.202233,-8.211122,-0.000000,0.000000,1.000000
41.046970,-18.203516,4.898029,0.000000,1.000000,-0.000000
26.661081,-0.051966,-8.211122,-0.000000,0.000000,1.000000
2.225720,-24.038122,0.752377,0.000000,-1.000000,0.000000
-36.763865,-24.038122,-11.499330,0.000000,-1.000000,0.000000
-21.678290,-18.203516,5.730867,-0.000000,1.000000,0.000000
-44.781482,2.841865,-8.211122,0.000000,-0.000000,1.000000
-21.312236,1.080683,-14.045726,0.000000,0.000000,-1.000000
-36.443653,5.904727,-14.045726,0.000000,0.000000,-1.000000
-37.274023,-14.100953,-14.045726,0.000000,0.000000,-1.000000
-49.431325,17.477481,-8.211122,0.000000,-0.000000,1.000000
4.725846,-24.038122,-5.147209,0.000000,-1.000000,0.000000
-49.524364,20.697741,1.639983,-1.000000,0.000000,0.000000
-15.633085,24.038122,8.882802,-0.000000,1.000000,0.000000
-9.501666,-18.203516,-3.919359,-0.000000,1.000000,0.000000
26.356823,-11.183491,-14.045726,0.000000,0.000000,-1.000000
-34.503837,-17.638180,-14.045726,0.000000,0.000000,-1.000000
-42.242814,-17.130492,-14.045726,0.000000,0.000000,-1.000000
-43.301012,-23.643372,-14.045726,0.000000,0.000000,-1.000000
-29.890229,-24.038122,-1.873427,0.000000,-1.000000,0.000000
26.463068,18.203516,-2.597486,0.000000,-1.000000,0.000000
-8.699295,-24.038122,-12.316781,0.000000,-1.000000,0.000000
46.374728,18.203516,3.850864,-0.000000,-1.000000,0.000000
-27.737512,-18.733562,-14.045726,0.000000,0.000000,-1.000000
38.688958,18.203516,7.492689,-0.000000,-1.000000,0.000000
-36.385080,4.151916,-14.045726,0.000000,0.000000,-1.000000
23.067735,-18.203516,-7.137407,-0.000000,1.000000,0.000000
29.836641,-24.038122,4.035573,-0.000000,-1.000000,0.000000
-15.901678,-11.083831,-8.211122,0.000000,-0.000000,1.000000
-49.524364,-21.525202,-2.051518,-1.000000,0.000000,0.000000
30.419590,18.203516,9.595692,-0.000000,-1.000000,0.000000
9.665521,13.911906,-14.045726,0.000000,0.000000,-1.000000
-12.085575,-4.815205,-8.211122,0.000000,-0.000000,1.000000
37.842978,2.965493,-14.045726,0.000000,0.000000,-1.000000
39.293110,18.203516,6.772630,-0.000000,-1.000000,0.000000
-9.066202,-18.203516,12.080971,0.000000,1.000000,0.000000
-10.314261,24.038122,-8.925423,-0.000000,1.000000,0.000000
-25.271161,24.038122,13.020931,0.000000,1.000000,0.000000
33.925045,-23.991785,-14.045726,0.000000,0.000000,-1.000000
-43.137344,-8.797973,-8.211122,0.000000,-0.000000,1.000000
31.134168,2.308048,-8.211122,-0.000000,0.000000,1.000000
49.524364,-13.742872,-11.283947,1.000000,0.000000,-0.000000
-47.341295,-16.047994,-14.045726,0.000000,0.000000,-1.000000
-9.065336,-8.349694,-14.045726,0.000000,0.000000,-1.000000
-37.108343,-11.768907,-14.045726,0.000000,0.000000,-1.000000
-49.524364,18.580609,9.832898,-1.000000,0.000000,0.000000
2.712907,24.038122,9.493638,0.000000,1.000000,0.000000
-17.288345,24.038122,10.566800,-0.000000,1.000000,0.000000
-46.191112,-15.581953,-14.045726,0.000000,0.000000,-1.000000
49.524364,19.125883,-4.315945,1.000000,0.000000,-0.000000
35.387791,24.038122,5.765923,-0.000000,1.000000,0.000000
-35.917703,-22.841821,14.045726,0.000000,0.000000,1.000000
-7.423761,-18.203516,-0.186259,-0.000000,1.000000,0.000000
-24.940475,17.317236,-8.211122,-0.000000,0.000000,1.000000
-30.531123,24.038122,10.215612,-0.000000,1.000000,0.000000
-48.153578,3.502795,-8.211122,0.000000,-0.000000,1.000000
35.084205,-18.203516,3.925678,0.000000,1.000000,-0.000000
-25.942559,-18.203516,-7.457173,-0.000000,1.000000,0.000000
-8.030808,-24.038122,-2.729875,0.000000,-1.000000,0.000000
-11.132968,14.774895,-14.045726,0.000000,0.000000,-1.000000
0.608031,-11.972333,-14.045726,0.000000,0.000000,-1.000000
-32.253078,18.203516,12.238307,0.000000,-1.000000,0.000000
-26.317982,24.038122,-3.277088,-0.000000,1.000000,0.000000
-35.152372,24.038122,10.907272,-0.000000,1.000000,0.000000
11.226075,-18.203516,-1.714186,-0.000000,1.000000,0.000000
-49.524364,10.827106,-11.563217,-1.000000,0.000000,0.000000
8.685285,-18.203516,3.610607,-0.000000,1.000000,0.000000
-10.830438,18.203516,2.662092,0.000000,-1.000000,0.000000
49.524364,16.134096,-8.250219,1.000000,-0.000000,-0.000000
49.222014,23.156860,-14.045726,0.000000,0.000000,-1.000000
-36.597668,8.459002,-8.211122,0.000000,-0.000000,1.000000
-40.925556,18.203516,-2.817378,0.000000,-1.000000,0.000000
18.977744,4.530322,-8.211122,-0.000000,0.000000,1.000000
-12.036798,0.159229,-14.045726,0.000000,0.000000,-1.000000
-5.753592,-12.557452,-14.045726,0.000000,0.000000,-1.000000
-41.910114,-18.203516,13.620703,0.000000,1.000000,0.000000
29.664095,-0.443394,-14.045726,0.000000,0.000000,-1.000000
-47.229933,24.038122,9.839558,-0.000000,1.000000,0.000000
-36.871000,23.334217,14.045726,0.000000,-0.000000,1.000000
-10.460261,1.272140,-8.211122,0.000000,-0.000000,1.000000
-24.279153,18.203516,-6.383228,0.000000,-1.000000,0.000000
-38.832827,18.203516,0.058734,0.000000,-1.000000,0.000000
10.484017,6.281694,-14.045726,0.000000,0.000000,-1.000000
-15.853432,18.203516,9.187393,0.000000,-1.000000,0.000000
45.434602,-24.038122,0.623347,-0.000000,-1.000000,0.000000
22.392895,-24.038122,-10.174929,0.000000,-1.000000,0.000000
2.947784,-18.203516,4.225165,-0.000000,1.000000,0.000000
-38.139037,5.834324,-8.211122,0.000000,-0.000000,1.000000
-4.660342,9.147424,-8.211122,-0.000000,0.000000,1.000000
16.711220,-20.085927,9.826721,0.956941,-0.000000,0.290283
35.629062,-24.038122,-4.616294,0.000000,-1.000000,0.000000
4.149461,24.038122,3.758942,0.000000,1.000000,0.000000
-49.524364,6.294692,-13.522674,-1.000000,0.000000,0.000000
34.774943,24.038122,8.224679,-0.000000,1.000000,0.000000
-48.769929,24.038122,8.080528,-0.000000,1.000000,0.000000
-13.894905,18.203516,3.908455,0.000000,-1.000000,0.000000
-16.141142,-10.345361,-14.045726,0.000000,0.000000,-1.000000
-21.580716,-6.048052,-14.045726,0.000000,0.000000,-1.000000
-36.819773,3.686696,-14.045726,0.000000,0.000000,-1.000000
46.947684,18.203516,-1.520383,-0.000000,-1.000000,0.000000
-43.718894,-24.038122,-4.869453,0.000000,-1.000000,0.000000
48.165646,-22.112890,-14.045726,0.000000,0.000000,-1.000000
-14.468267,24.038122,9.035412,-0.000000,1.000000,0.000000
14.712899,24.038122,8.456924,-0.000000,1.000000,0.000000
-32.439799,-18.203516,1.265091,-0.000000,1.000000,0.000000
-35.542980,7.032799,-8.211122,0.000000,-0.000000,1.000000
-49.524364,21.917932,10.885078,-1.000000,0.000000,0.000000
7.734780,-24.038122,2.426521,0.000000,-1.000000,0.000000
-8.135777,18.203516,10.117148,0.000000,-1.000000,0.000000
21.282297,-6.986135,-8.211122,-0.000000,0.000000,1.000000
15.970237,24.038122,7.119732,0.000000,1.000000,0.000000
42.658397,-18.203516,2.580489,0.000000,1.000000,-0.000000
39.036908,-18.203516,1.750786,0.000000,1.000000,-0.000000
23.210284,15.991201,-8.211122,-0.000000,0.000000,1.000000
11.513454,-24.038122,-13.114881,0.000000,-1.000000,0.000000
32.978192,24.038122,-4.157453,-0.000000,1.000000,0.000000
30.879273,-17.170843,-14.045726,0.000000,0.000000,-1.000000
19.196484,6.310592,-14.045726,0.000000,0.000000,-1.000000
40.726333,4.332965,-8.211122,-0.000000,0.000000,1.000000
-38.336198,-18.203516,-8.192914,-0.000000,1.000000,0.000000
46.665064,24.038122,11.674209,-0.000000,1.000000,0.000000
14.182584,-18.203516,-1.816014,-0.000000,1.000000,0.000000
35.602668,17.577825,-8.211122,-0.000000,0.000000,1.000000
42.513316,-17.791385,-14.045726,0.000000,0.000000,-1.000000
4.387703,-18.203516,8.594988,-0.000000,1.000000,0.000000
-21.031232,17.490271,-8.211122,-0.000000,0.000000,1.000000
43.135371,24.038122,-6.281015,-0.000000,1.000000,0.000000
-13.316013,18.203516,-1.243254,0.000000,-1.000000,0.000000
4.107785,13.535570,-14.045726,0.000000,0.000000,-1.000000
7.146474,-12.848243,-14.045726,0.000000,0.000000,-1.000000
-34.004991,-13.805429,-8.211122,0.000000,-0.000000,1.000000
-14.442843,-24.038122,7.696069,0.000000,-1.000000,0.000000
-47.384542,12.193814,-8.211122,0.000000,-0.000000,1.000000
49.524364,-21.490752,6.685392,1.000000,0.000000,-0.000000
-31.557989,-18.203516,7.078244,-0.000000,1.000000,0.000000
39.797053,-24.038122,13.092468,-0.000000,-1.000000,0.000000
43.365921,-6.627509,-14.045726,0.000000,0.000000,-1.000000
-8.399421,-24.038122,-9.459435,0.000000,-1.000000,0.000000
-49.524364,-4.942813,-8.980863,-1.000000,0.000000,0.000000
10.716694,14.124820,-8.211122,-0.000000,0.000000,1.000000
24.167252,23.536122,7.319863,-0.290285,0.000000,0.956940
13.372488,17.304118,-14.045726,0.000000,0.000000,-1.000000
-3.298239,-18.203516,-1.513310,-0.000000,1.000000,0.000000
-12.649486,22.055774,14.045726,0.000000,0.000000,1.000000
29.517173,-7.932878,-8.211122,-0.000000,0.000000,1.000000
44.342258,4.248378,-8.211122,-0.000000,0.000000,1.000000
-33.292353,20.509629,14.045726,0.000000,-0.000000,1.000000
-4.973713,24.038122,-4.110438,-0.000000,1.000000,0.000000
-30.939665,-24.038122,9.821524,0.000000,-1.000000,0.000000
-49.524364,-18.825320,10.552057,-1.000000,0.000000,0.000000
-17.231112,10.149527,-8.211122,-0.000000,0.000000,1.000000
-10.824741,18.203516,10.465250,0.000000,-1.000000,0.000000
-22.232081,6.662837,-14.045726,0.000000,0.000000,-1.000000
40.839973,19.784396,14.045726,0.000000,0.000000,1.000000
28.125234,-20.219272,-14.045726,0.000000,0.000000,-1.000000
3.970841,24.038122,8.823299,0.000000,1.000000,0.000000
15.298167,17.560573,-8.211122,-0.000000,0.000000,1.000000
-18.633786,14.754878,-14.045726,0.000000,0.000000,-1.000000
-49.524364,20.226488,5.795558,-1.000000,0.000000,0.000000
22.323198,-24.038122,-6.169549,0.000000,-1.000000,0.000000
0.001606,24.038122,0.701642,-0.000000,1.000000,0.000000
8.966472,18.203516,6.380209,-0.000000,-1.000000,0.000000
10.239621,-3.424299,-8.211122,-0.000000,0.000000,1.000000
15.823595,-24.038122,-9.541571,0.000000,-1.000000,0.000000
-17.192156,-18.203516,3.018359,-0.000000,1.000000,0.000000
-31.582945,17.648879,-14.045726,0.000000,0.000000,-1.000000
28.235987,-15.791859,-14.045726,0.000000,0.000000,-1.000000
8.366203,-24.038122,6.670618,-0.000000,-1.000000,0.000000
3.336869,6.023545,-8.211122,-0.000000,0.000000,1.000000
5.218370,-24.038122,-9.517665,0.000000,-1.000000,0.000000
22.875241,-11.951865,-8.211122,0.000000,-0.000000,1.000000
10.429202,24.038122,-12.736742,-0.000000,1.000000,0.000000
-40.584499,-1.067465,-14.045726,0.000000,0.000000,-1.000000
-16.049304,-21.473146,-14.045726,0.000000,0.000000,-1.000000
25.686876,-18.203516,2.930379,-0.000000,1.000000,0.000000
35.498392,-5.562159,-8.211122,-0.000000,0.000000,1.000000
-14.436146,24.038122,12.322865,0.000000,1.000000,0.000000
-45.553080,-18.203516,10.875019,-0.000000,1.000000,0.000000
-30.628954,-24.038122,2.250171,0.000000,-1.000000,0.000000
-32.503927,18.203516,-8.168509,0.000000,-1.000000,0.000000
-49.524364,-17.333962,-13.059169,-1.000000,0.000000,0.000000
16.916575,-18.203516,-3.681339,-0.000000,1.000000,0.000000
-41.577145,1.135294,-14.045726,0.000000,0.000000,-1.000000
-16.732108,18.471869,14.045726,0.000000,0.000000,1.000000
-31.381783,-11.348849,-14.045726,0.000000,0.000000,-1.000000
-30.102227,-18.203516,4.795730,-0.000000,1.000000,0.000000
-40.114144,-5.743014,-8.211122,0.000000,-0.000000,1.000000
-45.515219,-13.982704,-8.211122,0.000000,-0.000000,1.000000
-13.786748,-15.246909,-14.045726,0.000000,0.000000,-1.000000
-14.329752,-24.038122,-1.278887,0.000000,-1.000000,0.000000
-38.350630,-2.824440,-14.045726,0.000000,0.000000,-1.000000
20.830543,18.203516,0.472537,0.000000,-1.000000,0.000000
-16.410517,14.363588,-14.045726,0.000000,0.000000,-1.000000
32.570619,23.344988,-14.045726,0.000000,0.000000,-1.000000
-36.347677,-24.038122,9.559264,0.000000,-1.000000,0.000000
49.524364,20.603417,-5.472240,1.000000,0.000000,-0.000000
-5.639991,23.628288,14.045726,0.000000,0.000000,1.000000
45.534342,-24.038122,13.881278,-0.000000,-1.000000,0.000000
-16.572690,-0.450288,-8.211122,0.000000,-0.000000,1.000000
44.583652,-18.203516,10.125838,0.000000,1.000000,-0.000000
7.951213,-7.960492,-8.211122,0.000000,-0.000000,1.000000
34.875615,24.038122,13.275514,0.000000,1.000000,-0.000000
2.183055,18.203516,-4.013450,0.000000,-1.000000,0.000000
-14.747140,-5.506297,-14.045726,0.000000,0.000000,-1.000000
33.149251,-24.038122,1.695612,-0.000000,-1.000000,0.000000
-12.559169,-9.098640,-14.045726,0.000000,0.000000,-1.000000
9.792089,-24.038122,9.513462,0.000000,-1.000000,0.000000
-35.184503,10.019995,-8.211122,0.000000,-0.000000,1.000000
-1.545616,20.458830,-14.045726,0.000000,0.000000,-1.000000
43.381174,18.203516,3.689990,-0.000000,-1.000000,0.000000
2.421846,12.102635,-8.211122,-0.000000,0.000000,1.000000
-36.567078,18.203516,-2.271265,0.000000,-1.000000,0.000000
41.754982,-18.203516,-3.169094,0.000000,1.000000,-0.000000
29.646023,24.038122,-6.439008,-0.000000,1.000000,0.000000
-31.752199,18.341766,14.045726,0.000000,0.000000,1.000000
17.470590,14.445184,-8.211122,-0.000000,0.000000,1.000000
24.850626,22.043409,7.527163,-0.290285,0.000000,0.956940
-34.925382,-21.489842,14.045726,0.000000,-0.000000,1.000000
-11.485921,10.436705,-8.211122,-0.000000,0.000000,1.000000
44.914468,-18.203516,6.036444,0.000000,1.000000,-0.000000
-5.552348,18.203516,-5.013656,0.000000,-1.000000,0.000000
43.416759,24.038122,-6.114376,-0.000000,1.000000,0.000000
-42.632480,10.966571,-8.211122,0.000000,-0.000000,1.000000
-32.372366,-24.038122,-5.245878,0.000000,-1.000000,0.000000
37.844629,19.634606,14.045726,0.000000,0.000000,1.000000
6.507477,-24.038122,4.097492,0.000000,-1.000000,0.000000
42.218800,-2.845059,-8.211122,-0.000000,0.000000,1.000000
49.524364,14.339652,-12.085833,1.000000,-0.000000,-0.000000
-44.686568,-24.038122,-8.269215,0.000000,-1.000000,0.000000
5.745988,-18.203516,10.122541,0.000000,1.000000,0.000000
-31.360098,-9.170410,-8.211122,0.000000,-0.000000,1.000000
-38.648603,-24.038122,8.204745,0.000000,-1.000000,0.000000
43.595059,-24.038122,1.894427,-0.000000,-1.000000,0.000000
-10.869794,18.203516,2.870601,0.000000,-1.000000,0.000000
49.524364,3.818201,-10.479689,1.000000,-0.000000,-0.000000
26.318495,24.038122,-5.831222,-0.000000,1.000000,0.000000
-33.189975,-19.193979,14.045726,0.000000,-0.000000,1.000000
-21.441992,18.203516,11.903953,0.000000,-1.000000,0.000000
-31.230251,18.203516,7.392048,0.000000,-1.000000,0.000000
-25.401587,24.038122,0.290367,-0.000000,1.000000,0.000000
42.904493,12.298703,-14.045726,0.000000,0.000000,-1.000000
49.524364,13.313170,-9.949134,1.000000,-0.000000,-0.000000
-15.037319,-24.038122,-5.910918,0.000000,-1.000000,0.000000
-49.524364,-21.332384,-13.921391,-1.000000,0.000000,0.000000
-4.750878,15.451889,-8.211122,-0.000000,0.000000,1.000000
-44.803173,-1.646520,-8.211122,0.000000,-0.000000,1.000000
-23.124784,7.391588,-14.045726,0.000000,0.000000,-1.000000
29.756614,24.038122,3.948186,-0.000000,1.000000,0.000000
17.788001,14.285393,-14.045726,0.000000,0.000000,-1.000000
-20.189709,14.867288,-14.045726,0.000000,0.000000,-1.000000
-0.219304,-22.950668,7.467739,-0.290285,0.000000,0.956940
-2.584786,17.264527,-14.045726,0.000000,0.000000,-1.000000
-26.325008,4.031935,-14.045726,0.000000,0.000000,-1.000000
31.037057,24.038122,-0.895133,-0.000000,1.000000,0.000000
-9.213625,23.326374,-14.045726,0.000000,0.000000,-1.000000
-13.041621,-17.615915,-8.211122,0.000000,-0.000000,1.000000
-22.133397,2.050491,-14.045726,0.000000,0.000000,-1.000000
46.994198,-1.389919,-8.211122,-0.000000,0.000000,1.000000
-30.561463,18.203516,-3.548398,0.000000,-1.000000,0.000000
-49.524364,-19.145557,-0.026424,-1.000000,0.000000,0.000000
-33.662600,-18.203516,0.112994,-0.000000,1.000000,0.000000
15.530684,-24.038122,2.053379,-0.000000,-1.000000,0.000000
-2.406696,-18.203516,-1.361203,-0.000000,1.000000,0.000000
-48.196927,5.902874,-14.045726,0.000000,0.000000,-1.000000
18.531154,7.192205,-8.211122,-0.000000,0.000000,1.000000
-43.207352,12.157849,-14.045726,0.000000,0.000000,-1.000000
-17.168391,9.870936,-8.211122,-0.000000,0.000000,1.000000
-21.064729,-24.038122,12.031366,0.000000,-1.000000,0.000000
36.304328,24.038122,13.791150,-0.000000,1.000000,0.000000
-45.555579,-24.038122,0.895668,0.000000,-1.000000,0.000000
29.546180,24.038122,10.846613,0.000000,1.000000,0.000000
-27.184219,18.203516,-2.069324,0.000000,-1.000000,0.000000
19.575498,8.510937,-14.045726,0.000000,0.000000,-1.000000
26.309142,16.399978,-14.045726,0.000000,0.000000,-1.000000
-10.279281,24.038122,5.645957,-0.000000,1.000000,0.000000
15.239506,-24.038122,-0.216656,0.000000,-1.000000,0.000000
-16.962417,24.038122,-5.127313,-0.000000,1.000000,0.000000
40.746185,-24.038122,-6.939144,0.000000,-1.000000,0.000000
-23.611115,24.038122,-6.894215,-0.000000,1.000000,0.000000
28.104957,-24.038122,-3.964212,-0.000000,-1.000000,0.000000
18.182685,15.147073,-8.211122,-0.000000,0.000000,1.000000
-7.564576,24.038122,-2.253175,-0.000000,1.000000,0.000000
1.805283,3.813725,-14.045726,0.000000,0.000000,-1.000000
5.867580,23.574497,14.045726,0.000000,-0.000000,1.000000
32.950857,-9.118912,-14.045726,0.000000,0.000000,-1.000000
-43.346657,10.613286,-14.045726,0.000000,0.000000,-1.000000
27.342585,-18.203516,12.967670,0.000000,1.000000,-0.000000
-26.787468,-18.203516,-8.075460,-0.000000,1.000000,0.000000
-21.207986,-24.038122,-11.916844,0.000000,-1.000000,0.000000
22.623337,-9.864909,-14.045726,0.000000,0.000000,-1.000000
39.277022,18.203516,1.183582,-0.000000,-1.000000,0.000000
-33.715847,18.203516,-0.235962,0.000000,-1.000000,0.000000
-26.957249,-10.460628,-14.045726,0.000000,0.000000,-1.000000
35.502589,-18.203516,-1.259571,-0.000000,1.000000,0.000000
43.379317,-2.840889,-8.211122,-0.000000,0.000000,1.000000
-28.029072,-14.004300,-8.211122,0.000000,-0.000000,1.000000
-15.137934,-15.249269,-8.211122,0.000000,-0.000000,1.000000
45.603956,-9.487076,-14.045726,0.000000,0.000000,-1.000000
23.586024,-18.203516,-4.265245,-0.000000,1.000000,0.000000
7.179763,23.380216,14.045726,0.000000,-0.000000,1.000000
-24.883297,-11.246161,-8.211122,0.000000,-0.000000,1.000000
39.382853,11.932814,-14.045726,0.000000,0.000000,-1.000000
-12.493015,12.655774,-8.211122,-0.000000,0.000000,1.000000
29.557476,-18.203516,-2.042112,-0.000000,1.000000,0.000000
-33.541560,13.343376,-8.211122,-0.000000,0.000000,1.000000
34.967390,24.038122,4.465021,-0.000000,1.000000,0.000000
-0.983918,-18.203516,-6.564677,-0.000000,1.000000,0.000000
-14.767791,19.344854,-14.045726,0.000000,0.000000,-1.000000
5.006373,-0.597714,-8.211122,-0.000000,0.000000,1.000000
-5.128393,13.245958,-14.045726,0.000000,0.000000,-1.000000
34.468818,-18.203516,11.956302,0.000000,1.000000,0.000000
45.166503,13.903610,-8.211122,-0.000000,0.000000,1.000000
26.624208,-14.787409,-14.045726,0.000000,0.000000,-1.000000
48.575078,-9.003292,-8.211122,-0.000000,0.000000,1.000000
28.120168,18.203516,3.366745,-0.000000,-1.000000,0.000000
5.750111,15.449842,-8.211122,-0.000000,0.000000,1.000000
49.285583,-24.038122,-2.046027,-0.000000,-1.000000,0.000000
12.536844,7.770012,-14.045726,0.000000,0.000000,-1.000000
-35.701697,-24.038122,-7.453653,0.000000,-1.000000,0.000000
