x,y,z,nx,ny,nz
0.029449,0.675623,0.133825,1.000000,0.000000,0.000000
0.206880,0.019383,0.117349,-0.988257,0.000000,0.152801
0.059113,0.029449,0.363456,0.000000,1.000000,0.000000
0.213833,-0.029449,0.164687,0.000000,-1.000000,0.000000
-0.029449,0.119571,0.218409,-1.000000,0.000000,0.000000
0.025108,-0.029449,0.355466,0.000000,-1.000000,0.000000
-0.029449,0.782771,0.083087,-1.000000,0.000000,0.000000
0.313234,-0.029449,0.169281,0.000000,-1.000000,0.000000
0.139411,-0.025243,0.103907,0.281048,0.000000,-0.959694
0.203319,-0.001255,0.243662,-0.738224,0.000000,0.674555
0.368503,-0.029449,0.048712,0.000000,-1.000000,0.000000
-0.029449,0.053072,0.299671,-1.000000,0.000000,0.000000
0.093970,0.029449,0.135388,0.000000,1.000000,0.000000
0.309613,-0.029449,0.284008,0.000000,-1.000000,0.000000
-0.029449,0.334420,0.307051,-1.000000,0.000000,0.000000
0.141807,-0.029449,0.164685,0.000000,-1.000000,0.000000
0.277853,0.011417,0.167720,0.900419,0.000000,-0.435025
-0.029449,0.065184,0.099392,-1.000000,0.000000,0.000000
-0.029449,0.170717,0.060117,-1.000000,0.000000,0.000000
0.083803,0.029449,0.113530,0.000000,1.000000,0.000000
0.029449,0.487624,0.078021,1.000000,0.000000,0.000000
-0.029449,0.867605,0.019799,-1.000000,0.000000,0.000000
0.115906,0.029449,0.015761,0.000000,1.000000,0.000000
0.117600,0.027893,0.073157,0.139798,0.000000,-0.990180
-0.029449,0.720841,0.223177,-1.000000,0.000000,0.000000
0.082120,0.029449,0.059950,0.000000,1.000000,0.000000
0.220720,0.020723,0.162851,0.451874,0.000000,0.892082
0.295709,-0.029449,0.338702,0.000000,-1.000000,0.000000
0.259846,-0.029449,0.014832,0.000000,-1.000000,0.000000
0.201629,-0.029449,0.408862,0.000000,-1.000000,0.000000
0.105086,0.029449,0.249205,0.000000,1.000000,0.000000
-0.029449,0.973776,0.157244,-1.000000,0.000000,0.000000
0.286139,-0.007232,0.211526,0.912155,0.000000,0.409845
0.155249,0.029449,0.021862,0.000000,1.000000,0.000000
0.196881,0.027997,0.286635,0.628343,0.000000,0.777936
0.161462,0.005888,0.157815,-0.973357,0.000000,-0.229294
0.259782,-0.029449,0.173848,0.000000,-1.000000,0.000000
0.130518,-0.029449,0.176184,0.000000,-1.000000,0.000000
-0.029449,0.687747,0.200001,-1.000000,0.000000,0.000000
0.029449,0.216309,0.382808,1.000000,0.000000,0.000000
-0.029449,0.709925,0.319551,-1.000000,0.000000,0.000000
0.028280,-0.029449,0.128030,0.000000,-1.000000,0.000000
-0.029449,0.412401,0.008084,-1.000000,0.000000,0.000000
0.225996,-0.029449,0.290744,0.000000,-1.000000,0.000000
0.226671,0.029449,0.138707,0.000000,1.000000,0.000000
0.091684,-0.029449,0.186316,0.000000,-1.000000,0.000000
0.274092,0.029449,0.277917,0.000000,1.000000,0.000000
0.230516,-0.000739,0.162743,-0.387866,0.000000,0.921716
0.325577,0.003427,0.136387,0.764426,0.000000,0.644712
0.029449,0.587710,0.409129,1.000000,0.000000,0.000000
0.324708,0.029449,0.177200,0.000000,1.000000,0.000000
-0.029449,0.159476,0.359826,-1.000000,0.000000,0.000000
0.317768,-0.029449,0.120572,0.000000,-1.000000,0.000000
0.112382,0.020943,0.210835,-0.054874,0.000000,0.998493
0.001845,-0.029449,0.003171,0.000000,-1.000000,0.000000
0.084537,-0.029449,0.289022,0.000000,-1.000000,0.000000
-0.029449,0.389779,0.271531,-1.000000,0.000000,0.000000
0.202080,-0.029449,0.375801,0.000000,-1.000000,0.000000
0.291636,0.029449,0.111467,0.000000,1.000000,0.000000
0.029449,0.654341,0.163171,1.000000,0.000000,0.000000
0.029449,0.934748,0.407232,1.000000,0.000000,0.000000
0.109747,0.029449,0.242179,0.000000,1.000000,0.000000
0.029449,0.195730,0.138937,1.000000,0.000000,0.000000
0.029449,0.556196,0.404059,1.000000,0.000000,0.000000
0.029449,0.959028,0.146641,1.000000,0.000000,0.000000
0.133541,-0.000179,0.174878,0.117936,0.000000,-0.993021
0.029449,0.039647,0.181403,1.000000,0.000000,0.000000
0.303750,-0.029449,0.367328,0.000000,-1.000000,0.000000
0.104052,-0.029449,0.360655,0.000000,-1.000000,0.000000
0.029449,0.830348,0.040262,1.000000,0.000000,0.000000
0.098639,-0.029449,0.226498,0.000000,-1.000000,0.000000
0.029449,0.560176,0.341582,1.000000,0.000000,0.000000
0.307510,0.029449,0.334721,0.000000,1.000000,0.000000
0.371964,0.029449,0.341341,0.000000,1.000000,0.000000
0.121605,-0.029449,0.203900,0.000000,-1.000000,0.000000
-0.029449,0.909802,0.106718,-1.000000,0.000000,0.000000
0.029449,0.848893,0.157079,1.000000,0.000000,0.000000
0.250042,0.029449,0.205704,0.000000,1.000000,0.000000
-0.029449,0.649936,0.340036,-1.000000,0.000000,0.000000
0.130451,0.029449,0.234777,0.000000,1.000000,0.000000
0.029449,0.285963,0.014611,1.000000,0.000000,0.000000
0.005845,0.029449,0.375965,0.000000,1.000000,0.000000
0.029449,0.965139,0.317121,1.000000,0.000000,0.000000
0.029449,0.402856,0.008988,1.000000,0.000000,0.000000
0.087629,0.029449,0.334106,0.000000,1.000000,0.000000
0.156043,0.029449,0.372548,0.000000,1.000000,0.000000
0.169250,0.006126,0.218412,0.174349,0.000000,0.984684
-0.029449,0.934563,0.290238,-1.000000,0.000000,0.000000
0.107188,0.029449,0.324635,0.000000,1.000000,0.000000
0.029449,0.311762,0.213958,1.000000,0.000000,0.000000
0.190541,0.029449,0.302011,0.000000,1.000000,0.000000
-0.029449,0.332980,0.382184,-1.000000,0.000000,0.000000
0.160803,0.029449,0.039288,0.000000,1.000000,0.000000
0.253885,-0.029449,0.338989,0.000000,-1.000000,0.000000
0.028468,0.029449,0.363976,0.000000,1.000000,0.000000
0.344759,-0.029449,0.135141,0.000000,-1.000000,0.000000
0.078637,-0.005231,0.090054,-0.575635,0.000000,-0.817707
0.364008,-0.029449,0.154176,0.000000,-1.000000,0.000000
0.029449,0.870673,0.163991,1.000000,0.000000,0.000000
0.061130,-0.029449,0.047214,0.000000,-1.000000,0.000000
0.029449,0.071384,0.346762,1.000000,0.000000,0.000000
0.029449,0.735304,0.134434,1.000000,0.000000,0.000000
0.029449,0.411540,0.313605,1.000000,0.000000,0.000000
0.372761,0.029449,0.368940,0.000000,1.000000,0.000000
0.029449,0.154454,0.295064,1.000000,0.000000,0.000000
0.029449,0.776883,0.268896,1.000000,0.000000,0.000000
-0.029449,0.415278,0.141370,-1.000000,0.000000,0.000000
0.029449,0.300113,0.368852,1.000000,0.000000,0.000000
0.140888,0.029449,0.326515,0.000000,1.000000,0.000000
0.225436,0.021758,0.111249,-0.080369,0.000000,-0.996765
0.029449,0.385182,0.167699,1.000000,0.000000,0.000000
0.097412,-0.029449,0.404079,0.000000,-1.000000,0.000000
0.317140,-0.029449,0.335496,0.000000,-1.000000,0.000000
0.209781,0.029449,0.198678,0.000000,1.000000,0.000000
-0.029449,0.241265,0.089953,-1.000000,0.000000,0.000000
0.408508,-0.029449,0.349036,0.000000,-1.000000,0.000000
0.029449,0.870100,0.164458,1.000000,0.000000,0.000000
0.402601,0.029449,0.360130,0.000000,1.000000,0.000000
0.189198,0.029449,0.060428,0.000000,1.000000,0.000000
0.025301,-0.029449,0.029921,0.000000,-1.000000,0.000000
0.198081,0.010631,0.234664,-0.965821,0.000000,-0.259210
0.397796,-0.029449,0.273845,0.000000,-1.000000,0.000000
0.029449,0.238853,0.185810,1.000000,0.000000,0.000000
0.092631,-0.029449,0.375894,0.000000,-1.000000,0.000000
-0.029449,0.164381,0.032951,-1.000000,0.000000,0.000000
0.029449,0.320228,0.161588,1.000000,0.000000,0.000000
0.029449,0.571576,0.310541,1.000000,0.000000,0.000000
-0.029449,0.600959,0.327174,-1.000000,0.000000,0.000000
-0.029449,0.683362,0.156751,-1.000000,0.000000,0.000000
-0.029449,0.510701,0.103401,-1.000000,0.000000,0.000000
-0.029449,0.300279,0.021318,-1.000000,0.000000,0.000000
0.316013,0.015952,0.220918,0.988392,0.000000,0.151926
0.029449,0.891179,0.267982,1.000000,0.000000,0.000000
-0.029449,0.205754,0.089388,-1.000000,0.000000,0.000000
-0.029449,0.245048,0.165318,-1.000000,0.000000,0.000000
0.235480,0.029449,0.349732,0.000000,1.000000,0.000000
0.232017,0.017606,0.167766,-0.372677,0.000000,0.927961
0.011459,0.029449,0.308785,0.000000,1.000000,0.000000
0.327874,-0.029449,0.329896,0.000000,-1.000000,0.000000
0.015070,-0.029449,0.068682,0.000000,-1.000000,0.000000
-0.029449,0.051963,0.113726,-1.000000,0.000000,0.000000
0.333703,0.029449,0.251235,0.000000,1.000000,0.000000
0.154416,-0.010926,0.298933,0.562176,0.000000,0.827018
-0.029449,0.883097,0.077520,-1.000000,0.000000,0.000000
-0.029449,0.950979,0.165263,-1.000000,0.000000,0.000000
-0.029449,0.418492,0.337799,-1.000000,0.000000,0.000000
-0.029449,0.967438,0.230087,-1.000000,0.000000,0.000000
-0.029449,0.752697,0.347599,-1.000000,0.000000,0.000000
0.114734,0.000438,0.194193,0.057411,0.000000,-0.998351
0.017625,-0.029449,0.009321,0.000000,-1.000000,0.000000
0.029449,0.212980,0.159807,1.000000,0.000000,0.000000
-0.029449,0.704604,0.334954,-1.000000,0.000000,0.000000
0.189615,0.022689,0.113797,-0.994662,0.000000,0.103186
0.039235,0.029449,0.210801,0.000000,1.000000,0.000000
0.029449,0.064516,0.233812,1.000000,0.000000,0.000000
0.135965,-0.029449,0.118307,0.000000,-1.000000,0.000000
-0.029449,0.751578,0.333974,-1.000000,0.000000,0.000000
-0.029449,0.454436,0.183543,-1.000000,0.000000,0.000000
0.186776,0.012836,0.317569,0.813229,0.000000,0.581944
0.375878,0.029449,0.058901,0.000000,1.000000,0.000000
-0.029449,0.083550,0.086100,-1.000000,0.000000,0.000000
0.045867,-0.029449,0.347760,0.000000,-1.000000,0.000000
-0.029449,0.199215,0.123290,-1.000000,0.000000,0.000000
-0.029449,0.353455,0.185658,-1.000000,0.000000,0.000000
0.029449,0.329503,0.242678,1.000000,0.000000,0.000000
0.074618,0.009757,0.096225,-0.965375,0.000000,-0.260866
0.029449,0.472074,0.075615,1.000000,0.000000,0.000000
0.029449,0.581329,0.214104,1.000000,0.000000,0.000000
-0.029449,0.585519,0.183077,-1.000000,0.000000,0.000000
0.300837,-0.029449,0.367125,0.000000,-1.000000,0.000000
0.347806,0.029449,0.195042,0.000000,1.000000,0.000000
0.186847,0.029449,0.193443,0.000000,1.000000,0.000000
-0.029449,0.611820,0.396546,-1.000000,0.000000,0.000000
0.189590,-0.029449,0.204516,0.000000,-1.000000,0.000000
0.100530,0.029449,0.235516,0.000000,1.000000,0.000000
0.268517,0.029449,0.064036,0.000000,1.000000,0.000000
0.361299,0.029449,0.305076,0.000000,1.000000,0.000000
0.215564,0.029449,0.047457,0.000000,1.000000,0.000000
0.051018,-0.029449,0.167659,0.000000,-1.000000,0.000000
0.181418,0.029449,0.093609,0.000000,1.000000,0.000000
0.254812,0.029449,0.097468,0.000000,1.000000,0.000000
0.315581,-0.029449,0.265815,0.000000,-1.000000,0.000000
0.201413,-0.029449,0.154729,0.000000,-1.000000,0.000000
0.273866,0.013665,0.174046,-0.212605,0.000000,0.977138
0.000767,0.029449,0.056039,0.000000,1.000000,0.000000
0.052034,-0.029449,0.400122,0.000000,-1.000000,0.000000
0.029449,0.139638,0.024376,1.000000,0.000000,0.000000
-0.029449,0.053570,0.181148,-1.000000,0.000000,0.000000
-0.029449,0.544716,0.140899,-1.000000,0.000000,0.000000
0.211095,0.021860,0.207892,-0.058981,0.000000,-0.998259
-0.029449,0.029140,0.069638,-1.000000,0.000000,0.000000
0.128992,0.000289,0.309074,-0.794360,0.000000,0.607447
-0.029449,0.986867,0.164603,-1.000000,0.000000,0.000000
0.029449,0.656988,0.330580,1.000000,0.000000,0.000000
0.029449,0.656614,0.136403,1.000000,0.000000,0.000000
-0.029449,0.138856,0.367540,-1.000000,0.000000,0.000000
0.114591,-0.029449,0.029696,0.000000,-1.000000,0.000000
0.378782,0.029449,0.148046,0.000000,1.000000,0.000000
-0.029449,0.829940,0.304221,-1.000000,0.000000,0.000000
0.172948,-0.009312,0.346047,0.224957,0.000000,0.974369
0.019402,0.029449,0.008447,0.000000,1.000000,0.000000
0.300380,0.029449,0.056445,0.000000,1.000000,0.000000
-0.029449,0.622748,0.300370,-1.000000,0.000000,0.000000
-0.029449,0.778365,0.285403,-1.000000,0.000000,0.000000
-0.029449,0.991501,0.096951,-1.000000,0.000000,0.000000
-0.029449,0.543963,0.118112,-1.000000,0.000000,0.000000
0.231466,0.017751,0.120523,-0.988454,0.000000,-0.151521
0.029449,0.851138,0.128838,1.000000,0.000000,0.000000
0.066674,-0.029449,0.300022,0.000000,-1.000000,0.000000
-0.029449,0.098323,0.243218,-1.000000,0.000000,0.000000
0.040008,0.029449,0.121089,0.000000,1.000000,0.000000
-0.029449,0.824055,0.265693,-1.000000,0.000000,0.000000
0.372553,0.029449,0.296850,0.000000,1.000000,0.000000
0.029449,0.012713,0.015630,1.000000,0.000000,0.000000
0.070033,0.029449,0.374761,0.000000,1.000000,0.000000
-0.029449,0.355214,0.284364,-1.000000,0.000000,0.000000
0.228741,0.009013,0.278833,-0.159449,0.000000,0.987206
0.029449,0.155231,0.016727,1.000000,0.000000,0.000000
-0.029449,0.936849,0.267181,-1.000000,0.000000,0.000000
0.341017,0.029449,0.039263,0.000000,1.000000,0.000000
0.069166,0.029449,0.308494,0.000000,1.000000,0.000000
0.029449,0.440209,0.407233,1.000000,0.000000,0.000000
0.063245,-0.029449,0.007262,0.000000,-1.000000,0.000000
0.239941,0.029449,0.316045,0.000000,1.000000,0.000000
0.372791,0.029449,0.219843,0.000000,1.000000,0.000000
0.035715,0.029449,0.334864,0.000000,1.000000,0.000000
0.279168,0.029449,0.192890,0.000000,1.000000,0.000000
-0.029449,0.715799,0.314537,-1.000000,0.000000,0.000000
-0.029449,0.845870,0.232812,-1.000000,0.000000,0.000000
0.029449,0.348539,0.364662,1.000000,0.000000,0.000000
0.003242,-0.029449,0.164408,0.000000,-1.000000,0.000000
0.109002,-0.029449,0.084037,0.000000,-1.000000,0.000000
-0.029449,0.966218,0.137847,-1.000000,0.000000,0.000000
-0.029449,0.762910,0.357787,-1.000000,0.000000,0.000000
0.029449,0.755052,0.068255,1.000000,0.000000,0.000000
0.146577,0.029449,0.331720,0.000000,1.000000,0.000000
-0.029449,0.451739,0.156077,-1.000000,0.000000,0.000000
0.299777,-0.029449,0.109507,0.000000,-1.000000,0.000000
0.318989,0.029449,0.322486,0.000000,1.000000,0.000000
-0.029449,0.989941,0.231184,-1.000000,0.000000,0.000000
0.242201,0.029449,0.278785,0.000000,1.000000,0.000000
0.342175,-0.006642,0.243808,0.886655,0.000000,0.462431
0.262945,-0.029449,0.387860,0.000000,-1.000000,0.000000
0.262362,0.002784,0.364760,0.163044,0.000000,0.986619
0.032860,0.029449,0.341235,0.000000,1.000000,0.000000
0.391728,0.029449,0.406597,0.000000,1.000000,0.000000
0.173476,0.029449,0.219141,0.000000,1.000000,0.000000
0.029449,0.637618,0.400862,1.000000,0.000000,0.000000
0.119719,-0.029449,0.208882,0.000000,-1.000000,0.000000
0.360537,0.029449,0.405891,0.000000,1.000000,0.000000
0.029449,0.459236,0.007610,1.000000,0.000000,0.000000
-0.029449,0.829788,0.081214,-1.000000,0.000000,0.000000
0.055569,-0.022434,0.246291,-0.996384,0.000000,-0.084963
0.029449,0.021805,0.358228,1.000000,0.000000,0.000000
-0.029449,0.047858,0.134912,-1.000000,0.000000,0.000000
0.073085,-0.029449,0.036933,0.000000,-1.000000,0.000000
0.233014,-0.014937,0.111180,0.962016,0.000000,-0.272992
0.134918,-0.029449,0.155362,0.000000,-1.000000,0.000000
0.232081,-0.029449,0.201011,0.000000,-1.000000,0.000000
0.186562,0.004295,0.231586,0.223428,0.000000,0.974721
0.029449,0.310710,0.155864,1.000000,0.000000,0.000000
0.229779,0.029449,0.194967,0.000000,1.000000,0.000000
0.314234,-0.029449,0.297753,0.000000,-1.000000,0.000000
-0.029449,0.284603,0.186378,-1.000000,0.000000,0.000000
0.240033,-0.023232,0.211174,0.996689,0.000000,0.081303
0.029449,0.247919,0.213485,1.000000,0.000000,0.000000
0.361128,0.029449,0.294292,0.000000,1.000000,0.000000
-0.029449,0.402696,0.106674,-1.000000,0.000000,0.000000
0.029449,0.800317,0.068602,1.000000,0.000000,0.000000
0.029449,0.312613,0.310541,1.000000,0.000000,0.000000
0.021603,-0.029449,0.020146,0.000000,-1.000000,0.000000
0.273095,-0.029449,0.288059,0.000000,-1.000000,0.000000
0.138333,-0.029449,0.174484,0.000000,-1.000000,0.000000
0.029449,0.868318,0.005568,1.000000,0.000000,0.000000
0.102298,0.029449,0.039470,0.000000,1.000000,0.000000
0.029449,0.250972,0.145884,1.000000,0.000000,0.000000
-0.029449,0.557878,0.154863,-1.000000,0.000000,0.000000
-0.029449,0.011018,0.237103,-1.000000,0.000000,0.000000
0.162175,-0.009531,0.225350,-0.787312,0.000000,0.616555
0.029449,0.593147,0.034454,1.000000,0.000000,0.000000
0.077090,0.029449,0.092481,0.000000,1.000000,0.000000
0.029449,0.215098,0.282909,1.000000,0.000000,0.000000
0.245370,0.007423,0.201596,0.524569,0.000000,0.851368
0.029449,0.099309,0.193843,1.000000,0.000000,0.000000
0.099230,0.029449,0.010241,0.000000,1.000000,0.000000
0.029449,0.649725,0.338040,1.000000,0.000000,0.000000
0.362953,0.029449,0.093792,0.000000,1.000000,0.000000
0.029449,0.982529,0.336700,1.000000,0.000000,0.000000
-0.029449,0.228204,0.404228,-1.000000,0.000000,0.000000
-0.029449,0.037896,0.227293,-1.000000,0.000000,0.000000
0.286872,0.006118,0.194430,-0.214934,0.000000,-0.976629
-0.029449,0.633882,0.173219,-1.000000,0.000000,0.000000
0.183865,-0.029449,0.097297,0.000000,-1.000000,0.000000
0.071864,-0.029449,0.038851,0.000000,-1.000000,0.000000
0.283741,-0.029449,0.134935,0.000000,-1.000000,0.000000
0.201836,-0.029449,0.094708,0.000000,-1.000000,0.000000
0.029449,0.044666,0.183331,1.000000,0.000000,0.000000
0.206207,-0.010247,0.243260,-0.308736,0.000000,-0.951148
0.179480,-0.002682,0.327633,-0.005191,0.000000,0.999987
0.085176,0.001486,0.150806,-0.903665,0.000000,-0.428240
0.252617,-0.029449,0.176410,0.000000,-1.000000,0.000000
0.196984,0.010787,0.211144,0.835289,0.000000,0.549811
-0.029449,0.735562,0.046346,-1.000000,0.000000,0.000000
0.104061,-0.029449,0.372855,0.000000,-1.000000,0.000000
0.364971,-0.029449,0.315300,0.000000,-1.000000,0.000000
0.044295,0.029449,0.090809,0.000000,1.000000,0.000000
0.135978,0.029449,0.220337,0.000000,1.000000,0.000000
-0.029449,0.980592,0.023215,-1.000000,0.000000,0.000000
0.130638,0.029449,0.295744,0.000000,1.000000,0.000000
0.029449,0.375188,0.222198,1.000000,0.000000,0.000000
0.123944,0.029449,0.119551,0.000000,1.000000,0.000000
0.068745,-0.029449,0.061805,0.000000,-1.000000,0.000000
-0.029449,0.076784,0.248010,-1.000000,0.000000,0.000000
0.101315,-0.029449,0.007130,0.000000,-1.000000,0.000000
0.180181,-0.029449,0.222387,0.000000,-1.000000,0.000000
-0.029449,0.640682,0.326196,-1.000000,0.000000,0.000000
0.029449,0.747404,0.309499,1.000000,0.000000,0.000000
0.029449,0.527036,0.386750,1.000000,0.000000,0.000000
0.314819,0.029449,0.185703,0.000000,1.000000,0.000000
0.279516,-0.022497,0.167574,0.163200,0.000000,0.986593
0.352752,-0.029449,0.049479,0.000000,-1.000000,0.000000
0.038054,0.029449,0.126442,0.000000,1.000000,0.000000
0.029449,0.844202,0.090754,1.000000,0.000000,0.000000
-0.029449,0.891364,0.346681,-1.000000,0.000000,0.000000
0.029449,0.909564,0.006958,1.000000,0.000000,0.000000
0.029449,0.422925,0.063628,1.000000,0.000000,0.000000
0.052825,-0.029449,0.028688,0.000000,-1.000000,0.000000
0.078441,0.029449,0.305489,0.000000,1.000000,0.000000
0.166082,0.029449,0.258779,0.000000,1.000000,0.000000
0.325624,-0.029449,0.120844,0.000000,-1.000000,0.000000
0.316698,0.029449,0.029025,0.000000,1.000000,0.000000
0.311313,-0.029449,0.395355,0.000000,-1.000000,0.000000
-0.029449,0.549403,0.272864,-1.000000,0.000000,0.000000
0.000681,-0.029449,0.005590,0.000000,-1.000000,0.000000
0.015321,0.029449,0.269479,0.000000,1.000000,0.000000
0.326086,0.029449,0.126541,0.000000,1.000000,0.000000
0.000622,-0.029449,0.343696,0.000000,-1.000000,0.000000
0.127795,-0.029449,0.012153,0.000000,-1.000000,0.000000
0.249447,0.029449,0.294298,0.000000,1.000000,0.000000
-0.029449,0.371495,0.156727,-1.000000,0.000000,0.000000
-0.029449,0.347159,0.398419,-1.000000,0.000000,0.000000
0.132113,0.002480,0.167686,0.488381,0.000000,0.872631
0.029449,0.969992,0.230961,1.000000,0.000000,0.000000
0.075180,0.029449,0.049671,0.000000,1.000000,0.000000
0.155477,-0.002528,0.129969,0.847680,0.000000,-0.530508
0.207372,0.029449,0.164369,0.000000,1.000000,0.000000
0.282243,-0.029449,0.324394,0.000000,-1.000000,0.000000
-0.029449,0.117215,0.060342,-1.000000,0.000000,0.000000
0.094834,-0.029449,0.213419,0.000000,-1.000000,0.000000
-0.029449,0.809353,0.213172,-1.000000,0.000000,0.000000
0.029449,0.790882,0.405273,1.000000,0.000000,0.000000
-0.029449,0.343350,0.025095,-1.000000,0.000000,0.000000
0.029449,0.222039,0.268892,1.000000,0.000000,0.000000
0.029449,0.980269,0.061043,1.000000,0.000000,0.000000
0.029449,0.697220,0.155636,1.000000,0.000000,0.000000
-0.029449,0.476391,0.235748,-1.000000,0.000000,0.000000
0.326667,0.019489,0.173400,0.588213,0.000000,-0.808706
0.302329,0.018049,0.207632,0.035392,0.000000,-0.999374
0.029449,0.159694,0.346964,1.000000,0.000000,0.000000
0.319230,-0.029449,0.276757,0.000000,-1.000000,0.000000
-0.029449,0.137952,0.388500,-1.000000,0.000000,0.000000
-0.029449,0.806894,0.122903,-1.000000,0.000000,0.000000
0.182684,0.029449,0.341154,0.000000,1.000000,0.000000
0.029449,0.538784,0.128488,1.000000,0.000000,0.000000
-0.029449,0.539741,0.139764,-1.000000,0.000000,0.000000
-0.029449,0.353529,0.234615,-1.000000,0.000000,0.000000
-0.029449,0.899825,0.198251,-1.000000,0.000000,0.000000
-0.029449,0.641325,0.304292,-1.000000,0.000000,0.000000
0.029449,0.851428,0.329568,1.000000,0.000000,0.000000
0.357355,0.029449,0.380390,0.000000,1.000000,0.000000
0.029449,0.582983,0.143178,1.000000,0.000000,0.000000
0.307011,-0.029449,0.041845,0.000000,-1.000000,0.000000
0.029449,0.701910,0.112155,1.000000,0.000000,0.000000
0.372651,-0.029449,0.031006,0.000000,-1.000000,0.000000
0.075402,0.029449,0.161390,0.000000,1.000000,0.000000
0.179063,-0.004092,0.208569,-0.924388,0.000000,-0.381452
-0.029449,0.797300,0.090157,-1.000000,0.000000,0.000000
0.029449,0.002556,0.266334,1.000000,0.000000,0.000000
0.233639,0.018624,0.263112,0.289906,0.000000,0.957055
0.086725,-0.022577,0.153401,-0.735199,0.000000,0.677851
0.130893,0.029449,0.068942,0.000000,1.000000,0.000000
-0.029449,0.697989,0.062525,-1.000000,0.000000,0.000000
0.196954,-0.001923,0.171582,-0.618010,0.000000,0.786170
0.129858,-0.005309,0.187573,0.325544,0.000000,0.945527
-0.029449,0.471479,0.022907,-1.000000,0.000000,0.000000
0.249471,-0.002743,0.226928,-0.963929,0.000000,0.266161
-0.029449,0.866472,0.047051,-1.000000,0.000000,0.000000
0.246756,0.029449,0.299351,0.000000,1.000000,0.000000
0.029449,0.031014,0.325567,1.000000,0.000000,0.000000
-0.029449,0.313274,0.269803,-1.000000,0.000000,0.000000
0.103350,-0.029449,0.200063,0.000000,-1.000000,0.000000
0.258677,-0.029449,0.107423,0.000000,-1.000000,0.000000
0.201228,0.029449,0.169859,0.000000,1.000000,0.000000
0.029449,0.191386,0.212279,1.000000,0.000000,0.000000
0.029449,0.977388,0.114443,1.000000,0.000000,0.000000
0.029449,0.229493,0.207449,1.000000,0.000000,0.000000
0.187932,0.004117,0.116227,0.894650,0.000000,-0.446768
0.093783,-0.029449,0.355897,0.000000,-1.000000,0.000000
-0.029449,0.083275,0.254857,-1.000000,0.000000,0.000000
0.291033,0.025962,0.241724,0.498880,0.000000,-0.866671
0.144483,0.029449,0.071436,0.000000,1.000000,0.000000
0.029449,0.736566,0.139585,1.000000,0.000000,0.000000
0.012787,0.029449,0.158732,0.000000,1.000000,0.000000
0.236442,-0.013950,0.256178,-0.788702,0.000000,0.614775
0.317131,0.029449,0.049044,0.000000,1.000000,0.000000
0.097008,0.021850,0.085866,-0.326158,0.000000,-0.945315
0.350406,-0.029449,0.198406,0.000000,-1.000000,0.000000
0.029449,0.875195,0.079057,1.000000,0.000000,0.000000
0.029449,0.752375,0.132214,1.000000,0.000000,0.000000
0.235916,0.029449,0.112976,0.000000,1.000000,0.000000
-0.029449,0.989177,0.206093,-1.000000,0.000000,0.000000
0.029449,0.906644,0.318689,1.000000,0.000000,0.000000
-0.029449,0.013103,0.041274,-1.000000,0.000000,0.000000
0.195316,0.029449,0.386517,0.000000,1.000000,0.000000
0.029449,0.114411,0.317292,1.000000,0.000000,0.000000
0.349492,-0.029449,0.072654,0.000000,-1.000000,0.000000
0.029449,0.950679,0.125635,1.000000,0.000000,0.000000
0.385589,-0.029449,0.070817,0.000000,-1.000000,0.000000
0.238957,0.005339,0.296074,-0.955834,0.000000,0.293906
0.196242,0.026927,0.229740,-0.535202,0.000000,0.844724
0.176647,0.029449,0.371129,0.000000,1.000000,0.000000
0.019505,0.029449,0.211559,0.000000,1.000000,0.000000
0.176837,-0.003292,0.226364,-0.765386,0.000000,-0.643571
0.029449,0.449789,0.153391,1.000000,0.000000,0.000000
-0.029449,0.204836,0.171585,-1.000000,0.000000,0.000000
0.030132,0.029449,0.154540,0.000000,1.000000,0.000000
-0.029449,0.863472,0.337854,-1.000000,0.000000,0.000000
0.029449,0.967938,0.291952,1.000000,0.000000,0.000000
0.130798,0.000589,0.195435,-0.074627,0.000000,0.997212
0.307604,0.029449,0.023790,0.000000,1.000000,0.000000
0.331662,-0.029449,0.170579,0.000000,-1.000000,0.000000
-0.029449,0.023194,0.239316,-1.000000,0.000000,0.000000
0.029449,0.770516,0.012614,1.000000,0.000000,0.000000
-0.029449,0.379626,0.022327,-1.000000,0.000000,0.000000
0.242865,-0.029449,0.173436,0.000000,-1.000000,0.000000
0.260118,0.025064,0.265893,0.973282,0.000000,-0.229612
0.265290,-0.029449,0.213165,0.000000,-1.000000,0.000000
0.011225,0.029449,0.359175,0.000000,1.000000,0.000000
0.396913,-0.029449,0.246606,0.000000,-1.000000,0.000000
0.004774,-0.029449,0.243992,0.000000,-1.000000,0.000000
0.318342,0.029028,0.240599,0.958348,0.000000,-0.285603
-0.029449,0.686309,0.083348,-1.000000,0.000000,0.000000
-0.029449,0.149212,0.224623,-1.000000,0.000000,0.000000
0.353476,-0.029449,0.292753,0.000000,-1.000000,0.000000
-0.029449,0.369055,0.131168,-1.000000,0.000000,0.000000
0.029449,0.590090,0.365937,1.000000,0.000000,0.000000
-0.029449,0.854517,0.144637,-1.000000,0.000000,0.000000
0.029449,0.605604,0.387943,1.000000,0.000000,0.000000
-0.029449,0.733928,0.379595,-1.000000,0.000000,0.000000
0.137285,-0.029449,0.365085,0.000000,-1.000000,0.000000
-0.029449,0.904056,0.344600,-1.000000,0.000000,0.000000
0.162100,0.029449,0.115773,0.000000,1.000000,0.000000
0.147919,-0.029449,0.149811,0.000000,-1.000000,0.000000
0.029449,0.963195,0.036739,1.000000,0.000000,0.000000
0.029449,0.889780,0.293435,1.000000,0.000000,0.000000
0.029449,0.208729,0.109990,1.000000,0.000000,0.000000
0.109805,-0.017158,0.161043,-0.997146,0.000000,0.075500
-0.029449,0.700637,0.254628,-1.000000,0.000000,0.000000
0.029449,0.757076,0.189227,1.000000,0.000000,0.000000
-0.029449,0.172644,0.178085,-1.000000,0.000000,0.000000
0.105920,-0.029449,0.166223,0.000000,-1.000000,0.000000
0.029449,0.130585,0.087303,1.000000,0.000000,0.000000
-0.029449,0.368789,0.173545,-1.000000,0.000000,0.000000
0.029449,0.231725,0.203269,1.000000,0.000000,0.000000
0.158239,-0.029449,0.353341,0.000000,-1.000000,0.000000
0.378419,-0.029449,0.169645,0.000000,-1.000000,0.000000
-0.029449,0.241127,0.346000,-1.000000,0.000000,0.000000
0.196282,0.009578,0.299753,-0.822891,0.000000,0.568200
0.226269,0.029449,0.098471,0.000000,1.000000,0.000000
-0.029449,0.813619,0.386751,-1.000000,0.000000,0.000000
0.291243,0.012501,0.271699,0.757351,0.000000,-0.653008
0.029449,0.980679,0.186412,1.000000,0.000000,0.000000
0.059920,-0.029449,0.225410,0.000000,-1.000000,0.000000
0.370449,-0.029449,0.290512,0.000000,-1.000000,0.000000
0.219349,0.029449,0.403356,0.000000,1.000000,0.000000
0.289742,0.029449,0.112267,0.000000,1.000000,0.000000
-0.029449,0.973383,0.138365,-1.000000,0.000000,0.000000
0.112519,-0.014103,0.295100,-0.008240,0.000000,0.999966
0.364551,-0.029449,0.080229,0.000000,-1.000000,0.000000
0.331576,-0.029449,0.263627,0.000000,-1.000000,0.000000
0.029449,0.585717,0.271250,1.000000,0.000000,0.000000
0.243404,0.015457,0.152960,0.277759,0.000000,0.960651
0.124039,0.006541,0.077629,-0.037599,0.000000,-0.999293
-0.029449,0.121416,0.262934,-1.000000,0.000000,0.000000
0.166719,-0.023184,0.146784,-0.366285,0.000000,0.930503
0.314911,-0.029449,0.252841,0.000000,-1.000000,0.000000
0.120880,-0.029449,0.243980,0.000000,-1.000000,0.000000
0.085611,0.029449,0.225869,0.000000,1.000000,0.000000
0.360792,0.029449,0.287274,0.000000,1.000000,0.000000
-0.029449,0.578393,0.375738,-1.000000,0.000000,0.000000
0.029449,0.671295,0.244970,1.000000,0.000000,0.000000
0.144957,-0.029449,0.311306,0.000000,-1.000000,0.000000
0.029449,0.102433,0.050236,1.000000,0.000000,0.000000
-0.029449,0.377590,0.317047,-1.000000,0.000000,0.000000
0.029449,0.546226,0.070915,1.000000,0.000000,0.000000
-0.029449,0.388073,0.025201,-1.000000,0.000000,0.000000
0.029449,0.985120,0.393154,1.000000,0.000000,0.000000
-0.029449,0.961645,0.368687,-1.000000,0.000000,0.000000
0.101417,0.029449,0.060222,0.000000,1.000000,0.000000
0.029449,0.021120,0.369465,1.000000,0.000000,0.000000
0.289930,-0.029449,0.157343,0.000000,-1.000000,0.000000
0.029449,0.767286,0.155364,1.000000,0.000000,0.000000
0.279608,-0.019155,0.216884,0.965328,0.000000,-0.261039
0.399896,-0.029449,0.238823,0.000000,-1.000000,0.000000
0.106985,0.029449,0.322107,0.000000,1.000000,0.000000
0.232862,0.023665,0.312736,-0.907527,0.000000,0.419994
0.213114,-0.029449,0.174685,0.000000,-1.000000,0.000000
-0.029449,0.349098,0.167421,-1.000000,0.000000,0.000000
-0.029449,0.917857,0.263536,-1.000000,0.000000,0.000000
0.259176,0.029449,0.046773,0.000000,1.000000,0.000000
0.261016,-0.029449,0.043096,0.000000,-1.000000,0.000000
0.223687,-0.029449,0.113446,0.000000,-1.000000,0.000000
0.183273,0.029449,0.399187,0.000000,1.000000,0.000000
-0.029449,0.321479,0.235884,-1.000000,0.000000,0.000000
0.306675,0.020167,0.262360,0.008757,0.000000,-0.999962
0.022085,-0.029449,0.114463,0.000000,-1.000000,0.000000
0.116061,0.008856,0.085005,-0.628720,0.000000,-0.777631
0.029449,0.807386,0.375756,1.000000,0.000000,0.000000
-0.029449,0.988693,0.281953,-1.000000,0.000000,0.000000
0.251453,-0.029449,0.114579,0.000000,-1.000000,0.000000
0.029449,0.150411,0.055110,1.000000,0.000000,0.000000
0.029449,0.881302,0.254378,1.000000,0.000000,0.000000
-0.029449,0.657288,0.041712,-1.000000,0.000000,0.000000
-0.029449,0.190238,0.102549,-1.000000,0.000000,0.000000
0.029449,0.636265,0.284991,1.000000,0.000000,0.000000
0.210581,-0.029449,0.357542,0.000000,-1.000000,0.000000
-0.029449,0.488330,0.358656,-1.000000,0.000000,0.000000
0.183532,-0.029449,0.000437,0.000000,-1.000000,0.000000
0.332946,0.029449,0.135658,0.000000,1.000000,0.000000
0.188888,0.029449,0.320775,0.000000,1.000000,0.000000
0.057811,0.029449,0.156148,0.000000,1.000000,0.000000
0.029449,0.547991,0.385296,1.000000,0.000000,0.000000
0.044089,0.029449,0.060314,0.000000,1.000000,0.000000
0.115393,0.029449,0.356371,0.000000,1.000000,0.000000
0.029449,0.918635,0.204486,1.000000,0.000000,0.000000
0.098611,0.029200,0.221557,-0.463299,0.000000,-0.886202
0.198934,-0.008164,0.159337,0.166591,0.000000,-0.986026
-0.029449,0.485676,0.385288,-1.000000,0.000000,0.000000
0.286013,-0.029449,0.202812,0.000000,-1.000000,0.000000
0.152619,0.017474,0.293986,0.824968,0.000000,0.565179
0.209109,0.029449,0.303023,0.000000,1.000000,0.000000
-0.029449,0.032646,0.143271,-1.000000,0.000000,0.000000
0.029449,0.257466,0.028938,1.000000,0.000000,0.000000
0.283124,-0.029449,0.027556,0.000000,-1.000000,0.000000
0.029449,0.232407,0.003858,1.000000,0.000000,0.000000
0.239080,0.029449,0.199986,0.000000,1.000000,0.000000
0.067745,0.029449,0.232100,0.000000,1.000000,0.000000
0.246912,0.029449,0.170858,0.000000,1.000000,0.000000
0.157151,-0.029449,0.190696,0.000000,-1.000000,0.000000
0.029449,0.305754,0.130363,1.000000,0.000000,0.000000
-0.029449,0.208959,0.102168,-1.000000,0.000000,0.000000
-0.029449,0.448113,0.265370,-1.000000,0.000000,0.000000
0.209234,0.029449,0.250728,0.000000,1.000000,0.000000
0.327087,0.029449,0.275477,0.000000,1.000000,0.000000
0.034572,-0.029449,0.373455,0.000000,-1.000000,0.000000
0.150907,-0.029449,0.370349,0.000000,-1.000000,0.000000
0.124819,0.029449,0.213222,0.000000,1.000000,0.000000
0.093301,-0.029449,0.172669,0.000000,-1.000000,0.000000
0.029449,0.263621,0.323936,1.000000,0.000000,0.000000
0.383365,0.029449,0.052145,0.000000,1.000000,0.000000
-0.029449,0.162518,0.037416,-1.000000,0.000000,0.000000
-0.029449,0.854305,0.124791,-1.000000,0.000000,0.000000
0.167029,0.029449,0.331471,0.000000,1.000000,0.000000
0.029449,0.498525,0.279951,1.000000,0.000000,0.000000
0.029449,0.652348,0.054765,1.000000,0.000000,0.000000
0.029449,0.758251,0.165133,1.000000,0.000000,0.000000
0.030176,-0.029449,0.204348,0.000000,-1.000000,0.000000
0.029449,0.495171,0.055804,1.000000,0.000000,0.000000
-0.029449,0.761513,0.063544,-1.000000,0.000000,0.000000
0.029449,0.252768,0.078190,1.000000,0.000000,0.000000
-0.029449,0.750592,0.095594,-1.000000,0.000000,0.000000
0.278028,0.029449,0.282125,0.000000,1.000000,0.000000
0.095929,-0.005974,0.183040,-0.793649,0.000000,0.608376
0.204533,-0.029449,0.265163,0.000000,-1.000000,0.000000
0.029449,0.181256,0.320301,1.000000,0.000000,0.000000
-0.029449,0.265642,0.356187,-1.000000,0.000000,0.000000
0.029449,0.588935,0.227022,1.000000,0.000000,0.000000
0.139470,-0.007991,0.171442,-0.999823,0.000000,-0.018831
0.080314,-0.029449,0.075170,0.000000,-1.000000,0.000000
0.356908,0.029449,0.198655,0.000000,1.000000,0.000000
0.029449,0.834026,0.051551,1.000000,0.000000,0.000000
0.029449,0.024477,0.122950,1.000000,0.000000,0.000000
0.210004,0.029449,0.268509,0.000000,1.000000,0.000000
0.341790,-0.029449,0.075532,0.000000,-1.000000,0.000000
0.029449,0.651261,0.070661,1.000000,0.000000,0.000000
0.029449,0.894722,0.160832,1.000000,0.000000,0.000000
0.282470,0.029449,0.158085,0.000000,1.000000,0.000000
0.020537,-0.029449,0.197736,0.000000,-1.000000,0.000000
0.178671,0.029449,0.117925,0.000000,1.000000,0.000000
0.029449,0.017706,0.221355,1.000000,0.000000,0.000000
0.029449,0.811871,0.387567,1.000000,0.000000,0.000000
0.367568,0.029449,0.264350,0.000000,1.000000,0.000000
0.234851,0.022704,0.271561,0.524271,0.000000,0.851551
0.115093,-0.029449,0.335309,0.000000,-1.000000,0.000000
-0.029449,0.658438,0.378999,-1.000000,0.000000,0.000000
-0.029449,0.371449,0.049831,-1.000000,0.000000,0.000000
0.029449,0.087548,0.346877,1.000000,0.000000,0.000000
-0.029449,0.570239,0.228653,-1.000000,0.000000,0.000000
-0.029449,0.525444,0.358401,-1.000000,0.000000,0.000000
0.067997,-0.029449,0.184052,0.000000,-1.000000,0.000000
0.358777,-0.029449,0.118604,0.000000,-1.000000,0.000000
-0.029449,0.152603,0.175163,-1.000000,0.000000,0.000000
0.234828,-0.006645,0.219565,-0.332697,0.000000,-0.943034
0.087587,0.029449,0.229795,0.000000,1.000000,0.000000
0.029449,0.528312,0.349995,1.000000,0.000000,0.000000
0.213766,0.029449,0.080588,0.000000,1.000000,0.000000
0.298834,-0.029449,0.122804,0.000000,-1.000000,0.000000
-0.029449,0.182264,0.406969,-1.000000,0.000000,0.000000
-0.029449,0.574607,0.239884,-1.000000,0.000000,0.000000
0.007642,0.029449,0.279178,0.000000,1.000000,0.000000
0.029449,0.072658,0.364562,1.000000,0.000000,0.000000
0.032654,-0.029449,0.342698,0.000000,-1.000000,0.000000
-0.029449,0.109110,0.331988,-1.000000,0.000000,0.000000
0.037814,0.029449,0.150855,0.000000,1.000000,0.000000
0.114652,-0.029449,0.243568,0.000000,-1.000000,0.000000
0.192305,-0.015062,0.351893,0.403009,0.000000,0.915196
0.404132,-0.029449,0.130610,0.000000,-1.000000,0.000000
-0.029449,0.433699,0.042631,-1.000000,0.000000,0.000000
0.029449,0.171781,0.320660,1.000000,0.000000,0.000000
-0.029449,0.867687,0.219441,-1.000000,0.000000,0.000000
-0.029449,0.404236,0.306642,-1.000000,0.000000,0.000000
0.119185,-0.005341,0.227348,0.141460,0.000000,0.989944
0.237261,-0.029449,0.162446,0.000000,-1.000000,0.000000
0.087294,0.029449,0.359267,0.000000,1.000000,0.000000
0.342654,0.029449,0.224132,0.000000,1.000000,0.000000
-0.029449,0.810805,0.398326,-1.000000,0.000000,0.000000
0.288324,-0.017492,0.157288,0.349801,0.000000,-0.936824
-0.029449,0.670622,0.215671,-1.000000,0.000000,0.000000
0.272399,0.029449,0.239837,0.000000,1.000000,0.000000
0.029449,0.261213,0.069153,1.000000,0.000000,0.000000
0.107065,-0.029449,0.294073,0.000000,-1.000000,0.000000
0.359574,0.029449,0.218290,0.000000,1.000000,0.000000
0.057631,0.029449,0.291043,0.000000,1.000000,0.000000
0.323400,0.029449,0.226103,0.000000,1.000000,0.000000
0.112618,-0.029449,0.283903,0.000000,-1.000000,0.000000
-0.029449,0.736228,0.074543,-1.000000,0.000000,0.000000
0.128048,-0.029449,0.086689,0.000000,-1.000000,0.000000
-0.029449,0.887630,0.209714,-1.000000,0.000000,0.000000
-0.029449,0.055176,0.376707,-1.000000,0.000000,0.000000
0.364338,0.029449,0.231594,0.000000,1.000000,0.000000
0.374349,-0.029449,0.135990,0.000000,-1.000000,0.000000
0.137945,0.016354,0.230776,-0.075153,0.000000,-0.997172
0.031240,-0.029449,0.171415,0.000000,-1.000000,0.000000
0.029449,0.652055,0.071181,1.000000,0.000000,0.000000
-0.029449,0.190031,0.140184,-1.000000,0.000000,0.000000
0.045330,-0.029449,0.115953,0.000000,-1.000000,0.000000
0.326801,0.029449,0.333936,0.000000,1.000000,0.000000
-0.029449,0.750266,0.361719,-1.000000,0.000000,0.000000
0.307251,-0.029449,0.334697,0.000000,-1.000000,0.000000
0.029449,0.808464,0.182840,1.000000,0.000000,0.000000
0.242812,0.012090,0.165523,0.847893,0.000000,0.530167
0.305493,0.029449,0.013468,0.000000,1.000000,0.000000
0.037386,-0.029449,0.178121,0.000000,-1.000000,0.000000
0.047711,-0.029449,0.201956,0.000000,-1.000000,0.000000
0.029449,0.590223,0.022412,1.000000,0.000000,0.000000
0.082155,-0.029449,0.086532,0.000000,-1.000000,0.000000
0.029449,0.701661,0.170776,1.000000,0.000000,0.000000
0.029449,0.382031,0.179303,1.000000,0.000000,0.000000
0.058507,-0.029449,0.106915,0.000000,-1.000000,0.000000
-0.029449,0.381976,0.021535,-1.000000,0.000000,0.000000
-0.029449,0.087856,0.218257,-1.000000,0.000000,0.000000
0.075011,-0.029449,0.281200,0.000000,-1.000000,0.000000
0.292515,0.029449,0.164384,0.000000,1.000000,0.000000
0.029449,0.900440,0.383512,1.000000,0.000000,0.000000
-0.029449,0.706099,0.360371,-1.000000,0.000000,0.000000
0.029449,0.326675,0.025213,1.000000,0.000000,0.000000
-0.029449,0.701822,0.177345,-1.000000,0.000000,0.000000
-0.029449,0.539412,0.141380,-1.000000,0.000000,0.000000
0.365408,0.029449,0.338737,0.000000,1.000000,0.000000
0.067880,-0.029449,0.157775,0.000000,-1.000000,0.000000
0.029449,0.186019,0.335285,1.000000,0.000000,0.000000
0.029449,0.450632,0.376674,1.000000,0.000000,0.000000
0.223548,0.012970,0.137449,-0.405309,0.000000,-0.914180
-0.029449,0.745363,0.159551,-1.000000,0.000000,0.000000
0.220312,0.029449,0.134139,0.000000,1.000000,0.000000
0.060431,-0.029449,0.167201,0.000000,-1.000000,0.000000
0.258485,-0.029449,0.367025,0.000000,-1.000000,0.000000
0.391360,0.029449,0.175759,0.000000,1.000000,0.000000
0.029449,0.249426,0.333989,1.000000,0.000000,0.000000
0.335127,0.029449,0.196906,0.000000,1.000000,0.000000
0.115020,0.029449,0.303430,0.000000,1.000000,0.000000
-0.029449,0.371308,0.207205,-1.000000,0.000000,0.000000
0.349445,-0.029449,0.030920,0.000000,-1.000000,0.000000
0.404157,0.029449,0.054627,0.000000,1.000000,0.000000
0.188672,-0.029449,0.267898,0.000000,-1.000000,0.000000
-0.029449,0.337810,0.026361,-1.000000,0.000000,0.000000
-0.029449,0.796379,0.280678,-1.000000,0.000000,0.000000
0.303317,-0.029449,0.350819,0.000000,-1.000000,0.000000
-0.029449,0.668423,0.176377,-1.000000,0.000000,0.000000
-0.029449,0.989625,0.335572,-1.000000,0.000000,0.000000
0.185457,0.029449,0.044391,0.000000,1.000000,0.000000
0.087302,0.029449,0.289437,0.000000,1.000000,0.000000
0.169966,-0.029449,0.021457,0.000000,-1.000000,0.000000
-0.029449,0.800308,0.145804,-1.000000,0.000000,0.000000
0.010962,-0.029449,0.075686,0.000000,-1.000000,0.000000
-0.029449,0.339845,0.027808,-1.000000,0.000000,0.000000
-0.029449,0.904927,0.360435,-1.000000,0.000000,0.000000
0.353558,0.029449,0.219065,0.000000,1.000000,0.000000
0.240773,-0.029449,0.167591,0.000000,-1.000000,0.000000
0.147775,0.017106,0.175914,-0.955430,0.000000,0.295219
0.029449,0.453817,0.376412,1.000000,0.000000,0.000000
0.029449,0.334860,0.121100,1.000000,0.000000,0.000000
-0.029449,0.699944,0.072781,-1.000000,0.000000,0.000000
-0.029449,0.079335,0.207255,-1.000000,0.000000,0.000000
0.118159,0.029449,0.273044,0.000000,1.000000,0.000000
0.062840,-0.029449,0.295638,0.000000,-1.000000,0.000000
0.106430,0.026022,0.204443,-0.414758,0.000000,0.909932
0.267808,0.018286,0.067999,-0.093556,0.000000,-0.995614
0.332819,0.029449,0.239524,0.000000,1.000000,0.000000
0.245141,-0.029449,0.345759,0.000000,-1.000000,0.000000
0.408536,0.029449,0.055747,0.000000,1.000000,0.000000
-0.029449,0.112369,0.347587,-1.000000,0.000000,0.000000
-0.029449,0.144378,0.009848,-1.000000,0.000000,0.000000
0.343142,-0.029449,0.263682,0.000000,-1.000000,0.000000
0.029449,0.152715,0.402313,1.000000,0.000000,0.000000
0.029449,0.225066,0.358900,1.000000,0.000000,0.000000
0.251504,-0.007467,0.297726,0.479179,0.000000,0.877717
0.039716,-0.029449,0.118375,0.000000,-1.000000,0.000000
0.335621,0.002285,0.219334,0.702073,0.000000,0.712105
0.029449,0.298123,0.310264,1.000000,0.000000,0.000000
0.393276,-0.029449,0.355014,0.000000,-1.000000,0.000000
0.247017,0.009165,0.240092,0.709320,0.000000,-0.704886
0.347456,-0.029449,0.158013,0.000000,-1.000000,0.000000
0.029449,0.721878,0.224672,1.000000,0.000000,0.000000
0.029449,0.164766,0.379827,1.000000,0.000000,0.000000
0.250289,0.012014,0.191250,-0.912322,0.000000,-0.409473
0.353998,-0.029449,0.287397,0.000000,-1.000000,0.000000
0.029449,0.131514,0.306162,1.000000,0.000000,0.000000
0.191478,-0.029449,0.174584,0.000000,-1.000000,0.000000
-0.029449,0.280261,0.135459,-1.000000,0.000000,0.000000
0.369697,-0.029449,0.031833,0.000000,-1.000000,0.000000
0.029449,0.034291,0.261832,1.000000,0.000000,0.000000
-0.029449,0.553884,0.329801,-1.000000,0.000000,0.000000
-0.029449,0.857671,0.116068,-1.000000,0.000000,0.000000
-0.029449,0.344418,0.058922,-1.000000,0.000000,0.000000
0.273475,0.029449,0.351918,0.000000,1.000000,0.000000
0.260927,-0.029449,0.086701,0.000000,-1.000000,0.000000
0.118420,0.011864,0.174020,0.361819,0.000000,0.932249
0.029449,0.959581,0.341275,1.000000,0.000000,0.000000
0.270572,0.029449,0.180543,0.000000,1.000000,0.000000
0.294452,0.020863,0.237221,0.963287,0.000000,-0.268474
0.200771,0.029449,0.389797,0.000000,1.000000,0.000000
0.281734,0.029449,0.375154,0.000000,1.000000,0.000000
0.108352,-0.029449,0.201207,0.000000,-1.000000,0.000000
0.280629,-0.001905,0.322040,0.420552,0.000000,0.907268
0.029449,0.840352,0.146159,1.000000,0.000000,0.000000
0.363203,-0.029449,0.403237,0.000000,-1.000000,0.000000
0.091152,-0.029449,0.006542,0.000000,-1.000000,0.000000
0.029449,0.182025,0.152231,1.000000,0.000000,0.000000
-0.029449,0.116632,0.158730,-1.000000,0.000000,0.000000
0.314150,-0.029449,0.230834,0.000000,-1.000000,0.000000
0.114094,0.029449,0.388652,0.000000,1.000000,0.000000
0.029449,0.977228,0.088351,1.000000,0.000000,0.000000
0.029449,0.416593,0.188865,1.000000,0.000000,0.000000
0.372748,-0.029449,0.378912,0.000000,-1.000000,0.000000
-0.029449,0.553603,0.056250,-1.000000,0.000000,0.000000
0.289569,0.029449,0.127606,0.000000,1.000000,0.000000
-0.029449,0.853449,0.251092,-1.000000,0.000000,0.000000
0.367412,-0.029449,0.192024,0.000000,-1.000000,0.000000
0.215530,0.013018,0.215778,-0.113867,0.000000,-0.993496
0.087783,0.029449,0.070065,0.000000,1.000000,0.000000
0.288584,-0.029449,0.138306,0.000000,-1.000000,0.000000
0.184229,-0.029449,0.319957,0.000000,-1.000000,0.000000
-0.029449,0.252091,0.089718,-1.000000,0.000000,0.000000
-0.029449,0.348089,0.271784,-1.000000,0.000000,0.000000
0.304042,0.029449,0.282651,0.000000,1.000000,0.000000
-0.029449,0.617480,0.408576,-1.000000,0.000000,0.000000
-0.029449,0.430762,0.062942,-1.000000,0.000000,0.000000
0.029449,0.096923,0.143182,1.000000,0.000000,0.000000
-0.029449,0.641994,0.399076,-1.000000,0.000000,0.000000
0.029449,0.023418,0.010180,1.000000,0.000000,0.000000
0.018533,-0.029449,0.313468,0.000000,-1.000000,0.000000
0.021514,0.029449,0.096615,0.000000,1.000000,0.000000
0.029449,0.643283,0.334247,1.000000,0.000000,0.000000
0.029449,0.465639,0.030583,1.000000,0.000000,0.000000
0.029449,0.035875,0.317320,1.000000,0.000000,0.000000
-0.029449,0.526215,0.122164,-1.000000,0.000000,0.000000
0.107456,-0.029449,0.007858,0.000000,-1.000000,0.000000
0.231751,-0.029449,0.379906,0.000000,-1.000000,0.000000
-0.029449,0.895341,0.286548,-1.000000,0.000000,0.000000
0.178457,0.029449,0.298708,0.000000,1.000000,0.000000
-0.029449,0.572414,0.315001,-1.000000,0.000000,0.000000
0.029449,0.446554,0.130986,1.000000,0.000000,0.000000
0.029449,0.290203,0.259468,1.000000,0.000000,0.000000
-0.029449,0.419635,0.024482,-1.000000,0.000000,0.000000
0.029449,0.626894,0.041323,1.000000,0.000000,0.000000
0.117298,0.029449,0.404086,0.000000,1.000000,0.000000
0.130937,-0.002314,0.129303,0.345233,0.000000,-0.938517
-0.029449,0.644211,0.372947,-1.000000,0.000000,0.000000
0.047224,-0.029449,0.064418,0.000000,-1.000000,0.000000
0.153187,0.013216,0.148325,-0.955343,0.000000,-0.295499
0.029449,0.175607,0.224769,1.000000,0.000000,0.000000
-0.029449,0.306914,0.150364,-1.000000,0.000000,0.000000
0.376762,-0.029449,0.299985,0.000000,-1.000000,0.000000
0.029449,0.066682,0.026220,1.000000,0.000000,0.000000
0.029449,0.049766,0.091422,1.000000,0.000000,0.000000
-0.029449,0.532531,0.106928,-1.000000,0.000000,0.000000
0.200024,-0.011062,0.100046,-0.022463,0.000000,-0.999748
-0.029449,0.504784,0.017470,-1.000000,0.000000,0.000000
0.151550,-0.004922,0.311164,-0.757481,0.000000,0.652857
0.248522,-0.029449,0.346086,0.000000,-1.000000,0.000000
-0.029449,0.922760,0.363090,-1.000000,0.000000,0.000000
0.292951,-0.029449,0.091685,0.000000,-1.000000,0.000000
0.122034,-0.029449,0.003132,0.000000,-1.000000,0.000000
0.099488,0.016610,0.207971,-0.396709,0.000000,-0.917945
0.172850,-0.029449,0.209248,0.000000,-1.000000,0.000000
0.147891,0.029449,0.361784,0.000000,1.000000,0.000000
0.385154,0.029449,0.101559,0.000000,1.000000,0.000000
0.029449,0.887736,0.401879,1.000000,0.000000,0.000000
0.114641,0.029449,0.215852,0.000000,1.000000,0.000000
0.322531,-0.029449,0.219635,0.000000,-1.000000,0.000000
0.093527,0.005299,0.182792,-0.999925,0.000000,0.012268
0.051955,-0.029449,0.375535,0.000000,-1.000000,0.000000
-0.029449,0.096231,0.202669,-1.000000,0.000000,0.000000
0.246000,0.029449,0.367795,0.000000,1.000000,0.000000
0.029449,0.697407,0.181287,1.000000,0.000000,0.000000
-0.029449,0.292123,0.379884,-1.000000,0.000000,0.000000
-0.029449,0.331686,0.288195,-1.000000,0.000000,0.000000
0.207341,-0.029449,0.073747,0.000000,-1.000000,0.000000
-0.029449,0.526563,0.236590,-1.000000,0.000000,0.000000
-0.029449,0.059742,0.266247,-1.000000,0.000000,0.000000
-0.029449,0.514227,0.217240,-1.000000,0.000000,0.000000
0.011608,0.029449,0.109687,0.000000,1.000000,0.000000
0.312570,0.006329,0.260113,0.484485,0.000000,-0.874800
0.277206,-0.029449,0.055184,0.000000,-1.000000,0.000000
0.029449,0.766560,0.134854,1.000000,0.000000,0.000000
0.079213,-0.029449,0.253916,0.000000,-1.000000,0.000000
0.231077,-0.022307,0.300181,0.052538,0.000000,0.998619
0.029449,0.924349,0.024465,1.000000,0.000000,0.000000
0.029449,0.802710,0.072918,1.000000,0.000000,0.000000
0.387823,0.029449,0.074771,0.000000,1.000000,0.000000
-0.029449,0.470589,0.374632,-1.000000,0.000000,0.000000
0.029449,0.059360,0.392094,1.000000,0.000000,0.000000
0.029449,0.429108,0.116847,1.000000,0.000000,0.000000
0.029449,0.395599,0.240373,1.000000,0.000000,0.000000
0.112736,-0.015862,0.247608,-0.413028,0.000000,-0.910718
0.378586,0.029449,0.368753,0.000000,1.000000,0.000000
-0.029449,0.422069,0.372258,-1.000000,0.000000,0.000000
0.029449,0.289071,0.027363,1.000000,0.000000,0.000000
0.240048,-0.015027,0.292956,-0.040035,0.000000,0.999198
-0.029449,0.231507,0.390225,-1.000000,0.000000,0.000000
0.064881,-0.010392,0.168257,-0.890187,0.000000,0.455594
-0.029449,0.907376,0.234602,-1.000000,0.000000,0.000000
0.360279,0.029449,0.091631,0.000000,1.000000,0.000000
0.138258,-0.020043,0.285984,-0.934466,0.000000,-0.356052
-0.029449,0.525286,0.144397,-1.000000,0.000000,0.000000
0.135118,-0.029449,0.341170,0.000000,-1.000000,0.000000
0.029449,0.344686,0.308512,1.000000,0.000000,0.000000
0.133721,0.029449,0.203743,0.000000,1.000000,0.000000
0.054295,-0.029449,0.284566,0.000000,-1.000000,0.000000
-0.029449,0.659382,0.269488,-1.000000,0.000000,0.000000
0.029449,0.888670,0.317604,1.000000,0.000000,0.000000
-0.029449,0.180269,0.248922,-1.000000,0.000000,0.000000
-0.029449,0.110539,0.336971,-1.000000,0.000000,0.000000
0.392103,0.029449,0.098629,0.000000,1.000000,0.000000
-0.029449,0.801231,0.254395,-1.000000,0.000000,0.000000
0.029449,0.879274,0.070870,1.000000,0.000000,0.000000
0.128110,-0.029449,0.000920,0.000000,-1.000000,0.000000
0.197050,-0.029449,0.031058,0.000000,-1.000000,0.000000
0.029449,0.474178,0.197762,1.000000,0.000000,0.000000
0.267167,0.024791,0.281239,-0.890303,0.000000,0.455368
0.221217,0.003439,0.279146,0.347056,0.000000,0.937845
0.339895,-0.029449,0.385038,0.000000,-1.000000,0.000000
0.113608,0.029449,0.182973,0.000000,1.000000,0.000000
0.029449,0.369300,0.076184,1.000000,0.000000,0.000000
0.070774,0.029449,0.058851,0.000000,1.000000,0.000000
0.042074,0.029449,0.072127,0.000000,1.000000,0.000000
0.312032,0.029449,0.257726,0.000000,1.000000,0.000000
0.029449,0.442200,0.250827,1.000000,0.000000,0.000000
0.084045,-0.029449,0.216736,0.000000,-1.000000,0.000000
-0.029449,0.973030,0.080677,-1.000000,0.000000,0.000000
