x,y,z,nx,ny,nz
-9.584004,-10.144033,-1.545757,0.000000,-0.000000,-1.000000
-10.066688,4.408102,1.545757,0.000000,0.000000,1.000000
-8.768245,-10.686158,-1.545757,0.000000,-0.000000,-1.000000
13.228118,9.375736,-1.545757,-0.000000,0.000000,-1.000000
14.431269,13.705157,1.102640,0.740951,0.671559,-0.000000
-2.819346,-19.349982,-1.545757,0.000000,-0.000000,-1.000000
19.507244,-4.008761,0.129591,0.970031,-0.242980,0.000000
-6.091117,-18.952539,1.386154,-0.336890,-0.941544,0.000000
12.350097,3.513378,-1.545757,-0.000000,0.000000,-1.000000
-9.692982,0.613696,1.545757,-0.000000,0.000000,1.000000
15.988441,11.842636,0.158254,0.803208,0.595699,-0.000000
-11.802097,12.741948,-1.545757,-0.000000,-0.000000,-1.000000
-12.158288,1.860530,-1.545757,-0.000000,-0.000000,-1.000000
11.007405,-3.366172,-1.545757,0.000000,0.000000,-1.000000
12.493001,-7.990757,-1.545757,0.000000,0.000000,-1.000000
5.768597,4.548277,-1.545757,0.000000,0.000000,-1.000000
-4.952349,-14.142356,-1.545757,0.000000,-0.000000,-1.000000
13.325709,-13.164774,-1.545757,0.000000,0.000000,-1.000000
9.083354,1.568627,-1.545757,-0.000000,0.000000,-1.000000
0.219234,7.077079,0.364051,-0.049068,-0.998795,-0.000000
-9.525956,-16.254973,1.545757,-0.000000,0.000000,1.000000
2.147647,-10.720089,-1.545757,0.000000,0.000000,-1.000000
11.672076,-6.602381,1.545757,-0.000000,-0.000000,1.000000
5.852531,-9.864355,1.545757,0.000000,-0.000000,1.000000
-0.498803,10.394227,-1.545757,-0.000000,0.000000,-1.000000
-4.205703,5.694639,-0.990967,0.595699,-0.803208,0.000000
3.151057,17.118083,-1.545757,-0.000000,0.000000,-1.000000
17.073154,8.753393,-1.545757,-0.000000,0.000000,-1.000000
-7.383701,-2.233419,-1.545757,0.000000,-0.000000,-1.000000
-11.161502,16.493604,-1.352296,-0.595699,0.803208,0.000000
-9.724951,-7.593599,-1.545757,0.000000,-0.000000,-1.000000
-1.743200,10.130089,-1.545757,-0.000000,-0.000000,-1.000000
18.268005,1.468185,-1.545757,0.000000,0.000000,-1.000000
13.441753,4.955235,-1.545757,-0.000000,0.000000,-1.000000
-16.151075,-1.469601,1.545757,-0.000000,0.000000,1.000000
-2.289241,-15.158434,-1.545757,0.000000,-0.000000,-1.000000
4.859322,-5.150124,-1.306905,-0.671559,0.740951,0.000000
3.444006,-6.189299,0.067250,-0.514103,0.857729,0.000000
17.338137,2.276955,1.545757,0.000000,0.000000,1.000000
0.420157,-7.067208,1.373075,-0.049068,0.998795,0.000000
2.852685,-6.481970,1.140530,-0.427555,0.903989,0.000000
4.651143,10.618983,-1.545757,-0.000000,0.000000,-1.000000
-14.859942,3.968152,-1.545757,-0.000000,-0.000000,-1.000000
-3.183537,19.642161,1.074840,-0.146730,0.989177,0.000000
-8.942608,13.427268,1.545757,0.000000,0.000000,1.000000
19.335416,-4.694739,0.423892,0.970031,-0.242980,0.000000
9.481313,17.514068,1.075866,0.514103,0.857729,-0.000000
13.105579,-14.974695,0.499179,0.671559,-0.740951,0.000000
-7.012391,2.101431,-1.545757,-0.000000,0.000000,-1.000000
-4.869320,-10.493899,-1.545757,0.000000,-0.000000,-1.000000
11.159946,-12.210233,-1.545757,0.000000,0.000000,-1.000000
-12.861007,0.655707,-1.545757,-0.000000,-0.000000,-1.000000
12.749499,-12.086752,-1.545757,0.000000,0.000000,-1.000000
-5.121915,-19.228414,-1.268502,-0.242980,-0.970031,0.000000
-4.686187,-19.337558,0.283554,-0.242980,-0.970031,0.000000
-17.808501,-6.139292,-1.545757,0.000000,-0.000000,-1.000000
16.933516,-8.754621,1.545757,0.000000,-0.000000,1.000000
-0.047873,12.802894,-1.545757,-0.000000,0.000000,-1.000000
-16.443063,10.479122,-1.545757,-0.000000,-0.000000,-1.000000
-4.253983,-6.294137,-1.545757,0.000000,-0.000000,-1.000000
13.209309,5.165312,-1.545757,-0.000000,0.000000,-1.000000
-12.989099,-8.375504,-1.545757,0.000000,-0.000000,-1.000000
7.317420,5.338180,1.545757,0.000000,-0.000000,1.000000
-8.896877,-10.909788,1.545757,-0.000000,0.000000,1.000000
4.129406,19.477024,1.427702,0.242980,0.970031,-0.000000
6.196028,16.899951,-1.545757,-0.000000,0.000000,-1.000000
-12.953037,15.112951,-0.332456,-0.671559,0.740951,0.000000
11.131753,4.404728,1.545757,0.000000,-0.000000,1.000000
-12.250215,-14.339850,1.545757,-0.000000,0.000000,1.000000
12.058997,-10.484740,-1.545757,0.000000,0.000000,-1.000000
-18.709127,-5.026919,-1.545757,0.000000,-0.000000,-1.000000
-12.096830,8.140427,-1.545757,-0.000000,-0.000000,-1.000000
8.963729,-15.812359,-1.545757,0.000000,0.000000,-1.000000
-13.353471,-1.319907,-1.545757,0.000000,-0.000000,-1.000000
-6.693781,-5.136686,1.545757,-0.000000,0.000000,1.000000
-15.867624,-11.673090,1.545757,-0.000000,0.000000,1.000000
-13.970344,-12.588335,-1.545757,0.000000,-0.000000,-1.000000
3.709725,-13.374250,1.545757,0.000000,-0.000000,1.000000
12.693227,15.348429,0.627159,0.671559,0.740951,-0.000000
-17.981227,7.706645,1.545757,0.000000,0.000000,1.000000
16.729680,-8.032639,1.545757,0.000000,-0.000000,1.000000
6.834468,-10.756158,1.545757,-0.000000,-0.000000,1.000000
-5.804096,13.788015,1.545757,0.000000,0.000000,1.000000
11.355476,-16.349743,0.365551,0.595699,-0.803208,0.000000
9.071240,13.002321,1.545757,0.000000,0.000000,1.000000
-12.441402,15.539012,-1.545757,-0.000000,-0.000000,-1.000000
8.341498,-12.229431,1.545757,0.000000,-0.000000,1.000000
-6.981773,-1.880265,1.545757,-0.000000,0.000000,1.000000
-3.013866,15.171802,1.545757,0.000000,0.000000,1.000000
5.811829,-6.876673,1.545757,0.000000,-0.000000,1.000000
-1.352477,-10.601086,1.545757,-0.000000,0.000000,1.000000
-2.199103,-18.945550,1.545757,-0.000000,0.000000,1.000000
15.664306,0.255117,-1.545757,0.000000,0.000000,-1.000000
4.024190,9.806216,-1.545757,0.000000,0.000000,-1.000000
19.215194,-5.174691,-0.598906,0.970031,-0.242980,0.000000
7.977055,-10.101921,1.545757,-0.000000,-0.000000,1.000000
17.451120,9.586335,1.125118,0.857729,0.514103,0.000000
3.401314,11.194727,-1.545757,-0.000000,0.000000,-1.000000
-11.070251,12.974393,-1.545757,-0.000000,-0.000000,-1.000000
-4.840329,8.920664,-1.545757,-0.000000,0.000000,-1.000000
14.673874,2.699152,1.545757,0.000000,-0.000000,1.000000
19.776647,2.276908,-1.440466,0.989177,0.146730,0.000000
-13.405711,-11.082271,-1.545757,0.000000,-0.000000,-1.000000
19.146326,2.852735,1.545757,0.000000,0.000000,1.000000
-0.730998,7.048340,0.726042,0.146730,-0.989177,0.000000
-2.812505,11.513415,1.545757,0.000000,0.000000,1.000000
8.894632,-8.337377,1.545757,0.000000,-0.000000,1.000000
16.299246,-9.634247,-1.545757,0.000000,0.000000,-1.000000
-6.857110,12.960328,1.545757,0.000000,0.000000,1.000000
-2.802764,12.411560,1.545757,0.000000,0.000000,1.000000
5.131047,16.574770,-1.545757,-0.000000,0.000000,-1.000000
-17.487167,-0.821353,-1.545757,0.000000,-0.000000,-1.000000
-7.947662,-14.941886,-1.545757,0.000000,-0.000000,-1.000000
-0.903346,19.876303,-0.727556,-0.049068,0.998795,0.000000
0.849406,16.554008,1.545757,0.000000,0.000000,1.000000
0.241649,-7.075978,-1.405658,-0.049068,0.998795,0.000000
-13.299425,8.890249,1.545757,0.000000,0.000000,1.000000
19.127227,-5.525877,0.646534,0.970031,-0.242980,0.000000
-9.439119,-7.220268,-1.545757,0.000000,-0.000000,-1.000000
1.848920,-19.257169,1.545757,0.000000,-0.000000,1.000000
13.563222,3.770475,-1.545757,-0.000000,0.000000,-1.000000
10.460967,12.412105,-1.545757,-0.000000,0.000000,-1.000000
5.129840,-10.982564,1.545757,0.000000,-0.000000,1.000000
12.518453,-9.958480,-1.545757,0.000000,0.000000,-1.000000
-8.340932,-6.104938,1.545757,-0.000000,0.000000,1.000000
-8.528234,0.136666,1.545757,0.000000,0.000000,1.000000
-5.427564,-13.890186,1.545757,-0.000000,0.000000,1.000000
9.595000,-15.278355,1.545757,0.000000,-0.000000,1.000000
-2.301237,18.005734,1.545757,0.000000,0.000000,1.000000
-0.500460,13.607734,1.545757,0.000000,0.000000,1.000000
1.760115,12.410319,1.545757,0.000000,0.000000,1.000000
19.164414,-2.887982,-1.545757,0.000000,0.000000,-1.000000
1.752270,-18.362982,-1.545757,0.000000,0.000000,-1.000000
15.938333,5.030969,-1.545757,-0.000000,0.000000,-1.000000
9.763333,15.809857,1.545757,0.000000,0.000000,1.000000
18.052940,3.790299,-1.545757,-0.000000,0.000000,-1.000000
16.094719,10.602320,1.545757,0.000000,0.000000,1.000000
-3.287691,15.917771,1.545757,0.000000,0.000000,1.000000
-16.133046,-6.591173,1.545757,-0.000000,0.000000,1.000000
14.866779,6.609360,-1.545757,-0.000000,0.000000,-1.000000
-18.014942,2.941343,-1.545757,-0.000000,-0.000000,-1.000000
2.726266,-9.299027,-1.545757,0.000000,0.000000,-1.000000
18.866856,-2.734556,-1.545757,0.000000,0.000000,-1.000000
14.276988,1.431818,1.545757,0.000000,0.000000,1.000000
15.345794,-3.408356,-1.545757,0.000000,0.000000,-1.000000
13.530032,8.429407,-1.545757,-0.000000,0.000000,-1.000000
17.734835,3.715477,-1.545757,-0.000000,0.000000,-1.000000
11.389145,-4.331124,1.545757,0.000000,-0.000000,1.000000
4.706817,6.705686,-1.545757,0.000000,0.000000,-1.000000
13.121142,-14.960589,1.503449,0.671559,-0.740951,0.000000
5.029889,-10.415210,-1.545757,0.000000,0.000000,-1.000000
-3.632882,11.322843,-1.545757,-0.000000,0.000000,-1.000000
-9.185874,-9.488396,-1.545757,0.000000,-0.000000,-1.000000
12.359608,15.605028,-1.542917,0.595699,0.803208,0.000000
12.339766,10.790189,1.545757,0.000000,0.000000,1.000000
2.223773,6.988477,-1.545757,0.000000,0.000000,-1.000000
15.640228,12.312147,0.655802,0.803208,0.595699,-0.000000
10.452661,3.546893,1.545757,0.000000,0.000000,1.000000
-6.872882,5.343569,-1.545757,-0.000000,0.000000,-1.000000
3.481564,16.336096,1.545757,0.000000,0.000000,1.000000
11.854869,14.479244,1.545757,0.000000,0.000000,1.000000
-19.190088,5.274922,-1.422075,-0.970031,0.242980,0.000000
2.920252,10.547344,-1.545757,0.000000,0.000000,-1.000000
3.798979,-14.298534,1.545757,0.000000,-0.000000,1.000000
16.437778,0.433522,1.545757,0.000000,0.000000,1.000000
7.885647,6.376098,-1.545757,-0.000000,0.000000,-1.000000
-1.418143,13.261418,1.545757,0.000000,0.000000,1.000000
-15.918506,-6.136048,-1.545757,0.000000,-0.000000,-1.000000
-19.901280,-0.394918,-1.176437,-0.998795,-0.049068,0.000000
-13.326792,10.536087,-1.545757,-0.000000,-0.000000,-1.000000
-1.272553,-19.858165,1.016814,-0.049068,-0.998795,0.000000
-9.847997,7.953306,-1.545757,-0.000000,0.000000,-1.000000
14.855019,-13.237621,-0.076041,0.740951,-0.671559,0.000000
-11.037133,-0.639536,-1.545757,0.000000,-0.000000,-1.000000
-11.998994,-10.084652,-1.545757,0.000000,-0.000000,-1.000000
10.136056,-6.844437,-1.545757,0.000000,0.000000,-1.000000
8.713579,-11.074209,-1.545757,0.000000,0.000000,-1.000000
-6.699053,2.291129,0.561603,0.941544,-0.336890,0.000000
13.802133,-13.552046,-1.545757,0.000000,0.000000,-1.000000
-17.884692,2.670933,1.545757,0.000000,0.000000,1.000000
-2.753252,13.341421,-1.545757,-0.000000,0.000000,-1.000000
0.703908,18.475438,-1.545757,-0.000000,0.000000,-1.000000
7.692030,6.001580,1.545757,0.000000,-0.000000,1.000000
14.307364,-1.462139,1.545757,-0.000000,-0.000000,1.000000
13.167527,-10.326375,1.545757,0.000000,-0.000000,1.000000
-6.766456,2.102750,1.291828,0.941544,-0.336890,0.000000
12.152957,-11.068940,1.545757,0.000000,-0.000000,1.000000
2.205178,-15.969801,1.545757,0.000000,-0.000000,1.000000
17.393397,9.682640,-0.005674,0.857729,0.514103,0.000000
-3.070693,-19.658900,0.923005,-0.146730,-0.989177,0.000000
9.553808,-17.470616,0.193193,0.514103,-0.857729,0.000000
16.816007,7.306558,-1.545757,-0.000000,0.000000,-1.000000
-19.904633,0.326669,-1.001054,-0.998795,0.049068,0.000000
10.269300,14.577976,1.545757,0.000000,0.000000,1.000000
2.802917,-9.518721,-1.545757,0.000000,0.000000,-1.000000
-5.224600,-15.321986,1.545757,-0.000000,0.000000,1.000000
-19.460012,4.197322,-0.091576,-0.970031,0.242980,0.000000
11.189589,-9.019816,1.545757,0.000000,-0.000000,1.000000
13.792966,-14.351684,0.467798,0.671559,-0.740951,0.000000
10.876769,0.240293,1.545757,0.000000,0.000000,1.000000
11.661866,-9.291264,-1.545757,0.000000,0.000000,-1.000000
-2.371551,16.032436,1.545757,0.000000,0.000000,1.000000
-13.705976,0.901765,1.545757,-0.000000,0.000000,1.000000
10.670261,2.164804,1.545757,0.000000,0.000000,1.000000
-16.843948,10.127229,-1.545757,-0.000000,-0.000000,-1.000000
-13.934347,4.171931,1.545757,0.000000,0.000000,1.000000
6.967471,1.276168,0.033084,-0.989177,-0.146730,-0.000000
-14.465749,4.727236,-1.545757,-0.000000,-0.000000,-1.000000
9.415414,12.138981,1.545757,0.000000,0.000000,1.000000
14.330820,-6.326788,-1.545757,0.000000,0.000000,-1.000000
6.665930,2.383701,0.607071,-0.941544,-0.336890,0.000000
1.835811,-10.312514,-1.545757,0.000000,0.000000,-1.000000
-4.212828,11.785788,1.545757,0.000000,0.000000,1.000000
-8.719849,8.889679,1.545757,0.000000,0.000000,1.000000
10.229651,1.570345,-1.545757,-0.000000,0.000000,-1.000000
-14.090799,2.422072,1.545757,0.000000,0.000000,1.000000
19.905698,-0.304990,-1.475258,0.998795,-0.049068,0.000000
9.687927,-2.137455,1.545757,-0.000000,-0.000000,1.000000
-19.035930,-0.062672,1.545757,-0.000000,0.000000,1.000000
-9.544219,-1.856765,1.545757,-0.000000,0.000000,1.000000
-9.583030,17.453101,0.424552,-0.514103,0.857729,0.000000
2.839680,16.677845,-1.545757,-0.000000,0.000000,-1.000000
-5.507220,7.770845,-1.545757,-0.000000,0.000000,-1.000000
-5.135447,-4.875516,1.081172,0.740951,0.671559,0.000000
-6.313874,17.644170,1.545757,0.000000,0.000000,1.000000
-2.720515,-18.291274,1.545757,-0.000000,0.000000,1.000000
9.363440,17.581292,1.462746,0.427555,0.903989,0.000000
-11.010385,-8.443066,1.545757,-0.000000,0.000000,1.000000
9.811035,0.693392,1.545757,0.000000,-0.000000,1.000000
12.256207,-12.766665,1.545757,0.000000,-0.000000,1.000000
-14.044151,10.331622,1.545757,0.000000,0.000000,1.000000
14.506527,4.975823,1.545757,0.000000,0.000000,1.000000
-11.923583,-7.892452,1.545757,-0.000000,0.000000,1.000000
2.482657,-17.279776,-1.545757,0.000000,0.000000,-1.000000
-7.273157,-17.154831,1.545757,-0.000000,0.000000,1.000000
-16.194215,-3.848191,-1.545757,0.000000,-0.000000,-1.000000
-17.776637,-8.950417,-0.970797,-0.903989,-0.427555,0.000000
-14.936917,-8.544247,-1.545757,0.000000,-0.000000,-1.000000
4.307966,18.610610,-1.545757,-0.000000,0.000000,-1.000000
18.230840,-6.681242,-1.545757,0.000000,0.000000,-1.000000
14.747668,11.970594,1.545757,0.000000,0.000000,1.000000
1.237773,-18.424157,-1.545757,0.000000,0.000000,-1.000000
6.622601,-5.634879,1.545757,-0.000000,-0.000000,1.000000
-0.963208,-17.968834,1.545757,-0.000000,-0.000000,1.000000
-13.300722,-13.036080,1.545757,-0.000000,0.000000,1.000000
-6.433359,11.219775,1.545757,0.000000,0.000000,1.000000
-7.819262,2.363936,-1.545757,-0.000000,0.000000,-1.000000
5.913199,18.417055,-1.545757,-0.000000,0.000000,-1.000000
-4.241378,15.122439,1.545757,0.000000,0.000000,1.000000
2.808341,-6.865602,1.545757,-0.000000,-0.000000,1.000000
-0.733676,-10.050843,-1.545757,0.000000,-0.000000,-1.000000
-19.256852,-5.008384,1.308297,-0.970031,-0.242980,0.000000
-4.020128,8.827474,1.545757,0.000000,0.000000,1.000000
1.412837,9.908551,-1.545757,-0.000000,0.000000,-1.000000
-7.330420,12.791647,1.545757,0.000000,0.000000,1.000000
16.810390,-10.655328,1.220982,0.857729,-0.514103,0.000000
-19.894378,0.535421,1.297447,-0.998795,0.049068,0.000000
10.709553,6.355104,1.545757,0.000000,0.000000,1.000000
11.361571,-15.749285,-1.545757,0.000000,0.000000,-1.000000
-16.413531,3.414548,1.545757,0.000000,0.000000,1.000000
14.360460,11.548981,1.545757,0.000000,0.000000,1.000000
-7.237830,-18.485581,1.545757,-0.000000,0.000000,1.000000
10.632721,4.309344,1.545757,0.000000,-0.000000,1.000000
3.936885,-18.301630,-1.545757,0.000000,0.000000,-1.000000
6.407607,-3.009914,-0.672069,-0.903989,0.427555,0.000000
1.764342,10.850043,1.545757,0.000000,0.000000,1.000000
10.044600,1.582204,1.545757,0.000000,-0.000000,1.000000
6.463279,-16.130864,1.545757,0.000000,-0.000000,1.000000
3.116950,6.356982,1.324822,-0.427555,-0.903989,0.000000
8.572954,1.177035,-1.545757,0.000000,0.000000,-1.000000
-2.565021,16.152634,-1.545757,-0.000000,-0.000000,-1.000000
-0.350151,-8.781607,1.545757,-0.000000,0.000000,1.000000
9.533291,7.652136,-1.545757,-0.000000,0.000000,-1.000000
12.014141,-10.865952,1.545757,0.000000,-0.000000,1.000000
-4.864195,-16.707663,-1.545757,0.000000,-0.000000,-1.000000
6.993907,16.260483,-1.545757,-0.000000,0.000000,-1.000000
-6.903346,-7.513700,1.545757,-0.000000,0.000000,1.000000
-14.263416,12.940904,-1.545757,-0.000000,-0.000000,-1.000000
-10.844939,5.179871,-1.545757,-0.000000,-0.000000,-1.000000
4.754962,-8.058002,1.545757,-0.000000,-0.000000,1.000000
16.369816,-3.464142,-1.545757,0.000000,0.000000,-1.000000
12.920427,-8.604491,-1.545757,0.000000,0.000000,-1.000000
12.855076,-15.201738,0.945608,0.671559,-0.740951,0.000000
-11.222355,6.524556,-1.545757,-0.000000,-0.000000,-1.000000
2.015676,-15.763742,1.545757,0.000000,-0.000000,1.000000
-9.708349,-13.559511,-1.545757,0.000000,-0.000000,-1.000000
10.029677,9.935591,-1.545757,-0.000000,0.000000,-1.000000
-11.921922,-7.167139,1.545757,-0.000000,0.000000,1.000000
-8.400773,12.052657,-1.545757,-0.000000,-0.000000,-1.000000
14.661978,-13.450609,-0.847929,0.740951,-0.671559,0.000000
-7.428004,-10.113322,1.545757,-0.000000,0.000000,1.000000
-1.493762,13.749467,1.545757,0.000000,0.000000,1.000000
-6.335290,-17.581931,1.545757,-0.000000,0.000000,1.000000
-17.647243,8.595821,1.545757,0.000000,0.000000,1.000000
-7.203302,10.014009,-1.545757,-0.000000,-0.000000,-1.000000
5.265796,-13.896248,-1.545757,0.000000,0.000000,-1.000000
17.674279,-9.104937,1.545757,0.000000,-0.000000,1.000000
16.373626,3.002334,-1.545757,-0.000000,0.000000,-1.000000
5.578577,-10.383053,-1.545757,0.000000,0.000000,-1.000000
-6.321575,3.191813,-0.612805,0.903989,-0.427555,0.000000
17.462829,-2.578903,-1.545757,0.000000,0.000000,-1.000000
18.993739,-5.975970,0.205639,0.941544,-0.336890,0.000000
-2.686264,-10.893450,1.545757,-0.000000,0.000000,1.000000
9.921869,-17.250009,-0.192152,0.514103,-0.857729,0.000000
18.179585,1.486697,1.545757,0.000000,0.000000,1.000000
19.206845,5.208021,-0.831963,0.970031,0.242980,0.000000
1.506853,-19.846655,-0.173569,0.049068,-0.998795,0.000000
-13.340191,-5.119399,-1.545757,0.000000,-0.000000,-1.000000
-5.524041,-4.435728,-1.343184,0.803208,0.595699,0.000000
10.270871,-0.506408,-1.545757,0.000000,0.000000,-1.000000
5.676897,18.015823,-1.545757,-0.000000,0.000000,-1.000000
12.953535,-8.257269,1.545757,0.000000,-0.000000,1.000000
-18.015269,8.445873,0.090034,-0.903989,0.427555,0.000000
16.740950,6.962216,1.545757,0.000000,0.000000,1.000000
6.410210,-8.606701,-1.545757,0.000000,0.000000,-1.000000
-12.239056,-13.405600,-1.545757,0.000000,-0.000000,-1.000000
-7.979455,8.642514,1.545757,0.000000,0.000000,1.000000
19.879286,-0.842624,1.187074,0.998795,-0.049068,0.000000
-8.702407,-3.766030,1.545757,-0.000000,0.000000,1.000000
5.047956,13.414645,1.545757,0.000000,0.000000,1.000000
-19.838373,1.675437,0.037204,-0.998795,0.049068,0.000000
-0.164279,16.992194,-1.545757,-0.000000,0.000000,-1.000000
7.667457,0.579534,-1.545757,0.000000,0.000000,-1.000000
-9.051474,-5.507536,1.545757,-0.000000,0.000000,1.000000
7.217333,8.511563,-1.545757,-0.000000,0.000000,-1.000000
1.775355,-6.853321,0.665825,-0.242980,0.970031,0.000000
-13.521027,8.437196,1.545757,0.000000,0.000000,1.000000
10.017992,14.330763,1.545757,0.000000,0.000000,1.000000
17.843472,-8.134466,-1.545757,0.000000,0.000000,-1.000000
1.758171,19.834308,0.020328,0.049068,0.998795,0.000000
-12.972267,15.095523,0.894703,-0.671559,0.740951,0.000000
-8.950047,-13.866171,1.545757,-0.000000,0.000000,1.000000
-11.738481,7.641046,1.545757,0.000000,0.000000,1.000000
-15.601491,0.801252,-1.545757,-0.000000,-0.000000,-1.000000
-2.111032,-15.193361,-1.545757,0.000000,-0.000000,-1.000000
8.271008,8.597697,-1.545757,0.000000,0.000000,-1.000000
8.051997,-7.988115,1.545757,0.000000,-0.000000,1.000000
6.812937,-1.936578,0.443074,-0.970031,0.242980,0.000000
-5.173453,12.990705,1.545757,0.000000,0.000000,1.000000
8.322159,16.299291,-1.545757,-0.000000,0.000000,-1.000000
7.245460,3.225504,1.545757,0.000000,-0.000000,1.000000
4.774904,-12.808443,1.545757,0.000000,-0.000000,1.000000
-17.921495,7.741770,1.545757,0.000000,0.000000,1.000000
-8.124891,-13.549562,1.545757,-0.000000,0.000000,1.000000
19.704870,-2.760786,0.524102,0.989177,-0.146730,0.000000
3.140260,-6.345957,1.193398,-0.427555,0.903989,0.000000
-3.551808,6.124685,1.072972,0.514103,-0.857729,0.000000
10.336768,-8.096706,-1.545757,0.000000,0.000000,-1.000000
-10.876577,-4.856758,-1.545757,0.000000,-0.000000,-1.000000
5.436606,-4.543239,1.380007,-0.740951,0.671559,0.000000
6.306615,14.023544,-1.545757,-0.000000,0.000000,-1.000000
12.508164,15.494852,-1.244652,0.595699,0.803208,0.000000
-3.999310,-5.847711,0.264847,0.595699,0.803208,0.000000
-13.490007,10.307724,1.545757,0.000000,0.000000,1.000000
2.656779,-19.720298,-1.091904,0.146730,-0.989177,0.000000
13.501399,-4.191265,1.545757,-0.000000,-0.000000,1.000000
-7.063495,-2.982814,1.545757,-0.000000,0.000000,1.000000
-0.497430,-17.496423,-1.545757,0.000000,-0.000000,-1.000000
10.786037,6.988626,1.545757,0.000000,-0.000000,1.000000
-7.881847,-13.519723,1.545757,-0.000000,0.000000,1.000000
-10.229647,-17.065534,-1.065006,-0.514103,-0.857729,0.000000
-6.365515,13.877308,1.545757,0.000000,0.000000,1.000000
-1.563127,8.330723,1.545757,0.000000,0.000000,1.000000
4.103555,-18.432250,1.545757,0.000000,-0.000000,1.000000
4.701739,13.110175,-1.545757,-0.000000,0.000000,-1.000000
-1.814156,9.821276,-1.545757,-0.000000,-0.000000,-1.000000
16.267519,-6.316433,1.545757,0.000000,-0.000000,1.000000
-14.334148,11.753141,1.545757,0.000000,0.000000,1.000000
0.087731,12.625674,1.545757,0.000000,0.000000,1.000000
3.828790,8.111330,-1.545757,0.000000,0.000000,-1.000000
10.931861,-16.644643,-0.291111,0.514103,-0.857729,0.000000
11.005721,5.417019,1.545757,0.000000,-0.000000,1.000000
2.325105,6.686896,-0.741842,-0.336890,-0.941544,-0.000000
18.560073,3.272306,-1.545757,-0.000000,0.000000,-1.000000
-19.561958,-3.453287,-1.545757,0.000000,-0.000000,-1.000000
-8.429544,-14.686132,-1.545757,0.000000,-0.000000,-1.000000
4.159294,16.238634,-1.545757,-0.000000,0.000000,-1.000000
-19.282334,4.906652,-0.661446,-0.970031,0.242980,0.000000
6.993055,1.103695,-1.349722,-0.989177,-0.146730,-0.000000
-6.359744,8.166703,1.545757,0.000000,0.000000,1.000000
8.447740,8.020584,-1.545757,-0.000000,0.000000,-1.000000
3.512163,8.669166,-1.545757,0.000000,0.000000,-1.000000
19.084580,-5.696132,-0.628167,0.970031,-0.242980,0.000000
-10.099516,9.165799,-1.545757,-0.000000,-0.000000,-1.000000
10.172014,-14.718668,-1.545757,0.000000,0.000000,-1.000000
-14.149355,13.097532,-1.545757,-0.000000,-0.000000,-1.000000
-5.375439,-4.610726,0.915747,0.740951,0.671559,0.000000
7.084193,-0.074424,-0.704999,-0.998795,0.049068,0.000000
11.288307,-16.399559,0.343064,0.595699,-0.803208,0.000000
11.244855,16.431785,-0.139526,0.595699,0.803208,-0.000000
-13.208030,-9.531550,-1.545757,0.000000,-0.000000,-1.000000
19.846342,1.513218,-1.268279,0.998795,0.049068,0.000000
-15.558796,5.134715,-1.545757,-0.000000,-0.000000,-1.000000
-4.802191,-19.308500,-0.116195,-0.242980,-0.970031,0.000000
-6.055440,17.729952,-1.545757,-0.000000,-0.000000,-1.000000
1.843424,-19.830120,-0.874754,0.049068,-0.998795,0.000000
-9.399380,2.919421,-1.545757,-0.000000,-0.000000,-1.000000
14.545060,-11.062113,-1.545757,0.000000,0.000000,-1.000000
14.545782,7.593921,-1.545757,-0.000000,0.000000,-1.000000
6.909407,9.235933,-1.545757,-0.000000,0.000000,-1.000000
13.176525,-11.571741,1.545757,0.000000,-0.000000,1.000000
-17.322656,-6.627754,1.545757,-0.000000,0.000000,1.000000
-11.051655,-14.882373,1.545757,-0.000000,0.000000,1.000000
13.453664,12.688727,-1.545757,-0.000000,0.000000,-1.000000
5.111497,13.080938,-1.545757,0.000000,0.000000,-1.000000
17.631634,6.045269,-1.545757,-0.000000,0.000000,-1.000000
2.876393,-19.687721,0.344511,0.146730,-0.989177,0.000000
6.485988,2.844191,1.475982,-0.903989,-0.427555,0.000000
-7.846392,0.932142,1.545757,0.000000,0.000000,1.000000
-12.159111,-11.193323,1.545757,-0.000000,0.000000,1.000000
6.593133,-15.479613,1.545757,0.000000,-0.000000,1.000000
-15.054844,-9.211889,1.545757,-0.000000,0.000000,1.000000
-19.919648,-0.021044,0.117855,-0.998795,-0.049068,0.000000
-4.634523,15.876114,-1.545757,-0.000000,-0.000000,-1.000000
4.850375,-10.441382,-1.545757,0.000000,0.000000,-1.000000
-8.677193,6.275335,1.545757,0.000000,0.000000,1.000000
19.266426,4.970161,-0.537453,0.970031,0.242980,0.000000
0.400188,8.985724,-1.545757,0.000000,0.000000,-1.000000
14.137374,-1.917286,1.545757,0.000000,-0.000000,1.000000
8.949844,5.508646,-1.545757,-0.000000,0.000000,-1.000000
-16.194003,-0.410391,1.545757,-0.000000,0.000000,1.000000
11.501356,0.545789,1.545757,0.000000,0.000000,1.000000
5.440468,9.868330,1.545757,0.000000,-0.000000,1.000000
-2.761465,-8.258273,-1.545757,0.000000,-0.000000,-1.000000
11.623449,6.935169,-1.545757,-0.000000,0.000000,-1.000000
13.882517,-9.368944,1.545757,-0.000000,-0.000000,1.000000
11.871794,14.791002,-1.545757,-0.000000,0.000000,-1.000000
12.508891,-11.522870,1.545757,0.000000,-0.000000,1.000000
-9.171271,10.820408,-1.545757,-0.000000,0.000000,-1.000000
13.611229,3.834480,-1.545757,-0.000000,0.000000,-1.000000
-8.406346,-6.147763,1.545757,-0.000000,0.000000,1.000000
-15.051760,3.717731,1.545757,0.000000,0.000000,1.000000
7.231699,-0.524231,1.545757,0.000000,-0.000000,1.000000
-7.290336,15.677547,-1.545757,-0.000000,-0.000000,-1.000000
10.907404,-15.687544,1.545757,0.000000,-0.000000,1.000000
14.375178,0.218752,1.545757,0.000000,0.000000,1.000000
11.366529,16.341546,-0.953319,0.595699,0.803208,-0.000000
-15.133561,-2.756785,-1.545757,0.000000,-0.000000,-1.000000
-17.028311,7.330901,-1.545757,-0.000000,-0.000000,-1.000000
-14.764759,-11.372821,1.545757,-0.000000,0.000000,1.000000
-1.251655,7.982506,1.545757,0.000000,0.000000,1.000000
-1.971885,-17.874952,1.545757,-0.000000,0.000000,1.000000
-7.599075,-4.131333,-1.545757,0.000000,-0.000000,-1.000000
-15.599485,-1.532032,1.545757,-0.000000,0.000000,1.000000
-9.498079,13.093805,-1.545757,-0.000000,-0.000000,-1.000000
-9.229016,-13.377635,-1.545757,0.000000,-0.000000,-1.000000
7.597432,-18.413571,-0.223411,0.336890,-0.941544,0.000000
15.927208,7.811965,1.545757,0.000000,0.000000,1.000000
14.407823,9.620110,-1.545757,-0.000000,0.000000,-1.000000
-16.180405,-8.406044,-1.545757,0.000000,-0.000000,-1.000000
5.730203,-4.352499,-1.545757,0.000000,0.000000,-1.000000
3.745507,10.196749,1.545757,0.000000,0.000000,1.000000
-12.360585,-2.048991,1.545757,-0.000000,0.000000,1.000000
5.790925,-10.926428,-1.545757,0.000000,0.000000,-1.000000
-9.447489,-5.943904,1.545757,-0.000000,0.000000,1.000000
-4.152934,-15.448922,-1.545757,0.000000,-0.000000,-1.000000
11.040846,9.474076,1.545757,0.000000,0.000000,1.000000
11.565283,-2.080929,1.545757,0.000000,-0.000000,1.000000
9.422529,-17.549302,0.560105,0.514103,-0.857729,0.000000
10.130992,6.804620,1.545757,0.000000,0.000000,1.000000
-13.659517,4.385799,1.545757,0.000000,0.000000,1.000000
9.108240,-16.876494,1.545757,0.000000,-0.000000,1.000000
-18.273837,-2.541948,1.545757,-0.000000,0.000000,1.000000
9.333383,0.150640,-1.545757,0.000000,0.000000,-1.000000
-11.438090,-1.089425,1.545757,-0.000000,0.000000,1.000000
11.273700,-16.410392,-0.481975,0.595699,-0.803208,0.000000
10.563306,1.740990,1.545757,0.000000,-0.000000,1.000000
-19.585694,3.564205,1.099035,-0.989177,0.146730,0.000000
9.568991,-0.744042,1.545757,0.000000,-0.000000,1.000000
14.555608,-11.092186,1.545757,0.000000,-0.000000,1.000000
13.105669,7.623987,-1.545757,-0.000000,0.000000,-1.000000
3.811213,-6.185673,1.545757,-0.000000,-0.000000,1.000000
9.441957,2.438867,-1.545757,-0.000000,0.000000,-1.000000
11.072748,-4.728616,-1.545757,0.000000,0.000000,-1.000000
-9.604084,4.227864,-1.545757,-0.000000,-0.000000,-1.000000
14.808813,-7.828575,-1.545757,0.000000,0.000000,-1.000000
17.003367,-5.418014,1.545757,0.000000,-0.000000,1.000000
5.022867,-11.814356,1.545757,0.000000,-0.000000,1.000000
-0.886673,-18.351654,-1.545757,0.000000,-0.000000,-1.000000
7.182302,1.181154,-1.545757,0.000000,0.000000,-1.000000
-16.037384,-11.776644,-0.063536,-0.803208,-0.595699,0.000000
-3.673147,-15.700609,1.545757,-0.000000,0.000000,1.000000
-17.720277,-8.766292,1.545757,-0.000000,0.000000,1.000000
11.298031,-1.689114,-1.545757,0.000000,0.000000,-1.000000
12.918327,11.839438,1.545757,0.000000,0.000000,1.000000
-5.331335,-13.958390,-1.545757,0.000000,-0.000000,-1.000000
18.710802,-3.851476,1.545757,0.000000,-0.000000,1.000000
15.842568,8.019429,1.545757,0.000000,0.000000,1.000000
-5.379877,7.066094,-1.545757,-0.000000,0.000000,-1.000000
2.673175,-6.800397,1.545757,-0.000000,-0.000000,1.000000
12.187014,-1.351092,-1.545757,0.000000,0.000000,-1.000000
-19.532569,3.907658,-1.077729,-0.970031,0.242980,0.000000
-11.462402,16.270442,-0.713590,-0.595699,0.803208,0.000000
11.668518,-6.234379,-1.545757,0.000000,0.000000,-1.000000
-6.133061,-4.567548,-1.545757,0.000000,-0.000000,-1.000000
14.395472,-4.173104,-1.545757,0.000000,0.000000,-1.000000
-7.365164,18.496678,0.445732,-0.336890,0.941544,0.000000
-0.492674,-12.692813,1.545757,-0.000000,-0.000000,1.000000
6.562186,-3.111950,1.545757,-0.000000,-0.000000,1.000000
-12.392151,12.815973,-1.545757,-0.000000,-0.000000,-1.000000
-3.211230,-19.638053,-0.508671,-0.146730,-0.989177,0.000000
17.465285,-5.418815,1.545757,0.000000,-0.000000,1.000000
-6.632641,-4.506516,-1.545757,0.000000,-0.000000,-1.000000
7.439175,-17.301001,-1.545757,0.000000,0.000000,-1.000000
-14.617060,-3.329612,1.545757,-0.000000,0.000000,1.000000
3.337641,-16.059928,-1.545757,0.000000,0.000000,-1.000000
2.581515,-7.913994,-1.545757,0.000000,0.000000,-1.000000
17.134945,-5.257041,-1.545757,0.000000,0.000000,-1.000000
-3.389073,17.872399,-1.545757,-0.000000,-0.000000,-1.000000
-3.472557,8.936307,-1.545757,-0.000000,-0.000000,-1.000000
-2.921823,19.130490,-1.545757,-0.000000,-0.000000,-1.000000
12.531568,15.477494,0.290138,0.595699,0.803208,0.000000
4.268674,10.283038,1.545757,0.000000,-0.000000,1.000000
10.324972,-1.206259,-1.545757,0.000000,0.000000,-1.000000
-11.243951,-5.914711,1.545757,-0.000000,0.000000,1.000000
13.515922,1.030404,1.545757,0.000000,-0.000000,1.000000
8.173878,-18.143913,-1.436176,0.427555,-0.903989,0.000000
-6.749582,-2.149909,-0.583946,0.941544,0.336890,0.000000
11.003995,-16.175958,-1.545757,0.000000,0.000000,-1.000000
9.973068,5.759645,-1.545757,0.000000,0.000000,-1.000000
-4.652957,-8.672604,1.545757,-0.000000,0.000000,1.000000
4.093626,-11.008257,1.545757,-0.000000,-0.000000,1.000000
16.685662,10.863425,-0.981136,0.857729,0.514103,-0.000000
0.599820,-7.058382,0.296008,-0.049068,0.998795,0.000000
-2.099527,15.187289,1.545757,0.000000,0.000000,1.000000
-4.456429,-17.217535,-1.545757,0.000000,-0.000000,-1.000000
1.423814,16.388573,1.545757,0.000000,0.000000,1.000000
-12.393340,4.934514,1.545757,0.000000,0.000000,1.000000
9.748749,-17.074286,-1.545757,0.000000,0.000000,-1.000000
6.084520,3.825892,1.545757,0.000000,-0.000000,1.000000
9.949676,10.075785,-1.545757,0.000000,0.000000,-1.000000
-5.822561,-12.259511,1.545757,-0.000000,0.000000,1.000000
8.391170,7.821617,1.545757,0.000000,-0.000000,1.000000
6.823450,18.469841,1.545757,0.000000,0.000000,1.000000
-9.418588,17.551664,-0.263819,-0.514103,0.857729,0.000000
15.175384,8.219820,1.545757,0.000000,0.000000,1.000000
-19.002109,-5.952578,-0.255352,-0.941544,-0.336890,0.000000
-6.459711,-2.899749,-0.318282,0.903989,0.427555,0.000000
-19.580385,3.599994,-0.771584,-0.989177,0.146730,0.000000
12.945057,11.727010,1.545757,0.000000,0.000000,1.000000
-6.325015,-13.162389,1.545757,-0.000000,0.000000,1.000000
-6.314525,15.212227,1.545757,0.000000,0.000000,1.000000
8.196213,-3.885382,-1.545757,0.000000,0.000000,-1.000000
-2.413250,-10.160438,-1.545757,0.000000,-0.000000,-1.000000
3.210355,-13.271611,1.545757,0.000000,-0.000000,1.000000
7.365818,-12.538172,-1.545757,0.000000,0.000000,-1.000000
18.078401,1.049521,-1.545757,0.000000,0.000000,-1.000000
-11.774957,-7.101561,1.545757,-0.000000,0.000000,1.000000
-7.631754,-9.201096,-1.545757,0.000000,-0.000000,-1.000000
-17.201929,-10.002085,1.203606,-0.857729,-0.514103,0.000000
-17.867598,-4.258851,1.545757,-0.000000,0.000000,1.000000
-17.673316,7.963340,-1.545757,-0.000000,-0.000000,-1.000000
-9.808602,13.672499,-1.545757,-0.000000,-0.000000,-1.000000
16.454766,9.576991,1.545757,0.000000,0.000000,1.000000
8.108867,-4.842221,-1.545757,0.000000,0.000000,-1.000000
-5.356401,-9.308034,1.545757,-0.000000,0.000000,1.000000
7.599334,-10.831076,1.545757,0.000000,-0.000000,1.000000
7.415434,15.971297,-1.545757,-0.000000,0.000000,-1.000000
-8.745135,8.428016,1.545757,0.000000,0.000000,1.000000
-19.123642,0.434398,-1.545757,-0.000000,-0.000000,-1.000000
-18.523570,-0.101961,1.545757,-0.000000,0.000000,1.000000
5.481238,8.083913,1.545757,0.000000,-0.000000,1.000000
-4.732611,7.042045,-1.545757,-0.000000,0.000000,-1.000000
-6.624047,-12.930489,-1.545757,0.000000,-0.000000,-1.000000
11.406254,15.097784,1.545757,0.000000,0.000000,1.000000
-16.527889,-11.115275,-0.160066,-0.803208,-0.595699,0.000000
-15.949813,-4.116616,-1.545757,0.000000,-0.000000,-1.000000
12.100774,6.367923,1.545757,0.000000,-0.000000,1.000000
-5.771542,4.102013,-1.126960,0.803208,-0.595699,0.000000
15.386744,-9.893454,1.545757,0.000000,-0.000000,1.000000
12.547232,3.339608,-1.545757,-0.000000,0.000000,-1.000000
-9.801967,17.321875,-1.223344,-0.514103,0.857729,0.000000
-3.043286,6.391823,0.868097,0.427555,-0.903989,0.000000
3.324109,6.259003,-0.154274,-0.427555,-0.903989,0.000000
-17.764090,-8.976945,0.069448,-0.903989,-0.427555,0.000000
8.599423,-8.987050,-1.545757,0.000000,0.000000,-1.000000
9.131914,-0.003183,-1.545757,0.000000,0.000000,-1.000000
14.709173,6.141738,-1.545757,0.000000,0.000000,-1.000000
3.497151,-14.467296,-1.545757,0.000000,0.000000,-1.000000
10.541056,11.118918,-1.545757,-0.000000,0.000000,-1.000000
12.492250,2.772484,1.545757,0.000000,0.000000,1.000000
-19.027517,-5.846250,-1.545757,0.000000,-0.000000,-1.000000
19.450902,4.233691,-1.028117,0.970031,0.242980,0.000000
-0.509849,11.960117,-1.545757,-0.000000,0.000000,-1.000000
12.771737,-10.835953,1.545757,0.000000,-0.000000,1.000000
13.786317,-0.007334,-1.545757,0.000000,0.000000,-1.000000
-12.774145,1.426167,-1.545757,-0.000000,-0.000000,-1.000000
18.931115,-6.150993,-1.039421,0.941544,-0.336890,0.000000
-10.582327,11.758547,1.545757,0.000000,0.000000,1.000000
-1.282285,6.966564,-1.482499,0.146730,-0.989177,0.000000
-12.430713,14.034561,-1.545757,-0.000000,-0.000000,-1.000000
-0.842501,-19.806414,-1.545757,0.000000,-0.000000,-1.000000
19.378756,-4.521714,-0.715365,0.970031,-0.242980,0.000000
-4.188741,19.462162,-0.136042,-0.242980,0.970031,0.000000
19.894155,0.539957,-1.170947,0.998795,0.049068,0.000000
7.961264,-18.244472,-1.013011,0.427555,-0.903989,0.000000
11.785394,13.632973,1.545757,0.000000,0.000000,1.000000
-13.035922,-14.847003,1.545757,-0.000000,0.000000,1.000000
4.777505,-16.422615,1.545757,0.000000,-0.000000,1.000000
10.232736,7.120781,1.545757,0.000000,0.000000,1.000000
18.373431,1.814783,1.545757,0.000000,0.000000,1.000000
10.348715,16.994167,-0.802045,0.514103,0.857729,0.000000
-10.275503,-8.296560,-1.545757,0.000000,-0.000000,-1.000000
2.500440,-12.727690,-1.545757,0.000000,0.000000,-1.000000
13.569052,0.145045,-1.545757,0.000000,0.000000,-1.000000
1.593572,-17.630342,-1.545757,0.000000,0.000000,-1.000000
9.528654,-14.900442,1.545757,0.000000,-0.000000,1.000000
14.077943,2.175680,-1.545757,-0.000000,0.000000,-1.000000
-17.005900,-10.329140,0.700341,-0.857729,-0.514103,0.000000
12.912403,12.480243,1.545757,0.000000,0.000000,1.000000
4.518069,-5.459418,0.843498,-0.671559,0.740951,0.000000
-13.925142,-6.196728,1.545757,-0.000000,0.000000,1.000000
11.014216,3.932311,1.545757,0.000000,0.000000,1.000000
19.715539,2.688865,1.359911,0.989177,0.146730,-0.000000
0.751759,-13.979611,-1.545757,0.000000,0.000000,-1.000000
4.508831,-10.526093,-1.545757,0.000000,0.000000,-1.000000
-13.892386,-14.261575,0.868317,-0.671559,-0.740951,0.000000
-15.580105,11.368853,-1.545757,-0.000000,-0.000000,-1.000000
14.044828,12.616722,1.545757,0.000000,0.000000,1.000000
-13.089652,-12.907396,1.545757,-0.000000,0.000000,1.000000
12.193942,8.675237,1.545757,0.000000,0.000000,1.000000
4.776947,19.314824,-1.130547,0.242980,0.970031,0.000000
-5.589954,-17.229216,-1.545757,0.000000,-0.000000,-1.000000
-1.413179,-8.605839,-1.545757,0.000000,-0.000000,-1.000000
-10.017470,-0.431758,1.545757,-0.000000,0.000000,1.000000
4.018585,-17.997861,-1.545757,0.000000,0.000000,-1.000000
3.676340,19.499242,1.545757,0.000000,0.000000,1.000000
-19.308006,2.141453,1.545757,0.000000,0.000000,1.000000
11.416052,11.977867,-1.545757,-0.000000,0.000000,-1.000000
4.854713,14.072803,-1.545757,-0.000000,0.000000,-1.000000
-17.351392,-2.446433,-1.545757,0.000000,-0.000000,-1.000000
4.647230,-8.196161,-1.545757,0.000000,0.000000,-1.000000
12.258520,14.266100,-1.545757,-0.000000,0.000000,-1.000000
-3.010969,14.409027,1.545757,0.000000,0.000000,1.000000
-0.502426,13.631392,-1.545757,-0.000000,0.000000,-1.000000
16.499747,11.153219,1.128436,0.803208,0.595699,0.000000
15.110192,-5.824776,-1.545757,0.000000,0.000000,-1.000000
-6.560220,-15.291289,1.545757,-0.000000,0.000000,1.000000
-2.715122,-18.347147,1.545757,-0.000000,0.000000,1.000000
-12.632064,-15.402961,0.129918,-0.595699,-0.803208,0.000000
-3.980309,8.993871,1.545757,0.000000,0.000000,1.000000
15.181318,-7.489337,1.545757,0.000000,-0.000000,1.000000
18.013565,6.578413,1.545757,0.000000,0.000000,1.000000
17.847176,-4.180224,1.545757,0.000000,-0.000000,1.000000
-10.415632,-8.624214,-1.545757,0.000000,-0.000000,-1.000000
-4.636477,19.095957,1.545757,0.000000,0.000000,1.000000
6.015285,-11.429712,1.545757,-0.000000,-0.000000,1.000000
10.496818,-0.454074,-1.545757,0.000000,0.000000,-1.000000
14.430360,4.733572,-1.545757,-0.000000,0.000000,-1.000000
8.942147,-11.143553,-1.545757,0.000000,0.000000,-1.000000
-8.377041,14.643781,1.545757,0.000000,0.000000,1.000000
-7.494374,5.518265,1.545757,0.000000,0.000000,1.000000
-9.412776,-3.060591,-1.545757,0.000000,-0.000000,-1.000000
5.336769,12.372665,1.545757,0.000000,-0.000000,1.000000
-11.374334,-9.944980,-1.545757,0.000000,-0.000000,-1.000000
8.843907,-0.763291,-1.545757,0.000000,0.000000,-1.000000
4.236103,10.842114,1.545757,0.000000,0.000000,1.000000
7.363355,-13.723556,-1.545757,0.000000,0.000000,-1.000000
5.301135,-5.439203,-1.545757,0.000000,0.000000,-1.000000
9.127784,-2.778997,-1.545757,0.000000,0.000000,-1.000000
14.571658,-9.006011,1.545757,0.000000,-0.000000,1.000000
7.837271,18.303116,-0.663948,0.427555,0.903989,-0.000000
7.770648,-1.028293,-1.545757,0.000000,0.000000,-1.000000
8.507400,-17.986169,-0.844085,0.427555,-0.903989,0.000000
10.008491,17.198089,-0.166821,0.514103,0.857729,-0.000000
8.043404,5.246230,1.545757,0.000000,-0.000000,1.000000
15.004477,-5.500277,-1.545757,0.000000,0.000000,-1.000000
-7.589594,16.745444,1.545757,0.000000,0.000000,1.000000
17.922667,-8.237528,1.545757,0.000000,-0.000000,1.000000
-14.620699,-2.258826,1.545757,-0.000000,0.000000,1.000000
14.961526,7.918508,-1.545757,-0.000000,0.000000,-1.000000
-17.670169,-1.554442,-1.545757,0.000000,-0.000000,-1.000000
5.138187,-7.318036,-1.545757,0.000000,0.000000,-1.000000
8.742207,10.902891,-1.545757,0.000000,0.000000,-1.000000
2.869290,-12.148010,1.545757,0.000000,-0.000000,1.000000
8.486783,8.455179,1.545757,0.000000,-0.000000,1.000000
11.833929,12.660759,1.545757,0.000000,0.000000,1.000000
-16.606504,10.995492,-1.337331,-0.857729,0.514103,0.000000
12.515970,-8.042929,-1.545757,0.000000,0.000000,-1.000000
17.204495,-2.792010,-1.545757,0.000000,0.000000,-1.000000
-14.511283,1.960096,-1.545757,-0.000000,-0.000000,-1.000000
15.107208,-2.697561,1.545757,0.000000,-0.000000,1.000000
-6.082859,5.763154,-1.545757,-0.000000,0.000000,-1.000000
10.045680,9.106787,-1.545757,-0.000000,0.000000,-1.000000
19.080300,-4.967428,-1.545757,0.000000,0.000000,-1.000000
-2.902624,-18.885452,-1.545757,0.000000,-0.000000,-1.000000
-12.376491,-9.505602,1.545757,-0.000000,0.000000,1.000000
-4.521584,14.180215,1.545757,0.000000,0.000000,1.000000
8.654286,0.573865,-1.545757,0.000000,0.000000,-1.000000
7.204603,4.695364,-1.545757,-0.000000,0.000000,-1.000000
-4.697859,17.013483,-1.545757,-0.000000,-0.000000,-1.000000
-2.580767,-18.255389,-1.545757,0.000000,-0.000000,-1.000000
-19.686472,2.884814,-0.022382,-0.989177,0.146730,0.000000
7.871449,0.555848,-1.545757,0.000000,0.000000,-1.000000
-12.704732,-11.580102,-1.545757,0.000000,-0.000000,-1.000000
3.650430,7.744408,-1.545757,0.000000,0.000000,-1.000000
-18.422627,1.285293,-1.545757,-0.000000,-0.000000,-1.000000
-8.541618,-17.969985,0.026431,-0.427555,-0.903989,0.000000
-2.118413,-13.327819,1.545757,-0.000000,0.000000,1.000000
-14.585661,4.275606,-1.545757,-0.000000,0.000000,-1.000000
18.654513,-6.924044,-0.259900,0.941544,-0.336890,0.000000
13.405483,-9.618780,-1.545757,0.000000,0.000000,-1.000000
8.836881,-3.585662,-1.545757,0.000000,0.000000,-1.000000
2.416619,-12.865892,1.545757,-0.000000,-0.000000,1.000000
-10.341788,-13.523923,-1.545757,0.000000,-0.000000,-1.000000
11.225421,-2.172133,1.545757,0.000000,-0.000000,1.000000
17.115701,2.459738,1.545757,0.000000,0.000000,1.000000
3.089663,-14.822331,1.545757,0.000000,-0.000000,1.000000
-6.714543,-6.644010,-1.545757,0.000000,-0.000000,-1.000000
-13.925714,14.231369,0.377508,-0.671559,0.740951,0.000000
4.290295,8.877113,-1.545757,0.000000,0.000000,-1.000000
6.430507,-2.961496,-1.092230,-0.903989,0.427555,0.000000
-11.267869,-5.683984,1.545757,-0.000000,0.000000,1.000000
-7.649570,-18.391892,-0.565390,-0.427555,-0.903989,0.000000
-9.114945,-2.322191,1.545757,-0.000000,0.000000,1.000000
-7.676999,3.233822,1.545757,0.000000,0.000000,1.000000
9.206683,6.260990,1.545757,0.000000,0.000000,1.000000
-19.214432,1.481487,-1.545757,-0.000000,-0.000000,-1.000000
-6.824808,-1.889185,1.177827,0.970031,0.242980,0.000000
-8.249589,-4.004892,1.545757,-0.000000,0.000000,1.000000
18.817114,-6.469604,-0.891890,0.941544,-0.336890,0.000000
9.841469,-1.857497,-1.545757,0.000000,0.000000,-1.000000
10.739631,16.759861,-1.329577,0.514103,0.857729,0.000000
6.050158,16.630803,-1.545757,-0.000000,0.000000,-1.000000
1.666436,18.791646,-1.545757,-0.000000,0.000000,-1.000000
9.834813,-13.630395,1.545757,0.000000,-0.000000,1.000000
8.048356,-13.134707,-1.545757,0.000000,0.000000,-1.000000
6.437903,10.065589,-1.545757,0.000000,0.000000,-1.000000
10.923244,-0.296477,1.545757,0.000000,-0.000000,1.000000
7.923003,15.748827,-1.545757,-0.000000,0.000000,-1.000000
14.400723,-10.830853,1.545757,0.000000,-0.000000,1.000000
-14.656964,13.145307,1.545757,0.000000,0.000000,1.000000
-18.175802,8.106455,-1.345291,-0.903989,0.427555,0.000000
6.426377,-2.970226,1.046024,-0.903989,0.427555,0.000000
-10.738475,-0.078496,-1.545757,-0.000000,-0.000000,-1.000000
-5.205921,8.585163,1.545757,0.000000,0.000000,1.000000
-7.461335,-5.819689,1.545757,-0.000000,0.000000,1.000000
4.070027,-18.689532,1.545757,0.000000,-0.000000,1.000000
-1.874507,-15.190257,-1.545757,0.000000,-0.000000,-1.000000
-11.279503,2.474904,-1.545757,-0.000000,-0.000000,-1.000000
13.962884,-2.387657,-1.545757,0.000000,0.000000,-1.000000
-3.524942,19.480496,-1.545757,-0.000000,-0.000000,-1.000000
-10.916334,-7.687244,-1.545757,0.000000,-0.000000,-1.000000
4.069826,7.605664,1.545757,0.000000,-0.000000,1.000000
-3.705503,19.480973,-1.545757,-0.000000,-0.000000,-1.000000
-6.556703,13.265263,1.545757,0.000000,0.000000,1.000000
-2.429501,9.288897,-1.545757,-0.000000,-0.000000,-1.000000
-1.153137,-11.630416,1.545757,-0.000000,0.000000,1.000000
7.858554,17.050815,1.545757,0.000000,0.000000,1.000000
7.207766,14.520563,-1.545757,-0.000000,0.000000,-1.000000
-17.998511,-8.481304,-0.076233,-0.903989,-0.427555,0.000000
2.675219,9.201346,-1.545757,0.000000,0.000000,-1.000000
-7.210729,-13.649037,1.545757,-0.000000,0.000000,1.000000
-9.021239,-2.279094,-1.545757,0.000000,-0.000000,-1.000000
11.419890,6.550765,1.545757,0.000000,0.000000,1.000000
-14.567325,11.162633,1.545757,0.000000,0.000000,1.000000
3.040773,-10.788653,1.545757,-0.000000,-0.000000,1.000000
-14.920337,5.368228,1.545757,0.000000,0.000000,1.000000
-2.341036,14.985891,1.545757,0.000000,0.000000,1.000000
19.381798,-4.509572,-0.869028,0.970031,-0.242980,0.000000
-6.359230,16.231692,-1.545757,-0.000000,-0.000000,-1.000000
-1.220109,-9.537423,1.545757,-0.000000,0.000000,1.000000
6.260963,14.264488,1.545757,0.000000,0.000000,1.000000
5.498234,-11.227698,1.545757,0.000000,-0.000000,1.000000
3.081988,-7.272785,1.545757,0.000000,-0.000000,1.000000
-19.090483,-1.466152,-1.545757,0.000000,-0.000000,-1.000000
0.913784,-16.920900,-1.545757,0.000000,0.000000,-1.000000
13.068904,-6.354534,-1.545757,0.000000,0.000000,-1.000000
5.807172,-15.899247,-1.545757,0.000000,0.000000,-1.000000
10.788609,5.580865,1.545757,0.000000,-0.000000,1.000000
-5.446826,6.984546,-1.545757,-0.000000,-0.000000,-1.000000
-0.299279,-11.725867,-1.545757,0.000000,-0.000000,-1.000000
-3.945691,-17.794676,-1.545757,0.000000,-0.000000,-1.000000
4.550796,-12.753158,1.545757,0.000000,-0.000000,1.000000
16.528168,9.617012,-1.545757,-0.000000,0.000000,-1.000000
-17.924582,-8.637615,1.292234,-0.903989,-0.427555,0.000000
16.266256,-0.693296,-1.545757,0.000000,0.000000,-1.000000
-17.244012,9.931874,1.222584,-0.857729,0.514103,0.000000
15.829540,-7.940715,-1.545757,0.000000,0.000000,-1.000000
-15.247110,10.628156,-1.545757,-0.000000,-0.000000,-1.000000
6.583476,-7.753580,-1.545757,0.000000,0.000000,-1.000000
14.755953,0.094132,1.545757,0.000000,0.000000,1.000000
7.487721,13.293385,-1.545757,-0.000000,0.000000,-1.000000
-4.682234,10.476599,-1.545757,-0.000000,0.000000,-1.000000
6.665537,5.273788,1.545757,0.000000,-0.000000,1.000000
-6.899848,5.198348,-1.545757,-0.000000,0.000000,-1.000000
-1.290047,6.965413,0.232464,0.146730,-0.989177,0.000000
19.369895,4.557092,-1.342350,0.970031,0.242980,0.000000
-9.778935,2.572117,-1.545757,-0.000000,0.000000,-1.000000
0.949985,18.499948,1.545757,0.000000,0.000000,1.000000
-3.751174,-19.202559,1.545757,-0.000000,0.000000,1.000000
-6.759651,13.946682,-1.545757,-0.000000,-0.000000,-1.000000
10.011886,-9.024963,-1.545757,0.000000,0.000000,-1.000000
18.049314,-2.720777,1.545757,0.000000,-0.000000,1.000000
12.458260,8.236676,-1.545757,-0.000000,0.000000,-1.000000
-16.860046,8.435333,1.545757,0.000000,0.000000,1.000000
18.029138,-3.911751,-1.545757,0.000000,0.000000,-1.000000
-4.056718,9.501666,1.545757,0.000000,0.000000,1.000000
5.783497,-16.224659,1.545757,0.000000,-0.000000,1.000000
6.483438,-3.565645,1.545757,-0.000000,-0.000000,1.000000
-8.377388,18.047660,1.360340,-0.427555,0.903989,0.000000
-14.449549,8.931163,-1.545757,-0.000000,-0.000000,-1.000000
3.057739,19.660821,-0.073151,0.146730,0.989177,0.000000
-9.826839,14.024898,1.545757,0.000000,0.000000,1.000000
-9.634085,-11.839364,1.545757,-0.000000,0.000000,1.000000
-6.801511,4.107531,1.545757,0.000000,0.000000,1.000000
16.517392,-10.281901,1.545757,0.000000,-0.000000,1.000000
5.289795,19.186362,-0.469937,0.242980,0.970031,0.000000
10.172482,-3.994394,-1.545757,0.000000,0.000000,-1.000000
-8.516583,14.648828,1.545757,0.000000,0.000000,1.000000
-10.847707,1.489609,-1.545757,-0.000000,-0.000000,-1.000000
-11.396252,14.284263,1.545757,0.000000,0.000000,1.000000
-5.500014,-8.147022,1.545757,-0.000000,0.000000,1.000000
-15.688815,8.680126,-1.545757,-0.000000,-0.000000,-1.000000
-9.394556,17.566068,0.162159,-0.514103,0.857729,0.000000
-10.347890,4.793284,1.545757,0.000000,0.000000,1.000000
-14.072685,14.098161,0.132093,-0.671559,0.740951,0.000000
-1.310142,11.485857,1.545757,0.000000,0.000000,1.000000
12.673653,-12.730962,-1.545757,0.000000,0.000000,-1.000000
13.072220,9.838016,1.545757,0.000000,0.000000,1.000000
-19.263913,-4.246291,-1.545757,0.000000,-0.000000,-1.000000
18.100206,-8.266289,0.352881,0.903989,-0.427555,0.000000
12.100371,-9.473169,-1.545757,0.000000,0.000000,-1.000000
-18.143227,5.022671,1.545757,0.000000,0.000000,1.000000
17.725177,9.059220,0.400644,0.903989,0.427555,-0.000000
14.044228,14.123953,-0.342266,0.671559,0.740951,0.000000
-4.155114,16.440811,1.545757,0.000000,0.000000,1.000000
-15.788818,11.526392,-1.545757,-0.000000,-0.000000,-1.000000
13.165251,-3.247127,-1.545757,0.000000,0.000000,-1.000000
10.326369,-10.239588,1.545757,0.000000,-0.000000,1.000000
-10.803768,7.911114,1.545757,0.000000,0.000000,1.000000
-17.847299,-8.801016,-1.083232,-0.903989,-0.427555,0.000000
-3.915646,19.530568,0.437086,-0.242980,0.970031,0.000000
