x,y,z,nx,ny,nz
-0.104043,-18.607687,-1.534955,0.000000,-0.000000,-1.000000
8.913268,18.657007,-1.534955,-0.000000,0.000000,-1.000000
5.272917,18.742869,-1.534955,0.000000,0.000000,-1.000000
-17.955115,3.803075,1.534955,0.000000,0.000000,1.000000
-17.173490,9.064092,1.534955,0.000000,0.000000,1.000000
-10.720636,-15.727070,1.534955,-0.000000,0.000000,1.000000
21.541107,-6.974137,-1.282738,0.941544,-0.336890,0.000000
-15.345384,3.801922,-1.534955,-0.000000,0.000000,-1.000000
9.441694,20.226602,-1.534955,-0.000000,0.000000,-1.000000
12.496960,9.291111,-1.534955,0.000000,0.000000,-1.000000
-12.311671,-14.857615,1.534955,-0.000000,0.000000,1.000000
21.096483,3.921017,-1.534955,0.000000,0.000000,-1.000000
-9.114083,-20.695225,1.534955,-0.000000,0.000000,1.000000
-11.303026,-19.610516,1.414516,-0.514103,-0.857729,0.000000
-13.250834,1.645539,0.434934,0.989177,-0.146730,0.000000
17.455725,2.684777,1.534955,0.000000,0.000000,1.000000
-17.632250,-9.348470,1.534955,-0.000000,0.000000,1.000000
-19.542589,-0.625753,-1.534955,0.000000,-0.000000,-1.000000
2.083572,13.185858,0.196577,-0.146730,-0.989177,0.000000
17.962981,-1.182221,1.534955,0.000000,-0.000000,1.000000
16.043932,13.236629,-1.534955,0.000000,0.000000,-1.000000
-9.555438,-20.515665,1.044252,-0.427555,-0.903989,0.000000
18.134999,-13.539129,-0.316255,0.803208,-0.595699,0.000000
-12.653402,14.485936,1.534955,0.000000,0.000000,1.000000
12.921694,5.708574,-1.534955,0.000000,0.000000,-1.000000
-16.864516,-11.340159,-1.534955,0.000000,-0.000000,-1.000000
1.099386,20.779604,-1.534955,-0.000000,0.000000,-1.000000
-21.343253,-0.590140,1.534955,-0.000000,0.000000,1.000000
2.368507,-18.881245,1.534955,0.000000,-0.000000,1.000000
1.864287,22.567125,1.037534,0.049068,0.998795,0.000000
-9.931334,-17.483786,1.534955,-0.000000,0.000000,1.000000
13.679072,9.859960,-1.534955,0.000000,0.000000,-1.000000
10.122293,-11.913063,-1.534955,0.000000,0.000000,-1.000000
-8.949631,-17.036194,1.534955,-0.000000,0.000000,1.000000
-11.693784,13.476363,-1.534955,-0.000000,0.000000,-1.000000
-17.349386,-1.619280,-1.534955,0.000000,-0.000000,-1.000000
9.260566,10.106445,1.534955,0.000000,-0.000000,1.000000
15.005987,16.628368,-1.534955,-0.000000,0.000000,-1.000000
4.808552,18.234715,-1.534955,-0.000000,0.000000,-1.000000
-15.613036,5.420593,-1.534955,-0.000000,-0.000000,-1.000000
-4.258208,12.654019,0.042179,0.336890,-0.941544,0.000000
-18.267538,13.051213,-1.534955,-0.000000,-0.000000,-1.000000
-12.044428,-5.755585,-1.027495,0.903989,0.427555,0.000000
-3.694844,-13.203452,-1.534955,0.000000,-0.000000,-1.000000
5.414585,-17.970116,-1.534955,0.000000,0.000000,-1.000000
-14.540409,16.964838,1.534955,0.000000,0.000000,1.000000
3.859968,14.813129,1.534955,0.000000,-0.000000,1.000000
22.590166,-1.395263,0.657659,0.998795,-0.049068,0.000000
5.027480,12.378770,0.770867,-0.336890,-0.941544,0.000000
15.108607,3.516764,1.534955,0.000000,0.000000,1.000000
-14.665808,2.350573,1.534955,0.000000,0.000000,1.000000
-13.300571,-1.310236,0.391914,0.989177,0.146730,0.000000
14.004377,-3.458185,-1.534955,0.000000,0.000000,-1.000000
12.542417,8.048791,1.534955,0.000000,-0.000000,1.000000
-14.296433,-17.573345,-0.754489,-0.595699,-0.803208,0.000000
11.234831,-17.937040,-1.534955,0.000000,0.000000,-1.000000
6.095790,13.014543,1.534955,0.000000,-0.000000,1.000000
-15.698219,16.315702,1.467852,-0.671559,0.740951,0.000000
-1.846301,-22.568008,0.533572,-0.049068,-0.998795,0.000000
17.378410,6.318089,1.534955,0.000000,0.000000,1.000000
18.993381,-1.255449,1.534955,0.000000,-0.000000,1.000000
14.268441,13.900877,-1.534955,-0.000000,0.000000,-1.000000
-13.976979,16.226438,1.534955,0.000000,0.000000,1.000000
22.559900,-0.596730,1.534955,0.000000,-0.000000,1.000000
-0.786815,20.011255,-1.534955,-0.000000,0.000000,-1.000000
-13.420853,5.905464,-1.534955,-0.000000,0.000000,-1.000000
-15.947031,10.913408,1.534955,0.000000,0.000000,1.000000
-18.704792,-3.779588,1.534955,-0.000000,0.000000,1.000000
-15.165092,8.795276,1.534955,0.000000,0.000000,1.000000
11.052026,-11.648313,1.534955,-0.000000,-0.000000,1.000000
8.454185,13.109167,-1.534955,0.000000,0.000000,-1.000000
10.402907,-9.502205,1.534955,-0.000000,-0.000000,1.000000
-14.618921,17.293922,0.737249,-0.671559,0.740951,0.000000
-1.742444,-20.836120,1.534955,-0.000000,-0.000000,1.000000
11.971431,5.909924,0.240164,-0.903989,-0.427555,-0.000000
1.301356,-20.020426,1.534955,0.000000,-0.000000,1.000000
13.088164,7.910195,-1.534955,0.000000,0.000000,-1.000000
-20.030642,-2.773583,-1.534955,0.000000,-0.000000,-1.000000
-11.447554,-7.952511,-1.534955,0.000000,-0.000000,-1.000000
3.832043,16.382843,1.534955,0.000000,-0.000000,1.000000
16.131180,2.910181,1.534955,0.000000,-0.000000,1.000000
20.735278,-5.388984,-1.534955,0.000000,0.000000,-1.000000
16.629876,-1.986301,-1.534955,0.000000,0.000000,-1.000000
-3.551294,-22.352264,-1.375542,-0.146730,-0.989177,0.000000
-11.958918,5.936382,0.594508,0.903989,-0.427555,0.000000
12.360564,12.014147,1.534955,0.000000,-0.000000,1.000000
-21.032031,2.673983,-1.534955,-0.000000,-0.000000,-1.000000
-2.734291,-13.076368,-1.403389,0.242980,0.970031,0.000000
20.081476,-10.473454,0.709316,0.903989,-0.427555,0.000000
21.934537,-1.444413,1.534955,0.000000,-0.000000,1.000000
4.792258,-21.292928,1.534955,0.000000,-0.000000,1.000000
-17.274518,0.970452,1.534955,-0.000000,0.000000,1.000000
-2.468620,-20.224615,-1.534955,0.000000,-0.000000,-1.000000
11.586343,17.657422,-1.534955,0.000000,0.000000,-1.000000
19.602790,-11.006429,-1.534955,0.000000,0.000000,-1.000000
-20.513037,9.560994,0.742272,-0.903989,0.427555,0.000000
-6.962148,18.352920,-1.534955,-0.000000,-0.000000,-1.000000
-11.211165,-17.432820,-1.534955,0.000000,-0.000000,-1.000000
-14.571495,2.555013,-1.534955,-0.000000,0.000000,-1.000000
11.414709,16.620826,-1.534955,-0.000000,0.000000,-1.000000
-10.283015,12.395387,1.534955,0.000000,0.000000,1.000000
15.266455,-7.753266,-1.534955,0.000000,0.000000,-1.000000
15.017980,-0.816640,1.534955,0.000000,-0.000000,1.000000
-1.371830,13.291434,-0.825356,0.146730,-0.989177,0.000000
-1.195160,14.584871,1.534955,0.000000,0.000000,1.000000
4.151522,16.009356,1.534955,0.000000,0.000000,1.000000
-16.608794,-0.139754,-1.534955,-0.000000,-0.000000,-1.000000
-1.397610,15.112817,1.534955,0.000000,0.000000,1.000000
6.339362,-12.183412,1.534955,-0.000000,-0.000000,1.000000
-0.853696,17.382269,-1.534955,-0.000000,0.000000,-1.000000
-9.723807,-9.148859,-0.537073,0.740951,0.671559,0.000000
-7.025242,-19.064945,-1.534955,0.000000,-0.000000,-1.000000
12.026914,-6.964973,1.534955,-0.000000,-0.000000,1.000000
-19.228713,-11.377466,1.534955,-0.000000,0.000000,1.000000
-16.556827,2.667196,-1.534955,-0.000000,0.000000,-1.000000
16.914062,-8.908189,1.534955,0.000000,-0.000000,1.000000
8.180074,-12.502508,-1.534955,0.000000,0.000000,-1.000000
12.196758,13.421305,1.534955,0.000000,0.000000,1.000000
10.539555,10.586406,1.534955,0.000000,0.000000,1.000000
-9.397139,-20.590535,-0.271429,-0.427555,-0.903989,0.000000
-17.548811,-12.340465,1.534955,-0.000000,0.000000,1.000000
16.631705,-15.136135,-1.534955,0.000000,0.000000,-1.000000
-17.861062,-2.769258,-1.534955,0.000000,-0.000000,-1.000000
19.376811,5.922865,1.534955,0.000000,0.000000,1.000000
4.505641,19.492185,1.534955,0.000000,0.000000,1.000000
3.729089,20.743771,-1.534955,-0.000000,0.000000,-1.000000
-19.902853,5.592507,1.534955,0.000000,0.000000,1.000000
-9.847744,-14.384714,-1.534955,0.000000,-0.000000,-1.000000
11.675401,7.378357,-1.534955,0.000000,0.000000,-1.000000
-21.008039,-0.847454,1.534955,-0.000000,0.000000,1.000000
-3.382842,-20.935014,1.534955,-0.000000,-0.000000,1.000000
-22.425147,-3.059958,0.587065,-0.989177,-0.146730,0.000000
-15.037334,7.743101,-1.534955,-0.000000,0.000000,-1.000000
13.658154,15.452130,-1.534955,-0.000000,0.000000,-1.000000
5.948088,11.953381,-1.088104,-0.427555,-0.903989,-0.000000
1.489998,-18.259699,-1.534955,0.000000,0.000000,-1.000000
-11.824892,-6.219756,0.216128,0.903989,0.427555,0.000000
8.496763,-15.358797,-1.534955,0.000000,0.000000,-1.000000
16.808794,2.080380,-1.534955,0.000000,0.000000,-1.000000
-20.638712,-5.465958,1.534955,-0.000000,0.000000,1.000000
-22.570090,-1.803926,-0.593693,-0.998795,-0.049068,0.000000
15.584694,-6.280644,1.534955,0.000000,-0.000000,1.000000
-21.199656,-7.081859,-1.534955,0.000000,-0.000000,-1.000000
1.232563,-13.359370,1.534955,-0.000000,-0.000000,1.000000
18.905607,-12.479097,0.317082,0.857729,-0.514103,0.000000
22.641778,-0.344673,1.240779,0.998795,-0.049068,0.000000
2.324089,-13.150180,-1.163701,-0.146730,0.989177,0.000000
-19.460500,11.553314,-1.113246,-0.857729,0.514103,0.000000
21.009548,-5.790886,1.534955,0.000000,-0.000000,1.000000
-10.262899,-9.139811,-1.534955,0.000000,-0.000000,-1.000000
-16.368147,-10.363666,-1.534955,0.000000,-0.000000,-1.000000
21.163751,2.530073,1.534955,0.000000,0.000000,1.000000
13.516134,6.567370,1.534955,0.000000,-0.000000,1.000000
-0.895988,16.524194,1.534955,0.000000,0.000000,1.000000
13.976401,-8.849178,-1.534955,0.000000,0.000000,-1.000000
-4.569230,-14.528299,-1.534955,0.000000,-0.000000,-1.000000
9.709814,-20.047187,-1.534955,0.000000,0.000000,-1.000000
9.667985,17.718211,-1.534955,-0.000000,0.000000,-1.000000
-5.877144,-15.560265,-1.534955,0.000000,-0.000000,-1.000000
-22.379844,-3.365365,1.243265,-0.989177,-0.146730,0.000000
10.980982,19.397407,-1.534955,-0.000000,0.000000,-1.000000
20.616465,1.058718,1.534955,0.000000,0.000000,1.000000
8.039341,20.758776,1.534955,0.000000,0.000000,1.000000
6.118152,-11.872947,-1.272380,-0.427555,0.903989,0.000000
-19.508850,6.172870,-1.534955,-0.000000,-0.000000,-1.000000
-0.994468,-13.884886,1.534955,-0.000000,0.000000,1.000000
-0.594033,19.029605,1.534955,0.000000,0.000000,1.000000
18.349942,-9.833559,-1.534955,0.000000,0.000000,-1.000000
-14.642207,-13.131875,-1.534955,0.000000,-0.000000,-1.000000
-16.369036,1.218474,1.534955,-0.000000,0.000000,1.000000
0.389595,17.729067,-1.534955,-0.000000,0.000000,-1.000000
4.760432,13.992376,-1.534955,0.000000,0.000000,-1.000000
8.591192,-14.440411,-1.534955,0.000000,0.000000,-1.000000
2.351102,-16.873814,1.534955,0.000000,-0.000000,1.000000
-12.877155,-11.461409,-1.534955,0.000000,-0.000000,-1.000000
-7.152448,-18.990856,-1.534955,0.000000,-0.000000,-1.000000
10.103719,-10.825467,1.534955,-0.000000,-0.000000,1.000000
-17.942953,-11.633507,-1.534955,0.000000,-0.000000,-1.000000
-3.623848,-12.853545,-1.506683,0.242980,0.970031,0.000000
-7.156501,-16.102840,-1.534955,0.000000,-0.000000,-1.000000
16.484334,2.958775,-1.534955,0.000000,0.000000,-1.000000
11.365608,17.634452,1.534955,0.000000,0.000000,1.000000
22.613247,-0.925447,-1.471586,0.998795,-0.049068,0.000000
-22.569492,1.816097,0.829646,-0.998795,0.049068,0.000000
12.527422,4.612025,1.108823,-0.941544,-0.336890,0.000000
-15.356665,-16.625269,-1.038147,-0.671559,-0.740951,0.000000
10.719874,-19.497869,-1.534955,0.000000,0.000000,-1.000000
-17.018699,3.864950,-1.534955,-0.000000,-0.000000,-1.000000
-5.864317,-15.015844,-1.534955,0.000000,-0.000000,-1.000000
-1.255605,16.142876,-1.534955,-0.000000,0.000000,-1.000000
4.477308,21.845259,-1.534955,-0.000000,0.000000,-1.000000
-13.304150,-18.240180,1.534955,-0.000000,0.000000,1.000000
-4.529550,17.405963,1.534955,0.000000,0.000000,1.000000
-6.923504,-11.987151,-1.534955,0.000000,-0.000000,-1.000000
-17.132772,-5.230212,1.534955,-0.000000,0.000000,1.000000
-14.036227,-0.063419,-1.534955,-0.000000,-0.000000,-1.000000
-9.792226,-16.308102,-1.534955,0.000000,-0.000000,-1.000000
22.079249,4.995698,-1.423198,0.970031,0.242980,0.000000
22.412312,-0.161098,1.534955,0.000000,-0.000000,1.000000
9.161382,12.955249,-1.534955,-0.000000,0.000000,-1.000000
-8.020212,21.166815,-0.527616,-0.336890,0.941544,0.000000
15.191417,-16.003836,1.534955,0.000000,-0.000000,1.000000
8.103489,-18.939066,-1.534955,0.000000,0.000000,-1.000000
-2.721213,22.408299,-1.534955,-0.000000,0.000000,-1.000000
12.081085,-12.629543,1.534955,-0.000000,-0.000000,1.000000
22.512069,1.301735,1.534955,0.000000,0.000000,1.000000
-8.061733,-19.449798,-1.534955,0.000000,-0.000000,-1.000000
-6.111219,-18.725252,1.534955,-0.000000,0.000000,1.000000
-9.098017,12.760664,-1.534955,-0.000000,0.000000,-1.000000
-3.306795,14.747483,-1.534955,-0.000000,0.000000,-1.000000
-1.124318,-14.496060,-1.534955,0.000000,-0.000000,-1.000000
-9.385999,9.508876,0.604903,0.671559,-0.740951,0.000000
-20.315200,4.616079,-1.534955,-0.000000,-0.000000,-1.000000
20.779724,7.657754,1.534955,0.000000,0.000000,1.000000
-4.355816,-22.232925,-0.436273,-0.146730,-0.989177,0.000000
20.930408,-4.052558,-1.534955,0.000000,0.000000,-1.000000
-20.006312,-5.966851,1.534955,-0.000000,0.000000,1.000000
-10.452050,-17.591171,-1.534955,0.000000,-0.000000,-1.000000
-16.031844,3.198888,1.534955,0.000000,0.000000,1.000000
-18.215671,4.819173,1.534955,0.000000,0.000000,1.000000
1.426143,-22.588649,0.212068,0.049068,-0.998795,0.000000
-17.126557,14.803578,-0.258748,-0.740951,0.671559,0.000000
9.814566,9.048722,0.027048,-0.740951,-0.671559,-0.000000
-22.601123,1.172228,0.286448,-0.998795,0.049068,0.000000
17.510133,-4.228585,-1.534955,0.000000,0.000000,-1.000000
-17.301973,-1.549978,-1.534955,0.000000,-0.000000,-1.000000
15.382712,9.937708,-1.534955,-0.000000,0.000000,-1.000000
20.169575,10.287183,-0.407399,0.903989,0.427555,-0.000000
6.785263,11.496109,-1.284882,-0.514103,-0.857729,-0.000000
20.762716,0.180349,-1.534955,0.000000,0.000000,-1.000000
-12.996206,-3.054314,0.521548,0.970031,0.242980,0.000000
-21.561567,-4.684414,1.534955,-0.000000,0.000000,1.000000
12.479171,-11.535475,-1.534955,0.000000,0.000000,-1.000000
8.197071,-18.659698,-1.534955,0.000000,0.000000,-1.000000
-0.419871,13.884926,-1.534955,-0.000000,0.000000,-1.000000
-15.874771,-16.155685,-0.125092,-0.671559,-0.740951,0.000000
-4.107829,15.411628,-1.534955,-0.000000,-0.000000,-1.000000
10.903159,-10.666786,1.534955,0.000000,-0.000000,1.000000
16.002954,-4.060683,-1.534955,0.000000,0.000000,-1.000000
20.937611,0.008392,-1.534955,0.000000,0.000000,-1.000000
-16.008329,11.268905,-1.534955,-0.000000,-0.000000,-1.000000
19.723968,11.113743,0.236385,0.857729,0.514103,0.000000
-10.241034,14.838815,1.534955,0.000000,0.000000,1.000000
12.686408,-4.167688,-1.418762,-0.941544,0.336890,0.000000
22.371454,3.421928,-1.140941,0.989177,0.146730,0.000000
-16.266670,-15.752318,-1.312094,-0.740951,-0.671559,0.000000
3.610796,-13.949148,1.534955,-0.000000,-0.000000,1.000000
-21.093929,0.997060,-1.534955,-0.000000,-0.000000,-1.000000
16.053754,15.621697,1.534955,0.000000,0.000000,1.000000
-9.429131,-18.662762,-1.534955,0.000000,-0.000000,-1.000000
1.163899,-13.327096,-1.534955,0.000000,-0.000000,-1.000000
11.147481,-7.654765,-1.534955,0.000000,0.000000,-1.000000
5.898490,-12.924393,-1.534955,0.000000,0.000000,-1.000000
21.391132,-0.180341,1.534955,0.000000,-0.000000,1.000000
-22.145198,-4.732415,1.526985,-0.970031,-0.242980,0.000000
-16.889497,-1.344002,1.534955,-0.000000,0.000000,1.000000
21.891771,5.744152,-0.639361,0.970031,0.242980,0.000000
3.093988,13.873992,-1.534955,0.000000,0.000000,-1.000000
5.709081,-19.694733,-1.534955,0.000000,0.000000,-1.000000
19.077644,-11.377249,1.534955,0.000000,-0.000000,1.000000
-18.804982,-4.834980,1.534955,-0.000000,0.000000,1.000000
-5.978247,-12.265766,1.534955,-0.000000,0.000000,1.000000
-13.131621,3.007452,1.534955,0.000000,0.000000,1.000000
-17.926794,-5.762452,-1.534955,0.000000,-0.000000,-1.000000
-8.813049,10.028168,0.549748,0.671559,-0.740951,0.000000
-9.162122,-20.701690,0.980245,-0.427555,-0.903989,0.000000
-11.688946,-10.394566,1.534955,-0.000000,0.000000,1.000000
-17.774679,3.357916,1.534955,-0.000000,0.000000,1.000000
-17.721109,-11.680634,1.534955,-0.000000,0.000000,1.000000
-13.241857,-1.706056,-1.359099,0.989177,0.146730,0.000000
-15.148418,1.143429,1.534955,-0.000000,0.000000,1.000000
-9.655400,-20.468386,1.101123,-0.427555,-0.903989,0.000000
-14.848194,8.614556,1.534955,0.000000,0.000000,1.000000
13.415344,-10.674516,1.534955,0.000000,-0.000000,1.000000
-11.611407,-17.917974,-1.534955,0.000000,-0.000000,-1.000000
-21.569111,6.895873,-0.185586,-0.941544,0.336890,0.000000
-13.089878,18.468187,1.015239,-0.595699,0.803208,0.000000
10.092159,8.742445,-1.436545,-0.740951,-0.671559,-0.000000
10.604290,8.110499,1.176130,-0.803208,-0.595699,0.000000
-3.104464,-16.776620,-1.534955,0.000000,-0.000000,-1.000000
9.195315,11.231565,-1.534955,0.000000,0.000000,-1.000000
21.363937,-1.003933,1.534955,0.000000,-0.000000,1.000000
-2.721188,22.475399,0.234647,-0.146730,0.989177,0.000000
-8.808990,-19.275510,-1.534955,0.000000,-0.000000,-1.000000
-4.201304,-12.843088,1.534955,-0.000000,0.000000,1.000000
1.092308,-13.311301,-0.732057,-0.049068,0.998795,0.000000
12.550180,18.863001,1.322593,0.514103,0.857729,0.000000
15.427716,16.560872,-1.515404,0.671559,0.740951,0.000000
1.232043,17.508926,1.534955,0.000000,0.000000,1.000000
-16.288656,10.122388,1.534955,0.000000,0.000000,1.000000
4.020909,-21.959987,-1.534955,0.000000,0.000000,-1.000000
17.477165,3.251296,1.534955,0.000000,-0.000000,1.000000
-19.234771,10.507101,1.534955,0.000000,0.000000,1.000000
11.770088,-6.328157,-0.224039,-0.857729,0.514103,0.000000
-11.042989,-8.116137,-1.534955,0.000000,-0.000000,-1.000000
4.558183,-16.967075,-1.534955,0.000000,0.000000,-1.000000
-1.523547,-16.181823,-1.534955,0.000000,-0.000000,-1.000000
16.668591,-7.114127,-1.534955,0.000000,0.000000,-1.000000
19.770209,1.219473,1.534955,0.000000,0.000000,1.000000
21.032743,3.185092,-1.534955,0.000000,0.000000,-1.000000
6.863708,-13.982615,1.534955,-0.000000,-0.000000,1.000000
-4.949830,-20.439631,1.534955,-0.000000,0.000000,1.000000
14.556378,13.473915,-1.534955,-0.000000,0.000000,-1.000000
20.147157,-10.334583,1.343223,0.903989,-0.427555,0.000000
-3.458248,18.406016,-1.534955,-0.000000,0.000000,-1.000000
-7.082767,-21.167875,-1.534955,0.000000,-0.000000,-1.000000
-7.870027,10.782636,1.406859,0.595699,-0.803208,0.000000
14.002002,17.791709,-0.111055,0.595699,0.803208,0.000000
7.142056,13.555149,-1.534955,0.000000,0.000000,-1.000000
-20.391892,0.381211,-1.534955,-0.000000,-0.000000,-1.000000
-12.610711,10.232617,1.534955,0.000000,0.000000,1.000000
1.143883,19.891137,-1.534955,-0.000000,0.000000,-1.000000
-14.281757,-5.164701,1.534955,-0.000000,0.000000,1.000000
13.993185,17.798248,-1.476785,0.595699,0.803208,0.000000
1.785344,-17.459681,1.534955,0.000000,-0.000000,1.000000
-4.914098,-22.099689,-1.029635,-0.242980,-0.970031,0.000000
-15.130993,-4.630799,-1.534955,0.000000,-0.000000,-1.000000
11.208783,-7.264638,-0.962522,-0.857729,0.514103,0.000000
-18.846877,12.577082,0.479082,-0.857729,0.514103,0.000000
10.713217,-7.963628,-0.372239,-0.803208,0.595699,0.000000
-19.910862,4.968175,-1.534955,-0.000000,-0.000000,-1.000000
-7.023785,12.936156,-1.534955,-0.000000,0.000000,-1.000000
-11.469070,-7.994147,-1.534955,0.000000,-0.000000,-1.000000
-19.548960,-9.658048,-1.534955,0.000000,-0.000000,-1.000000
15.794231,-12.787783,1.534955,0.000000,-0.000000,1.000000
-18.577378,-2.671907,1.534955,-0.000000,0.000000,1.000000
-18.113109,-5.641842,1.534955,-0.000000,0.000000,1.000000
-10.914484,-19.843400,0.386794,-0.514103,-0.857729,0.000000
-10.475940,-13.291193,1.534955,-0.000000,0.000000,1.000000
17.401317,11.252284,-1.534955,-0.000000,0.000000,-1.000000
8.421972,10.822209,1.534955,0.000000,-0.000000,1.000000
16.399423,15.605848,1.355376,0.740951,0.671559,-0.000000
-1.711771,-19.616868,-1.534955,0.000000,-0.000000,-1.000000
-18.904169,-7.611491,1.534955,-0.000000,0.000000,1.000000
-7.458687,18.734968,-1.534955,-0.000000,-0.000000,-1.000000
-5.434555,-12.196264,-0.290305,0.427555,0.903989,0.000000
1.366045,13.292293,0.807514,-0.146730,-0.989177,-0.000000
-1.204834,16.531321,1.534955,0.000000,0.000000,1.000000
-17.971935,9.841482,-1.534955,-0.000000,-0.000000,-1.000000
2.488984,16.710339,-1.534955,-0.000000,0.000000,-1.000000
0.972311,19.881523,1.534955,0.000000,0.000000,1.000000
-12.248453,14.412049,1.534955,0.000000,0.000000,1.000000
-15.653881,-5.478975,1.534955,-0.000000,0.000000,1.000000
9.873129,-8.984108,1.114299,-0.740951,0.671559,0.000000
12.946177,-18.574762,0.326232,0.595699,-0.803208,0.000000
-1.521924,-21.345203,1.534955,-0.000000,-0.000000,1.000000
-0.321083,19.649550,1.534955,0.000000,0.000000,1.000000
-13.632324,3.304318,1.534955,0.000000,0.000000,1.000000
-7.134341,-16.414180,-1.534955,0.000000,-0.000000,-1.000000
13.660126,-10.993375,1.534955,0.000000,-0.000000,1.000000
12.982331,-6.415444,1.534955,-0.000000,-0.000000,1.000000
-1.682054,-19.685076,-1.534955,0.000000,-0.000000,-1.000000
-16.092306,15.944700,-0.643946,-0.740951,0.671559,0.000000
5.775699,19.266230,1.534955,0.000000,0.000000,1.000000
13.357394,-10.111893,1.534955,0.000000,-0.000000,1.000000
-12.874149,-12.253887,-1.534955,0.000000,-0.000000,-1.000000
-2.392662,-13.140008,-0.648602,0.146730,0.989177,0.000000
20.919882,-8.700793,0.347643,0.903989,-0.427555,0.000000
-12.143641,-10.967100,-1.534955,0.000000,-0.000000,-1.000000
11.938081,5.980438,0.270673,-0.903989,-0.427555,-0.000000
-8.348379,-12.618606,1.534955,-0.000000,0.000000,1.000000
9.309887,20.631802,1.258734,0.427555,0.903989,-0.000000
13.735147,16.535635,-1.534955,-0.000000,0.000000,-1.000000
1.510722,21.164427,1.534955,0.000000,0.000000,1.000000
-19.631270,11.268401,-0.150718,-0.857729,0.514103,0.000000
7.067815,16.127661,-1.534955,-0.000000,0.000000,-1.000000
-17.342350,3.224258,1.534955,-0.000000,0.000000,1.000000
15.463295,-11.179783,1.534955,0.000000,-0.000000,1.000000
-7.192883,-16.662896,1.534955,-0.000000,0.000000,1.000000
-4.777697,12.468143,-0.611728,0.336890,-0.941544,0.000000
20.355761,5.296442,-1.534955,-0.000000,0.000000,-1.000000
22.317524,2.323242,1.534955,0.000000,0.000000,1.000000
-9.581340,15.818274,-1.534955,-0.000000,-0.000000,-1.000000
-5.548023,21.353961,1.534955,0.000000,0.000000,1.000000
20.609265,-2.520633,1.534955,0.000000,-0.000000,1.000000
-6.876256,18.851895,1.534955,0.000000,0.000000,1.000000
11.285500,-16.780552,1.534955,0.000000,-0.000000,1.000000
9.576345,-10.761153,1.534955,-0.000000,-0.000000,1.000000
20.039575,8.766281,1.534955,0.000000,0.000000,1.000000
-17.991462,-1.208483,-1.534955,0.000000,-0.000000,-1.000000
11.441122,-9.977736,-1.534955,0.000000,0.000000,-1.000000
-6.186141,21.781059,-0.604789,-0.242980,0.970031,0.000000
-14.357048,-15.168661,-1.534955,0.000000,-0.000000,-1.000000
17.241929,14.676285,-1.259750,0.740951,0.671559,0.000000
-0.900000,-22.407239,1.534955,-0.000000,-0.000000,1.000000
-16.695932,9.346169,1.534955,0.000000,0.000000,1.000000
4.255378,19.756031,-1.534955,-0.000000,0.000000,-1.000000
-18.784254,0.125430,-1.534955,-0.000000,-0.000000,-1.000000
17.219514,-13.299177,1.534955,0.000000,-0.000000,1.000000
-16.634294,8.001585,-1.534955,-0.000000,-0.000000,-1.000000
-6.041018,20.046546,1.534955,0.000000,0.000000,1.000000
-17.890861,5.824207,-1.534955,-0.000000,-0.000000,-1.000000
9.068350,-13.359449,-1.534955,0.000000,0.000000,-1.000000
-3.130335,21.554147,1.534955,0.000000,0.000000,1.000000
-19.342309,-7.293230,-1.534955,0.000000,-0.000000,-1.000000
14.037191,10.744927,1.534955,0.000000,-0.000000,1.000000
4.024491,13.963530,1.534955,0.000000,0.000000,1.000000
12.479709,5.532762,-1.534955,0.000000,0.000000,-1.000000
9.906301,14.273538,-1.534955,-0.000000,0.000000,-1.000000
-0.391357,13.345737,1.283788,0.049068,-0.998795,0.000000
19.179633,7.154777,-1.534955,-0.000000,0.000000,-1.000000
13.922333,2.820438,1.534955,0.000000,0.000000,1.000000
2.987213,19.220571,1.534955,0.000000,0.000000,1.000000
-20.207398,-5.894052,-1.534955,0.000000,-0.000000,-1.000000
19.500197,-11.487082,0.691566,0.857729,-0.514103,0.000000
10.788671,-18.201621,-1.534955,0.000000,0.000000,-1.000000
13.421927,-6.794552,-1.534955,0.000000,0.000000,-1.000000
13.338814,1.395269,1.534955,0.000000,-0.000000,1.000000
-7.397080,-16.760948,1.534955,-0.000000,0.000000,1.000000
10.753112,13.713358,-1.534955,0.000000,0.000000,-1.000000
16.448795,-15.551374,-1.205073,0.740951,-0.671559,0.000000
-15.785917,7.210004,1.534955,0.000000,0.000000,1.000000
14.330621,-2.727278,1.534955,0.000000,-0.000000,1.000000
-20.085019,8.989848,-1.534955,-0.000000,-0.000000,-1.000000
3.836265,13.447967,-1.534955,0.000000,0.000000,-1.000000
12.940466,-8.553448,1.534955,0.000000,-0.000000,1.000000
-16.279331,10.629078,1.534955,0.000000,0.000000,1.000000
15.484735,4.004775,1.534955,0.000000,-0.000000,1.000000
18.443086,-6.467142,-1.534955,0.000000,0.000000,-1.000000
-8.537024,10.278342,-1.044995,0.671559,-0.740951,0.000000
21.517253,7.040804,0.244771,0.941544,0.336890,0.000000
0.182862,-15.843130,-1.534955,0.000000,-0.000000,-1.000000
15.243279,0.774968,1.534955,0.000000,-0.000000,1.000000
-10.333348,-9.329524,1.534955,-0.000000,0.000000,1.000000
17.369024,0.434601,1.534955,0.000000,0.000000,1.000000
-8.263434,17.640077,1.534955,0.000000,0.000000,1.000000
20.106552,1.911329,-1.534955,0.000000,0.000000,-1.000000
-20.183008,-10.016163,1.534955,-0.000000,0.000000,1.000000
12.371511,-18.970091,-0.050883,0.514103,-0.857729,0.000000
19.763231,11.048237,-0.969630,0.857729,0.514103,0.000000
0.955732,13.318011,0.251471,-0.049068,-0.998795,0.000000
17.817900,5.966437,1.534955,0.000000,0.000000,1.000000
22.562435,1.959734,-0.824916,0.998795,0.049068,-0.000000
-15.383588,10.440143,1.534955,0.000000,0.000000,1.000000
-5.209962,14.412841,1.534955,0.000000,0.000000,1.000000
2.163590,22.477744,-1.534955,-0.000000,0.000000,-1.000000
-11.369803,-9.325246,-1.534955,0.000000,-0.000000,-1.000000
3.322371,13.171777,-1.534955,0.000000,0.000000,-1.000000
-6.466339,15.999371,1.534955,0.000000,0.000000,1.000000
-16.516037,0.141308,-1.534955,-0.000000,-0.000000,-1.000000
-18.317066,1.953148,1.534955,0.000000,0.000000,1.000000
-1.258068,17.608800,-1.534955,-0.000000,0.000000,-1.000000
17.408637,14.492351,0.792384,0.740951,0.671559,0.000000
4.926050,-22.096695,-1.018283,0.242980,-0.970031,0.000000
-1.054232,-13.313172,-0.697834,0.049068,0.998795,0.000000
-10.475785,-13.516662,1.534955,-0.000000,0.000000,1.000000
5.816512,12.015612,-0.820624,-0.427555,-0.903989,-0.000000
9.840783,18.146073,1.534955,0.000000,-0.000000,1.000000
3.781126,-21.150217,1.534955,0.000000,-0.000000,1.000000
-18.918576,4.825813,-1.534955,-0.000000,-0.000000,-1.000000
-20.161496,-7.203232,-1.534955,0.000000,-0.000000,-1.000000
-16.358892,15.277696,1.534955,0.000000,0.000000,1.000000
6.381162,-18.389897,-1.534955,0.000000,0.000000,-1.000000
-3.905888,20.850411,-1.534955,-0.000000,0.000000,-1.000000
-21.716029,6.445756,-0.227579,-0.970031,0.242980,0.000000
2.738377,-19.515108,1.534955,0.000000,-0.000000,1.000000
-0.506299,21.394567,1.534955,0.000000,0.000000,1.000000
13.616751,-18.077431,0.871724,0.595699,-0.803208,0.000000
20.506717,-4.016100,1.534955,0.000000,-0.000000,1.000000
-1.709376,-13.241364,0.282507,0.146730,0.989177,0.000000
-4.265963,20.277094,-1.534955,-0.000000,0.000000,-1.000000
0.572183,-17.614370,1.534955,0.000000,-0.000000,1.000000
-14.660580,10.815899,-1.534955,-0.000000,-0.000000,-1.000000
19.778709,-11.022414,-0.785232,0.857729,-0.514103,0.000000
-16.018020,-13.261656,-1.534955,0.000000,-0.000000,-1.000000
18.041743,13.664870,0.885292,0.803208,0.595699,-0.000000
-20.848979,-6.804837,1.534955,-0.000000,0.000000,1.000000
5.699893,20.766312,1.534955,0.000000,0.000000,1.000000
4.866584,18.661863,1.534955,0.000000,0.000000,1.000000
13.039538,2.881325,-1.390160,-0.970031,-0.242980,-0.000000
5.132796,19.675089,-1.534955,-0.000000,0.000000,-1.000000
-17.226077,-3.108702,-1.534955,0.000000,-0.000000,-1.000000
22.571820,1.768700,-0.264831,0.998795,0.049068,-0.000000
-13.394805,-18.242037,-1.309313,-0.595699,-0.803208,0.000000
3.626499,-22.211480,-1.534955,0.000000,0.000000,-1.000000
-1.918817,19.796800,-1.534955,-0.000000,0.000000,-1.000000
-15.933242,-12.812094,1.534955,-0.000000,0.000000,1.000000
2.258486,22.544034,-1.309872,0.146730,0.989177,-0.000000
-20.789090,-3.344183,1.534955,-0.000000,0.000000,1.000000
8.916050,19.646589,-1.534955,-0.000000,0.000000,-1.000000
17.156248,11.139896,1.534955,0.000000,-0.000000,1.000000
13.670021,17.712821,1.534955,0.000000,0.000000,1.000000
8.218021,14.594972,1.534955,0.000000,-0.000000,1.000000
8.679929,-10.148820,-0.056647,-0.671559,0.740951,0.000000
-18.297845,7.438327,-1.534955,-0.000000,0.000000,-1.000000
10.796467,11.527861,-1.534955,0.000000,0.000000,-1.000000
1.749870,15.482862,1.534955,0.000000,0.000000,1.000000
8.834677,-15.230262,1.534955,0.000000,-0.000000,1.000000
16.236111,-6.357730,1.534955,0.000000,-0.000000,1.000000
-0.355532,18.397876,1.534955,0.000000,0.000000,1.000000
-11.003165,-11.254572,-1.534955,0.000000,-0.000000,-1.000000
15.534844,13.776812,1.534955,0.000000,0.000000,1.000000
-9.819344,-11.095716,-1.534955,0.000000,-0.000000,-1.000000
-3.683007,-22.332726,-1.250975,-0.146730,-0.989177,0.000000
13.678697,-8.846635,-1.534955,0.000000,0.000000,-1.000000
7.425997,-18.873163,1.534955,0.000000,-0.000000,1.000000
-22.136996,4.765160,1.271963,-0.970031,0.242980,0.000000
-12.144606,-10.919734,1.534955,-0.000000,0.000000,1.000000
-8.421974,14.036508,1.534955,0.000000,0.000000,1.000000
19.851099,4.317307,-1.534955,-0.000000,0.000000,-1.000000
21.863258,2.510341,-1.534955,0.000000,0.000000,-1.000000
14.553519,-12.121134,1.534955,-0.000000,-0.000000,1.000000
-0.565265,17.330159,1.534955,0.000000,0.000000,1.000000
-12.034358,10.930138,1.534955,0.000000,0.000000,1.000000
-7.903100,-10.758107,-1.414178,0.595699,0.803208,0.000000
-11.808695,-11.785480,1.534955,-0.000000,0.000000,1.000000
-3.628299,16.220054,1.534955,0.000000,0.000000,1.000000
5.683576,14.702056,-1.534955,0.000000,0.000000,-1.000000
-15.426333,7.633699,1.534955,0.000000,0.000000,1.000000
-16.174264,-1.858399,1.534955,-0.000000,0.000000,1.000000
-18.906415,-1.978765,-1.534955,-0.000000,-0.000000,-1.000000
13.490585,10.268688,1.534955,0.000000,-0.000000,1.000000
22.644315,-0.293039,-1.057820,0.998795,-0.049068,0.000000
-13.232781,-1.767240,1.203823,0.989177,0.146730,0.000000
9.971482,-17.018234,1.534955,0.000000,-0.000000,1.000000
15.381785,16.602502,-0.813637,0.671559,0.740951,0.000000
0.431848,21.416746,-1.534955,-0.000000,0.000000,-1.000000
16.649033,0.057902,1.534955,0.000000,0.000000,1.000000
15.342250,-3.922253,-1.534955,0.000000,0.000000,-1.000000
-21.369604,7.453455,-1.225834,-0.941544,0.336890,0.000000
11.399950,6.945696,-0.083010,-0.857729,-0.514103,-0.000000
-19.024866,11.706824,-1.534955,-0.000000,-0.000000,-1.000000
10.021897,-16.223350,1.534955,0.000000,-0.000000,1.000000
-12.073381,19.148783,-1.421983,-0.514103,0.857729,0.000000
-13.991940,14.417039,-1.534955,-0.000000,-0.000000,-1.000000
-11.149209,17.308791,-1.534955,-0.000000,-0.000000,-1.000000
15.828741,10.155773,1.534955,0.000000,-0.000000,1.000000
14.638699,2.269897,-1.534955,0.000000,0.000000,-1.000000
-16.552311,15.437161,1.341222,-0.740951,0.671559,0.000000
22.165264,1.574611,-1.534955,0.000000,0.000000,-1.000000
9.939882,9.110040,-1.534955,0.000000,0.000000,-1.000000
20.195307,-4.380625,1.534955,0.000000,-0.000000,1.000000
19.387631,6.014773,1.534955,0.000000,0.000000,1.000000
15.038191,-0.789149,-1.534955,0.000000,0.000000,-1.000000
-18.459619,11.243625,-1.534955,-0.000000,-0.000000,-1.000000
-17.597054,-5.743199,-1.534955,0.000000,-0.000000,-1.000000
-15.510347,-5.162071,-1.534955,0.000000,-0.000000,-1.000000
-8.457806,19.537459,-1.534955,-0.000000,-0.000000,-1.000000
19.881295,-4.034423,1.534955,-0.000000,-0.000000,1.000000
13.175160,-18.404937,-1.435206,0.595699,-0.803208,0.000000
-15.356974,-8.848225,-1.534955,0.000000,-0.000000,-1.000000
8.027393,-20.580497,-1.534955,0.000000,0.000000,-1.000000
-18.027046,-8.707954,-1.534955,0.000000,-0.000000,-1.000000
-18.703989,-1.332380,1.534955,-0.000000,0.000000,1.000000
-14.704439,0.630116,-1.534955,-0.000000,0.000000,-1.000000
0.409637,-15.594188,-1.534955,0.000000,-0.000000,-1.000000
13.372558,8.159266,1.534955,0.000000,-0.000000,1.000000
-10.666267,8.575062,1.534955,0.000000,0.000000,1.000000
-13.731267,11.465665,1.534955,0.000000,0.000000,1.000000
-3.111845,12.981796,-0.375187,0.242980,-0.970031,0.000000
1.923852,-17.801758,-1.534955,0.000000,-0.000000,-1.000000
11.549368,-6.696407,-0.328617,-0.857729,0.514103,0.000000
0.340200,22.641998,-0.815863,0.049068,0.998795,-0.000000
-9.938043,18.662669,1.534955,0.000000,0.000000,1.000000
-9.436303,-12.900305,-1.534955,0.000000,-0.000000,-1.000000
-15.386224,3.454846,1.534955,0.000000,0.000000,1.000000
-20.432510,9.474327,-1.534955,-0.000000,-0.000000,-1.000000
12.771264,13.005961,-1.534955,0.000000,0.000000,-1.000000
12.839568,-5.179438,-1.534955,0.000000,0.000000,-1.000000
-21.497502,-3.253309,-1.534955,0.000000,-0.000000,-1.000000
17.608555,-10.034644,-1.534955,0.000000,0.000000,-1.000000
-13.268187,9.249436,-1.534955,-0.000000,-0.000000,-1.000000
22.379119,3.370253,-0.348941,0.989177,0.146730,0.000000
-19.007193,-9.584608,1.534955,-0.000000,0.000000,1.000000
-1.968773,-16.504878,-1.534955,0.000000,-0.000000,-1.000000
-10.175688,12.859138,1.534955,0.000000,0.000000,1.000000
7.057718,20.344527,1.534955,0.000000,0.000000,1.000000
17.808296,9.961895,-1.534955,-0.000000,0.000000,-1.000000
-17.224616,1.551235,-1.534955,-0.000000,0.000000,-1.000000
6.484343,11.676474,0.670973,-0.514103,-0.857729,-0.000000
-16.489176,1.554733,1.534955,-0.000000,0.000000,1.000000
10.055806,-19.865127,1.534955,0.000000,-0.000000,1.000000
16.860842,6.241359,-1.534955,-0.000000,0.000000,-1.000000
-17.636593,5.838333,1.534955,0.000000,0.000000,1.000000
17.621520,11.438238,1.534955,0.000000,0.000000,1.000000
-6.271558,11.800391,-1.311301,0.427555,-0.903989,0.000000
12.942399,18.577564,-0.189919,0.595699,0.803208,-0.000000
-14.936281,17.006283,0.394954,-0.671559,0.740951,0.000000
3.840976,-18.378854,1.534955,0.000000,-0.000000,1.000000
-4.961213,12.402480,0.611700,0.336890,-0.941544,0.000000
-20.130569,-5.211793,1.534955,-0.000000,0.000000,1.000000
8.354975,12.430568,1.534955,0.000000,-0.000000,1.000000
-0.921588,-20.224707,1.534955,-0.000000,-0.000000,1.000000
-20.881295,7.037846,-1.534955,-0.000000,-0.000000,-1.000000
17.603669,2.026851,-1.534955,0.000000,0.000000,-1.000000
12.379087,18.965550,-0.924900,0.514103,0.857729,0.000000
19.117083,-4.194424,1.534955,-0.000000,-0.000000,1.000000
-16.250429,13.617526,1.534955,0.000000,0.000000,1.000000
-5.543833,-20.439918,1.534955,-0.000000,0.000000,1.000000
19.764212,0.604333,-1.534955,0.000000,0.000000,-1.000000
0.399146,14.472615,-1.534955,0.000000,0.000000,-1.000000
-16.641126,-12.999862,-1.534955,0.000000,-0.000000,-1.000000
18.971197,8.680786,1.534955,0.000000,0.000000,1.000000
-8.155085,-21.118557,1.026998,-0.336890,-0.941544,0.000000
14.808992,-16.432232,-1.534955,0.000000,0.000000,-1.000000
-8.089890,13.435009,-1.534955,-0.000000,0.000000,-1.000000
-4.427800,-22.221501,1.301071,-0.242980,-0.970031,0.000000
-0.999989,22.609585,-1.508757,-0.049068,0.998795,0.000000
-15.947332,16.089919,-0.339271,-0.671559,0.740951,0.000000
-12.723725,6.269845,1.534955,0.000000,0.000000,1.000000
11.933217,-12.956262,1.534955,0.000000,-0.000000,1.000000
19.947063,-4.600905,1.534955,0.000000,-0.000000,1.000000
3.254313,13.300931,-1.534955,0.000000,0.000000,-1.000000
11.783632,-19.322452,-1.257673,0.514103,-0.857729,0.000000
10.871965,-19.868884,-0.359836,0.514103,-0.857729,0.000000
1.669974,-19.214377,-1.534955,0.000000,0.000000,-1.000000
0.269933,15.285221,1.534955,0.000000,0.000000,1.000000
15.056072,4.907097,-1.534955,0.000000,0.000000,-1.000000
-15.241771,-3.817264,1.534955,-0.000000,0.000000,1.000000
8.925237,-12.291109,-1.534955,0.000000,0.000000,-1.000000
-3.217462,18.930673,1.534955,0.000000,0.000000,1.000000
-0.135833,-20.297803,1.534955,-0.000000,0.000000,1.000000
15.787229,7.196336,-1.534955,0.000000,0.000000,-1.000000
20.091609,-5.879994,-1.534955,0.000000,0.000000,-1.000000
-15.341256,-3.294764,-1.534955,0.000000,-0.000000,-1.000000
-12.028403,-19.175742,-0.980107,-0.514103,-0.857729,0.000000
-18.007564,-0.493018,-1.534955,-0.000000,-0.000000,-1.000000
-0.522568,-14.159044,1.534955,-0.000000,0.000000,1.000000
5.830461,-21.870152,-1.447744,0.242980,-0.970031,0.000000
13.212178,18.377482,-0.421639,0.595699,0.803208,-0.000000
-9.701736,9.173211,-1.403573,0.740951,-0.671559,0.000000
-8.469210,13.914128,1.534955,0.000000,0.000000,1.000000
-7.525324,12.764539,-1.534955,-0.000000,0.000000,-1.000000
3.479424,15.466437,1.534955,0.000000,-0.000000,1.000000
-3.629362,-15.151366,-1.534955,0.000000,-0.000000,-1.000000
-22.473993,-2.730663,1.246457,-0.989177,-0.146730,0.000000
13.535227,-14.016538,1.534955,-0.000000,-0.000000,1.000000
15.051975,-0.689238,-1.534955,0.000000,0.000000,-1.000000
9.734301,20.431069,-0.121309,0.427555,0.903989,0.000000
-3.192409,-22.405500,1.523086,-0.146730,-0.989177,0.000000
8.377600,-12.204234,1.534955,0.000000,-0.000000,1.000000
-13.955347,17.826311,-0.221239,-0.595699,0.803208,0.000000
17.767750,2.198992,-1.534955,0.000000,0.000000,-1.000000
-12.982933,-11.811247,-1.534955,0.000000,-0.000000,-1.000000
21.483121,-4.554104,1.534955,0.000000,-0.000000,1.000000
10.994673,19.795336,1.110380,0.514103,0.857729,-0.000000
13.903364,-6.669991,-1.534955,0.000000,0.000000,-1.000000
-1.157303,13.308108,-1.232180,0.049068,-0.998795,0.000000
17.741832,-13.730607,-1.534955,0.000000,0.000000,-1.000000
16.786956,-12.040282,-1.534955,0.000000,0.000000,-1.000000
6.371197,-13.667207,1.534955,-0.000000,-0.000000,1.000000
1.764854,13.233135,-0.554124,-0.146730,-0.989177,-0.000000
-16.846120,11.347515,1.534955,0.000000,0.000000,1.000000
12.817124,17.184026,1.534955,0.000000,0.000000,1.000000
9.950450,14.215098,1.534955,0.000000,-0.000000,1.000000
2.102889,-21.386353,-1.534955,0.000000,0.000000,-1.000000
17.178556,14.408175,-1.534955,-0.000000,0.000000,-1.000000
-3.129394,22.414847,-0.159369,-0.146730,0.989177,0.000000
2.236893,15.521434,1.534955,0.000000,0.000000,1.000000
-10.472129,11.377817,-1.534955,-0.000000,0.000000,-1.000000
8.905040,-16.496918,-1.534955,0.000000,0.000000,-1.000000
22.156821,-4.686016,1.463196,0.970031,-0.242980,0.000000
19.075800,3.816835,-1.534955,0.000000,0.000000,-1.000000
-7.106197,18.803784,-1.534955,-0.000000,-0.000000,-1.000000
-21.916036,-5.647284,-1.401760,-0.970031,-0.242980,0.000000
12.210728,-17.380574,-1.534955,0.000000,0.000000,-1.000000
-12.197928,15.787314,1.534955,0.000000,0.000000,1.000000
-7.289301,-19.036071,-1.534955,0.000000,-0.000000,-1.000000
8.122048,-17.811265,1.534955,0.000000,-0.000000,1.000000
6.557320,17.444204,1.534955,0.000000,0.000000,1.000000
-4.096906,17.690733,1.534955,0.000000,0.000000,1.000000
-12.968503,-14.061921,1.534955,-0.000000,0.000000,1.000000
-11.813331,-9.524976,-1.534955,0.000000,-0.000000,-1.000000
-13.104049,-11.074626,-1.534955,0.000000,-0.000000,-1.000000
5.774844,19.900240,1.534955,0.000000,0.000000,1.000000
0.212748,-21.493018,1.534955,0.000000,-0.000000,1.000000
0.640837,22.627229,0.086670,0.049068,0.998795,-0.000000
-19.997879,-1.674105,1.534955,-0.000000,0.000000,1.000000
19.264903,-4.265475,1.534955,0.000000,-0.000000,1.000000
-21.283610,3.080924,1.534955,-0.000000,0.000000,1.000000
1.439683,-16.367032,-1.534955,0.000000,0.000000,-1.000000
-11.729992,-6.492614,1.534955,-0.000000,0.000000,1.000000
-4.610030,22.175854,-0.765835,-0.242980,0.970031,0.000000
-18.563866,12.960869,-0.805012,-0.803208,0.595699,0.000000
-18.147285,4.448855,-1.534955,-0.000000,-0.000000,-1.000000
0.272264,18.172865,1.534955,0.000000,0.000000,1.000000
-20.716361,3.639546,1.534955,-0.000000,0.000000,1.000000
14.078543,-16.502830,1.534955,0.000000,-0.000000,1.000000
-10.410746,-8.371462,-1.116030,0.803208,0.595699,0.000000
-15.909558,-0.812115,-1.534955,-0.000000,-0.000000,-1.000000
-14.450924,-14.379409,-1.534955,0.000000,-0.000000,-1.000000
19.248785,-6.881833,1.534955,0.000000,-0.000000,1.000000
-10.962348,-9.936113,1.534955,-0.000000,0.000000,1.000000
2.109638,15.729626,1.534955,0.000000,0.000000,1.000000
15.532254,-13.462680,1.534955,0.000000,-0.000000,1.000000
1.792424,-13.229045,-1.104644,-0.146730,0.989177,0.000000
-12.353497,14.495595,-1.534955,-0.000000,0.000000,-1.000000
-14.528988,-7.946048,1.534955,-0.000000,0.000000,1.000000
2.734184,14.730944,1.534955,0.000000,0.000000,1.000000
8.193018,-10.543089,-0.409701,-0.595699,0.803208,0.000000
8.017837,11.282947,1.534955,0.000000,-0.000000,1.000000
-6.076550,-12.904208,1.534955,-0.000000,0.000000,1.000000
8.846590,-9.997767,0.397404,-0.671559,0.740951,0.000000
9.287099,11.760187,1.534955,0.000000,0.000000,1.000000
-15.695935,-8.004073,1.534955,-0.000000,0.000000,1.000000
-1.039811,-19.283577,-1.534955,0.000000,-0.000000,-1.000000
18.831671,11.826248,1.534955,0.000000,0.000000,1.000000
20.905694,-3.135338,1.534955,0.000000,-0.000000,1.000000
16.248520,-5.709412,1.534955,-0.000000,-0.000000,1.000000
18.936584,-12.427415,-1.308409,0.857729,-0.514103,0.000000
-7.965975,18.417143,1.534955,0.000000,0.000000,1.000000
-2.070950,21.803701,1.534955,0.000000,0.000000,1.000000
-13.137733,-2.408004,-0.725124,0.989177,0.146730,0.000000
9.980044,-13.083903,1.534955,-0.000000,-0.000000,1.000000
-4.663974,-21.827176,-1.534955,0.000000,-0.000000,-1.000000
-0.579121,14.165709,-1.534955,-0.000000,0.000000,-1.000000
-3.374613,-14.335098,-1.534955,0.000000,-0.000000,-1.000000
13.987302,11.145445,-1.534955,-0.000000,0.000000,-1.000000
-11.336068,-15.624066,-1.534955,0.000000,-0.000000,-1.000000
-17.716601,8.732164,1.534955,0.000000,0.000000,1.000000
-2.516313,-13.121666,1.410340,0.146730,0.989177,0.000000
15.072975,-10.149792,-1.534955,0.000000,0.000000,-1.000000
6.039684,17.500910,-1.534955,-0.000000,0.000000,-1.000000
8.454138,12.032136,-1.534955,0.000000,0.000000,-1.000000
-1.375752,22.591125,0.366653,-0.049068,0.998795,0.000000
20.991039,-2.410481,-1.534955,0.000000,0.000000,-1.000000
12.235186,-19.051801,0.747371,0.514103,-0.857729,0.000000
-16.636292,10.234852,-1.534955,-0.000000,-0.000000,-1.000000
-10.340697,12.844540,-1.534955,-0.000000,-0.000000,-1.000000
-19.611212,-9.718182,1.534955,-0.000000,0.000000,1.000000
16.398863,12.726905,-1.534955,-0.000000,0.000000,-1.000000
18.972433,8.080319,1.534955,0.000000,0.000000,1.000000
19.232531,-11.933656,-0.143492,0.857729,-0.514103,0.000000
21.404707,6.498759,-1.534955,0.000000,0.000000,-1.000000
14.133340,0.399036,1.534955,0.000000,-0.000000,1.000000
-17.280690,2.215929,-1.534955,-0.000000,-0.000000,-1.000000
-5.163104,15.204345,-1.534955,-0.000000,0.000000,-1.000000
4.214697,14.380759,1.534955,0.000000,0.000000,1.000000
13.724306,9.465170,-1.534955,0.000000,0.000000,-1.000000
-18.331148,-7.967260,1.534955,-0.000000,0.000000,1.000000
14.481252,8.506864,1.534955,0.000000,0.000000,1.000000
5.409189,-19.720569,-1.534955,0.000000,0.000000,-1.000000
19.298640,11.823361,0.852913,0.857729,0.514103,-0.000000
2.456439,-21.562503,1.534955,0.000000,-0.000000,1.000000
-8.896081,-9.952912,0.201080,0.671559,0.740951,0.000000
19.392853,-11.666175,0.328315,0.857729,-0.514103,0.000000
13.370384,-5.918316,-1.534955,0.000000,0.000000,-1.000000
-18.045379,-10.243972,1.534955,-0.000000,0.000000,1.000000
13.085932,18.471113,0.636192,0.595699,0.803208,-0.000000
11.965712,18.204876,-1.534955,-0.000000,0.000000,-1.000000
8.818225,20.864341,0.189579,0.427555,0.903989,-0.000000
8.286620,10.561893,-1.534955,0.000000,0.000000,-1.000000
-8.662934,17.254761,1.534955,0.000000,0.000000,1.000000
-15.123402,15.161293,1.534955,0.000000,0.000000,1.000000
-22.229086,-3.757908,1.534955,-0.000000,0.000000,1.000000
-21.499487,-3.943108,-1.534955,0.000000,-0.000000,-1.000000
-15.921496,-9.325973,1.534955,-0.000000,0.000000,1.000000
14.368869,-11.515150,1.534955,0.000000,-0.000000,1.000000
14.224083,17.627002,-0.289835,0.595699,0.803208,0.000000
8.095563,21.139855,0.519251,0.336890,0.941544,0.000000
-12.091060,11.314555,-1.534955,-0.000000,0.000000,-1.000000
19.349029,5.225981,1.534955,0.000000,0.000000,1.000000
1.619859,19.956362,1.534955,0.000000,0.000000,1.000000
-11.403703,-14.745077,-1.534955,0.000000,-0.000000,-1.000000
7.772991,-21.255273,1.161906,0.336890,-0.941544,0.000000
-14.989850,15.977053,-1.534955,-0.000000,-0.000000,-1.000000
17.914540,10.049729,1.534955,0.000000,0.000000,1.000000
1.327339,-21.745776,1.534955,0.000000,-0.000000,1.000000
7.292996,11.191786,0.156756,-0.514103,-0.857729,0.000000
-2.847505,-21.812283,1.534955,-0.000000,-0.000000,1.000000
15.601715,-8.606814,-1.534955,0.000000,0.000000,-1.000000
13.817775,13.507798,1.534955,0.000000,-0.000000,1.000000
-0.188225,-13.712575,1.534955,-0.000000,0.000000,1.000000
-1.759612,-16.867931,-1.534955,0.000000,-0.000000,-1.000000
22.045150,5.131830,-0.487006,0.970031,0.242980,0.000000
21.197502,-3.514615,1.534955,0.000000,-0.000000,1.000000
5.921593,21.847325,-1.037493,0.242980,0.970031,0.000000
5.067960,12.760367,-1.534955,0.000000,0.000000,-1.000000
-7.592553,14.176091,-1.534955,-0.000000,0.000000,-1.000000
-10.005142,-16.153479,1.534955,-0.000000,0.000000,1.000000
-11.030062,-7.536411,0.172194,0.803208,0.595699,0.000000
-11.556449,-6.684591,1.318352,0.857729,0.514103,0.000000
-18.756979,12.700487,-1.182921,-0.803208,0.595699,0.000000
-21.181435,1.601304,-1.534955,-0.000000,-0.000000,-1.000000
-5.305945,-22.001537,1.024056,-0.242980,-0.970031,0.000000
-11.270440,-11.834553,1.534955,-0.000000,0.000000,1.000000
-8.480629,-20.591492,-1.534955,0.000000,-0.000000,-1.000000
14.458538,-17.439284,0.229372,0.671559,-0.740951,0.000000
5.015689,-20.692658,1.534955,0.000000,-0.000000,1.000000
20.705274,-9.154544,-0.871625,0.903989,-0.427555,0.000000
-0.255237,13.682239,-1.534955,-0.000000,0.000000,-1.000000
14.040672,-11.245404,1.534955,0.000000,-0.000000,1.000000
-14.872785,4.320438,-1.534955,-0.000000,0.000000,-1.000000
-18.503498,11.653981,1.534955,0.000000,0.000000,1.000000
-10.396889,-9.104522,1.534955,-0.000000,0.000000,1.000000
-20.491237,-9.607086,1.093096,-0.903989,-0.427555,0.000000
12.069893,-16.258595,1.534955,0.000000,-0.000000,1.000000
-7.112513,-13.481427,-1.534955,0.000000,-0.000000,-1.000000
-5.996080,14.863871,-1.534955,-0.000000,-0.000000,-1.000000
7.592456,-17.239223,1.534955,0.000000,-0.000000,1.000000
13.240557,16.507373,-1.534955,-0.000000,0.000000,-1.000000
15.758164,-1.829406,-1.534955,0.000000,0.000000,-1.000000
-9.060012,12.697026,1.534955,0.000000,0.000000,1.000000
20.803011,-6.193654,1.534955,0.000000,-0.000000,1.000000
-13.559878,18.119611,-0.927894,-0.595699,0.803208,0.000000
7.104056,11.305032,-1.125445,-0.514103,-0.857729,-0.000000
-13.360209,-0.096757,0.677931,0.998795,0.049068,0.000000
15.587598,5.490289,-1.534955,0.000000,0.000000,-1.000000
-13.620354,0.475834,-1.534955,-0.000000,0.000000,-1.000000
-13.188833,-2.063516,0.181525,0.989177,0.146730,0.000000
-11.529705,10.753819,-1.534955,-0.000000,0.000000,-1.000000
8.259105,-20.240954,1.534955,0.000000,-0.000000,1.000000
-15.361940,-1.576841,-1.534955,-0.000000,-0.000000,-1.000000
-21.268258,-7.736699,-1.015083,-0.941544,-0.336890,0.000000
-4.958643,-15.387425,-1.534955,0.000000,-0.000000,-1.000000
11.056739,10.697908,-1.534955,-0.000000,0.000000,-1.000000
19.887832,9.095369,1.534955,0.000000,0.000000,1.000000
-4.478876,-12.575063,0.389663,0.336890,0.941544,0.000000
-4.285446,-19.752154,-1.534955,0.000000,-0.000000,-1.000000
-16.262027,-13.552965,1.534955,-0.000000,0.000000,1.000000
8.030267,19.721991,-1.534955,0.000000,0.000000,-1.000000
20.587562,-0.410396,1.534955,0.000000,-0.000000,1.000000
6.450032,-16.111698,1.534955,-0.000000,-0.000000,1.000000
1.348577,-16.064590,-1.534955,0.000000,0.000000,-1.000000
-0.377957,-13.346395,1.362640,0.049068,0.998795,0.000000
-7.715133,20.044181,-1.534955,-0.000000,-0.000000,-1.000000
19.060836,-11.298457,1.534955,0.000000,-0.000000,1.000000
7.155218,12.952290,-1.534955,-0.000000,0.000000,-1.000000
22.299271,-0.121537,1.534955,0.000000,-0.000000,1.000000
16.869181,5.846881,1.534955,0.000000,0.000000,1.000000
-3.168061,-16.373722,1.534955,-0.000000,-0.000000,1.000000
-9.303491,-9.915987,1.534955,-0.000000,0.000000,1.000000
-15.239022,-8.773062,-1.534955,0.000000,-0.000000,-1.000000
-5.259222,12.279190,-1.242128,0.427555,-0.903989,0.000000
-6.412862,15.029509,1.534955,0.000000,0.000000,1.000000
-18.562349,6.124378,1.534955,0.000000,0.000000,1.000000
-21.921741,5.624506,-0.463323,-0.970031,0.242980,0.000000
-19.194249,0.487232,-1.534955,-0.000000,-0.000000,-1.000000
