x,y,z,nx,ny,nz
-0.313938,0.030813,0.249113,-0.866025,0.000000,0.500000
-0.029961,-0.653352,-0.040515,-0.552053,0.371391,-0.746529
0.069362,-0.528853,-0.143735,0.434611,0.000000,-0.900618
0.144536,-0.446168,0.067677,0.905637,0.000000,0.424054
0.182432,0.055437,-0.396435,-0.000000,0.000000,-1.000000
0.103715,-0.619840,-0.005756,0.927050,0.371391,-0.051447
-0.373488,-0.036457,-0.145969,-0.866025,0.000000,-0.500000
0.159550,-0.127584,0.003812,0.999715,0.000000,0.023885
0.114513,0.023964,0.396435,0.000000,0.000000,1.000000
0.099689,-0.577752,-0.124631,0.624632,0.000000,-0.780919
-0.120235,-0.174125,-0.104949,-0.753371,0.000000,-0.657595
-0.065402,-0.634088,0.048014,-0.748442,0.371391,0.549457
0.346484,-0.015701,0.192742,0.866025,0.000000,0.500000
-0.235515,-0.045006,-0.384946,-0.866025,0.000000,-0.500000
-0.230614,-0.046329,0.393434,-0.866025,0.000000,0.500000
-0.250270,-0.085456,0.071992,0.000000,-1.000000,0.000000
-0.159549,-0.261542,0.003852,-0.999709,0.000000,0.024135
-0.156506,-0.192036,-0.031250,-0.980642,0.000000,-0.195808
0.031766,-0.609923,-0.115409,0.246396,0.371391,-0.895186
0.231411,0.085456,-0.244368,0.000000,1.000000,0.000000
0.237991,-0.020564,-0.380657,0.866025,0.000000,-0.500000
-0.069301,-0.629860,-0.054045,-0.732155,0.371391,-0.570979
0.100257,0.028555,-0.396435,-0.000000,0.000000,-1.000000
-0.092537,-0.551115,0.130030,-0.579819,0.000000,0.814745
0.004092,0.085456,0.067376,0.000000,1.000000,0.000000
-0.440812,0.057488,0.029361,-0.866025,0.000000,0.500000
0.125683,0.038225,-0.396435,-0.000000,0.000000,-1.000000
-0.159596,-0.102891,0.000001,-1.000000,0.000000,0.000005
-0.089198,-0.626365,0.027902,-0.886135,0.371391,0.277189
0.066647,-0.426595,-0.145013,0.417601,0.000000,-0.908630
0.131575,-0.419284,-0.090327,0.824425,0.000000,-0.565971
-0.094735,-0.447309,0.128437,-0.593593,0.000000,0.804766
-0.004262,-0.516338,-0.159539,-0.026703,0.000000,-0.999643
0.441571,0.070619,0.028046,0.866025,0.000000,0.500000
-0.066957,-0.345972,0.144871,-0.419538,0.000000,0.907738
-0.130154,-0.444396,-0.092361,-0.815525,0.000000,-0.578722
-0.285142,0.085456,-0.037396,0.000000,1.000000,0.000000
0.452321,-0.042572,0.009427,0.866025,0.000000,0.500000
-0.093855,-0.613006,0.066074,-0.759210,0.371391,0.534480
-0.069943,-0.404312,-0.143453,-0.438252,0.000000,-0.898852
-0.132615,-0.529622,0.088792,-0.830943,0.000000,0.556357
0.126785,-0.177500,0.096934,0.794416,0.000000,0.607374
0.073505,-0.030646,0.396435,0.000000,0.000000,1.000000
-0.049613,-0.585245,-0.151152,-0.289555,0.371391,-0.882172
-0.378004,-0.001591,0.138148,-0.866025,0.000000,0.500000
0.188356,0.057216,-0.396435,-0.000000,0.000000,-1.000000
0.134502,-0.137904,-0.085907,0.842768,0.000000,-0.538277
0.035592,-0.662213,0.006869,0.911653,0.371391,0.175950
0.107821,-0.505459,0.117667,0.675587,0.000000,0.737280
-0.159587,-0.410739,-0.001700,-0.999943,0.000000,-0.010653
-0.355358,-0.070018,-0.177371,-0.866025,0.000000,-0.500000
-0.155182,-0.319371,-0.037275,-0.972343,0.000000,-0.233557
0.057125,-0.437020,0.149022,0.357936,0.000000,0.933746
0.150437,-0.438809,0.053286,0.942616,0.000000,0.333879
-0.327698,-0.084997,-0.225280,-0.866025,0.000000,-0.500000
-0.269995,0.049291,0.325225,-0.866025,0.000000,0.500000
-0.176866,0.053924,-0.396435,-0.000000,0.000000,-1.000000
-0.100651,-0.611069,-0.061345,-0.792827,0.371391,-0.483213
0.105631,-0.536203,-0.119637,0.661864,0.000000,-0.749624
0.139501,-0.461315,-0.077525,0.874092,0.000000,-0.485761
0.146829,-0.394832,-0.062545,0.920009,0.000000,-0.391897
0.269157,-0.019191,-0.326677,0.866025,0.000000,-0.500000
-0.007993,-0.207326,0.159395,-0.050084,0.000000,0.998745
-0.387725,-0.056666,0.121310,-0.866025,0.000000,0.500000
0.252254,-0.077284,0.355953,0.866025,0.000000,0.500000
0.060905,-0.632872,0.056499,0.680691,0.371391,0.631450
-0.053924,-0.650009,0.014054,-0.898463,0.371391,0.234166
-0.158918,-0.476393,0.014695,-0.995752,0.000000,0.092075
-0.311534,0.085456,-0.242049,0.000000,1.000000,0.000000
-0.286917,0.059076,0.295915,-0.866025,0.000000,0.500000
-0.089276,-0.326221,-0.132289,-0.559391,0.000000,-0.828904
-0.442454,-0.034583,-0.026516,-0.866025,0.000000,-0.500000
0.051946,-0.085456,-0.374562,0.000000,-1.000000,0.000000
-0.200754,0.085456,0.087282,0.000000,1.000000,0.000000
0.452187,0.051603,-0.009659,0.866025,0.000000,-0.500000
0.280825,0.056994,-0.306467,0.866025,0.000000,-0.500000
0.357343,0.052690,-0.173933,0.866025,0.000000,-0.500000
0.158448,-0.381484,0.019103,0.992810,0.000000,0.119699
0.064268,-0.098930,-0.146084,0.402692,0.000000,-0.915335
-0.037571,-0.589641,-0.147356,-0.229390,0.371391,-0.899694
0.053426,-0.649178,0.020011,0.869486,0.371391,0.325674
-0.349103,-0.085456,0.051188,0.000000,-1.000000,0.000000
-0.187107,-0.085456,0.287886,0.000000,-1.000000,0.000000
0.372591,-0.072555,0.147523,0.866025,0.000000,0.500000
-0.039409,-0.064094,-0.396435,-0.000000,0.000000,-1.000000
-0.158833,-0.412375,0.015586,-0.995220,0.000000,0.097658
-0.394511,-0.071251,-0.109556,-0.866025,0.000000,-0.500000
0.159035,-0.465262,0.013360,0.996490,0.000000,0.083709
-0.304348,-0.078355,0.265724,-0.866025,0.000000,0.500000
-0.279845,0.049456,0.308164,-0.866025,0.000000,0.500000
-0.065439,-0.339312,0.145563,-0.410032,0.000000,0.912071
-0.066832,-0.072652,-0.396435,-0.000000,0.000000,-1.000000
0.065581,-0.642607,-0.016142,0.901568,0.371391,-0.221912
-0.318333,-0.005968,-0.241500,-0.866025,0.000000,-0.500000
0.352281,-0.037791,-0.182702,0.866025,0.000000,-0.500000
0.332132,0.051372,-0.217600,0.866025,0.000000,-0.500000
0.159296,-0.149332,0.009768,0.998125,0.000000,0.061202
-0.118084,-0.604803,-0.049066,-0.857405,0.371391,-0.356266
0.292061,-0.052191,0.287006,0.866025,0.000000,0.500000
-0.148361,-0.161718,0.058821,-0.929603,0.000000,0.368563
0.079026,-0.363520,0.138657,0.495162,0.000000,0.868801
-0.019466,-0.122827,-0.158404,-0.121971,0.000000,-0.992534
-0.359250,-0.031806,-0.170630,-0.866025,0.000000,-0.500000
-0.034861,-0.259348,-0.155742,-0.218433,0.000000,-0.975852
-0.316351,-0.028938,0.244934,-0.866025,0.000000,0.500000
0.056736,-0.037590,0.396435,0.000000,0.000000,1.000000
-0.091877,-0.228041,0.130497,-0.575687,0.000000,0.817670
0.010894,-0.648551,-0.057021,0.174237,0.371391,-0.911982
0.146439,0.005727,-0.396435,-0.000000,0.000000,-1.000000
-0.020171,-0.199644,-0.158316,-0.126388,0.000000,-0.991981
0.157053,-0.138515,0.028372,0.984071,0.000000,0.177775
-0.306867,0.023029,0.261360,-0.866025,0.000000,0.500000
-0.408311,-0.042008,-0.085655,-0.866025,0.000000,-0.500000
0.138698,-0.296079,0.078954,0.869057,0.000000,0.494712
-0.314843,0.031318,0.247546,-0.866025,0.000000,0.500000
0.025722,0.085456,-0.088295,0.000000,1.000000,0.000000
-0.036537,-0.406919,0.155357,-0.228932,0.000000,0.973442
0.035697,-0.369271,0.155552,0.223672,0.000000,0.974665
-0.322284,0.053890,0.234658,-0.866025,0.000000,0.500000
-0.045285,-0.558366,-0.153036,-0.283746,0.000000,-0.958900
0.157414,-0.278092,-0.026300,0.986328,0.000000,-0.164794
0.042822,-0.574898,0.153743,0.268318,0.000000,0.963330
0.158445,-0.443575,-0.019126,0.992793,0.000000,-0.119841
-0.358533,0.025074,0.171872,-0.866025,0.000000,0.500000
0.088287,-0.267021,-0.132952,0.553191,0.000000,-0.833055
-0.135454,-0.177403,-0.084397,-0.848734,0.000000,-0.528820
0.076130,0.085456,-0.170811,0.000000,1.000000,0.000000
0.001291,-0.085456,-0.000114,0.000000,-1.000000,0.000000
-0.045519,-0.641434,0.052402,-0.608880,0.371391,0.700952
-0.031718,-0.301826,-0.156412,-0.198740,0.000000,-0.980052
-0.302328,0.000715,-0.269223,-0.866025,0.000000,-0.500000
0.073973,-0.606514,-0.100938,0.548835,0.371391,-0.748899
0.200985,-0.083719,-0.396435,-0.000000,0.000000,-1.000000
-0.049544,-0.340949,0.151711,-0.310435,0.000000,0.950595
-0.156009,-0.371799,0.033643,-0.977530,0.000000,0.210798
-0.156823,-0.462702,0.029622,-0.982625,0.000000,0.185604
-0.060954,-0.593419,-0.132712,-0.387526,0.371391,-0.843737
0.142268,-0.356503,0.072322,0.891429,0.000000,0.453160
-0.133021,-0.444009,-0.088183,-0.833487,0.000000,-0.552539
0.131218,-0.578502,-0.090843,0.822193,0.000000,-0.569209
0.277870,-0.034185,-0.311585,0.866025,0.000000,-0.500000
-0.058399,-0.200653,0.148527,-0.365920,0.000000,0.930646
0.146680,-0.592514,0.015383,0.923412,0.371391,0.096845
-0.018389,-0.474486,0.158533,-0.115222,0.000000,0.993340
-0.145840,-0.420850,-0.064818,-0.913812,0.000000,-0.406138
0.029252,-0.498893,-0.156892,0.183286,0.000000,-0.983060
-0.003666,-0.394784,0.159554,-0.022973,0.000000,0.999736
0.074141,-0.277741,-0.141329,0.464557,0.000000,-0.885543
0.017933,-0.509504,-0.158585,0.112367,0.000000,-0.993667
0.133982,-0.146363,0.086716,0.839508,0.000000,0.543348
-0.158739,-0.210951,0.016511,-0.994634,0.000000,0.103454
-0.083230,-0.141523,0.136175,-0.521504,0.000000,0.853249
0.028392,-0.157873,0.157050,0.177899,0.000000,0.984049
0.074024,-0.430039,0.141390,0.463821,0.000000,0.885929
-0.280876,-0.056368,0.306379,-0.866025,0.000000,0.500000
-0.364317,-0.033807,0.161854,-0.866025,0.000000,0.500000
0.356909,0.080256,-0.174685,0.866025,0.000000,-0.500000
-0.134806,-0.326539,-0.085429,-0.844674,0.000000,-0.535281
-0.015894,-0.518548,0.158802,-0.099588,0.000000,0.995029
0.047671,0.085456,0.117655,0.000000,1.000000,0.000000
0.029889,0.085456,0.284813,0.000000,1.000000,0.000000
0.279014,0.005856,0.309604,0.866025,0.000000,0.500000
-0.072569,-0.084932,0.396435,0.000000,0.000000,1.000000
-0.303486,0.031843,0.267217,-0.866025,0.000000,0.500000
0.151291,-0.199324,0.050812,0.947962,0.000000,0.318383
0.141455,-0.124117,0.073900,0.886335,0.000000,0.463045
-0.082637,-0.063875,0.396435,0.000000,0.000000,1.000000
-0.082562,-0.599651,-0.108191,-0.563261,0.371391,-0.738110
-0.159024,-0.272963,-0.013498,-0.996417,0.000000,-0.084578
-0.155000,-0.368556,-0.038025,-0.971201,0.000000,-0.238260
-0.090382,-0.085456,-0.204003,0.000000,-1.000000,0.000000
-0.027521,-0.652705,-0.043438,-0.496910,0.371391,-0.784315
0.443758,-0.052809,-0.024258,0.866025,0.000000,-0.500000
0.045284,-0.157186,-0.153036,0.283741,0.000000,-0.958901
-0.272719,0.036293,-0.320507,-0.866025,0.000000,-0.500000
-0.159080,-0.120749,0.012820,-0.996768,0.000000,0.080330
-0.072729,-0.633335,-0.038599,-0.820132,0.371391,-0.435261
0.337128,-0.062534,0.208948,0.866025,0.000000,0.500000
0.110133,-0.157672,-0.115505,0.690076,0.000000,-0.723737
0.285189,-0.048309,-0.298908,0.866025,0.000000,-0.500000
-0.151287,-0.303494,0.050823,-0.947940,0.000000,0.318450
-0.178518,-0.049323,-0.396435,-0.000000,0.000000,-1.000000
0.366686,0.041424,0.157751,0.866025,0.000000,0.500000
-0.149452,-0.271400,-0.055989,-0.936443,0.000000,-0.350819
0.238537,-0.000566,0.379712,0.866025,0.000000,0.500000
0.067957,-0.641977,0.008958,0.920514,0.371391,0.121341
0.121650,-0.481009,-0.103306,0.762238,0.000000,-0.647297
-0.277873,0.031553,-0.311579,-0.866025,0.000000,-0.500000
0.203243,0.042114,-0.396435,-0.000000,0.000000,-1.000000
0.343071,0.064575,0.198654,0.866025,0.000000,0.500000
-0.121997,-0.578693,0.102895,-0.764416,0.000000,0.644723
-0.340418,-0.022790,-0.203248,-0.866025,0.000000,-0.500000
-0.063211,-0.645319,0.000041,-0.928476,0.371391,0.000602
-0.128810,-0.466934,0.094228,-0.807099,0.000000,0.590416
-0.222129,0.085456,-0.025881,0.000000,1.000000,0.000000
-0.267102,-0.009126,-0.330235,-0.866025,0.000000,-0.500000
0.144128,-0.577801,0.068540,0.903085,0.000000,0.429461
0.029806,-0.625084,-0.090735,0.289764,0.371391,-0.882103
0.019179,-0.085456,-0.022384,0.000000,-1.000000,0.000000
-0.149448,-0.477013,-0.056002,-0.936414,0.000000,-0.350896
-0.089361,-0.176665,-0.132232,-0.559924,0.000000,-0.828544
0.147803,-0.231064,0.060209,0.926107,0.000000,0.377261
-0.122152,-0.606270,0.028929,-0.903486,0.371391,0.213968
0.114391,-0.418855,-0.111290,0.716756,0.000000,-0.697324
0.339451,0.068119,0.204923,0.866025,0.000000,0.500000
0.123721,0.085456,0.170371,0.000000,1.000000,0.000000
0.098394,-0.207812,0.125656,0.616521,0.000000,0.787338
0.159111,-0.263434,0.012434,0.996960,0.000000,0.077912
-0.095287,-0.612316,0.065948,-0.763461,0.371391,0.528390
-0.165761,0.077526,0.396435,0.000000,0.000000,1.000000
0.385552,-0.044069,0.125074,0.866025,0.000000,0.500000
-0.158700,-0.177293,0.016885,-0.994388,0.000000,0.105799
-0.356766,-0.066459,0.174933,-0.866025,0.000000,0.500000
-0.108486,-0.033534,0.396435,0.000000,0.000000,1.000000
0.331145,-0.064814,-0.219310,0.866025,0.000000,-0.500000
-0.086784,-0.189417,-0.133938,-0.543772,0.000000,-0.839233
-0.279930,0.016842,-0.308017,-0.866025,0.000000,-0.500000
0.278683,-0.064636,-0.310177,0.866025,0.000000,-0.500000
0.231630,-0.061088,-0.391675,0.866025,0.000000,-0.500000
0.260106,-0.080068,0.342353,0.866025,0.000000,0.500000
0.076674,0.007318,0.396435,0.000000,0.000000,1.000000
0.064770,-0.342807,-0.145861,0.405840,0.000000,-0.913944
0.084890,-0.175455,0.135146,0.531908,0.000000,0.846802
0.140957,-0.067364,0.396435,0.000000,0.000000,1.000000
-0.395661,0.010340,0.107565,-0.866025,0.000000,0.500000
-0.096772,-0.573218,0.126909,-0.606360,0.000000,0.795190
-0.121929,0.085456,0.297111,0.000000,1.000000,0.000000
0.281132,0.051327,0.305935,0.866025,0.000000,0.500000
-0.079105,-0.633449,-0.022178,-0.894006,0.371391,-0.250645
0.133448,-0.449242,-0.087535,0.836164,0.000000,-0.548479
0.442970,-0.065895,-0.025622,0.866025,0.000000,-0.500000
-0.105441,-0.096228,-0.119804,-0.660677,0.000000,-0.750670
0.159572,-0.129541,0.002732,0.999854,0.000000,0.017115
-0.142042,-0.045424,-0.396435,-0.000000,0.000000,-1.000000
-0.059983,-0.147870,-0.147894,-0.375845,0.000000,-0.926682
-0.018682,-0.652885,0.047601,-0.339209,0.371391,0.864295
0.138378,-0.184607,0.079513,0.867055,0.000000,0.498213
0.144339,-0.357730,-0.068096,0.904404,0.000000,-0.426677
0.157217,-0.485399,-0.027450,0.985098,0.000000,-0.171995
-0.158339,-0.166824,-0.019990,-0.992125,0.000000,-0.125255
0.258855,0.049107,0.344520,0.866025,0.000000,0.500000
-0.065562,-0.642452,0.017223,-0.898009,0.371391,0.235901
-0.071759,-0.422388,-0.142553,-0.449627,0.000000,-0.893216
0.080117,-0.020515,0.396435,0.000000,0.000000,1.000000
-0.043457,-0.655717,-0.016869,-0.865554,0.371391,-0.335983
0.290016,-0.058731,0.290548,0.866025,0.000000,0.500000
-0.077863,-0.152280,0.139313,-0.487874,0.000000,0.872914
-0.103431,0.085456,0.257520,0.000000,1.000000,0.000000
-0.074162,-0.139511,-0.141318,-0.464687,0.000000,-0.885475
0.251400,0.065308,0.357432,0.866025,0.000000,0.500000
-0.049190,-0.633620,-0.065459,-0.557782,0.371391,-0.742259
-0.153121,-0.194247,0.044998,-0.959429,0.000000,0.281950
0.066117,0.063035,-0.396435,-0.000000,0.000000,-1.000000
-0.108667,-0.391945,0.116886,-0.680887,0.000000,0.732388
-0.146848,-0.485289,0.062501,-0.920127,0.000000,0.391621
-0.102349,-0.612010,-0.055377,-0.816611,0.371391,-0.441833
0.011848,-0.501924,0.159155,0.074239,0.000000,0.997240
-0.391251,0.020516,-0.115203,-0.866025,0.000000,-0.500000
-0.363967,0.075531,0.162460,-0.866025,0.000000,0.500000
0.271182,0.006374,-0.323169,0.866025,0.000000,-0.500000
0.087449,-0.085456,-0.247998,0.000000,-1.000000,0.000000
-0.347312,0.042243,0.191308,-0.866025,0.000000,0.500000
0.012544,-0.662378,-0.033728,0.323662,0.371391,-0.870237
-0.127603,-0.095467,0.095856,-0.799538,0.000000,0.600616
-0.412879,-0.057337,0.077742,-0.866025,0.000000,0.500000
0.248092,0.003918,0.363162,0.866025,0.000000,0.500000
-0.031006,-0.190937,0.156555,-0.194277,0.000000,0.980947
-0.232547,0.021890,-0.390087,-0.866025,0.000000,-0.500000
0.146491,-0.592701,-0.014289,0.924091,0.371391,-0.090138
0.131542,-0.126137,0.090374,0.824219,0.000000,0.566271
-0.137073,-0.446425,0.081741,-0.858879,0.000000,0.512178
0.403298,-0.038328,-0.094337,0.866025,0.000000,-0.500000
-0.271580,0.008751,-0.322480,-0.866025,0.000000,-0.500000
0.159426,-0.285991,0.007360,0.998936,0.000000,0.046119
0.016348,-0.616074,0.108662,0.138136,0.371391,0.918144
-0.349078,-0.016730,0.188249,-0.866025,0.000000,0.500000
0.127624,-0.560559,0.095828,0.799669,0.000000,0.600441
0.229290,0.082606,0.395728,0.866025,0.000000,0.500000
0.298816,0.082009,-0.275305,0.866025,0.000000,-0.500000
-0.126229,-0.132314,-0.097657,-0.790933,0.000000,-0.611903
0.045330,0.085456,0.029560,0.000000,1.000000,0.000000
0.127337,-0.585015,0.095972,0.741469,0.371391,0.558832
0.024132,-0.085456,0.363726,0.000000,-1.000000,0.000000
0.243095,0.008444,0.371817,0.866025,0.000000,0.500000
-0.144605,-0.041086,0.396435,0.000000,0.000000,1.000000
0.107754,-0.182720,-0.117728,0.675169,0.000000,-0.737663
-0.212724,-0.085456,0.272051,0.000000,-1.000000,0.000000
-0.151648,-0.428868,0.049736,-0.950201,0.000000,0.311637
0.333871,0.049413,0.214588,0.866025,0.000000,0.500000
0.048073,-0.172293,-0.152183,0.301216,0.000000,-0.953556
0.254862,0.053215,-0.351436,0.866025,0.000000,-0.500000
-0.126739,-0.560356,-0.096995,-0.794123,0.000000,-0.607757
-0.116564,-0.506298,-0.109012,-0.730373,0.000000,-0.683048
0.413834,-0.061826,-0.076088,0.866025,0.000000,-0.500000
-0.073682,-0.608768,-0.096665,-0.562855,0.371391,-0.738419
0.122963,-0.274820,-0.101739,0.770468,0.000000,-0.637478
0.167816,-0.004413,-0.396435,-0.000000,0.000000,-1.000000
-0.153282,-0.213362,-0.044447,-0.960437,0.000000,-0.278498
0.401757,-0.022195,0.097007,0.866025,0.000000,0.500000
-0.317267,-0.019205,-0.243346,-0.866025,0.000000,-0.500000
-0.333032,0.065571,0.216042,-0.866025,0.000000,0.500000
0.044287,-0.006112,-0.396435,-0.000000,0.000000,-1.000000
0.154397,-0.234369,0.040402,0.967426,0.000000,0.253155
-0.032275,-0.465010,0.156298,-0.202231,0.000000,0.979338
-0.003781,0.011728,-0.396435,-0.000000,0.000000,-1.000000
0.031392,0.071424,0.396435,0.000000,0.000000,1.000000
0.028317,-0.313545,0.157063,0.177430,0.000000,0.984133
-0.139139,-0.335817,0.078173,-0.871824,0.000000,0.489819
0.395071,-0.067744,0.108587,0.866025,0.000000,0.500000
-0.028934,-0.530131,0.156951,-0.181295,0.000000,0.983429
0.311133,-0.010984,-0.253971,0.866025,0.000000,-0.500000
0.332726,-0.045507,-0.216571,0.866025,0.000000,-0.500000
-0.069271,-0.637510,-0.030464,-0.849915,0.371391,-0.373782
0.438929,0.011604,0.032623,0.866025,0.000000,0.500000
0.089527,-0.252935,0.132120,0.560962,0.000000,0.827842
-0.154589,-0.048217,-0.396435,-0.000000,0.000000,-1.000000
-0.071441,0.053766,-0.396435,-0.000000,0.000000,-1.000000
-0.083747,0.013119,-0.396435,-0.000000,0.000000,-1.000000
-0.306748,0.085456,-0.171899,0.000000,1.000000,0.000000
0.144540,-0.297926,-0.067667,0.905667,0.000000,-0.423990
0.343689,-0.044278,0.197583,0.866025,0.000000,0.500000
0.049944,-0.621697,0.087684,0.459535,0.371391,0.806781
0.017510,-0.056856,0.396435,0.000000,0.000000,1.000000
-0.447934,-0.006699,-0.017025,-0.866025,0.000000,-0.500000
0.222779,-0.029121,-0.396435,-0.000000,0.000000,-1.000000
0.320630,-0.044640,-0.237522,0.866025,0.000000,-0.500000
0.319904,0.085456,0.072855,0.000000,1.000000,0.000000
-0.361928,0.085456,-0.083169,0.000000,1.000000,0.000000
-0.152028,-0.408481,-0.048561,-0.952584,0.000000,-0.304276
0.125483,-0.366648,-0.098614,0.786258,0.000000,-0.617899
-0.131681,-0.580033,0.090172,-0.825089,0.000000,0.565003
0.159081,-0.138592,-0.012809,0.996774,0.000000,-0.080259
-0.125882,-0.429079,0.098104,-0.788758,0.000000,0.614703
0.064768,-0.643843,-0.010205,0.917161,0.371391,-0.144514
-0.275339,-0.085456,0.102595,0.000000,-1.000000,0.000000
0.148799,-0.466425,0.057702,0.932353,0.000000,0.361549
0.061118,-0.430931,-0.147429,0.382954,0.000000,-0.923767
0.134606,-0.221936,-0.085744,0.843417,0.000000,-0.537260
-0.044782,-0.383905,0.153184,-0.280595,0.000000,0.959826
-0.046329,-0.648250,-0.035772,-0.734901,0.371391,-0.567442
0.157580,-0.275458,0.025282,0.987373,0.000000,0.158412
-0.118362,-0.409620,-0.107057,-0.741638,0.000000,-0.670800
-0.092119,-0.518074,-0.130326,-0.577203,0.000000,-0.816601
0.026526,0.085456,0.246691,0.000000,1.000000,0.000000
-0.100160,-0.097225,-0.124252,-0.627589,0.000000,-0.778545
0.142264,-0.110192,0.072330,0.891406,0.000000,0.453206
-0.112366,-0.178918,0.113335,-0.704065,0.000000,0.710136
-0.064693,-0.642431,-0.020352,-0.885685,0.371391,-0.278623
0.104377,-0.153799,-0.120732,0.654008,0.000000,-0.756488
-0.132906,-0.341906,-0.088356,-0.832767,0.000000,-0.553623
-0.418593,0.033791,-0.067845,-0.866025,0.000000,-0.500000
0.137983,-0.562332,0.080196,0.864580,0.000000,0.502495
0.362010,-0.048148,0.165850,0.866025,0.000000,0.500000
0.142686,-0.331886,0.071495,0.894044,0.000000,0.447978
0.307471,-0.027778,0.260314,0.866025,0.000000,0.500000
-0.038200,-0.085456,-0.017452,0.000000,-1.000000,0.000000
-0.433245,0.064167,-0.042468,-0.866025,0.000000,-0.500000
-0.449424,0.074292,-0.014445,-0.866025,0.000000,-0.500000
-0.344349,0.039832,0.196439,-0.866025,0.000000,0.500000
-0.065594,-0.559484,-0.145493,-0.411003,0.000000,-0.911634
-0.069103,-0.639952,0.019404,-0.893906,0.371391,0.251001
0.074024,-0.412979,0.141391,0.463820,0.000000,0.885930
0.420060,0.003670,0.065304,0.866025,0.000000,0.500000
0.043051,0.058547,0.396435,0.000000,0.000000,1.000000
0.159365,-0.377808,-0.008575,0.998556,0.000000,-0.053729
-0.232427,0.068064,0.390294,-0.866025,0.000000,0.500000
-0.070853,-0.409894,0.143006,-0.443953,0.000000,0.896050
0.119066,-0.057972,-0.396435,-0.000000,0.000000,-1.000000
0.077078,-0.085456,-0.054270,0.000000,-1.000000,0.000000
0.021719,-0.283317,0.158111,0.136090,0.000000,0.990696
0.159027,-0.536570,-0.013462,0.996436,0.000000,-0.084348
0.304352,0.016695,0.265717,0.866025,0.000000,0.500000
0.129312,-0.187175,-0.093537,0.810248,0.000000,-0.586087
-0.345649,-0.025063,-0.194188,-0.866025,0.000000,-0.500000
-0.406530,-0.073157,-0.088739,-0.866025,0.000000,-0.500000
0.083322,-0.358078,-0.136118,0.522085,0.000000,-0.852893
0.153609,-0.490523,0.043302,0.962489,0.000000,0.271321
0.078705,-0.395815,-0.138839,0.493152,0.000000,-0.869943
-0.048860,-0.654163,0.004811,-0.924008,0.371391,0.090984
-0.003040,-0.222924,-0.159567,-0.019047,0.000000,-0.999819
-0.036827,-0.652372,-0.036648,-0.658124,0.371391,-0.654937
-0.107021,-0.211295,-0.118394,-0.670579,0.000000,-0.741839
0.386626,-0.037151,0.123213,0.866025,0.000000,0.500000
-0.143382,-0.253556,-0.070087,-0.898411,0.000000,-0.439157
0.040618,-0.441042,0.154340,0.254506,0.000000,0.967071
-0.020341,-0.446736,0.158294,-0.127456,0.000000,0.991844
0.157399,-0.245704,0.026386,0.986238,0.000000,0.165333
-0.067124,-0.472128,-0.144793,-0.420589,0.000000,-0.907251
0.421181,-0.075550,0.063363,0.866025,0.000000,0.500000
0.096740,-0.057728,0.396435,0.000000,0.000000,1.000000
-0.098675,-0.349025,0.125436,-0.618278,0.000000,0.785959
0.013095,0.085456,-0.168539,0.000000,1.000000,0.000000
0.260772,-0.013736,0.341199,0.866025,0.000000,0.500000
0.032991,-0.085456,-0.090452,0.000000,-1.000000,0.000000
-0.138813,-0.490629,-0.078751,-0.869780,0.000000,-0.493439
-0.046209,-0.115350,-0.152760,-0.289535,0.000000,-0.957167
-0.086727,-0.131012,-0.133974,-0.543418,0.000000,-0.839462
-0.117026,-0.110307,-0.108516,-0.733266,0.000000,-0.679942
0.105997,-0.085456,-0.078614,0.000000,-1.000000,0.000000
-0.402926,0.010041,0.094981,-0.866025,0.000000,0.500000
0.250313,0.046459,0.359315,0.866025,0.000000,0.500000
-0.002598,-0.657585,-0.043557,-0.055291,0.371391,-0.926829
0.007197,-0.597223,0.139785,0.047744,0.371391,0.927248
0.094514,-0.294659,0.128600,0.592208,0.000000,0.805785
-0.044180,-0.499334,-0.153359,-0.276824,0.000000,-0.960920
-0.013138,-0.085456,0.029662,0.000000,-1.000000,0.000000
0.426705,0.058686,0.053795,0.866025,0.000000,0.500000
-0.148211,-0.584207,-0.059197,-0.928664,0.000000,-0.370922
0.033660,-0.306026,0.156006,0.210910,0.000000,0.977506
0.121370,-0.085456,-0.047964,0.000000,-1.000000,0.000000
0.131525,-0.143572,-0.090399,0.824112,0.000000,-0.566427
0.156731,-0.429445,0.030102,0.982051,0.000000,0.188617
-0.145637,-0.170683,-0.065274,-0.912536,0.000000,-0.408996
0.141765,-0.305139,-0.073304,0.888275,0.000000,-0.459311
-0.112882,-0.531916,-0.112821,-0.707299,0.000000,-0.706915
-0.271741,0.027800,0.322200,-0.866025,0.000000,0.500000
-0.090985,-0.291507,0.131120,-0.570096,0.000000,0.821578
0.088074,-0.004330,0.396435,0.000000,0.000000,1.000000
-0.067999,-0.615904,0.086662,-0.573153,0.371391,0.730455
0.060901,-0.085456,-0.192560,0.000000,-1.000000,0.000000
-0.320096,0.052555,-0.238448,-0.866025,0.000000,-0.500000
0.274833,0.009647,-0.316845,0.866025,0.000000,-0.500000
0.028159,-0.660604,0.026716,0.673564,0.371391,0.639047
-0.371030,-0.078888,0.150226,-0.866025,0.000000,0.500000
-0.008690,0.059357,-0.396435,-0.000000,0.000000,-1.000000
0.128223,-0.251143,-0.095024,0.803425,0.000000,-0.595406
0.080083,0.045810,-0.396435,-0.000000,0.000000,-1.000000
0.229011,0.083588,0.396211,0.866025,0.000000,0.500000
-0.064932,-0.639597,0.031897,-0.833358,0.371391,0.409370
0.285186,-0.012269,0.298913,0.866025,0.000000,0.500000
-0.301825,0.052391,0.270093,-0.866025,0.000000,0.500000
0.033640,0.085456,0.272588,0.000000,1.000000,0.000000
0.092183,-0.085456,0.018097,0.000000,-1.000000,0.000000
-0.105151,-0.440054,0.120059,-0.658857,0.000000,0.752268
0.046278,-0.085456,-0.338674,0.000000,-1.000000,0.000000
0.023562,-0.235631,0.157847,0.147638,0.000000,0.989041
-0.119475,-0.290796,0.105813,-0.748612,0.000000,0.663009
0.258855,0.058591,0.344520,0.866025,0.000000,0.500000
0.147814,-0.590688,-0.027768,0.912514,0.371391,-0.171425
0.221678,-0.051830,0.396435,0.000000,0.000000,1.000000
-0.274770,-0.077739,-0.316954,-0.866025,0.000000,-0.500000
-0.390577,-0.023027,-0.116371,-0.866025,0.000000,-0.500000
-0.039149,-0.087554,0.154719,-0.245302,0.000000,0.969447
0.119727,-0.284968,0.105528,0.750193,0.000000,0.661219
-0.064273,0.085456,0.162979,0.000000,1.000000,0.000000
0.052509,-0.624140,-0.081573,0.502549,0.371391,-0.780713
0.076650,-0.579669,0.139984,0.480275,0.000000,0.877118
0.311441,-0.070982,-0.253439,0.866025,0.000000,-0.500000
-0.034537,-0.642391,-0.058441,-0.472381,0.371391,-0.799328
0.204711,0.065894,-0.396435,-0.000000,0.000000,-1.000000
-0.194489,-0.045257,-0.396435,-0.000000,0.000000,-1.000000
0.025536,-0.587939,0.152665,0.153179,0.371391,0.915754
0.418592,-0.023142,0.067847,0.866025,0.000000,0.500000
-0.030851,-0.607357,-0.119891,-0.231381,0.371391,-0.899184
0.062314,0.033034,-0.396435,-0.000000,0.000000,-1.000000
-0.263766,-0.064915,-0.336014,-0.866025,0.000000,-0.500000
0.099054,-0.304770,0.125137,0.620653,0.000000,0.784085
-0.117008,0.001588,-0.396435,-0.000000,0.000000,-1.000000
0.028926,-0.180165,-0.156952,0.181247,0.000000,-0.983438
0.174044,-0.070295,0.396435,0.000000,0.000000,1.000000
-0.089145,-0.625654,-0.031644,-0.874985,0.371391,-0.310596
-0.158712,-0.158154,0.016773,-0.994462,0.000000,0.105095
-0.266774,-0.070142,0.330803,-0.866025,0.000000,0.500000
-0.230255,0.003232,0.394057,-0.866025,0.000000,0.500000
-0.113378,-0.601963,-0.068385,-0.795051,0.371391,-0.479545
0.045145,-0.650378,0.031653,0.760228,0.371391,0.533031
-0.038390,-0.637798,-0.064678,-0.473908,0.371391,-0.798424
0.439917,-0.035594,0.030912,0.866025,0.000000,0.500000
-0.116695,0.085456,-0.097740,0.000000,1.000000,0.000000
0.033321,-0.253951,0.156078,0.208783,0.000000,0.977962
0.046684,-0.611073,-0.108227,0.367746,0.371391,-0.852544
0.105836,-0.595833,-0.094954,0.691099,0.371391,-0.620041
-0.007959,0.085456,0.050418,0.000000,1.000000,0.000000
-0.121983,-0.314723,-0.102912,-0.764326,0.000000,-0.644830
-0.021554,-0.281653,0.158133,-0.135053,0.000000,0.990838
0.398347,-0.076421,-0.102913,0.866025,0.000000,-0.500000
-0.047613,-0.367433,-0.152328,-0.298337,0.000000,-0.954461
-0.043262,0.085456,-0.030572,0.000000,1.000000,0.000000
0.081213,-0.632179,0.022155,0.895743,0.371391,0.244363
-0.156850,-0.570628,0.029474,-0.982799,0.000000,0.184678
-0.073761,-0.381213,0.141528,-0.462174,0.000000,0.886789
0.075496,0.005996,0.396435,0.000000,0.000000,1.000000
-0.245357,-0.050992,0.367898,-0.866025,0.000000,0.500000
0.007381,-0.655152,-0.046941,0.144224,0.371391,-0.917207
-0.018470,-0.645475,-0.060192,-0.272368,0.371391,-0.887629
-0.069585,-0.590360,-0.133924,-0.428085,0.371391,-0.823901
0.147746,-0.231407,-0.060348,0.925751,0.000000,-0.378133
0.113738,-0.613652,-0.001698,0.928373,0.371391,-0.013861
-0.093606,-0.606100,-0.084048,-0.690855,0.371391,-0.620313
-0.025584,-0.085456,-0.160751,0.000000,-1.000000,0.000000
-0.390469,-0.075336,0.116557,-0.866025,0.000000,0.500000
0.006426,-0.587976,-0.154595,0.038562,0.371391,-0.927676
0.023223,-0.634720,0.076688,0.269097,0.371391,0.888626
-0.133519,-0.085456,-0.170362,0.000000,-1.000000,0.000000
-0.115995,-0.271968,0.109617,-0.726807,0.000000,0.686841
0.003549,-0.629517,-0.088358,0.037264,0.371391,-0.927729
0.130856,-0.321156,-0.091365,0.819920,0.000000,-0.572479
0.389537,0.004275,-0.118171,0.866025,0.000000,-0.500000
-0.027650,-0.660882,0.026608,-0.669014,0.371391,0.643808
-0.019201,-0.334468,-0.158436,-0.120313,0.000000,-0.992736
0.003350,-0.337521,-0.159560,0.020993,0.000000,-0.999780
0.124923,-0.326178,0.099323,0.782745,0.000000,0.622343
0.306763,-0.078563,-0.261541,0.866025,0.000000,-0.500000
-0.142019,-0.171640,-0.072810,-0.889868,0.000000,-0.456218
0.181651,0.031080,0.396435,0.000000,0.000000,1.000000
-0.205707,-0.071897,0.396435,0.000000,0.000000,1.000000
-0.149375,-0.206289,0.056195,-0.935959,0.000000,0.352110
0.432230,0.038623,0.044226,0.866025,0.000000,0.500000
0.148132,-0.162958,-0.059394,0.928170,0.000000,-0.372156
0.087393,-0.230987,0.133541,0.547591,0.000000,0.836746
0.147012,-0.407537,-0.062116,0.921151,0.000000,-0.389206
-0.152256,-0.178106,-0.047842,-0.954011,0.000000,-0.299771
-0.151349,-0.085456,-0.076413,0.000000,-1.000000,0.000000
0.090468,-0.289302,-0.131478,0.566855,0.000000,-0.823817
-0.159131,-0.288494,0.012170,-0.997089,0.000000,0.076252
-0.099238,-0.595813,-0.101874,-0.647873,0.371391,-0.665079
-0.231721,-0.066032,-0.391516,-0.866025,0.000000,-0.500000
-0.039086,0.085456,-0.020417,0.000000,1.000000,0.000000
-0.397168,0.032644,-0.104955,-0.866025,0.000000,-0.500000
0.120248,-0.173829,0.104935,0.753451,0.000000,0.657504
-0.207109,0.056277,0.396435,0.000000,0.000000,1.000000
0.321460,0.004988,0.236085,0.866025,0.000000,0.500000
0.111115,-0.506338,-0.114561,0.696226,0.000000,-0.717822
-0.130233,-0.210158,0.092251,-0.816017,0.000000,0.578028
0.379872,0.008039,-0.134913,0.866025,0.000000,-0.500000
0.109359,-0.574296,0.116239,0.685222,0.000000,0.728334
0.022332,-0.085456,-0.007067,0.000000,-1.000000,0.000000
-0.129969,-0.085456,0.003460,0.000000,-1.000000,0.000000
-0.133863,-0.594158,-0.055369,-0.857980,0.371391,-0.354880
-0.437055,0.084929,0.035868,-0.866025,0.000000,0.500000
0.316109,0.085456,0.008131,0.000000,1.000000,0.000000
0.010069,-0.340825,0.159278,0.063088,0.000000,0.998008
-0.129131,-0.323610,-0.093786,-0.809116,0.000000,-0.587649
0.056138,-0.626763,0.073927,0.561508,0.371391,0.739444
-0.113660,0.059719,0.396435,0.000000,0.000000,1.000000
-0.101219,-0.606117,-0.074661,-0.747199,0.371391,-0.551146
0.054795,-0.085456,-0.056706,0.000000,-1.000000,0.000000
0.046188,-0.461601,0.152766,0.289409,0.000000,0.957205
-0.135103,-0.578511,-0.084959,-0.846533,0.000000,-0.532337
0.083025,-0.160627,0.136300,0.520223,0.000000,0.854031
0.297301,-0.029436,-0.277929,0.866025,0.000000,-0.500000
-0.059908,-0.568690,-0.147925,-0.375372,0.000000,-0.926874
0.008122,0.028241,-0.396435,-0.000000,0.000000,-1.000000
0.043744,-0.340746,0.153484,0.274092,0.000000,0.961704
-0.153990,0.085456,-0.302472,0.000000,1.000000,0.000000
-0.247905,0.018039,-0.363485,-0.866025,0.000000,-0.500000
0.016725,-0.014451,0.396435,0.000000,0.000000,1.000000
0.046242,-0.085456,-0.017090,0.000000,-1.000000,0.000000
-0.018664,-0.653450,-0.046638,-0.344963,0.371391,-0.862015
-0.265296,0.001734,-0.333364,-0.866025,0.000000,-0.500000
-0.069158,-0.101328,0.143833,-0.433332,0.000000,0.901234
-0.291926,-0.030483,0.287239,-0.866025,0.000000,0.500000
0.182737,-0.020329,0.396435,0.000000,0.000000,1.000000
-0.453058,-0.028724,-0.008151,-0.866025,0.000000,-0.500000
0.146645,-0.266124,0.062977,0.918852,0.000000,0.394602
0.418059,-0.004636,-0.068770,0.866025,0.000000,-0.500000
0.295515,-0.029467,-0.281022,0.866025,0.000000,-0.500000
-0.037440,-0.085456,0.208355,0.000000,-1.000000,0.000000
-0.034457,-0.262373,0.155832,-0.215903,0.000000,0.976415
-0.037887,-0.042561,-0.396435,-0.000000,0.000000,-1.000000
-0.024695,-0.397175,-0.157674,-0.154732,0.000000,-0.987956
0.003605,-0.569917,0.159555,0.022586,0.000000,0.999745
-0.240569,-0.070094,-0.376192,-0.866025,0.000000,-0.500000
-0.158404,-0.485610,-0.019469,-0.992531,0.000000,-0.121990
0.086211,-0.525928,0.134307,0.540182,0.000000,0.841548
-0.419024,0.023515,-0.067099,-0.866025,0.000000,-0.500000
-0.131727,-0.210549,0.090105,-0.825377,0.000000,0.564582
-0.075803,-0.625229,-0.057715,-0.738729,0.371391,-0.562448
-0.044496,-0.541095,0.153267,-0.278802,0.000000,0.960349
0.100307,-0.415664,-0.124134,0.628504,0.000000,-0.777806
-0.071601,-0.615404,-0.084758,-0.599171,0.371391,-0.709269
-0.150242,-0.512706,-0.053834,-0.941391,0.000000,-0.337318
0.079944,-0.373760,0.138129,0.500917,0.000000,0.865495
0.018930,-0.408622,-0.158469,0.118610,0.000000,-0.992941
-0.157752,-0.253862,0.024187,-0.988450,0.000000,0.151549
0.136869,-0.542088,0.082083,0.857598,0.000000,0.514321
0.280299,-0.050985,-0.307378,0.866025,0.000000,-0.500000
-0.093983,-0.517160,0.128988,-0.588881,0.000000,0.808220
-0.315651,-0.029741,-0.246147,-0.866025,0.000000,-0.500000
0.086528,0.004832,0.396435,0.000000,0.000000,1.000000
-0.159060,-0.130900,0.013069,-0.996641,0.000000,0.081891
0.150967,-0.586775,-0.041792,0.894823,0.371391,-0.247711
-0.427658,-0.072812,-0.052144,-0.866025,0.000000,-0.500000
-0.144062,-0.300491,-0.068679,-0.902670,0.000000,-0.430333
0.403330,0.079557,-0.094281,0.866025,0.000000,-0.500000
-0.145110,-0.040416,-0.396435,-0.000000,0.000000,-1.000000
-0.019911,-0.605445,-0.125276,-0.145741,0.371391,-0.916967
0.001020,-0.632345,0.083910,0.011285,0.371391,0.928408
0.116055,-0.148419,-0.109554,0.727181,0.000000,-0.686446
0.087873,-0.628272,0.021299,0.902350,0.371391,0.218710
0.218848,-0.085456,0.000059,0.000000,-1.000000,0.000000
-0.240033,0.085456,-0.004221,0.000000,1.000000,0.000000
0.026799,-0.021643,-0.396435,-0.000000,0.000000,-1.000000
-0.133888,-0.050446,0.396435,0.000000,0.000000,1.000000
-0.139544,-0.561880,0.077449,-0.874357,0.000000,0.485282
-0.410229,-0.027836,0.082331,-0.866025,0.000000,0.500000
0.050003,-0.611734,0.105567,0.397451,0.371391,0.839108
-0.315186,-0.040647,-0.246951,-0.866025,0.000000,-0.500000
-0.320596,0.066379,-0.237582,-0.866025,0.000000,-0.500000
-0.320132,-0.006234,0.238384,-0.866025,0.000000,0.500000
0.026630,-0.280065,0.157358,0.166862,0.000000,0.985980
-0.061487,-0.085456,0.088406,0.000000,-1.000000,0.000000
-0.253987,0.020871,0.352952,-0.866025,0.000000,0.500000
0.159326,0.085456,-0.271641,0.000000,1.000000,0.000000
-0.099787,-0.555888,-0.124553,-0.625247,0.000000,-0.780427
0.163920,0.085456,-0.260571,0.000000,1.000000,0.000000
0.023387,0.085456,-0.291336,0.000000,1.000000,0.000000
-0.075011,-0.622530,-0.065496,-0.699392,0.371391,-0.610672
-0.109280,-0.283620,-0.116313,-0.684732,0.000000,-0.728795
-0.011218,-0.075911,-0.396435,-0.000000,0.000000,-1.000000
0.098710,-0.295815,0.125408,0.618500,0.000000,0.785785
0.159431,-0.275251,0.007244,0.998969,0.000000,0.045389
0.158766,-0.303045,-0.016252,0.994801,0.000000,-0.101834
0.028665,-0.085456,0.001606,0.000000,-1.000000,0.000000
0.112802,-0.470992,0.112900,0.706799,0.000000,0.707415
0.449208,-0.018378,-0.014819,0.866025,0.000000,-0.500000
-0.104076,-0.173602,-0.120991,-0.652125,0.000000,-0.758112
0.077935,-0.446347,-0.139273,0.488325,0.000000,-0.872662
-0.182022,-0.085456,0.071330,0.000000,-1.000000,0.000000
-0.311948,-0.066165,-0.252560,-0.866025,0.000000,-0.500000
0.091360,-0.508086,-0.130859,0.572444,0.000000,-0.819944
0.121517,-0.400022,0.103463,0.761403,0.000000,0.648279
-0.035245,-0.085456,-0.018226,0.000000,-1.000000,0.000000
0.102813,-0.373433,-0.122066,0.644212,0.000000,-0.764847
-0.037376,0.003124,-0.396435,-0.000000,0.000000,-1.000000
0.027544,0.061091,0.396435,0.000000,0.000000,1.000000
-0.157346,-0.356668,0.026702,-0.985904,0.000000,0.167310
0.048780,-0.651912,0.019915,0.859598,0.371391,0.350943
-0.154235,-0.213299,0.041014,-0.966414,0.000000,0.256989
-0.230522,0.047963,-0.393594,-0.866025,0.000000,-0.500000
-0.073714,0.085456,0.037489,0.000000,1.000000,0.000000
0.055834,0.044969,-0.396435,-0.000000,0.000000,-1.000000
-0.156527,-0.112919,-0.031144,-0.980774,0.000000,-0.195145
0.098934,-0.055530,-0.396435,-0.000000,0.000000,-1.000000
0.235695,0.023704,0.384634,0.866025,0.000000,0.500000
0.004452,0.001469,0.396435,0.000000,0.000000,1.000000
-0.158885,-0.535378,0.015045,-0.995547,0.000000,0.094270
0.307753,0.085456,-0.156624,0.000000,1.000000,0.000000
-0.254336,0.048439,0.352346,-0.866025,0.000000,0.500000
-0.038025,-0.526296,-0.155000,-0.238259,0.000000,-0.971202
0.019122,-0.614439,0.110856,0.157828,0.371391,0.914964
-0.363477,-0.009424,-0.163309,-0.866025,0.000000,-0.500000
0.073451,-0.624820,0.061698,0.710943,0.371391,0.597184
0.234023,-0.085456,0.168094,0.000000,-1.000000,0.000000
0.152855,-0.085456,-0.097750,0.000000,-1.000000,0.000000
-0.089961,-0.203966,-0.131825,-0.563682,0.000000,-0.825992
0.081351,-0.623464,0.054805,0.770037,0.371391,0.518760
0.309648,-0.022331,0.256543,0.866025,0.000000,0.500000
-0.454867,-0.004145,-0.005016,-0.866025,0.000000,-0.500000
-0.444548,-0.063217,-0.022890,-0.866025,0.000000,-0.500000
0.156802,0.085456,0.112761,0.000000,1.000000,0.000000
-0.000371,-0.085456,0.015119,0.000000,-1.000000,0.000000
0.133767,-0.025726,-0.396435,-0.000000,0.000000,-1.000000
0.120089,-0.168690,0.105116,0.752461,0.000000,0.658637
-0.337043,0.081293,-0.209093,-0.866025,0.000000,-0.500000
0.370733,0.050078,-0.150741,0.866025,0.000000,-0.500000
-0.058457,-0.085456,0.036188,0.000000,-1.000000,0.000000
0.138546,-0.428616,-0.079219,0.868109,0.000000,-0.496374
-0.050724,-0.007144,-0.396435,-0.000000,0.000000,-1.000000
0.008804,0.001758,-0.396435,-0.000000,0.000000,-1.000000
0.161054,-0.020136,0.396435,0.000000,0.000000,1.000000
0.047223,-0.655118,0.005752,0.921665,0.371391,0.112258
-0.082801,-0.494214,-0.136436,-0.518815,0.000000,-0.854887
0.280517,0.058545,-0.307000,0.866025,0.000000,-0.500000
-0.086955,-0.121084,0.133827,-0.544845,0.000000,0.838536
0.273724,0.038263,0.318766,0.866025,0.000000,0.500000
0.436254,-0.054774,-0.037255,0.866025,0.000000,-0.500000
0.157215,-0.098844,0.027463,0.985083,0.000000,0.172079
0.346229,-0.085304,-0.193183,0.866025,0.000000,-0.500000
-0.030289,-0.599403,0.133088,-0.206043,0.371391,0.905326
-0.076459,-0.298268,-0.140089,-0.479079,0.000000,-0.877772
-0.317998,-0.023135,0.242081,-0.866025,0.000000,0.500000
0.282103,-0.051247,0.304254,0.866025,0.000000,0.500000
0.133562,-0.003809,0.396435,0.000000,0.000000,1.000000
0.090251,0.085456,-0.117478,0.000000,1.000000,0.000000
0.105701,-0.479300,-0.119574,0.662305,0.000000,-0.749234
-0.207150,-0.036000,0.396435,0.000000,0.000000,1.000000
0.411532,0.068525,-0.080075,0.866025,0.000000,-0.500000
-0.119177,-0.261252,-0.106149,-0.746742,0.000000,-0.665113
0.051212,-0.159206,0.151156,0.320883,0.000000,0.947119
0.072825,-0.566490,-0.142012,0.456309,0.000000,-0.889821
0.322458,0.085456,0.018508,0.000000,1.000000,0.000000
0.152603,-0.387467,0.046723,0.956186,0.000000,0.292761
0.080626,-0.473927,-0.137732,0.505190,0.000000,-0.863008
-0.006803,-0.364506,-0.159451,-0.042629,0.000000,-0.999091
-0.154465,-0.269320,-0.040140,-0.967854,0.000000,-0.251513
0.299781,-0.076359,-0.273635,0.866025,0.000000,-0.500000
0.415908,0.007909,-0.072495,0.866025,0.000000,-0.500000
-0.053172,-0.619593,0.089691,-0.473485,0.371391,0.798675
-0.124034,-0.124774,0.100431,-0.777176,0.000000,0.629284
0.112238,-0.490134,0.113461,0.703265,0.000000,0.710927
-0.027524,0.070828,-0.396435,-0.000000,0.000000,-1.000000
0.017470,-0.621964,-0.098953,0.161427,0.371391,-0.914336
-0.065469,-0.152370,0.145549,-0.410215,0.000000,0.911989
0.089135,-0.440408,-0.132385,0.558502,0.000000,-0.829503
-0.043206,0.085456,0.063168,0.000000,1.000000,0.000000
-0.412230,0.009139,0.078866,-0.866025,0.000000,0.500000
0.149199,-0.576857,-0.056660,0.934859,0.000000,-0.355019
-0.130999,-0.533087,-0.091160,-0.820817,0.000000,-0.571191
-0.053126,-0.100465,-0.150494,-0.332876,0.000000,-0.942971
-0.195529,-0.005207,0.396435,0.000000,0.000000,1.000000
-0.157847,-0.490484,0.023559,-0.989045,0.000000,0.147617
-0.075717,-0.606805,-0.099053,-0.563865,0.371391,-0.737649
-0.097931,-0.622088,-0.021609,-0.906667,0.371391,-0.200060
-0.050796,-0.174666,0.151296,-0.318281,0.000000,0.947996
0.070811,-0.618685,0.078499,0.621900,0.371391,0.689426
0.061596,-0.630036,-0.062290,0.652839,0.371391,-0.660204
-0.000893,-0.652078,0.052416,-0.015811,0.371391,0.928342
0.117316,-0.423016,-0.108202,0.735083,0.000000,-0.677977
0.151883,-0.172167,0.049014,0.951672,0.000000,0.307116
0.157605,-0.378064,-0.025128,0.987527,0.000000,-0.157447
-0.136543,-0.350758,-0.082625,-0.855554,0.000000,-0.517713
-0.323938,-0.073016,0.231793,-0.866025,0.000000,0.500000
-0.079643,-0.096617,0.138303,-0.499032,0.000000,0.866583
0.231307,-0.021647,0.392233,0.866025,0.000000,0.500000
0.059415,-0.595114,-0.130441,0.384868,0.371391,-0.844953
-0.076075,0.085456,0.020914,0.000000,1.000000,0.000000
-0.158233,-0.399638,0.020808,-0.991464,0.000000,0.130381
0.421237,-0.067376,-0.063266,0.866025,0.000000,-0.500000
0.153985,-0.284235,0.041944,0.964847,0.000000,0.262813
0.158206,-0.534326,0.021014,0.991294,0.000000,0.131668
-0.126706,-0.220396,-0.097037,-0.793921,0.000000,-0.608020
-0.134609,-0.594824,-0.050580,-0.869143,0.371391,-0.326586
-0.099642,-0.220640,0.124668,-0.624342,0.000000,0.781151
-0.276261,-0.082071,0.314372,-0.866025,0.000000,0.500000
-0.006092,-0.087929,0.159479,-0.038172,0.000000,0.999271
-0.359672,0.053822,-0.169900,-0.866025,0.000000,-0.500000
-0.152037,-0.191883,-0.048533,-0.952639,0.000000,-0.304103
-0.226311,-0.065042,-0.396435,-0.000000,0.000000,-1.000000
-0.317125,-0.062717,-0.243593,-0.866025,0.000000,-0.500000
0.096120,0.003635,0.396435,0.000000,0.000000,1.000000
0.084697,-0.630013,0.022512,0.897321,0.371391,0.238503
0.086794,-0.629981,0.012498,0.918997,0.371391,0.132335
-0.078259,-0.139414,-0.139091,-0.490359,0.000000,-0.871521
0.005096,0.085456,0.139431,0.000000,1.000000,0.000000
-0.151368,-0.568064,-0.050581,-0.948448,0.000000,-0.316934
-0.154477,-0.522270,-0.040096,-0.967926,0.000000,-0.251235
0.244158,0.078554,0.369975,0.866025,0.000000,0.500000
-0.093378,-0.466750,-0.129427,-0.585093,0.000000,-0.810966
0.409199,0.060775,-0.084115,0.866025,0.000000,-0.500000
-0.141799,-0.106725,-0.073238,-0.888490,0.000000,-0.458896
0.256479,-0.029617,-0.348635,0.866025,0.000000,-0.500000
0.101885,-0.113572,-0.122842,0.638397,0.000000,-0.769707
-0.040932,-0.643548,0.051821,-0.575499,0.371391,0.728608
-0.065200,-0.091971,-0.145670,-0.408529,0.000000,-0.912745
0.082033,-0.111323,-0.136899,0.514008,0.000000,-0.857786
-0.083374,-0.618685,0.064998,-0.732252,0.371391,0.570855
-0.035881,-0.087028,-0.155510,-0.224824,0.000000,-0.974399
0.086669,-0.442064,-0.134012,0.543051,0.000000,-0.839700
-0.115780,-0.442233,-0.109844,-0.725459,0.000000,-0.688265
-0.124098,-0.101749,0.100352,-0.777575,0.000000,0.628791
0.146337,-0.545018,0.063688,0.916926,0.000000,0.399057
0.061962,-0.442930,0.147076,0.388246,0.000000,0.921556
0.216583,0.005027,0.396435,0.000000,0.000000,1.000000
-0.272503,-0.003143,0.320880,-0.866025,0.000000,0.500000
0.135144,-0.599308,0.020181,0.918295,0.371391,0.137127
0.034684,-0.651846,0.039802,0.609982,0.371391,0.699993
-0.123198,-0.467679,0.101454,-0.771939,0.000000,0.635697
0.269685,-0.074211,-0.325762,0.866025,0.000000,-0.500000
0.083178,0.014493,-0.396435,-0.000000,0.000000,-1.000000
-0.070801,-0.482155,-0.143031,-0.443627,0.000000,-0.896212
0.235992,-0.075148,-0.384119,0.866025,0.000000,-0.500000
0.042747,-0.638096,0.061307,0.531042,0.371391,0.761619
0.140667,-0.596603,0.009078,0.926549,0.371391,0.059796
0.129855,-0.154074,0.092782,0.813651,0.000000,0.581354
-0.035558,-0.579737,0.155584,-0.222804,0.000000,0.974863
-0.336320,-0.025368,0.210346,-0.866025,0.000000,0.500000
-0.033493,-0.513634,0.156042,-0.209864,0.000000,0.977731
0.421760,-0.001091,0.062360,0.866025,0.000000,0.500000
-0.156139,-0.151454,0.033038,-0.978339,0.000000,0.207010
-0.158697,-0.105349,-0.016916,-0.994367,0.000000,-0.105995
-0.281020,-0.002709,0.306129,-0.866025,0.000000,0.500000
0.352760,0.066492,-0.181871,0.866025,0.000000,-0.500000
-0.316827,-0.033390,0.244110,-0.866025,0.000000,0.500000
0.028860,-0.085456,-0.044472,0.000000,-1.000000,0.000000
0.175893,0.060838,-0.396435,-0.000000,0.000000,-1.000000
0.075897,0.085456,0.089820,0.000000,1.000000,0.000000
0.309523,-0.061487,-0.256761,0.866025,0.000000,-0.500000
0.369474,-0.085418,-0.152921,0.866025,0.000000,-0.500000
0.156167,-0.343175,0.032902,0.978518,0.000000,0.206160
-0.253375,0.075564,0.354012,-0.866025,0.000000,0.500000
0.224913,0.015040,0.396435,0.000000,0.000000,1.000000
0.031019,-0.647857,-0.050376,0.486821,0.371391,-0.790616
0.300180,-0.085456,-0.066082,0.000000,-1.000000,0.000000
0.115088,-0.612801,0.002144,0.928316,0.371391,0.017296
0.021705,-0.645978,0.058247,0.324212,0.371391,0.870032
0.117873,-0.130366,0.107595,0.738575,0.000000,0.674171
0.148427,-0.455555,-0.058652,0.930021,0.000000,-0.367505
0.052959,-0.197789,-0.150553,0.331831,0.000000,-0.943339
-0.069835,0.085456,0.051506,0.000000,1.000000,0.000000
0.157073,-0.273096,-0.028262,0.984195,0.000000,-0.177087
0.388874,0.023613,-0.119320,0.866025,0.000000,-0.500000
0.153574,-0.093003,-0.043425,0.962271,0.000000,-0.272092
0.020109,-0.629548,-0.086062,0.211255,0.371391,-0.904124
0.420944,0.064962,-0.063773,0.866025,0.000000,-0.500000
0.018016,-0.651629,-0.049993,0.314777,0.371391,-0.873490
-0.343107,0.053391,0.198591,-0.866025,0.000000,0.500000
-0.184411,0.069150,0.396435,0.000000,0.000000,1.000000
0.140011,-0.361160,-0.076600,0.877288,0.000000,-0.479965
0.093144,-0.498536,-0.129596,0.583624,0.000000,-0.812024
-0.442359,0.012346,-0.026682,-0.866025,0.000000,-0.500000
0.456917,0.084792,0.001467,0.866025,0.000000,0.500000
0.370170,-0.053662,0.151716,0.866025,0.000000,0.500000
-0.395636,-0.057031,0.107607,-0.866025,0.000000,0.500000
0.081558,-0.633414,0.010335,0.921111,0.371391,0.116719
0.060518,-0.085456,0.037261,0.000000,-1.000000,0.000000
-0.272359,-0.032519,-0.321131,-0.866025,0.000000,-0.500000
0.158778,-0.125920,0.016132,0.994878,0.000000,0.101078
-0.193795,0.019456,-0.396435,-0.000000,0.000000,-1.000000
-0.247277,0.068274,0.364574,-0.866025,0.000000,0.500000
0.083909,-0.479716,0.135757,0.525762,0.000000,0.850631
-0.251427,-0.046463,-0.357385,-0.866025,0.000000,-0.500000
0.069452,-0.434994,-0.143691,0.435174,0.000000,-0.900346
-0.035664,-0.085456,-0.105827,0.000000,-1.000000,0.000000
0.274969,0.085456,-0.127701,0.000000,1.000000,0.000000
-0.111786,-0.590009,0.102231,-0.685161,0.371391,0.626596
-0.113280,-0.258284,0.112421,-0.709794,0.000000,0.704410
-0.135021,-0.085456,-0.091256,0.000000,-1.000000,0.000000
0.086079,0.085456,0.103487,0.000000,1.000000,0.000000
0.058803,0.085456,0.171904,0.000000,1.000000,0.000000
-0.342826,0.085456,0.052321,0.000000,1.000000,0.000000
0.159593,-0.317865,0.000951,0.999982,0.000000,0.005961
0.141959,-0.524022,0.072928,0.889491,0.000000,0.456952
0.090595,0.052514,-0.396435,-0.000000,0.000000,-1.000000
0.195222,-0.044435,-0.396435,-0.000000,0.000000,-1.000000
-0.108113,-0.574990,0.117398,-0.677418,0.000000,0.735598
0.056456,-0.210088,-0.149277,0.353743,0.000000,-0.935343
0.073626,-0.347080,0.141598,0.461326,0.000000,0.887231
0.154259,-0.316209,0.040925,0.966564,0.000000,0.256427
0.256441,0.062314,-0.348701,0.866025,0.000000,-0.500000
0.054141,-0.091421,0.150132,0.339236,0.000000,0.940701
0.158822,-0.324085,-0.015695,0.995153,0.000000,-0.098342
0.445993,0.030588,0.020388,0.866025,0.000000,0.500000
0.099874,-0.360571,-0.124483,0.625791,0.000000,-0.779991
0.058471,-0.427239,-0.148499,0.366370,0.000000,-0.930469
-0.263285,0.085456,0.012251,0.000000,1.000000,0.000000
0.003536,-0.642410,0.067761,0.048388,0.371391,0.927215
-0.169876,-0.085456,-0.202739,0.000000,-1.000000,0.000000
0.000696,-0.643429,0.066223,0.009761,0.371391,0.928425
-0.393094,0.062901,-0.112011,-0.866025,0.000000,-0.500000
0.151501,-0.402888,0.050183,0.949278,0.000000,0.314437
-0.014602,-0.093179,0.158926,-0.091493,0.000000,0.995806
0.072711,-0.291764,-0.142070,0.455597,0.000000,-0.890186
0.269286,0.084777,-0.326452,0.866025,0.000000,-0.500000
0.059272,-0.638659,0.044036,0.745300,0.371391,0.553712
