x,y,z,nx,ny,nz
17.443142,19.505817,-3.392731,0.000000,0.000000,-1.000000
0.161807,40.553866,-0.821420,-0.098014,0.995185,-0.000000
-13.319945,-45.115166,3.392731,-0.000000,0.000000,1.000000
30.047507,-23.778844,-3.392731,0.000000,-0.000000,-1.000000
24.418580,-15.379144,-3.392731,0.000000,-0.000000,-1.000000
22.700996,-24.757950,3.392731,-0.000000,0.000000,1.000000
6.710118,-20.401493,-3.392731,0.000000,0.000000,-1.000000
52.311828,-1.244002,0.894420,0.999048,-0.043619,0.000000
-40.577554,7.086008,-3.392731,0.000000,-0.000000,-1.000000
-48.667449,9.869350,3.392731,-0.000000,-0.000000,1.000000
11.892329,37.832725,-3.392731,0.000000,0.000000,-1.000000
11.692731,-30.050650,-3.392731,0.000000,0.000000,-1.000000
44.970860,18.604363,3.392731,0.000000,-0.000000,1.000000
-47.613055,20.714008,-3.392731,0.000000,0.000000,-1.000000
-42.328000,-13.292088,3.392731,0.000000,-0.000000,1.000000
25.857905,12.775498,3.392731,0.000000,-0.000000,1.000000
38.261962,-27.290438,-3.392731,0.000000,-0.000000,-1.000000
1.292825,34.013111,3.392731,0.000000,-0.000000,1.000000
-38.532314,-24.849317,3.392731,0.000000,-0.000000,1.000000
8.064537,-18.775381,-3.392731,0.000000,0.000000,-1.000000
33.920313,-5.692465,3.392731,-0.000000,0.000000,1.000000
-6.565792,15.970424,1.232444,0.290284,-0.956940,0.000000
27.688608,29.946033,-3.392731,0.000000,0.000000,-1.000000
23.042406,-45.333416,3.392731,0.000000,-0.000000,1.000000
-21.988628,27.024050,3.392731,-0.000000,-0.000000,1.000000
-16.455220,44.897845,-3.392731,0.000000,0.000000,-1.000000
-14.180836,36.080379,3.392731,0.000000,0.000000,1.000000
-12.792658,-45.074452,3.392731,-0.000000,0.000000,1.000000
-30.975244,-10.134831,-3.392731,0.000000,0.000000,-1.000000
-12.956779,19.106263,3.392731,-0.000000,-0.000000,1.000000
45.358095,-3.875190,-1.340821,-0.290285,0.956940,0.000000
14.009830,-35.816516,3.392731,0.000000,-0.000000,1.000000
-39.311273,12.737606,3.392731,-0.000000,-0.000000,1.000000
-11.643348,-24.322388,-3.392731,0.000000,0.000000,-1.000000
-19.539448,-15.988199,3.392731,0.000000,-0.000000,1.000000
45.354929,24.881812,3.392731,0.000000,-0.000000,1.000000
-22.771879,-5.244052,-3.392731,0.000000,0.000000,-1.000000
36.697046,2.167212,3.392731,0.000000,0.000000,1.000000
44.981465,-14.319642,3.392731,-0.000000,0.000000,1.000000
41.538505,-12.594762,3.392731,-0.000000,0.000000,1.000000
-46.943901,23.122004,-2.265062,-0.887011,0.461748,0.000000
16.282797,5.536036,2.333255,-0.956940,-0.290284,0.000000
-17.843460,28.700193,3.392731,-0.000000,-0.000000,1.000000
34.436118,2.552352,3.392731,0.000000,0.000000,1.000000
34.666739,13.156246,-3.392731,0.000000,0.000000,-1.000000
19.125047,23.825863,3.392731,0.000000,0.000000,1.000000
7.821943,32.513161,-3.392731,0.000000,0.000000,-1.000000
-21.433641,27.408644,3.392731,-0.000000,-0.000000,1.000000
-15.612210,35.814110,-3.392731,0.000000,0.000000,-1.000000
6.724764,19.664066,-3.392731,0.000000,-0.000000,-1.000000
16.688883,37.376799,-3.392731,0.000000,0.000000,-1.000000
9.743632,32.304951,3.392731,-0.000000,0.000000,1.000000
4.034485,38.944157,3.392731,0.000000,-0.000000,1.000000
6.329899,51.934390,-2.827266,0.130526,0.991445,0.000000
23.401668,26.814199,-3.392731,0.000000,0.000000,-1.000000
1.947162,-17.080081,-2.070510,-0.098017,0.995185,-0.000000
-51.067833,10.649121,3.392731,-0.000000,-0.000000,1.000000
4.701095,-33.463140,3.392731,0.000000,0.000000,1.000000
-27.397110,-19.907824,3.392731,0.000000,-0.000000,1.000000
-16.033121,-16.047630,-3.392731,0.000000,-0.000000,-1.000000
18.419060,-42.140769,-3.392731,0.000000,0.000000,-1.000000
3.059780,16.970497,-2.373496,-0.098017,-0.995185,0.000000
-33.147790,-2.510084,3.392731,0.000000,-0.000000,1.000000
35.878106,38.082554,-1.150014,0.675590,0.737277,0.000000
49.010219,18.387946,-1.789251,0.923880,0.382683,0.000000
1.775325,37.304236,-3.392731,0.000000,0.000000,-1.000000
-50.242089,-13.110036,-3.392731,0.000000,0.000000,-1.000000
15.819522,-6.867078,-2.530176,-0.881921,0.471397,0.000000
-6.530097,23.184929,3.392731,0.000000,-0.000000,1.000000
-41.136353,5.518563,-3.392731,-0.000000,-0.000000,-1.000000
18.388950,14.408873,3.392731,-0.000000,0.000000,1.000000
6.696841,-19.735395,3.392731,0.000000,0.000000,1.000000
-9.778520,26.564581,3.392731,0.000000,-0.000000,1.000000
-9.372542,48.404868,3.392731,0.000000,0.000000,1.000000
-46.936811,16.726784,-3.392731,0.000000,0.000000,-1.000000
37.518575,24.033643,-3.392731,0.000000,0.000000,-1.000000
-48.217710,13.693668,-3.392731,0.000000,0.000000,-1.000000
18.699269,-38.756063,3.392731,0.000000,-0.000000,1.000000
-23.736131,-43.015711,-3.392731,0.000000,0.000000,-1.000000
5.457309,-52.049269,2.545217,0.130526,-0.991445,0.000000
0.334244,52.351549,-3.259521,0.043619,0.999048,0.000000
12.772832,33.134546,-3.392731,0.000000,0.000000,-1.000000
-13.550073,22.584927,-3.392731,0.000000,0.000000,-1.000000
44.137732,28.086595,-2.096231,0.843391,0.537300,0.000000
18.727643,-20.812236,3.392731,-0.000000,-0.000000,1.000000
13.281756,31.202349,-3.392731,0.000000,0.000000,-1.000000
-32.933881,40.672199,-0.495496,-0.608761,0.793353,0.000000
-27.561823,30.855546,-3.045337,-0.995185,0.098017,0.000000
18.115402,49.123110,-0.003601,0.382683,0.923880,-0.000000
-22.493222,-44.729953,3.392731,0.000000,-0.000000,1.000000
4.647337,-25.300397,-3.392731,0.000000,0.000000,-1.000000
28.820728,-35.383034,-3.392731,0.000000,0.000000,-1.000000
16.366424,40.135179,3.392731,0.000000,-0.000000,1.000000
44.429845,27.628069,1.797013,0.843391,0.537300,-0.000000
40.145766,-33.619943,-0.821588,0.793353,-0.608761,0.000000
-20.341884,-9.581337,3.392731,0.000000,-0.000000,1.000000
36.144932,0.637918,3.392731,0.000000,0.000000,1.000000
-20.328614,48.206368,2.177206,-0.382683,0.923880,0.000000
-39.141559,33.147193,3.392731,-0.000000,-0.000000,1.000000
-38.109753,-20.094339,-3.392731,0.000000,-0.000000,-1.000000
-10.603969,-36.134979,-3.392731,0.000000,-0.000000,-1.000000
38.596123,-27.144019,3.392731,-0.000000,-0.000000,1.000000
45.382345,25.337890,3.392731,0.000000,-0.000000,1.000000
-17.553443,-46.381468,-3.392731,0.000000,-0.000000,-1.000000
-18.174578,17.462611,3.392731,-0.000000,-0.000000,1.000000
24.787787,-30.319228,3.392731,-0.000000,-0.000000,1.000000
3.566714,16.880183,-0.095888,-0.290284,-0.956940,0.000000
-33.920868,-17.088849,3.392731,-0.000000,0.000000,1.000000
10.581588,33.367739,3.392731,0.000000,-0.000000,1.000000
-15.867213,45.037903,-3.392731,0.000000,0.000000,-1.000000
-35.982442,23.440407,-3.392731,0.000000,0.000000,-1.000000
14.678358,37.329174,3.392731,0.000000,-0.000000,1.000000
23.813693,-26.723142,-3.392731,0.000000,-0.000000,-1.000000
-22.819947,14.912343,3.392731,-0.000000,-0.000000,1.000000
-20.833808,38.083101,3.392731,0.000000,0.000000,1.000000
-10.288484,-13.792500,1.136497,0.634393,0.773011,0.000000
-13.004735,-42.964907,-3.392731,0.000000,-0.000000,-1.000000
-23.235930,-14.937122,-3.392731,0.000000,0.000000,-1.000000
-9.163970,-28.858672,-3.392731,0.000000,0.000000,-1.000000
-49.892639,15.739124,1.938420,-0.953717,0.300706,0.000000
13.412748,-10.751213,0.564524,-0.773011,0.634393,0.000000
-46.056886,-10.196213,-3.392731,0.000000,0.000000,-1.000000
-15.968786,-39.242229,3.392731,-0.000000,0.000000,1.000000
9.711423,-32.576458,-3.392731,0.000000,0.000000,-1.000000
26.439083,-34.464621,-3.392731,0.000000,0.000000,-1.000000
-36.683417,-2.874826,-3.392731,0.000000,0.000000,-1.000000
-24.668349,46.138925,-2.755995,-0.461748,0.887011,0.000000
15.694700,-33.354766,3.392731,0.000000,-0.000000,1.000000
14.139350,-23.004795,3.392731,-0.000000,-0.000000,1.000000
-5.133906,45.729861,3.392731,-0.000000,-0.000000,1.000000
-34.403541,-34.137739,2.950905,0.773012,0.634392,0.000000
10.693833,15.418442,3.392731,0.000000,-0.000000,1.000000
-33.115202,18.360621,-3.392731,0.000000,-0.000000,-1.000000
27.108805,-33.031936,-3.392731,0.000000,0.000000,-1.000000
31.415650,-3.361395,-3.392731,-0.000000,-0.000000,-1.000000
-48.947861,18.538490,1.689620,-0.923880,0.382683,0.000000
42.749946,18.231635,3.392731,0.000000,-0.000000,1.000000
-13.573546,-11.741738,-3.392731,0.000000,0.000000,-1.000000
-5.046388,40.867529,3.392731,-0.000000,-0.000000,1.000000
25.435702,-8.122914,-3.392731,0.000000,0.000000,-1.000000
-37.885173,-4.394584,3.392731,0.000000,-0.000000,1.000000
-27.335648,-41.638329,-3.392731,0.000000,-0.000000,-1.000000
48.784226,-18.933542,1.987437,0.923880,-0.382683,0.000000
-32.994774,-18.419232,-3.392731,0.000000,-0.000000,-1.000000
-27.708912,25.953443,3.392731,-0.000000,-0.000000,1.000000
-49.461668,11.519095,-3.392731,0.000000,0.000000,-1.000000
21.370714,-47.774717,1.580558,0.382683,-0.923880,0.000000
-21.048368,11.368048,-3.392731,0.000000,-0.000000,-1.000000
-24.992133,-22.523658,-3.392731,0.000000,-0.000000,-1.000000
-25.744785,21.654306,3.392731,-0.000000,-0.000000,1.000000
-22.764951,28.469100,-3.392731,0.000000,0.000000,-1.000000
37.261427,36.774208,1.146662,0.737277,0.675590,-0.000000
-5.119368,30.131357,-3.392731,0.000000,0.000000,-1.000000
16.788903,43.418536,-3.392731,0.000000,0.000000,-1.000000
40.260798,-5.888411,3.392731,-0.000000,0.000000,1.000000
-33.736975,11.626424,3.392731,-0.000000,-0.000000,1.000000
19.867628,-19.911573,3.392731,-0.000000,0.000000,1.000000
4.070701,-49.516675,3.392731,0.000000,0.000000,1.000000
4.837872,50.520876,3.392731,0.000000,-0.000000,1.000000
-22.383703,-0.925910,3.392731,0.000000,-0.000000,1.000000
-15.799897,41.699090,3.392731,0.000000,0.000000,1.000000
-9.369794,40.734820,3.392731,0.000000,0.000000,1.000000
-52.301869,1.472105,-0.872172,-0.999048,0.043619,0.000000
34.767624,-18.806665,3.392731,-0.000000,0.000000,1.000000
31.265700,-4.604146,-3.392731,0.000000,0.000000,-1.000000
27.756127,6.944002,3.392731,0.000000,-0.000000,1.000000
44.801627,-11.362901,-3.392731,0.000000,-0.000000,-1.000000
-0.425183,34.299698,-3.392731,0.000000,-0.000000,-1.000000
-47.155458,17.158434,3.392731,-0.000000,-0.000000,1.000000
40.755854,-1.241878,-1.542472,0.956940,0.290286,-0.000000
-10.862448,-51.178370,1.653766,-0.216440,-0.976296,0.000000
25.934944,-10.158565,3.392731,-0.000000,0.000000,1.000000
-25.689316,34.603915,-3.392731,0.000000,0.000000,-1.000000
-43.918957,28.430003,2.265637,-0.843391,0.537300,0.000000
-52.131113,-4.835642,-2.798346,-0.991445,-0.130526,-0.000000
6.366934,49.508633,3.392731,0.000000,-0.000000,1.000000
-52.091227,-5.138607,-0.365492,-0.991445,-0.130526,-0.000000
49.282136,17.675387,0.477347,0.953717,0.300706,-0.000000
-29.577054,-5.460968,-3.392731,0.000000,0.000000,-1.000000
37.171699,-0.858428,-3.392731,0.000000,0.000000,-1.000000
-0.471094,51.341972,-3.392731,0.000000,-0.000000,-1.000000
30.746609,-8.682318,3.392731,-0.000000,-0.000000,1.000000
3.906627,-32.385329,-3.392731,0.000000,0.000000,-1.000000
31.705460,3.284659,3.392731,0.000000,0.000000,1.000000
21.042764,32.652525,-3.392731,0.000000,0.000000,-1.000000
-15.782581,-44.580398,-3.392731,0.000000,-0.000000,-1.000000
-12.486938,-18.172885,-3.392731,0.000000,-0.000000,-1.000000
37.210739,14.145945,-3.392731,0.000000,0.000000,-1.000000
-22.242090,-42.637166,-3.392731,0.000000,0.000000,-1.000000
-42.789734,24.153538,3.392731,-0.000000,-0.000000,1.000000
-9.569644,-15.003633,-3.392731,0.000000,0.000000,-1.000000
-9.619385,42.027287,3.392731,0.000000,0.000000,1.000000
45.835116,-19.428970,-3.392731,0.000000,-0.000000,-1.000000
28.570214,42.062204,-3.392731,0.000000,0.000000,-1.000000
-5.419449,-29.229630,3.392731,-0.000000,0.000000,1.000000
15.487452,-31.653589,3.392731,0.000000,-0.000000,1.000000
-9.984380,-14.042071,2.443548,0.634393,0.773011,0.000000
-5.303930,-52.069462,-2.424505,-0.130526,-0.991445,0.000000
39.141064,23.208381,-3.392731,0.000000,0.000000,-1.000000
1.866002,-48.055528,-3.392731,0.000000,0.000000,-1.000000
31.560486,-27.509392,-1.195009,-0.098017,-0.995185,0.000000
29.208730,-41.635985,-3.392731,0.000000,0.000000,-1.000000
-13.783646,37.972441,-3.392731,0.000000,0.000000,-1.000000
39.484422,32.977211,-3.392731,0.000000,0.000000,-1.000000
10.395473,-14.965986,-3.392731,0.000000,0.000000,-1.000000
39.079909,3.826131,3.392731,0.000000,0.000000,1.000000
6.558078,-40.748869,-3.392731,0.000000,0.000000,-1.000000
11.322856,-29.109993,3.392731,0.000000,-0.000000,1.000000
19.160767,-4.646228,-3.392731,0.000000,0.000000,-1.000000
16.241993,-31.950612,-3.392731,0.000000,0.000000,-1.000000
-44.903489,3.934658,2.084527,0.098017,-0.995185,0.000000
-24.357902,-19.045629,-3.392731,0.000000,0.000000,-1.000000
14.121861,-22.202590,-3.392731,0.000000,-0.000000,-1.000000
-11.100002,-42.163811,3.392731,0.000000,-0.000000,1.000000
22.066159,42.555817,-3.392731,0.000000,0.000000,-1.000000
-48.006380,-20.811430,-3.164735,-0.923880,-0.382683,-0.000000
13.289196,-10.901762,-0.880527,-0.773011,0.634393,0.000000
9.326371,38.028443,-3.392731,0.000000,0.000000,-1.000000
-7.213771,39.472397,-3.392731,0.000000,0.000000,-1.000000
8.782229,-41.690395,3.392731,0.000000,-0.000000,1.000000
21.827939,2.408593,-3.392731,0.000000,0.000000,-1.000000
-22.662271,26.286502,-3.392731,0.000000,0.000000,-1.000000
8.402315,14.998921,-1.449825,-0.471397,-0.881921,0.000000
14.314129,11.608769,3.392731,-0.000000,0.000000,1.000000
-20.248379,-20.006789,3.392731,0.000000,-0.000000,1.000000
19.042053,-29.704354,3.392731,-0.000000,0.000000,1.000000
12.010977,44.846757,3.392731,-0.000000,0.000000,1.000000
19.245056,-25.575715,-3.392731,0.000000,0.000000,-1.000000
35.166532,-32.923818,-2.691079,-0.956941,0.290282,0.000000
-14.922564,-21.331016,-3.392731,0.000000,-0.000000,-1.000000
6.857559,-48.974497,-3.392731,0.000000,0.000000,-1.000000
34.796162,8.695474,-3.392731,0.000000,0.000000,-1.000000
2.757380,51.142084,3.392731,0.000000,-0.000000,1.000000
-16.358017,-15.175613,-3.392731,0.000000,-0.000000,-1.000000
29.712866,43.101682,-1.035690,0.537300,0.843391,0.000000
-40.925020,32.604399,-1.200695,-0.793353,0.608761,0.000000
18.908445,35.686550,-3.392731,0.000000,0.000000,-1.000000
17.041600,39.812960,3.392731,0.000000,-0.000000,1.000000
36.280725,-36.642561,3.392731,0.000000,-0.000000,1.000000
-13.718846,10.378231,1.184788,0.773011,-0.634393,0.000000
-35.382130,-17.153896,-3.392731,0.000000,0.000000,-1.000000
-15.133521,-17.112613,-3.392731,0.000000,0.000000,-1.000000
-39.069623,-12.181800,-3.392731,0.000000,0.000000,-1.000000
-39.268856,26.406027,-3.392731,0.000000,0.000000,-1.000000
-36.972931,-12.966108,-3.392731,0.000000,0.000000,-1.000000
29.431819,43.280729,2.053038,0.537300,0.843391,0.000000
-28.088034,37.397850,3.392731,-0.000000,-0.000000,1.000000
-27.906714,22.807673,-3.392731,-0.000000,-0.000000,-1.000000
22.511822,47.261541,-1.655474,0.461748,0.887011,-0.000000
31.507989,-19.379077,-3.392731,0.000000,-0.000000,-1.000000
-3.100773,21.893123,-3.392731,0.000000,0.000000,-1.000000
-41.209650,32.233462,1.067766,-0.793353,0.608761,0.000000
-39.585423,5.785920,3.392731,-0.000000,-0.000000,1.000000
-28.181166,38.891971,3.392731,-0.000000,-0.000000,1.000000
2.292049,-41.276984,-0.800607,-0.634393,-0.773011,0.000000
-20.359397,0.743697,3.392731,-0.000000,0.000000,1.000000
-9.276511,51.529963,1.183226,-0.216440,0.976296,0.000000
15.627057,20.651731,-3.392731,0.000000,-0.000000,-1.000000
48.354779,19.970318,1.187363,0.923880,0.382683,-0.000000
-40.711755,1.771795,3.392731,0.000000,0.000000,1.000000
-46.875932,-16.358230,-3.392731,0.000000,0.000000,-1.000000
-43.233806,-22.219909,-3.392731,0.000000,-0.000000,-1.000000
-42.248795,-14.077322,3.392731,0.000000,-0.000000,1.000000
-44.485105,-3.970721,0.106754,-0.098017,0.995185,0.000000
-18.900141,5.685334,3.392731,-0.000000,0.000000,1.000000
23.842723,46.568718,0.921168,0.461748,0.887011,-0.000000
24.079837,17.148659,3.392731,0.000000,-0.000000,1.000000
-28.053951,-29.484816,2.418823,-0.881922,-0.471395,0.000000
-3.728869,31.008545,3.392731,0.000000,-0.000000,1.000000
-35.867498,12.115940,-3.392731,0.000000,-0.000000,-1.000000
-22.109407,-32.214106,-3.392731,0.000000,-0.000000,-1.000000
-2.653548,41.573659,-2.744008,0.634393,0.773011,-0.000000
-22.992367,43.397773,3.392731,0.000000,0.000000,1.000000
35.004740,38.882847,-0.597775,0.675590,0.737277,-0.000000
30.858224,39.523127,-3.392731,0.000000,0.000000,-1.000000
27.747494,34.748274,-3.392731,0.000000,0.000000,-1.000000
34.358330,-35.203921,3.392731,0.000000,0.000000,1.000000
-10.488198,51.249045,3.392731,0.000000,0.000000,1.000000
-6.142479,-44.557954,-3.392731,0.000000,-0.000000,-1.000000
18.931934,-10.082934,-3.392731,0.000000,0.000000,-1.000000
14.998817,44.356682,-3.392731,0.000000,0.000000,-1.000000
9.773358,51.419815,-0.394015,0.216440,0.976296,-0.000000
51.385598,9.927699,3.331763,0.976296,0.216440,-0.000000
-20.441167,34.067912,-3.392731,0.000000,0.000000,-1.000000
37.551402,-6.386495,3.392731,-0.000000,0.000000,1.000000
14.369881,-42.142673,3.392731,0.000000,-0.000000,1.000000
30.042941,-35.172110,-1.254825,0.290282,0.956941,-0.000000
20.905058,-35.659827,3.392731,-0.000000,-0.000000,1.000000
-41.980764,-21.923822,-3.392731,0.000000,-0.000000,-1.000000
4.623672,35.963951,-3.392731,0.000000,0.000000,-1.000000
36.802833,-21.148279,3.392731,-0.000000,0.000000,1.000000
18.542020,48.946399,-0.574034,0.382683,0.923880,-0.000000
44.009691,-26.783313,3.392731,-0.000000,0.000000,1.000000
33.236850,2.972547,3.392731,0.000000,0.000000,1.000000
4.390288,-46.535197,-3.392731,0.000000,0.000000,-1.000000
-30.298993,0.638444,3.392731,-0.000000,-0.000000,1.000000
4.199421,39.587410,3.392731,0.000000,-0.000000,1.000000
-9.827616,26.747199,-3.392731,0.000000,0.000000,-1.000000
-46.980868,19.654765,-3.392731,0.000000,0.000000,-1.000000
-47.271619,-22.492462,-2.995019,-0.887011,-0.461748,0.000000
33.035150,-35.123409,-2.710678,-0.471396,0.881921,0.000000
49.540828,-0.864401,3.392731,-0.000000,0.000000,1.000000
-29.062183,-43.516213,0.689653,-0.537300,-0.843391,0.000000
41.929069,18.489180,-3.392731,0.000000,0.000000,-1.000000
-5.229345,-20.870932,-3.392731,0.000000,0.000000,-1.000000
-11.260138,17.934575,3.392731,0.000000,-0.000000,1.000000
43.764926,-28.671783,-0.184427,0.843391,-0.537300,0.000000
4.623550,-43.376079,-3.392731,0.000000,0.000000,-1.000000
17.883557,-12.428857,3.392731,-0.000000,-0.000000,1.000000
-30.448574,-42.579243,-0.522187,-0.608761,-0.793353,0.000000
-23.699061,18.508514,3.392731,-0.000000,0.000000,1.000000
37.001994,-22.683568,3.392731,-0.000000,0.000000,1.000000
-44.374613,-27.714765,-2.527784,-0.843391,-0.537300,-0.000000
19.805625,-45.799033,3.392731,0.000000,-0.000000,1.000000
52.038401,-5.539855,-2.628390,0.991445,-0.130526,0.000000
26.661305,-15.684364,3.392731,-0.000000,0.000000,1.000000
9.728279,44.641441,3.392731,0.000000,-0.000000,1.000000
47.035202,8.565404,3.392731,0.000000,-0.000000,1.000000
27.103332,-44.764140,2.169143,0.537300,-0.843391,0.000000
5.992091,-44.282412,3.392731,-0.000000,-0.000000,1.000000
26.767558,-19.566493,-3.392731,0.000000,-0.000000,-1.000000
-35.243051,5.205685,-3.392731,0.000000,-0.000000,-1.000000
-2.845843,-47.276530,0.339014,0.773011,0.634393,0.000000
-25.032607,3.767971,3.392731,-0.000000,-0.000000,1.000000
17.338048,16.223618,3.392731,-0.000000,0.000000,1.000000
9.685043,-33.132208,-3.392731,0.000000,0.000000,-1.000000
-23.553380,-35.248706,3.392731,-0.000000,0.000000,1.000000
42.193596,30.951158,-3.045688,0.793353,0.608761,0.000000
-17.001644,-24.135810,-3.392731,0.000000,-0.000000,-1.000000
-45.414230,10.157687,3.392731,-0.000000,-0.000000,1.000000
-44.632594,-3.961339,-1.404796,0.098017,0.995185,0.000000
-22.596904,-45.944840,3.392731,0.000000,-0.000000,1.000000
39.631126,-4.904018,3.392731,-0.000000,0.000000,1.000000
12.536879,34.804582,3.392731,0.000000,-0.000000,1.000000
-15.660631,39.752917,-3.392731,0.000000,0.000000,-1.000000
25.803839,1.713657,-3.392731,0.000000,0.000000,-1.000000
9.101109,-51.568849,-1.095052,0.216440,-0.976296,0.000000
27.618151,32.384208,-0.286499,0.956940,-0.290287,0.000000
-16.764767,-18.957259,-3.392731,0.000000,0.000000,-1.000000
46.372851,17.618995,3.392731,0.000000,-0.000000,1.000000
6.412395,-51.923529,-1.666357,0.130526,-0.991445,0.000000
22.037505,-29.679226,3.392731,-0.000000,0.000000,1.000000
32.533825,1.721018,3.392731,0.000000,0.000000,1.000000
40.699787,20.510803,-3.392731,0.000000,0.000000,-1.000000
19.351620,48.611052,0.933620,0.382683,0.923880,-0.000000
-9.159582,-21.373185,-3.392731,0.000000,-0.000000,-1.000000
44.035995,28.246289,-2.348332,0.843391,0.537300,0.000000
-10.326417,-20.375044,3.392731,0.000000,-0.000000,1.000000
-5.512596,-52.041990,-0.487974,-0.130526,-0.991445,0.000000
1.039674,17.169461,2.582636,-0.098017,-0.995185,0.000000
-14.996809,8.406267,3.020407,0.881921,-0.471397,0.000000
-2.737889,47.379567,-2.675482,0.634393,-0.773011,0.000000
-13.817975,37.039665,3.392731,0.000000,0.000000,1.000000
-37.577134,-36.429675,-1.283452,-0.737277,-0.675590,0.000000
24.287773,40.106634,-3.392731,0.000000,0.000000,-1.000000
-12.252100,-33.517001,3.392731,-0.000000,0.000000,1.000000
0.672880,-51.174062,-3.392731,0.000000,0.000000,-1.000000
18.656859,2.082197,-3.392731,0.000000,0.000000,-1.000000
46.352439,11.787165,3.392731,0.000000,-0.000000,1.000000
-23.284908,-28.749398,-3.392731,0.000000,0.000000,-1.000000
-48.492843,19.234855,3.392731,-0.000000,-0.000000,1.000000
47.540852,-2.541362,-0.824004,-0.773011,0.634393,0.000000
27.424885,-39.433127,-3.392731,0.000000,-0.000000,-1.000000
24.195905,-43.923299,-3.392731,0.000000,0.000000,-1.000000
28.318820,40.945231,3.392731,0.000000,-0.000000,1.000000
-31.708348,35.424416,-3.122872,0.098019,-0.995185,0.000000
4.332311,16.857883,-3.392731,0.000000,-0.000000,-1.000000
-23.876603,21.174568,3.392731,-0.000000,-0.000000,1.000000
-43.092548,-19.291945,-3.392731,0.000000,0.000000,-1.000000
11.186072,-40.407285,3.392731,0.000000,-0.000000,1.000000
44.904875,-26.882422,1.314134,0.843391,-0.537300,0.000000
-26.230030,-43.970086,-3.392731,0.000000,-0.000000,-1.000000
-3.641694,35.929419,-3.392731,0.000000,0.000000,-1.000000
-40.706165,32.889616,-2.406936,-0.793353,0.608761,0.000000
-26.667158,-17.933364,-3.392731,0.000000,0.000000,-1.000000
-30.409593,-18.796053,3.392731,0.000000,-0.000000,1.000000
4.858774,-30.508227,3.392731,0.000000,0.000000,1.000000
20.476477,-12.895167,-3.392731,0.000000,-0.000000,-1.000000
-4.242956,-29.024441,-3.392731,0.000000,0.000000,-1.000000
1.007529,22.717577,-3.392731,0.000000,0.000000,-1.000000
-8.476866,-30.997482,-3.392731,0.000000,-0.000000,-1.000000
10.352551,29.181387,3.392731,0.000000,-0.000000,1.000000
29.334403,-43.342790,1.199233,0.537300,-0.843391,0.000000
5.699897,20.023052,3.392731,-0.000000,0.000000,1.000000
48.639634,-0.983727,3.392731,-0.000000,0.000000,1.000000
21.185653,-24.606671,-3.392731,0.000000,0.000000,-1.000000
0.969728,48.349144,0.084384,-0.290286,-0.956940,0.000000
-20.325302,24.876436,-3.392731,0.000000,0.000000,-1.000000
-28.110010,-26.942263,-3.392731,0.000000,-0.000000,-1.000000
31.577560,-18.262330,3.392731,-0.000000,0.000000,1.000000
13.525752,33.612067,-3.392731,0.000000,0.000000,-1.000000
44.066835,28.197880,3.301824,0.843391,0.537300,-0.000000
-26.516930,10.205200,3.392731,-0.000000,-0.000000,1.000000
13.133373,11.091633,-2.017907,-0.773011,-0.634393,0.000000
-11.986037,23.755903,3.392731,0.000000,-0.000000,1.000000
-3.443227,-42.564865,1.854867,0.881922,-0.471396,0.000000
-4.373591,25.954235,3.392731,0.000000,-0.000000,1.000000
-11.086181,-46.757995,-3.392731,0.000000,-0.000000,-1.000000
39.179630,-12.945166,-3.392731,0.000000,-0.000000,-1.000000
-38.434131,-27.729677,3.392731,0.000000,-0.000000,1.000000
-35.346281,6.052791,-3.392731,0.000000,-0.000000,-1.000000
14.699149,22.219487,3.392731,0.000000,-0.000000,1.000000
16.094713,-37.656089,-3.392731,0.000000,0.000000,-1.000000
8.683097,34.938222,-3.392731,0.000000,0.000000,-1.000000
14.744766,8.877807,0.641244,-0.881921,-0.471397,0.000000
-34.588012,29.035414,-0.519529,0.773011,0.634393,-0.000000
33.815954,-21.794104,-3.392731,0.000000,-0.000000,-1.000000
-25.391643,-45.762402,1.125714,-0.461748,-0.887011,-0.000000
-7.196356,43.102246,-3.392731,0.000000,0.000000,-1.000000
33.738216,-34.731420,1.799305,-0.634392,0.773012,0.000000
-21.556178,-45.243989,-3.392731,0.000000,0.000000,-1.000000
11.144719,-13.089806,2.803847,-0.634393,0.773011,0.000000
43.113106,-4.319088,-3.392731,-0.000000,-0.000000,-1.000000
21.283379,32.288524,-3.392731,0.000000,0.000000,-1.000000
-19.440241,31.377008,-3.392731,0.000000,0.000000,-1.000000
47.894103,-14.516401,-3.392731,0.000000,-0.000000,-1.000000
-29.773838,18.086253,3.392731,-0.000000,-0.000000,1.000000
-5.971372,-25.604558,-3.392731,0.000000,-0.000000,-1.000000
37.747085,-16.045494,-3.392731,0.000000,-0.000000,-1.000000
-24.570440,-7.403250,3.392731,0.000000,-0.000000,1.000000
6.326485,36.620654,3.392731,0.000000,-0.000000,1.000000
0.009742,-48.483553,-2.347023,-0.098014,0.995185,-0.000000
-23.731029,-22.514281,-3.392731,0.000000,-0.000000,-1.000000
-51.518002,9.330466,2.458342,-0.976296,0.216440,0.000000
-22.136821,27.847864,-3.392731,0.000000,0.000000,-1.000000
-27.103760,25.380091,-3.392731,0.000000,0.000000,-1.000000
12.694080,18.666240,-3.392731,0.000000,0.000000,-1.000000
-3.854964,26.971129,3.392731,0.000000,-0.000000,1.000000
41.628080,20.918894,3.392731,0.000000,-0.000000,1.000000
48.884946,18.690381,2.244667,0.923880,0.382683,-0.000000
-22.535311,47.249313,-0.658337,-0.461748,0.887011,0.000000
19.046463,4.691507,-3.392731,0.000000,0.000000,-1.000000
-30.948480,-19.855535,3.392731,0.000000,-0.000000,1.000000
-5.322472,-51.322262,-3.392731,0.000000,-0.000000,-1.000000
-18.584574,16.780327,-3.392731,0.000000,-0.000000,-1.000000
34.315327,-25.241511,3.392731,0.000000,0.000000,1.000000
43.801447,28.614456,-0.468651,0.843391,0.537300,-0.000000
34.937145,-7.611600,-3.392731,0.000000,-0.000000,-1.000000
-33.588856,22.095814,-3.392731,0.000000,0.000000,-1.000000
-43.769368,22.663554,3.392731,-0.000000,-0.000000,1.000000
48.470827,0.138955,-1.945673,-0.995185,-0.098014,0.000000
28.285911,19.885826,3.392731,0.000000,-0.000000,1.000000
-16.429982,5.050830,-1.210001,0.956940,-0.290284,0.000000
20.381574,-26.723478,3.392731,-0.000000,0.000000,1.000000
-15.933313,29.848546,-3.392731,0.000000,0.000000,-1.000000
8.046560,48.298684,-3.392731,0.000000,0.000000,-1.000000
16.492887,-49.654978,0.725943,0.300706,-0.953717,0.000000
-21.746368,-24.664779,-3.392731,0.000000,0.000000,-1.000000
-30.116880,-40.249318,-3.392731,0.000000,-0.000000,-1.000000
31.743931,-22.992764,3.392731,-0.000000,-0.000000,1.000000
27.899415,21.076814,-3.392731,0.000000,-0.000000,-1.000000
27.346765,-25.631506,-3.392731,0.000000,-0.000000,-1.000000
36.767232,18.980622,3.392731,0.000000,-0.000000,1.000000
-46.930141,-19.002594,3.392731,0.000000,-0.000000,1.000000
-20.936121,40.321770,-3.392731,0.000000,0.000000,-1.000000
11.363635,43.851684,3.392731,0.000000,-0.000000,1.000000
48.032744,-8.648625,-3.392731,0.000000,-0.000000,-1.000000
42.235477,30.896578,2.322030,0.793353,0.608761,-0.000000
31.048711,-35.405573,2.171138,0.098019,0.995185,0.000000
-35.212501,-17.591490,3.392731,-0.000000,0.000000,1.000000
29.617303,-23.902558,3.392731,0.000000,0.000000,1.000000
-11.566282,31.048202,3.392731,0.000000,-0.000000,1.000000
13.560770,-46.640630,-3.392731,0.000000,0.000000,-1.000000
-27.810922,13.061578,-3.392731,0.000000,0.000000,-1.000000
21.598928,-24.505823,-3.392731,0.000000,0.000000,-1.000000
-52.148639,-4.702517,-0.389636,-0.991445,-0.130526,-0.000000
-12.293369,-13.228158,-3.392731,0.000000,0.000000,-1.000000
-41.047092,-20.424725,-3.392731,0.000000,-0.000000,-1.000000
5.197268,16.385561,2.865314,-0.290284,-0.956940,0.000000
26.101573,33.940929,-3.392731,0.000000,0.000000,-1.000000
6.777850,15.867216,1.802143,-0.471397,-0.881921,0.000000
23.393211,-10.290957,3.392731,-0.000000,-0.000000,1.000000
-12.092708,16.712064,-3.392731,0.000000,-0.000000,-1.000000
46.658263,23.670709,-3.292652,0.887011,0.461748,0.000000
5.163128,-48.515738,3.392731,0.000000,-0.000000,1.000000
8.410426,-51.363951,-3.392731,0.000000,0.000000,-1.000000
23.123980,33.708643,-3.392731,0.000000,0.000000,-1.000000
4.283848,49.679323,3.392731,0.000000,-0.000000,1.000000
50.021538,15.330307,-2.139259,0.953717,0.300706,0.000000
-10.803859,-20.010885,-3.392731,0.000000,0.000000,-1.000000
40.597893,23.117953,-3.392731,0.000000,0.000000,-1.000000
-45.856645,-17.086913,-3.392731,0.000000,0.000000,-1.000000
-27.699571,30.295761,0.715194,-0.956940,0.290286,0.000000
27.651198,-43.999671,3.392731,-0.000000,0.000000,1.000000
16.323818,-5.400807,3.083706,-0.956940,0.290284,0.000000
-6.697425,-15.910204,2.474091,0.471397,0.881921,0.000000
0.734375,40.610257,2.754523,-0.098014,0.995185,0.000000
25.141011,10.134286,-3.392731,0.000000,0.000000,-1.000000
35.394892,30.940272,2.361945,-0.995185,0.098019,0.000000
-26.391867,45.217393,-1.816577,-0.537300,0.843391,0.000000
38.267246,-8.673023,3.392731,-0.000000,0.000000,1.000000
18.247516,-15.603222,-3.392731,0.000000,0.000000,-1.000000
27.076223,33.794735,3.392731,0.000000,0.000000,1.000000
-11.166016,-46.810647,-3.392731,0.000000,-0.000000,-1.000000
-41.982148,-24.017157,-3.392731,0.000000,-0.000000,-1.000000
25.778281,-7.812039,-3.392731,0.000000,0.000000,-1.000000
23.795087,-5.900123,-3.392731,0.000000,-0.000000,-1.000000
-12.285761,-29.103834,-3.392731,0.000000,-0.000000,-1.000000
-5.890187,-16.175366,-2.311052,0.290284,0.956940,-0.000000
50.022324,11.033421,3.392731,0.000000,-0.000000,1.000000
3.893199,-16.781145,-3.373433,-0.290284,0.956940,0.000000
17.432208,8.253109,3.392731,-0.000000,0.000000,1.000000
41.802633,20.200985,3.392731,0.000000,-0.000000,1.000000
-5.880541,33.496350,3.392731,0.000000,-0.000000,1.000000
-43.845661,-21.299744,3.392731,-0.000000,0.000000,1.000000
39.969120,31.016707,3.392731,0.000000,-0.000000,1.000000
32.726312,-40.831472,3.229926,0.608761,-0.793353,0.000000
20.654651,-5.536870,-3.392731,0.000000,0.000000,-1.000000
-35.026261,13.360037,3.392731,-0.000000,-0.000000,1.000000
-39.567427,-8.157961,3.392731,0.000000,-0.000000,1.000000
-1.766090,-18.219209,3.392731,0.000000,-0.000000,1.000000
36.163153,12.033473,3.392731,0.000000,-0.000000,1.000000
-38.218440,-14.655741,3.392731,0.000000,-0.000000,1.000000
-50.518320,-12.546011,3.392731,0.000000,-0.000000,1.000000
-42.204628,22.077152,3.392731,-0.000000,-0.000000,1.000000
-24.772614,-18.801813,3.392731,0.000000,-0.000000,1.000000
-26.248998,-28.726505,3.392731,0.000000,-0.000000,1.000000
49.259069,-2.873235,-3.392731,0.000000,0.000000,-1.000000
-27.791614,-29.992337,2.742556,-0.956940,-0.290286,0.000000
33.057140,26.985723,3.392731,0.000000,-0.000000,1.000000
41.688193,12.317484,3.392731,0.000000,-0.000000,1.000000
-11.324137,-24.426825,3.392731,0.000000,-0.000000,1.000000
49.437184,5.373141,3.392731,0.000000,-0.000000,1.000000
10.234657,-21.906140,3.392731,0.000000,-0.000000,1.000000
-42.548456,-28.767020,-3.392731,0.000000,0.000000,-1.000000
11.260304,-14.486402,-3.392731,0.000000,0.000000,-1.000000
8.876589,-28.757632,-3.392731,0.000000,0.000000,-1.000000
39.354386,-2.396093,3.392731,0.000000,0.000000,1.000000
-20.282261,-15.351524,-3.392731,0.000000,0.000000,-1.000000
51.247688,-9.695286,3.392731,-0.000000,0.000000,1.000000
26.453022,-40.781334,3.392731,-0.000000,0.000000,1.000000
7.010652,-26.941403,3.392731,0.000000,-0.000000,1.000000
-25.807646,8.061123,3.392731,-0.000000,0.000000,1.000000
16.323678,-5.401267,0.961864,-0.956940,0.290284,0.000000
6.891208,23.765016,3.392731,-0.000000,0.000000,1.000000
8.004388,-30.897917,-3.392731,0.000000,0.000000,-1.000000
-20.349238,-48.197826,-2.718738,-0.382683,-0.923880,0.000000
-18.896106,-12.274040,3.392731,0.000000,-0.000000,1.000000
-46.578730,12.386821,-3.392731,0.000000,0.000000,-1.000000
-42.539113,-21.180990,3.392731,-0.000000,0.000000,1.000000
-10.206762,-32.302913,3.392731,-0.000000,0.000000,1.000000
36.060570,10.760394,3.392731,0.000000,-0.000000,1.000000
25.121230,11.626352,3.392731,0.000000,-0.000000,1.000000
-37.588972,-36.416756,0.764611,-0.737277,-0.675590,0.000000
48.163493,-2.989540,3.392731,-0.000000,-0.000000,1.000000
10.620755,32.688084,3.392731,0.000000,-0.000000,1.000000
-17.385387,-30.785499,-3.392731,0.000000,0.000000,-1.000000
26.351499,26.498678,3.392731,0.000000,-0.000000,1.000000
-16.542054,-48.939694,-3.392731,0.000000,-0.000000,-1.000000
43.178452,-19.262076,3.392731,-0.000000,0.000000,1.000000
17.654188,-32.627087,-3.392731,0.000000,0.000000,-1.000000
-20.439650,-20.067461,-3.392731,0.000000,0.000000,-1.000000
-20.357919,-14.350279,3.392731,0.000000,-0.000000,1.000000
10.531588,-41.085037,3.392731,0.000000,-0.000000,1.000000
-48.058314,16.871139,3.392731,-0.000000,-0.000000,1.000000
-23.168245,-0.148240,-3.392731,0.000000,0.000000,-1.000000
-25.185900,14.602314,3.392731,-0.000000,-0.000000,1.000000
35.582078,-38.353814,1.074719,0.675590,-0.737277,0.000000
-20.422673,-48.167408,-3.223670,-0.382683,-0.923880,0.000000
17.712536,-18.172695,-3.392731,0.000000,-0.000000,-1.000000
-24.390158,-3.006423,3.392731,0.000000,-0.000000,1.000000
2.759600,17.000062,1.251470,-0.098017,-0.995185,0.000000
7.292075,20.327443,3.392731,-0.000000,0.000000,1.000000
-35.394390,-30.935171,-1.511519,0.995185,-0.098019,0.000000
-6.273044,46.506918,3.392731,-0.000000,-0.000000,1.000000
24.090825,-36.097407,3.392731,-0.000000,0.000000,1.000000
35.241007,-38.666348,1.462283,0.675590,-0.737277,0.000000
39.759671,-2.986717,-3.392731,-0.000000,-0.000000,-1.000000
-20.192135,-43.416647,3.392731,0.000000,-0.000000,1.000000
-19.439835,18.717151,-3.392731,0.000000,0.000000,-1.000000
34.378769,0.586625,3.392731,0.000000,0.000000,1.000000
-22.345152,-47.348304,3.152562,-0.461748,-0.887011,0.000000
-3.917221,45.080532,-2.842092,0.995185,-0.098017,0.000000
22.796165,31.385002,3.392731,0.000000,-0.000000,1.000000
-28.089772,14.110228,3.392731,-0.000000,0.000000,1.000000
4.403440,25.614732,3.392731,0.000000,-0.000000,1.000000
-10.206086,-43.077213,3.392731,-0.000000,0.000000,1.000000
39.792826,-34.011673,1.107593,0.737277,-0.675590,0.000000
-3.968248,-44.562443,1.678268,0.995185,0.098017,-0.000000
45.981958,11.966312,-3.392731,0.000000,0.000000,-1.000000
35.717642,-26.299376,3.392731,0.000000,0.000000,1.000000
7.525410,-28.071568,-3.392731,0.000000,0.000000,-1.000000
10.306742,49.624119,3.392731,0.000000,-0.000000,1.000000
28.822361,7.301430,3.392731,0.000000,-0.000000,1.000000
-48.343695,16.589681,-3.392731,0.000000,0.000000,-1.000000
-9.217612,40.704304,3.392731,0.000000,0.000000,1.000000
33.565431,-27.508626,3.392731,0.000000,0.000000,1.000000
18.971184,-6.485575,3.392731,-0.000000,-0.000000,1.000000
21.872392,2.169696,3.392731,0.000000,-0.000000,1.000000
-26.127349,29.871926,3.392731,-0.000000,0.000000,1.000000
-27.769821,10.304180,-3.392731,0.000000,-0.000000,-1.000000
-51.057579,-11.407298,0.117851,-0.976296,-0.216440,0.000000
-44.664838,-15.914682,-3.392731,0.000000,0.000000,-1.000000
28.535003,-28.822612,2.286614,0.773009,-0.634395,0.000000
-31.587244,-25.816554,-3.392731,0.000000,-0.000000,-1.000000
-19.425566,-30.899856,-3.392731,0.000000,-0.000000,-1.000000
-10.658081,-20.430158,3.392731,0.000000,-0.000000,1.000000
41.451519,-3.326276,3.392731,-0.000000,-0.000000,1.000000
-45.597641,8.144784,-3.392731,0.000000,0.000000,-1.000000
47.497226,-9.440846,-3.392731,0.000000,-0.000000,-1.000000
-13.838679,-50.491848,1.203092,-0.300706,-0.953717,0.000000
-39.127016,-1.641451,3.392731,0.000000,-0.000000,1.000000
43.918730,7.943329,-3.392731,0.000000,0.000000,-1.000000
31.666287,23.653907,-3.392731,0.000000,0.000000,-1.000000
-9.554590,20.025847,3.392731,0.000000,-0.000000,1.000000
-6.092191,51.965685,2.862862,-0.130526,0.991445,0.000000
-44.823645,20.952178,-3.392731,0.000000,0.000000,-1.000000
-6.952919,-27.822812,3.392731,0.000000,-0.000000,1.000000
34.979545,-9.802568,-3.392731,0.000000,-0.000000,-1.000000
-3.864062,43.627661,0.244210,0.956940,0.290285,-0.000000
28.050667,-2.965555,3.392731,0.000000,-0.000000,1.000000
-14.005331,-27.125441,3.392731,0.000000,-0.000000,1.000000
0.059895,28.742626,3.392731,0.000000,-0.000000,1.000000
51.300694,-6.448936,3.392731,-0.000000,0.000000,1.000000
-29.895546,-42.985302,0.665879,-0.537300,-0.843391,0.000000
-6.974687,22.317719,3.392731,0.000000,-0.000000,1.000000
-3.959960,27.403455,3.392731,0.000000,-0.000000,1.000000
-11.987188,-33.651450,3.392731,-0.000000,0.000000,1.000000
18.197706,-23.881628,-3.392731,0.000000,0.000000,-1.000000
12.153651,22.931332,3.392731,-0.000000,0.000000,1.000000
42.639741,3.483249,-3.011233,0.471396,-0.881922,0.000000
21.468147,-13.171399,-3.392731,0.000000,0.000000,-1.000000
-17.895424,-29.195107,-3.392731,0.000000,-0.000000,-1.000000
-30.526177,-1.705070,-3.392731,0.000000,0.000000,-1.000000
35.006148,5.858751,-3.392731,0.000000,0.000000,-1.000000
32.849575,-19.036800,3.392731,-0.000000,0.000000,1.000000
-16.580856,-4.553465,-1.257708,0.956940,0.290284,-0.000000
-41.616417,14.981076,3.392731,-0.000000,-0.000000,1.000000
-1.644585,52.294338,-1.754408,-0.043619,0.999048,0.000000
16.209896,46.084874,3.392731,0.000000,-0.000000,1.000000
14.105120,-9.907555,1.637427,-0.773011,0.634393,0.000000
17.660210,1.490880,-3.392731,0.000000,0.000000,-1.000000
21.335759,4.422008,3.392731,0.000000,-0.000000,1.000000
-6.116483,51.962487,-1.990890,-0.130526,0.991445,0.000000
47.383560,2.733023,0.319416,-0.773011,-0.634393,0.000000
17.967601,15.173688,3.392731,-0.000000,0.000000,1.000000
-13.377492,-15.350177,-3.392731,0.000000,0.000000,-1.000000
10.831404,51.185252,0.072863,0.216440,0.976296,-0.000000
-0.786474,33.193681,3.392731,-0.000000,-0.000000,1.000000
-27.476773,-9.593106,3.392731,0.000000,-0.000000,1.000000
1.879702,-30.194678,-3.392731,0.000000,0.000000,-1.000000
31.503747,4.182466,-3.392731,0.000000,0.000000,-1.000000
-16.340654,24.901069,-3.392731,0.000000,0.000000,-1.000000
-10.714784,-14.138050,-3.392731,0.000000,0.000000,-1.000000
-12.813131,-44.256188,3.392731,-0.000000,0.000000,1.000000
19.443730,31.183325,-3.392731,0.000000,0.000000,-1.000000
-10.885060,25.004746,-3.392731,0.000000,0.000000,-1.000000
-28.666533,43.768270,1.469876,-0.537300,0.843391,0.000000
-14.125822,-11.501440,-3.392731,0.000000,0.000000,-1.000000
16.394284,35.585673,3.392731,-0.000000,0.000000,1.000000
-14.717074,22.760419,-3.392731,0.000000,0.000000,-1.000000
-26.060053,19.664444,-3.392731,0.000000,0.000000,-1.000000
-17.910904,9.010114,3.392731,-0.000000,0.000000,1.000000
35.191990,30.108476,3.268574,-0.956941,0.290282,0.000000
7.364126,15.553845,0.686613,-0.471397,-0.881921,0.000000
39.914283,-33.879126,-0.759017,0.737277,-0.675590,0.000000
-4.330244,44.888317,-3.392731,0.000000,0.000000,-1.000000
29.066970,6.908487,-3.392731,0.000000,0.000000,-1.000000
-19.703637,-8.501987,3.392731,-0.000000,0.000000,1.000000
-24.270994,40.649923,-3.392731,0.000000,0.000000,-1.000000
23.370707,-10.033952,-3.392731,0.000000,-0.000000,-1.000000
-24.491489,-34.713345,-3.392731,0.000000,-0.000000,-1.000000
23.050364,46.981194,0.936208,0.461748,0.887011,-0.000000
24.098887,-12.574733,3.392731,-0.000000,-0.000000,1.000000
18.060105,16.067016,3.392731,-0.000000,0.000000,1.000000
15.632298,7.217351,-1.259683,-0.881921,-0.471397,0.000000
-24.594266,-19.960772,-3.392731,0.000000,-0.000000,-1.000000
16.520645,9.400823,-3.392731,0.000000,-0.000000,-1.000000
39.327785,-15.505184,-3.392731,0.000000,-0.000000,-1.000000
-13.700897,-22.240353,-3.392731,0.000000,0.000000,-1.000000
-14.755570,-16.689417,3.392731,0.000000,-0.000000,1.000000
12.250748,-22.215794,-3.392731,0.000000,0.000000,-1.000000
14.901199,-44.669064,-3.392731,0.000000,0.000000,-1.000000
46.617494,3.357748,-0.135638,-0.471398,-0.881921,0.000000
35.515766,-27.503074,3.392731,0.000000,0.000000,1.000000
28.168193,-38.499515,-3.392731,0.000000,0.000000,-1.000000
50.033772,10.079716,-3.392731,0.000000,0.000000,-1.000000
3.676990,48.105955,-3.392731,0.000000,0.000000,-1.000000
-12.812702,-44.602565,3.392731,-0.000000,0.000000,1.000000
-14.434663,47.046916,3.392731,0.000000,0.000000,1.000000
30.656898,-12.601496,3.392731,-0.000000,0.000000,1.000000
-18.997857,29.793268,3.392731,-0.000000,-0.000000,1.000000
-16.436781,29.779261,3.392731,0.000000,-0.000000,1.000000
12.095896,15.675931,3.392731,0.000000,-0.000000,1.000000
-31.063191,20.674964,3.392731,-0.000000,-0.000000,1.000000
7.195657,-51.820411,2.509564,0.130526,-0.991445,0.000000
15.926016,-23.753255,-3.392731,0.000000,-0.000000,-1.000000
-4.304422,-19.985346,3.392731,0.000000,-0.000000,1.000000
51.872968,6.796447,-1.975644,0.991445,0.130526,0.000000
-47.528270,-12.466770,3.392731,0.000000,-0.000000,1.000000
39.206762,14.073992,3.392731,0.000000,-0.000000,1.000000
-44.031370,-17.933343,3.392731,0.000000,-0.000000,1.000000
34.344032,-25.701812,-3.392731,0.000000,-0.000000,-1.000000
-3.048320,-32.835200,3.392731,0.000000,-0.000000,1.000000
-50.484007,13.863546,-0.175334,-0.953717,0.300706,0.000000
-24.272262,-15.379042,3.392731,0.000000,-0.000000,1.000000
3.359161,-16.941011,2.007196,-0.098017,0.995185,0.000000
-30.544536,42.505608,-0.789358,-0.608761,0.793353,0.000000
-21.503880,47.719558,-3.035600,-0.382683,0.923880,0.000000
7.385203,-29.744593,-3.392731,0.000000,0.000000,-1.000000
13.596256,26.103162,-3.392731,0.000000,-0.000000,-1.000000
36.080945,14.179908,-3.392731,0.000000,0.000000,-1.000000
-41.296634,24.901540,3.392731,-0.000000,-0.000000,1.000000
-28.376952,-33.933176,-0.338595,-0.773010,0.634393,0.000000
-7.969411,27.825790,-3.392731,0.000000,0.000000,-1.000000
35.736455,12.687533,3.392731,0.000000,-0.000000,1.000000
-14.484990,13.710186,3.392731,-0.000000,-0.000000,1.000000
-0.631696,38.032534,-3.392731,0.000000,-0.000000,-1.000000
46.465789,19.172052,-3.392731,0.000000,0.000000,-1.000000
-43.032804,-29.820984,2.455414,-0.843391,-0.537300,0.000000
42.363928,30.729177,-3.289894,0.793353,0.608761,0.000000
-35.544123,20.066152,-3.392731,0.000000,-0.000000,-1.000000
23.211103,-1.370463,3.392731,0.000000,-0.000000,1.000000
33.534076,-9.563684,3.392731,-0.000000,-0.000000,1.000000
24.317526,42.097454,-3.392731,0.000000,-0.000000,-1.000000
-4.121292,50.175644,-3.392731,0.000000,0.000000,-1.000000
-5.890008,-47.134083,-3.392731,0.000000,-0.000000,-1.000000
-37.645786,32.379955,3.392731,-0.000000,-0.000000,1.000000
-33.935523,36.695354,-3.392731,0.000000,-0.000000,-1.000000
47.308767,-11.704139,3.392731,-0.000000,0.000000,1.000000
-4.332721,-16.647818,0.456499,0.290284,0.956940,0.000000
30.360877,3.915251,3.392731,0.000000,-0.000000,1.000000
-22.953938,-27.877420,-3.392731,0.000000,0.000000,-1.000000
28.129534,16.533518,-3.392731,0.000000,0.000000,-1.000000
-25.766373,-19.638958,-3.392731,0.000000,0.000000,-1.000000
-13.748546,10.731250,3.392731,-0.000000,0.000000,1.000000
-50.071522,15.171778,-0.043213,-0.953717,0.300706,0.000000
29.608308,22.915024,-3.392731,0.000000,0.000000,-1.000000
-14.175463,-15.409911,-3.392731,0.000000,0.000000,-1.000000
-3.944425,44.218119,-1.789802,0.995185,0.098017,-0.000000
10.137810,-36.670849,-3.392731,0.000000,0.000000,-1.000000
19.752781,27.426224,-3.392731,0.000000,0.000000,-1.000000
-2.724457,-21.524333,3.392731,0.000000,-0.000000,1.000000
10.132066,41.243662,3.392731,0.000000,-0.000000,1.000000
0.017995,-28.818211,-3.392731,0.000000,0.000000,-1.000000
29.511856,40.291592,3.392731,0.000000,0.000000,1.000000
-45.544171,25.810860,-3.141498,-0.887011,0.461748,0.000000
37.583551,17.298762,3.392731,0.000000,-0.000000,1.000000
22.261542,40.751080,3.392731,0.000000,-0.000000,1.000000
37.751024,5.754760,3.392731,0.000000,-0.000000,1.000000
-14.404259,-49.191388,-3.392731,0.000000,-0.000000,-1.000000
31.165652,-27.401452,3.392731,-0.000000,0.000000,1.000000
-15.965896,36.109918,-3.392731,0.000000,0.000000,-1.000000
43.892759,15.982750,3.392731,0.000000,-0.000000,1.000000
-43.782347,-17.927250,-3.392731,0.000000,0.000000,-1.000000
2.754543,-22.373446,-3.392731,0.000000,0.000000,-1.000000
26.742622,-2.399418,-3.392731,-0.000000,-0.000000,-1.000000
19.625066,32.828504,-3.392731,0.000000,0.000000,-1.000000
-10.876183,-41.920134,-3.392731,0.000000,-0.000000,-1.000000
-45.606656,-25.690828,1.423194,-0.887011,-0.461748,0.000000
-20.871711,-47.981410,-1.810109,-0.382683,-0.923880,0.000000
45.291306,-18.536222,-3.392731,0.000000,-0.000000,-1.000000
17.769224,-30.045812,-3.392731,0.000000,0.000000,-1.000000
-28.762627,-34.364142,-0.442425,-0.634393,0.773011,0.000000
12.062494,-38.381411,-3.392731,0.000000,0.000000,-1.000000
34.895743,-1.964675,3.392731,0.000000,0.000000,1.000000
-46.588033,-6.310863,-3.392731,0.000000,0.000000,-1.000000
-5.104346,-47.816280,3.392731,-0.000000,0.000000,1.000000
-3.968729,41.455286,3.392731,-0.000000,-0.000000,1.000000
-3.904705,-16.777655,2.245253,0.290284,0.956940,0.000000
-6.958230,27.346112,3.392731,0.000000,0.000000,1.000000
-31.698263,-1.942283,-3.392731,0.000000,0.000000,-1.000000
39.321870,27.000469,3.392731,0.000000,-0.000000,1.000000
18.580158,-16.441373,-3.392731,0.000000,0.000000,-1.000000
-38.399975,-35.531702,2.432456,-0.737277,-0.675590,0.000000
-17.177164,-0.961464,1.581226,0.995185,0.098017,0.000000
-31.893651,-11.653589,3.392731,0.000000,-0.000000,1.000000
20.189194,-48.264118,1.753081,0.382683,-0.923880,0.000000
-36.529343,-24.351117,-3.392731,0.000000,0.000000,-1.000000
36.637230,-27.363589,3.392731,0.000000,0.000000,1.000000
5.430573,16.314788,0.046045,-0.290284,-0.956940,0.000000
26.876034,14.619303,3.392731,-0.000000,0.000000,1.000000
6.772900,15.869862,-0.651632,-0.471397,-0.881921,0.000000
-13.206925,11.002009,3.342570,0.773011,-0.634393,0.000000
23.667174,-46.660103,2.147440,0.461748,-0.887011,0.000000
11.204443,-13.040792,2.979397,-0.634393,0.773011,0.000000
46.836007,14.768302,-3.392731,0.000000,0.000000,-1.000000
37.186238,9.919853,3.392731,0.000000,-0.000000,1.000000
-6.129782,40.322898,3.392731,0.000000,-0.000000,1.000000
-49.016683,8.310607,-3.392731,-0.000000,-0.000000,-1.000000
49.974312,15.480091,-0.221400,0.953717,0.300706,0.000000
-33.336898,39.356667,-3.392731,0.000000,0.000000,-1.000000
31.424568,41.830336,2.805349,0.608761,0.793353,-0.000000
15.168712,40.448207,-3.392731,0.000000,0.000000,-1.000000
52.283133,1.901224,0.099241,0.999048,0.043619,0.000000
-26.905858,34.400963,-3.392731,0.000000,0.000000,-1.000000
27.605423,15.541414,3.392731,-0.000000,0.000000,1.000000
33.311251,-2.204434,3.392731,0.000000,-0.000000,1.000000
-36.595350,37.425321,2.591065,-0.675590,0.737277,0.000000
27.824627,-37.699569,-3.392731,0.000000,0.000000,-1.000000
-31.448949,-41.811628,-2.483582,-0.608761,-0.793353,0.000000
42.080680,23.731272,3.392731,0.000000,-0.000000,1.000000
24.064717,-14.753417,3.392731,-0.000000,0.000000,1.000000
26.250938,-37.166290,-3.392731,0.000000,0.000000,-1.000000
-41.037713,-30.727975,-3.392731,0.000000,0.000000,-1.000000
-40.609330,-7.148683,-3.392731,0.000000,0.000000,-1.000000
-38.192563,-35.758053,-1.827409,-0.737277,-0.675590,0.000000
-26.167790,-5.139117,3.392731,0.000000,-0.000000,1.000000
-44.297991,-27.835039,-0.533732,-0.843391,-0.537300,-0.000000
-28.127103,-29.347958,2.597644,-0.881922,-0.471395,0.000000
-29.624561,-34.969117,1.764391,-0.471397,0.881921,0.000000
29.551105,43.204735,-3.125143,0.537300,0.843391,0.000000
-43.712985,23.809072,3.392731,-0.000000,-0.000000,1.000000
-37.827580,-18.865689,-3.392731,0.000000,-0.000000,-1.000000
2.653009,-47.449226,-0.695353,-0.634393,0.773011,0.000000
2.833458,-47.291621,2.924311,-0.773011,0.634393,0.000000
11.599058,-45.548577,3.392731,0.000000,-0.000000,1.000000
41.305707,-25.380052,-3.392731,0.000000,-0.000000,-1.000000
-16.165500,20.434214,3.392731,-0.000000,0.000000,1.000000
-41.152020,-2.103554,-2.173076,-0.881921,0.471397,0.000000
-24.424753,27.607205,-3.392731,0.000000,0.000000,-1.000000
-16.734079,-37.550645,-3.392731,0.000000,-0.000000,-1.000000
-36.192289,-30.838965,3.392731,0.000000,0.000000,1.000000
27.973395,-1.946135,3.392731,0.000000,-0.000000,1.000000
-31.667168,27.257502,-3.392731,0.000000,0.000000,-1.000000
1.245979,35.802091,-3.392731,0.000000,0.000000,-1.000000
16.001232,-6.464231,-1.863681,-0.956940,0.290284,0.000000
42.695362,30.297243,2.933884,0.793353,0.608761,-0.000000
-28.423216,12.710594,-3.392731,0.000000,0.000000,-1.000000
38.887956,0.841101,-3.392731,0.000000,-0.000000,-1.000000
-25.634772,-32.804343,3.392731,0.000000,-0.000000,1.000000
33.720774,-10.246578,3.392731,-0.000000,0.000000,1.000000
