x,y,z,nx,ny,nz
-21.523008,-19.273865,43.360664,0.000000,-0.000000,1.000000
-5.838194,-15.415325,32.274132,0.000000,-0.000000,-1.000000
22.630267,11.480243,-43.360664,0.000000,0.000000,-1.000000
16.415331,15.336046,42.747102,0.290283,0.956941,0.000000
-15.986270,15.550667,-42.747255,-0.634393,0.773010,0.000000
-2.211757,-19.725913,32.274132,0.000000,-0.000000,-1.000000
25.381852,18.104324,32.274132,0.000000,0.000000,-1.000000
5.397715,27.080723,32.274132,0.000000,0.000000,-1.000000
-1.594442,-23.297728,-36.970290,0.881921,-0.471398,0.000000
4.290775,0.923428,15.138424,-0.956940,-0.290285,0.000000
-14.162828,-23.562772,-32.274132,-0.000000,0.000000,1.000000
-4.926574,-16.609369,-32.274132,-0.000000,0.000000,1.000000
-17.504171,15.317040,-37.713862,0.290283,0.956941,-0.000000
-23.620475,3.020047,32.274132,-0.000000,-0.000000,-1.000000
28.042822,-13.634865,32.274132,0.000000,-0.000000,-1.000000
-33.185927,2.863816,-33.436518,-0.997859,0.065403,0.000000
-19.331496,6.725356,43.360664,0.000000,-0.000000,1.000000
-21.095491,25.793995,37.661348,-0.659346,0.751840,0.000000
-29.431422,9.711658,43.360664,0.000000,-0.000000,1.000000
33.283941,-1.368410,41.145602,0.997859,-0.065403,0.000000
16.764727,24.347068,32.274132,0.000000,0.000000,-1.000000
-25.974875,-1.967486,-43.360664,0.000000,0.000000,-1.000000
-6.560301,25.833972,32.274132,0.000000,0.000000,-1.000000
5.788452,-24.238371,-32.274132,0.000000,-0.000000,1.000000
11.200623,1.101837,-30.468444,0.997859,0.065403,0.000000
-29.871547,-3.410023,-32.274132,0.000000,-0.000000,1.000000
-5.842803,-32.792398,39.445955,-0.195091,-0.980785,0.000000
-6.300097,-32.701436,32.443020,-0.195091,-0.980785,0.000000
10.311410,-4.523474,6.230073,0.896873,-0.442288,0.000000
-29.002474,-4.138232,32.274132,0.000000,0.000000,-1.000000
-1.315074,-4.171970,-19.453746,0.290285,0.956940,-0.000000
1.670401,-11.136817,-18.962182,0.195090,-0.980785,0.000000
-18.975685,-8.050522,-32.274132,0.000000,-0.000000,1.000000
-25.324663,-21.630660,-37.705070,-0.751840,-0.659346,0.000000
-5.163797,-19.971688,32.274132,0.000000,-0.000000,-1.000000
-25.652657,16.395077,-43.360664,0.000000,0.000000,-1.000000
4.626518,17.724209,43.360664,-0.000000,-0.000000,1.000000
-3.585997,24.684365,-32.274132,0.000000,-0.000000,1.000000
2.855361,-10.901113,20.307665,0.195090,-0.980785,0.000000
-18.555133,-22.319928,-43.360664,0.000000,0.000000,-1.000000
-33.094776,-4.254522,-43.193153,-0.997859,-0.065403,-0.000000
-15.751509,-19.462516,-32.274132,0.000000,-0.000000,1.000000
-2.043836,-3.867256,-31.217220,0.471397,0.881921,-0.000000
-25.758872,-21.135540,41.299426,-0.751840,-0.659346,0.000000
-1.321815,-10.395294,-43.360664,0.000000,0.000000,-1.000000
-25.159516,-7.353562,-32.274132,0.000000,-0.000000,1.000000
-7.561212,-11.684196,-32.274132,0.000000,-0.000000,1.000000
9.874474,-5.731645,32.274132,0.000000,0.000000,-1.000000
-28.732659,-16.940869,-38.649673,-0.831470,-0.555570,-0.000000
-18.895388,19.357262,43.360664,0.000000,-0.000000,1.000000
24.982465,-18.392000,43.360664,-0.000000,0.000000,1.000000
7.160476,8.682002,-31.505340,0.659346,0.751840,0.000000
23.123780,12.089821,-43.360664,0.000000,0.000000,-1.000000
-16.077312,-22.286151,43.360664,0.000000,0.000000,1.000000
-14.404193,10.889961,43.360664,-0.000000,0.000000,1.000000
29.288894,-14.214134,32.274132,0.000000,-0.000000,-1.000000
0.892592,4.300129,19.679899,-0.290285,-0.956940,0.000000
-7.149366,32.532505,34.454049,-0.195091,0.980785,0.000000
-25.580282,21.339184,37.687630,-0.751840,0.659346,0.000000
-7.364370,-32.489738,37.769268,-0.195091,-0.980785,0.000000
-10.619415,31.563760,-33.048302,-0.321439,0.946930,0.000000
7.208400,8.639974,17.292328,0.659346,0.751840,-0.000000
16.664996,28.445892,-32.274132,0.000000,-0.000000,1.000000
-4.332793,0.634007,-15.808521,0.995185,-0.098017,0.000000
-27.690071,6.574703,-43.360664,0.000000,0.000000,-1.000000
0.148178,11.263128,11.349184,0.065403,0.997859,-0.000000
19.180472,-9.920341,32.274132,0.000000,-0.000000,-1.000000
10.888972,2.916400,20.560753,0.980785,0.195090,-0.000000
-27.420215,-5.089176,32.274132,0.000000,0.000000,-1.000000
33.196144,-2.707938,37.109533,0.997859,-0.065403,0.000000
17.231368,-28.538554,-43.209951,0.555570,-0.831470,0.000000
-15.736877,-18.222786,40.476554,-0.773010,0.634393,0.000000
3.132341,3.078123,41.063723,-0.773010,-0.634393,0.000000
30.529932,13.386531,36.153712,0.896873,0.442289,0.000000
20.820431,-26.035215,32.813203,0.659346,-0.751840,0.000000
-32.506356,1.722495,-43.360664,0.000000,0.000000,-1.000000
-16.946547,9.748004,-43.360664,0.000000,-0.000000,-1.000000
-5.199348,-12.250162,-43.360664,0.000000,0.000000,-1.000000
-24.533045,12.503268,32.274132,0.000000,0.000000,-1.000000
-29.169697,-0.023697,-43.360664,0.000000,0.000000,-1.000000
-3.516405,23.609017,32.274132,0.000000,0.000000,-1.000000
-27.201523,9.601911,-32.274132,-0.000000,-0.000000,1.000000
-23.127406,-22.369720,32.274132,0.000000,-0.000000,-1.000000
13.971991,25.678241,-32.274132,0.000000,-0.000000,1.000000
-17.837544,6.103243,43.360664,0.000000,-0.000000,1.000000
-1.324481,4.169117,19.458013,0.290285,-0.956940,0.000000
2.049702,21.598637,43.360664,-0.000000,-0.000000,1.000000
2.269010,-33.224912,43.025451,0.065403,-0.997859,0.000000
0.924183,33.313057,33.248381,0.065403,0.997859,0.000000
8.507848,7.359061,11.325089,0.751840,0.659346,-0.000000
-3.368742,-2.790067,20.033600,0.773010,0.634393,0.000000
1.723184,-27.287388,32.274132,0.000000,0.000000,-1.000000
-2.259048,-11.019727,-3.570336,-0.195090,-0.980785,0.000000
17.046326,15.237151,-38.831523,-0.098018,0.995185,0.000000
-3.350456,2.812349,29.196473,0.773010,-0.634393,0.000000
15.854443,-2.920683,43.360664,-0.000000,0.000000,1.000000
-22.846997,-20.842057,-32.274132,-0.000000,0.000000,1.000000
1.773605,-11.116288,26.571355,0.195090,-0.980785,0.000000
11.258049,0.225674,-23.792728,0.997859,0.065403,0.000000
3.281757,-10.765122,11.199407,0.321440,-0.946930,0.000000
0.580401,-4.338073,36.523580,-0.098017,0.995185,0.000000
-14.579442,0.618070,-43.360664,0.000000,-0.000000,-1.000000
-10.132224,-10.443270,32.274132,0.000000,0.000000,-1.000000
-12.899535,-5.393218,-32.274132,0.000000,-0.000000,1.000000
9.415080,-24.875668,-43.360664,0.000000,0.000000,-1.000000
4.258107,-1.031119,-14.503898,-0.956940,0.290285,0.000000
22.606930,-24.468498,-35.751886,0.659346,-0.751840,0.000000
12.878652,-30.780390,-37.404893,0.442289,-0.896873,0.000000
-4.609656,10.268910,-31.977505,-0.442288,0.896873,0.000000
29.378478,-15.721448,42.762002,0.896873,-0.442289,0.000000
-30.145542,-14.165997,35.081354,-0.896873,-0.442289,0.000000
25.674001,-0.608859,42.721095,-0.956940,0.290286,0.000000
13.594757,15.983113,32.274132,0.000000,-0.000000,-1.000000
-7.915894,8.019518,13.318895,-0.659346,0.751840,0.000000
-2.610263,-3.516303,10.348905,0.634393,0.773010,0.000000
19.830566,-16.413834,-32.274132,0.000000,0.000000,1.000000
4.986000,32.962827,-36.373202,0.195091,0.980785,-0.000000
-5.212972,9.971388,17.758030,-0.442288,0.896873,0.000000
-13.112102,-1.133888,43.360664,0.000000,-0.000000,1.000000
32.961171,-4.994323,38.478879,0.980785,-0.195091,0.000000
26.118970,-20.724927,-40.741088,0.751840,-0.659346,0.000000
9.935086,-31.796058,42.354280,0.321439,-0.946930,0.000000
2.752456,-33.193226,33.448752,0.065403,-0.997859,0.000000
-12.107490,-25.020116,43.360664,-0.000000,-0.000000,1.000000
2.315843,-28.090046,32.274132,0.000000,0.000000,-1.000000
22.020833,24.982491,-35.364828,0.659346,0.751840,-0.000000
-1.767701,-11.117462,-12.920838,-0.195090,-0.980785,0.000000
3.508981,10.687990,-6.504385,0.321440,0.946930,0.000000
25.225812,1.282852,40.249101,-0.634393,-0.773011,0.000000
16.653292,-6.051754,43.360664,-0.000000,0.000000,1.000000
-7.559824,-24.890894,43.360664,-0.000000,-0.000000,1.000000
-4.774032,13.110356,32.274132,0.000000,0.000000,-1.000000
-21.369234,23.402038,-32.274132,-0.000000,-0.000000,1.000000
29.391429,9.816651,-43.360664,0.000000,0.000000,-1.000000
1.233651,14.648710,-32.274132,-0.000000,0.000000,1.000000
1.489158,-24.957273,39.651973,-0.881922,0.471396,0.000000
15.939948,18.393475,40.492419,0.634392,-0.773012,0.000000
15.254909,-16.755531,-43.040456,0.995185,-0.098017,0.000000
-14.452705,-22.787826,-43.360664,0.000000,0.000000,-1.000000
7.875923,-32.347234,32.274132,0.000000,0.000000,-1.000000
-16.144927,-28.036586,-32.274132,0.000000,-0.000000,1.000000
20.288283,9.108434,-32.274132,0.000000,-0.000000,1.000000
-4.189729,14.385678,-32.274132,0.000000,-0.000000,1.000000
-21.737184,-0.045474,-43.360664,0.000000,0.000000,-1.000000
14.198037,11.289273,-32.274132,-0.000000,0.000000,1.000000
-17.131215,-28.605474,-34.991353,-0.555570,-0.831470,0.000000
-1.601704,-24.746712,41.237099,0.881922,0.471396,-0.000000
31.460903,4.316457,-43.360664,0.000000,0.000000,-1.000000
15.095202,3.184448,-43.360664,0.000000,0.000000,-1.000000
4.575364,-16.298811,-32.274132,0.000000,0.000000,1.000000
20.294628,-0.202061,-43.360664,0.000000,0.000000,-1.000000
30.480151,-5.831660,32.274132,0.000000,-0.000000,-1.000000
26.062416,20.789415,-42.933080,0.751840,0.659346,0.000000
10.556635,3.895939,-0.065811,0.946930,0.321440,-0.000000
-11.090571,-1.902891,29.743645,-0.980785,-0.195090,0.000000
10.066424,-31.386535,43.360664,0.000000,-0.000000,1.000000
8.406603,7.474508,5.140939,0.751840,0.659346,-0.000000
-28.204709,-11.117568,-32.274132,0.000000,-0.000000,1.000000
7.541492,-8.347860,-14.499414,0.659346,-0.751840,0.000000
-8.778388,-24.930462,-43.360664,0.000000,0.000000,-1.000000
15.361408,-17.650434,35.168279,0.956941,0.290283,0.000000
11.153478,-5.361679,-43.360664,-0.000000,-0.000000,-1.000000
30.987488,2.300555,32.274132,0.000000,0.000000,-1.000000
10.198395,10.924914,-32.274132,0.000000,-0.000000,1.000000
11.886319,-20.069478,-43.360664,0.000000,0.000000,-1.000000
23.663022,-1.718661,-35.070604,0.290285,0.956940,0.000000
2.822902,25.510043,43.360664,0.000000,0.000000,1.000000
18.446326,17.977812,-39.126668,-0.773012,-0.634392,0.000000
-22.939179,4.043626,32.274132,0.000000,0.000000,-1.000000
0.268596,17.287427,32.274132,0.000000,0.000000,-1.000000
14.269028,-3.450426,-43.360664,0.000000,-0.000000,-1.000000
-18.524186,16.145044,39.858049,0.881921,0.471396,0.000000
-0.638072,33.331809,-40.119246,-0.065403,0.997859,0.000000
28.509035,-5.952217,32.274132,0.000000,-0.000000,-1.000000
24.498612,22.572591,-39.307467,0.751840,0.659346,-0.000000
-2.014233,30.038216,43.360664,-0.000000,-0.000000,1.000000
-24.690859,-22.353375,36.985236,-0.751840,-0.659346,0.000000
14.869384,19.259218,-32.274132,0.000000,0.000000,1.000000
-11.264302,-30.933006,-43.360664,0.000000,0.000000,-1.000000
-6.110025,-32.739244,38.394089,-0.195091,-0.980785,0.000000
-9.510107,6.014253,28.073153,-0.831470,0.555570,0.000000
3.591054,2.519179,-16.048242,-0.773010,-0.634393,0.000000
22.192105,24.832290,38.764771,0.659346,0.751840,-0.000000
-2.397694,-33.216478,-38.804172,-0.065403,-0.997859,0.000000
3.713177,-10.618674,-4.431184,0.321440,-0.946930,0.000000
-9.358907,23.880756,-32.274132,0.000000,0.000000,1.000000
14.710880,20.641709,-32.274132,0.000000,-0.000000,1.000000
22.017906,-24.985058,-38.730747,0.659346,-0.751840,0.000000
-5.498972,23.776129,43.360664,-0.000000,-0.000000,1.000000
-11.251806,0.320932,27.341744,-0.997859,0.065403,0.000000
17.852025,4.199016,43.360664,-0.000000,0.000000,1.000000
-6.063069,-15.988729,-43.360664,0.000000,0.000000,-1.000000
-14.748500,-29.858283,-36.261224,-0.442289,-0.896873,0.000000
-1.797796,-3.998767,27.539224,0.471397,0.881921,0.000000
2.637036,18.897523,32.274132,0.000000,-0.000000,-1.000000
6.428019,-24.345955,32.274132,0.000000,0.000000,-1.000000
-16.829501,-5.375216,-32.274132,0.000000,-0.000000,1.000000
-11.219041,0.820820,8.672473,-0.997859,0.065403,0.000000
10.837105,3.069704,-21.809730,0.946930,0.321440,0.000000
10.621518,-3.704799,-28.546977,0.946930,-0.321440,0.000000
7.587268,-8.307715,-13.157085,0.659346,-0.751840,0.000000
-29.931708,-4.590738,-43.360664,0.000000,-0.000000,-1.000000
10.174356,4.801394,-12.713795,0.896873,0.442288,0.000000
-1.133377,4.227088,-26.857774,0.290285,-0.956940,0.000000
8.381515,-1.079272,-43.360664,-0.000000,-0.000000,-1.000000
3.451813,33.147388,40.152651,0.065403,0.997859,0.000000
-23.527827,11.677062,-43.360664,0.000000,0.000000,-1.000000
11.270589,-0.034348,12.408668,0.997859,-0.065403,0.000000
25.757415,-0.314426,-38.245154,-0.995185,0.098017,0.000000
5.541452,9.809400,-20.997835,0.442288,0.896873,0.000000
-4.236749,1.101529,43.351458,0.956940,-0.290285,0.000000
9.067193,-32.090668,-36.157363,0.321439,-0.946930,0.000000
-5.724595,26.183850,-43.360664,0.000000,0.000000,-1.000000
10.553479,3.905236,-0.280240,0.946930,0.321440,-0.000000
9.753789,-5.649556,5.744290,0.831470,-0.555570,0.000000
9.052471,6.699153,-20.429273,0.831470,0.555570,-0.000000
10.741814,3.350421,-18.382719,0.946930,0.321440,0.000000
4.581332,-19.222642,43.360664,-0.000000,-0.000000,1.000000
-3.347697,16.922013,32.274132,0.000000,0.000000,-1.000000
-16.923847,-23.379526,32.274132,0.000000,-0.000000,-1.000000
-2.682021,3.457414,-8.958784,0.634393,-0.773010,0.000000
-12.851950,-17.414652,43.360664,0.000000,-0.000000,1.000000
1.798156,-8.861619,43.360664,0.000000,0.000000,1.000000
22.568668,-19.912807,-43.360664,0.000000,-0.000000,-1.000000
1.245160,4.193179,-18.665589,-0.290285,-0.956940,0.000000
-4.369361,0.262723,35.131285,0.995185,-0.098017,0.000000
-5.778662,-9.667524,13.406044,-0.555570,-0.831470,0.000000
7.763080,-17.669885,-43.360664,0.000000,0.000000,-1.000000
14.837551,-20.113690,43.360664,-0.000000,0.000000,1.000000
-5.074062,-8.376710,-43.360664,0.000000,0.000000,-1.000000
24.006030,-23.134274,42.762801,0.751840,-0.659346,0.000000
-23.795413,6.323382,-32.274132,-0.000000,-0.000000,1.000000
31.746100,10.082257,38.617864,0.946930,0.321439,0.000000
-14.775150,13.991468,43.360664,0.000000,0.000000,1.000000
-10.547146,-3.923891,17.355708,-0.946930,-0.321440,0.000000
18.989782,11.753817,43.360664,-0.000000,-0.000000,1.000000
-5.775031,-18.892893,-32.274132,-0.000000,0.000000,1.000000
18.744465,16.930335,-32.544479,-0.995185,0.098017,0.000000
24.134678,-21.079402,-32.274132,0.000000,-0.000000,1.000000
-1.392593,-4.148456,1.564167,0.290285,0.956940,-0.000000
-10.799407,-10.613525,-43.360664,0.000000,0.000000,-1.000000
3.224620,-2.965680,36.564009,-0.773010,0.634393,0.000000
28.469514,-17.334693,39.046378,0.831470,-0.555570,0.000000
-17.224018,-2.290708,32.274132,0.000000,0.000000,-1.000000
2.799695,16.021141,-43.360664,0.000000,0.000000,-1.000000
6.955523,-29.420775,-43.360664,0.000000,0.000000,-1.000000
8.041289,-7.891069,20.704323,0.751840,-0.659346,0.000000
6.736512,-30.199351,-43.360664,0.000000,0.000000,-1.000000
-10.315302,3.973159,-43.360664,0.000000,0.000000,-1.000000
28.916151,-16.658956,-37.517540,0.896873,-0.442289,0.000000
-29.287947,15.905029,41.848269,-0.896873,0.442289,0.000000
22.286615,3.231281,43.360664,0.000000,0.000000,1.000000
8.748880,7.084217,24.701229,0.751840,0.659346,-0.000000
-29.284072,-15.912887,41.958349,-0.896873,-0.442289,0.000000
-13.667463,-28.703390,32.274132,0.000000,0.000000,-1.000000
17.993621,-15.548806,-32.716050,-0.634393,-0.773010,-0.000000
-10.670526,10.157581,43.360664,-0.000000,-0.000000,1.000000
-6.121381,-9.438526,14.060025,-0.555570,-0.831470,0.000000
14.975182,29.746496,-38.533201,0.442289,0.896873,0.000000
-33.013457,-4.731469,42.977668,-0.980785,-0.195091,0.000000
-3.276123,-33.158903,-40.819330,-0.065403,-0.997859,0.000000
-10.638113,-9.278818,43.360664,-0.000000,-0.000000,1.000000
3.982936,-28.411010,-32.274132,0.000000,0.000000,1.000000
-19.533987,-20.399937,32.274132,0.000000,0.000000,-1.000000
-10.186751,31.710629,35.693143,-0.321439,0.946930,0.000000
-9.767229,25.976423,-43.360664,-0.000000,-0.000000,-1.000000
16.571461,-28.959299,40.111735,0.442289,-0.896873,0.000000
-30.508581,13.429827,-42.233677,-0.896873,0.442289,0.000000
32.479286,-1.513744,43.360664,0.000000,-0.000000,1.000000
-15.787635,18.268476,35.361964,-0.634392,-0.773012,0.000000
-1.318820,-33.287191,40.682484,-0.065403,-0.997859,0.000000
-27.984431,-16.826970,-32.274132,0.000000,-0.000000,1.000000
16.374701,-18.633785,41.426339,0.290286,0.956940,-0.000000
9.137034,-6.572596,-19.070520,0.831470,-0.555570,0.000000
-4.021540,1.755191,5.472155,0.881921,-0.471397,0.000000
-3.775522,-10.597511,32.147710,-0.321440,-0.946930,0.000000
2.101859,-27.254101,-32.274132,-0.000000,-0.000000,1.000000
-30.386533,13.396353,-43.360664,0.000000,0.000000,-1.000000
24.586075,3.918697,43.360664,0.000000,-0.000000,1.000000
-19.325680,-23.861303,43.360664,0.000000,-0.000000,1.000000
-9.892445,-5.373053,-1.288904,-0.896873,-0.442288,0.000000
5.404051,-32.879671,-35.452203,0.195091,-0.980785,0.000000
-14.684055,-14.582153,43.360664,0.000000,-0.000000,1.000000
-22.432719,-0.727818,40.872045,-0.881920,0.471399,0.000000
0.856462,25.556548,34.209682,-0.471395,-0.881922,0.000000
32.235295,-1.287767,32.274132,0.000000,-0.000000,-1.000000
-28.105530,-17.879434,40.214289,-0.831470,-0.555570,0.000000
4.145262,1.403120,15.898624,-0.956940,-0.290285,0.000000
18.990296,10.644761,-32.274132,0.000000,-0.000000,1.000000
-20.016007,16.121317,32.274132,-0.000000,-0.000000,-1.000000
0.680560,8.530262,-43.360664,-0.000000,-0.000000,-1.000000
28.946399,-10.749694,-32.274132,-0.000000,0.000000,1.000000
-3.926881,28.177143,-32.274132,0.000000,-0.000000,1.000000
-27.532339,-3.189405,32.274132,0.000000,0.000000,-1.000000
-22.891047,-24.219333,42.506668,-0.659346,-0.751840,0.000000
0.464768,4.349461,-24.463275,-0.098017,-0.995185,0.000000
11.233771,-31.355214,-39.967238,0.321439,-0.946930,0.000000
11.229762,0.657252,-13.685964,0.997859,0.065403,0.000000
-11.254089,-0.286089,15.367195,-0.997859,-0.065403,-0.000000
1.610861,11.148660,10.884067,0.195090,0.980785,-0.000000
-4.326546,-0.697428,-5.890280,0.995185,0.098017,0.000000
-5.999319,-26.967156,32.274132,0.000000,-0.000000,-1.000000
10.413427,-16.700625,-43.360664,0.000000,0.000000,-1.000000
25.462303,21.473712,-42.575803,0.751840,0.659346,0.000000
4.914115,10.118768,-27.039030,0.442288,0.896873,0.000000
-16.932385,-23.892186,-32.274132,-0.000000,0.000000,1.000000
5.679898,-25.714275,43.360664,0.000000,0.000000,1.000000
2.751236,-29.765576,-43.360664,0.000000,0.000000,-1.000000
20.178717,20.901141,-43.360664,0.000000,0.000000,-1.000000
-0.424725,-11.594562,43.360664,-0.000000,-0.000000,1.000000
-12.131735,-31.050397,-37.076162,-0.321439,-0.946930,0.000000
0.551008,-22.366477,34.313248,-0.290286,-0.956940,0.000000
26.075910,14.534352,-43.360664,0.000000,0.000000,-1.000000
29.495984,15.464146,-32.274132,0.000000,-0.000000,1.000000
9.636011,-22.913132,-32.274132,0.000000,0.000000,1.000000
8.819901,22.308869,-32.274132,-0.000000,0.000000,1.000000
-33.223239,2.294535,41.633113,-0.997859,0.065403,0.000000
7.258713,-21.751992,43.360664,0.000000,-0.000000,1.000000
20.297673,1.998160,43.360664,-0.000000,0.000000,1.000000
-5.765550,-32.807764,-38.650613,-0.195091,-0.980785,0.000000
2.854845,3.315580,-40.507158,-0.634393,-0.773010,0.000000
-10.522125,-3.997603,15.529141,-0.946930,-0.321440,0.000000
-3.668174,25.416244,32.274132,0.000000,0.000000,-1.000000
0.015482,4.393712,34.554912,-0.098017,-0.995185,0.000000
-26.298092,0.281355,32.274132,0.000000,-0.000000,-1.000000
14.602960,-29.930055,-41.967204,0.442289,-0.896873,0.000000
-13.951506,19.419751,32.274132,0.000000,0.000000,-1.000000
-20.918945,10.388655,43.360664,0.000000,-0.000000,1.000000
15.282484,29.594952,37.952491,0.442289,0.896873,0.000000
22.297605,-24.739768,-41.115479,0.659346,-0.751840,0.000000
-11.142541,2.504033,32.274132,0.000000,-0.000000,-1.000000
-5.126915,-10.013827,21.319273,-0.442288,-0.896873,0.000000
-11.366869,23.298766,-32.274132,0.000000,0.000000,1.000000
5.739365,28.398014,32.274132,0.000000,0.000000,-1.000000
-24.806852,22.221111,-39.513389,-0.751840,0.659346,0.000000
-4.144307,-1.406269,4.575490,0.956940,0.290285,0.000000
-3.008070,-28.203472,-32.274132,0.000000,0.000000,1.000000
16.745608,11.296551,43.360664,-0.000000,-0.000000,1.000000
32.616472,6.727239,42.226624,0.980785,0.195091,-0.000000
8.616555,-7.235105,2.688695,0.751840,-0.659346,0.000000
4.541161,-13.995475,-32.274132,0.000000,0.000000,1.000000
0.647468,4.331467,-19.197147,-0.098017,-0.995185,0.000000
13.967489,23.760829,-32.274132,-0.000000,0.000000,1.000000
-10.523170,3.994524,-17.745068,-0.946930,0.321440,0.000000
-2.596972,3.527211,-28.288835,0.634393,-0.773010,0.000000
22.481421,-24.578566,40.472740,0.659346,-0.751840,0.000000
4.104908,1.536148,7.790599,-0.956940,-0.290285,0.000000
1.552864,-4.099838,35.126430,-0.290285,0.956940,0.000000
10.721024,3.411666,22.015937,0.946930,0.321440,-0.000000
9.776508,31.849888,37.242350,0.321439,0.946930,-0.000000
-15.680670,-15.827861,34.243636,-0.773010,-0.634393,0.000000
-20.337585,9.417436,-43.360664,0.000000,-0.000000,-1.000000
-28.948480,-16.593399,-35.958981,-0.896873,-0.442289,0.000000
-12.544425,-11.185632,32.274132,0.000000,-0.000000,-1.000000
12.923917,-29.233097,-43.360664,0.000000,0.000000,-1.000000
12.261219,-10.362454,-32.274132,-0.000000,0.000000,1.000000
-8.387742,-7.496015,5.578339,-0.751840,-0.659346,0.000000
0.155779,25.773041,-32.813119,-0.098017,-0.995185,0.000000
15.440850,-16.177077,41.625818,0.881920,-0.471398,0.000000
3.236943,-2.950664,13.675122,-0.773010,0.634393,0.000000
-0.911801,-33.313868,39.881724,-0.065403,-0.997859,0.000000
3.716073,-26.261938,-43.360664,0.000000,0.000000,-1.000000
6.287135,-12.160075,32.274132,0.000000,0.000000,-1.000000
-3.612307,-2.493283,-19.924994,0.773010,0.634393,-0.000000
-32.615931,6.729960,-32.350863,-0.980785,0.195091,0.000000
11.291462,3.671139,32.274132,0.000000,0.000000,-1.000000
21.553746,-7.940119,-32.274132,-0.000000,0.000000,1.000000
5.073482,22.709037,32.274132,0.000000,0.000000,-1.000000
-10.414434,-4.314562,-30.782734,-0.896873,-0.442288,-0.000000
8.746500,-22.576488,-43.360664,0.000000,0.000000,-1.000000
7.683957,-8.222921,4.811312,0.659346,-0.751840,0.000000
11.554029,31.246502,33.745896,0.321439,0.946930,0.000000
15.302495,-16.525935,-39.551837,0.956941,-0.290283,0.000000
9.656408,4.099709,43.360664,-0.000000,0.000000,1.000000
-19.051613,10.517719,43.360664,-0.000000,0.000000,1.000000
-12.395449,-24.301961,-32.274132,0.000000,-0.000000,1.000000
-19.413666,22.953903,-32.274132,0.000000,-0.000000,1.000000
-3.736380,14.679615,-43.360664,-0.000000,-0.000000,-1.000000
11.136733,1.670823,29.404312,0.980785,0.195090,-0.000000
4.183703,-1.276397,-16.546739,-0.956940,0.290285,0.000000
-4.745843,26.212779,32.274132,0.000000,0.000000,-1.000000
21.585412,25.364346,36.887727,0.659346,0.751840,-0.000000
-6.649855,9.085411,12.360823,-0.555570,0.831470,0.000000
18.120215,15.652699,-35.929203,-0.634393,0.773010,0.000000
-21.201906,7.017904,32.274132,0.000000,0.000000,-1.000000
-3.805645,10.587286,-18.654371,-0.321440,0.946930,0.000000
-1.422092,4.139507,-11.082771,0.290285,-0.956940,0.000000
-10.050238,31.756969,39.046080,-0.321439,0.946930,0.000000
31.389990,-10.458781,43.360664,-0.000000,0.000000,1.000000
1.988203,-3.896992,39.284780,-0.471397,0.881921,0.000000
7.491498,-32.464451,40.287493,0.195091,-0.980785,0.000000
20.512997,10.432668,32.274132,0.000000,0.000000,-1.000000
-14.271128,-5.441992,-32.274132,0.000000,-0.000000,1.000000
-1.599192,11.150981,-7.409960,-0.195090,0.980785,0.000000
11.889898,-31.132489,-42.358100,0.321439,-0.946930,0.000000
3.585828,-2.525548,40.727028,-0.773010,0.634393,0.000000
10.261986,4.623696,26.754768,0.896873,0.442288,-0.000000
18.464081,-17.949562,35.502074,-0.881923,0.471394,0.000000
-8.736056,30.357862,43.360664,-0.000000,-0.000000,1.000000
25.946753,2.563590,32.274132,0.000000,-0.000000,-1.000000
2.797185,-29.794194,-32.274132,-0.000000,-0.000000,1.000000
2.271244,-23.441864,-43.360664,0.000000,0.000000,-1.000000
-18.358025,-18.085408,-38.969156,0.773012,0.634392,-0.000000
1.329707,11.185687,-12.245395,0.065403,0.997859,0.000000
-1.439303,22.020029,43.360664,0.000000,0.000000,1.000000
-25.771269,-21.121404,-32.496238,-0.751840,-0.659346,0.000000
1.074118,-22.645483,-32.785184,-0.634392,-0.773011,0.000000
-10.824919,-31.073724,-32.274132,-0.000000,0.000000,1.000000
-16.309141,-29.038206,32.274132,0.000000,0.000000,-1.000000
13.534321,-14.024165,32.274132,0.000000,0.000000,-1.000000
11.013001,-2.292863,14.675791,0.980785,-0.195090,0.000000
-3.684544,2.385666,0.319833,0.881921,-0.471397,0.000000
-18.898079,13.478683,-32.274132,-0.000000,-0.000000,1.000000
-3.551671,10.673498,-15.717217,-0.321440,0.946930,0.000000
10.708064,-3.449843,20.258988,0.946930,-0.321440,0.000000
-6.293409,9.323581,-23.394716,-0.555570,0.831470,0.000000
-12.156815,24.979599,32.274132,0.000000,0.000000,-1.000000
-10.164990,-5.943829,43.360664,-0.000000,-0.000000,1.000000
-9.265388,-6.380500,-7.413194,-0.831470,-0.555570,-0.000000
-0.077249,-4.387629,12.317193,0.098017,0.995185,0.000000
-31.822848,9.856165,35.130375,-0.946930,0.321439,0.000000
-20.326318,-16.950456,43.360664,0.000000,-0.000000,1.000000
5.040040,10.056669,-32.059969,0.442288,0.896873,0.000000
-23.784834,11.000200,32.274132,0.000000,0.000000,-1.000000
2.645546,-3.487347,20.159037,-0.634393,0.773010,0.000000
-20.945560,-2.269810,43.360664,-0.000000,0.000000,1.000000
-11.373557,-15.816145,43.360664,-0.000000,-0.000000,1.000000
11.434804,31.286973,33.320041,0.321439,0.946930,0.000000
-30.145082,11.132869,43.360664,0.000000,-0.000000,1.000000
-23.124538,-6.274591,32.274132,0.000000,0.000000,-1.000000
-9.799929,5.560657,-24.331501,-0.896873,0.442288,0.000000
-21.905892,15.458365,-43.360664,0.000000,0.000000,-1.000000
-11.397926,-13.990132,-43.360664,0.000000,0.000000,-1.000000
-21.922096,-17.490466,-43.360664,0.000000,0.000000,-1.000000
-28.941636,-4.506993,-32.274132,0.000000,-0.000000,1.000000
-3.439228,-30.273138,-32.274132,0.000000,-0.000000,1.000000
-4.740635,-10.204319,17.514555,-0.442288,-0.896873,0.000000
5.361501,9.898141,-24.177456,0.442288,0.896873,0.000000
-19.152351,22.251546,43.360664,0.000000,-0.000000,1.000000
10.311311,4.523675,21.269640,0.896873,0.442288,0.000000
-27.118170,5.191362,43.360664,0.000000,-0.000000,1.000000
12.250138,24.383732,43.360664,-0.000000,-0.000000,1.000000
17.911834,18.484247,35.440749,-0.471394,-0.881923,0.000000
-17.054152,22.375379,-32.274132,-0.000000,-0.000000,1.000000
-14.190921,29.406230,43.360664,0.000000,-0.000000,1.000000
20.837295,4.826794,32.274132,0.000000,0.000000,-1.000000
30.375270,3.603590,-43.360664,0.000000,0.000000,-1.000000
11.015681,2.279392,-28.821072,0.980785,0.195090,0.000000
-22.771046,11.194899,-32.274132,-0.000000,-0.000000,1.000000
-12.682967,6.619452,32.274132,0.000000,-0.000000,-1.000000
20.146134,23.372363,-43.360664,0.000000,0.000000,-1.000000
15.745011,-15.749461,-40.436412,0.773010,-0.634393,0.000000
-6.329659,-32.695556,-36.668865,-0.195091,-0.980785,0.000000
3.132242,3.078244,41.890527,-0.773010,-0.634393,0.000000
-15.304562,16.519122,-42.856405,-0.956941,0.290283,0.000000
-3.902983,-1.976995,-37.214043,0.881921,0.471397,-0.000000
17.932630,28.069986,-38.346614,0.555570,0.831470,-0.000000
-24.977314,22.026736,-34.963945,-0.751840,0.659346,0.000000
-6.048950,24.850657,-32.274132,0.000000,0.000000,1.000000
-22.926423,8.151714,-43.360664,0.000000,-0.000000,-1.000000
-29.194536,-14.612120,-32.274132,-0.000000,0.000000,1.000000
30.925064,-12.500955,42.550495,0.946930,-0.321439,0.000000
8.586721,8.470017,43.360664,-0.000000,0.000000,1.000000
-5.230844,14.414934,-43.360664,0.000000,0.000000,-1.000000
-2.908989,-11.348648,32.274132,0.000000,0.000000,-1.000000
-8.924963,6.883433,-20.216463,-0.751840,0.659346,0.000000
-1.991187,-15.781157,43.360664,0.000000,0.000000,1.000000
-7.939775,7.998574,15.090544,-0.659346,0.751840,0.000000
18.325591,18.124928,38.918906,-0.773012,-0.634392,0.000000
-10.192476,24.146814,43.360664,0.000000,-0.000000,1.000000
11.771926,31.172535,38.014085,0.321439,0.946930,0.000000
5.757173,-30.753192,-32.274132,0.000000,-0.000000,1.000000
9.725236,15.998439,-43.360664,0.000000,0.000000,-1.000000
10.433146,-4.259726,4.893915,0.946930,-0.321440,0.000000
-3.141587,-27.431866,43.360664,-0.000000,-0.000000,1.000000
10.303380,-4.539759,3.517717,0.896873,-0.442288,0.000000
25.791778,13.072339,32.274132,0.000000,0.000000,-1.000000
-3.415245,2.733403,-0.364002,0.773010,-0.634393,0.000000
-32.712379,6.245086,-33.049560,-0.980785,0.195091,0.000000
-30.499509,6.172836,43.360664,0.000000,-0.000000,1.000000
-9.726220,-18.327380,43.360664,-0.000000,-0.000000,1.000000
2.586921,33.204075,-38.911542,0.065403,0.997859,0.000000
1.517063,-31.900622,-43.360664,0.000000,0.000000,-1.000000
-14.153400,-27.960199,-43.360664,0.000000,0.000000,-1.000000
-11.550502,-31.247699,38.945288,-0.321439,-0.946930,0.000000
3.886028,-2.008715,19.455334,-0.881921,0.471397,0.000000
-33.354985,0.284476,40.601424,-0.997859,0.065403,0.000000
-13.468604,-8.392230,32.274132,0.000000,0.000000,-1.000000
-8.322590,-7.570306,17.435479,-0.751840,-0.659346,0.000000
-5.293236,-9.931806,-23.556129,-0.442288,-0.896873,0.000000
-32.232215,-4.430068,32.274132,0.000000,0.000000,-1.000000
1.482415,4.121208,-2.453358,-0.290285,-0.956940,0.000000
0.287241,-26.674607,43.360664,0.000000,-0.000000,1.000000
11.241682,-0.475385,-29.246150,0.997859,-0.065403,0.000000
2.620822,33.201854,42.369497,0.065403,0.997859,-0.000000
10.281147,4.584841,-1.311125,0.896873,0.442288,0.000000
9.953841,-5.248554,32.171399,0.896873,-0.442288,0.000000
-16.174849,5.978012,32.274132,0.000000,0.000000,-1.000000
26.343707,1.340178,32.274132,0.000000,-0.000000,-1.000000
-12.862360,2.112186,-32.274132,-0.000000,0.000000,1.000000
-20.381258,-26.420360,-36.756485,-0.659346,-0.751840,0.000000
4.352530,-0.433617,-24.919556,-0.995185,0.098017,0.000000
-1.108003,11.200218,27.162040,-0.065403,0.997859,0.000000
32.159750,8.863685,-33.138702,0.946930,0.321439,0.000000
-1.970822,15.639300,-32.274132,0.000000,0.000000,1.000000
-7.822586,8.101347,11.105260,-0.659346,0.751840,0.000000
-18.624024,17.639636,33.528547,0.956940,-0.290286,0.000000
31.582626,-10.563837,-32.926138,0.946930,-0.321439,0.000000
8.646068,7.201451,21.881411,0.751840,0.659346,-0.000000
32.324162,-8.196776,36.961994,0.980785,-0.195091,0.000000
-14.661712,-9.855220,32.274132,0.000000,0.000000,-1.000000
-21.770378,25.202134,-40.039523,-0.659346,0.751840,0.000000
-2.697398,-33.196834,-35.303298,-0.065403,-0.997859,0.000000
-3.305296,33.156991,36.231259,-0.065403,0.997859,0.000000
-5.468352,-32.866881,-37.450004,-0.195091,-0.980785,0.000000
8.508778,-32.262101,39.120417,0.195091,-0.980785,0.000000
-12.415147,-17.231649,32.274132,0.000000,-0.000000,-1.000000
-8.591874,-19.460268,32.274132,0.000000,0.000000,-1.000000
-20.503478,-13.484763,43.360664,0.000000,-0.000000,1.000000
-11.104596,3.735003,-43.360664,0.000000,0.000000,-1.000000
-23.689387,-18.880715,-43.360664,0.000000,-0.000000,-1.000000
27.729286,-16.753495,-32.274132,-0.000000,0.000000,1.000000
-6.337282,25.677617,-43.360664,0.000000,-0.000000,-1.000000
-20.161448,21.491007,-43.360664,0.000000,0.000000,-1.000000
-24.055535,22.004244,-43.360664,0.000000,0.000000,-1.000000
33.139036,-3.579236,-42.429673,0.997859,-0.065403,0.000000
11.887356,21.129854,-32.274132,0.000000,-0.000000,1.000000
1.721042,-23.670872,-32.944672,-0.956940,-0.290285,0.000000
-13.181404,-5.753225,43.360664,0.000000,-0.000000,1.000000
-9.406607,10.817444,-32.274132,-0.000000,0.000000,1.000000
2.238650,-3.763126,12.214041,-0.471397,0.881921,0.000000
0.563694,-33.336684,-37.147104,0.065403,-0.997859,0.000000
4.568253,10.289328,-13.586334,0.442288,0.896873,-0.000000
1.699096,-24.459503,-35.615286,-0.956940,0.290285,0.000000
-18.728072,16.763893,-39.549555,0.995185,0.098017,0.000000
-26.376738,20.430999,-32.812799,-0.751840,0.659346,0.000000
9.559811,-5.939865,-10.062542,0.831470,-0.555570,0.000000
26.585771,11.642113,32.274132,0.000000,0.000000,-1.000000
-15.243408,17.109855,-43.128811,-0.995185,-0.098018,0.000000
14.145597,27.566191,-43.360664,0.000000,0.000000,-1.000000
-30.028367,14.403605,40.845279,-0.896873,0.442289,0.000000
3.106014,3.109451,-41.673184,-0.634393,-0.773010,0.000000
-15.003818,29.732375,36.235526,-0.442289,0.896873,0.000000
22.028039,-8.277267,-32.274132,-0.000000,0.000000,1.000000
-9.317855,23.951020,32.274132,0.000000,0.000000,-1.000000
-32.965192,-4.974111,42.996683,-0.980785,-0.195091,0.000000
-29.907595,8.486054,43.360664,0.000000,-0.000000,1.000000
7.508235,-8.377025,-6.211918,0.659346,-0.751840,0.000000
4.905032,-23.539045,-32.274132,0.000000,-0.000000,1.000000
-1.344633,-13.495985,43.360664,0.000000,0.000000,1.000000
30.243856,-13.344123,-43.360664,0.000000,-0.000000,-1.000000
-27.736780,-13.604464,-43.360664,0.000000,0.000000,-1.000000
19.279574,0.100058,-43.360664,0.000000,0.000000,-1.000000
-32.014536,2.959737,-32.274132,-0.000000,-0.000000,1.000000
1.928640,11.085450,6.337194,0.195090,0.980785,-0.000000
27.106107,-10.873158,32.274132,0.000000,-0.000000,-1.000000
-5.812539,29.666126,32.274132,0.000000,0.000000,-1.000000
-33.236128,2.097890,39.106965,-0.997859,0.065403,0.000000
7.169891,8.673745,-15.482509,0.659346,0.751840,0.000000
-11.964993,-16.314362,-32.274132,-0.000000,0.000000,1.000000
-26.571424,-20.175387,42.655183,-0.831470,-0.555570,0.000000
9.441679,18.798012,-32.274132,0.000000,-0.000000,1.000000
-27.110236,-8.562100,43.360664,-0.000000,0.000000,1.000000
9.899851,27.346161,-32.274132,0.000000,-0.000000,1.000000
3.836770,25.556741,43.360664,-0.000000,-0.000000,1.000000
10.354527,4.436041,-16.806990,0.896873,0.442288,0.000000
-3.297212,-2.877227,34.105740,0.773010,0.634393,0.000000
-12.588817,27.420461,32.274132,0.000000,0.000000,-1.000000
19.750069,-20.157249,32.274132,0.000000,0.000000,-1.000000
-29.420754,1.723339,43.360664,0.000000,-0.000000,1.000000
7.899408,8.033976,27.615199,0.659346,0.751840,0.000000
1.415239,25.064497,-42.768132,-0.773011,-0.634393,0.000000
2.093940,14.921043,43.360664,-0.000000,0.000000,1.000000
27.871772,-18.229278,-33.556456,0.831470,-0.555570,0.000000
-15.624465,11.707481,-32.274132,-0.000000,-0.000000,1.000000
31.924984,-9.555283,33.389699,0.946930,-0.321439,0.000000
1.817786,-10.286810,-43.360664,0.000000,0.000000,-1.000000
-30.843948,12.739913,38.017058,-0.946930,0.321439,0.000000
-11.605070,-31.229175,37.361256,-0.321439,-0.946930,0.000000
-25.733563,-0.412512,-42.611694,0.956940,0.290286,-0.000000
-14.461805,16.963621,-43.360664,0.000000,-0.000000,-1.000000
10.396835,12.672161,-43.360664,-0.000000,-0.000000,-1.000000
-25.709122,0.493081,38.563542,0.956940,-0.290286,0.000000
-13.453835,5.195915,-43.360664,0.000000,0.000000,-1.000000
-14.469868,-4.915719,-32.274132,0.000000,-0.000000,1.000000
-17.768760,15.421436,34.546461,0.471396,0.881922,-0.000000
-10.322731,15.413428,-43.360664,0.000000,0.000000,-1.000000
1.555141,-15.477911,-43.360664,0.000000,0.000000,-1.000000
-1.350688,33.285102,40.058342,-0.065403,0.997859,0.000000
-5.810734,-9.646094,-10.894621,-0.555570,-0.831470,0.000000
-3.187937,3.010379,-6.008888,0.773010,-0.634393,0.000000
-1.727994,24.347581,33.764816,0.995185,-0.098018,0.000000
-8.468510,7.403917,-19.013719,-0.751840,0.659346,0.000000
-8.235459,7.669660,-9.265193,-0.751840,0.659346,0.000000
-18.525626,16.147738,42.253456,0.881921,0.471396,0.000000
-18.543630,-10.768290,-43.360664,0.000000,0.000000,-1.000000
4.201650,1.217235,16.027928,-0.956940,-0.290285,0.000000
0.637695,-4.332430,40.431636,-0.098017,0.995185,0.000000
22.779473,-15.533319,-32.274132,-0.000000,0.000000,1.000000
19.561223,-20.509661,-43.360664,0.000000,0.000000,-1.000000
-24.877597,1.531745,42.048982,0.471396,-0.881922,0.000000
18.011539,-3.406990,43.360664,-0.000000,0.000000,1.000000
13.742666,-24.009633,32.274132,0.000000,0.000000,-1.000000
9.671561,5.772620,-16.982875,0.831470,0.555570,0.000000
4.211874,1.183530,1.013507,-0.956940,-0.290285,0.000000
-22.547995,-11.860440,32.274132,0.000000,-0.000000,-1.000000
7.043869,-24.693497,-43.360664,0.000000,0.000000,-1.000000
-2.661351,16.569242,32.274132,0.000000,0.000000,-1.000000
16.026474,21.948007,43.360664,-0.000000,-0.000000,1.000000
16.740811,26.360751,32.274132,0.000000,0.000000,-1.000000
12.954744,7.283319,32.274132,0.000000,0.000000,-1.000000
12.310404,14.526134,32.274132,0.000000,0.000000,-1.000000
31.631320,-10.420388,-37.092274,0.946930,-0.321439,0.000000
15.962682,-15.570025,42.412214,0.634393,-0.773010,0.000000
-5.130007,-32.934182,34.852567,-0.195091,-0.980785,0.000000
-27.162000,-11.274219,32.274132,0.000000,0.000000,-1.000000
8.547197,-32.254459,40.805767,0.195091,-0.980785,0.000000
-17.938574,-21.356172,-32.274132,0.000000,-0.000000,1.000000
25.328696,1.176290,40.910655,-0.773011,-0.634392,0.000000
8.166533,12.076410,43.360664,-0.000000,-0.000000,1.000000
-3.647267,2.450683,42.189833,0.773010,-0.634393,0.000000
-2.717172,10.928601,10.421059,-0.195090,0.980785,0.000000
2.068693,11.057591,9.556839,0.195090,0.980785,-0.000000
17.485600,-23.693526,-43.360664,0.000000,-0.000000,-1.000000
6.068135,-7.051617,43.360664,-0.000000,-0.000000,1.000000
-2.523654,-3.587382,-1.005689,0.634393,0.773010,0.000000
5.069637,-10.042073,31.464740,0.442288,-0.896873,0.000000
-17.993107,28.029576,39.066557,-0.555570,0.831470,0.000000
10.260370,-4.626974,0.797694,0.896873,-0.442288,0.000000
7.348051,-8.517503,1.773165,0.659346,-0.751840,0.000000
29.163844,-11.577831,-43.360664,0.000000,-0.000000,-1.000000
1.933219,3.926382,-36.109940,-0.471397,-0.881921,0.000000
8.584805,17.411718,-32.274132,0.000000,-0.000000,1.000000
-8.130009,24.079099,-43.360664,0.000000,-0.000000,-1.000000
22.270557,0.009268,-34.341619,0.995185,-0.098017,0.000000
9.424432,-6.142475,15.543705,0.831470,-0.555570,0.000000
10.507182,4.041622,-9.516029,0.946930,0.321440,-0.000000
2.652480,3.481657,-33.878622,-0.634393,-0.773010,0.000000
13.164380,-13.311266,-43.360664,0.000000,-0.000000,-1.000000
-18.518450,10.285417,32.274132,0.000000,0.000000,-1.000000
10.082500,4.987659,-8.470222,0.896873,0.442288,0.000000
-24.046858,-1.757612,41.513665,0.098018,0.995185,0.000000
11.043514,-2.139466,20.167576,0.980785,-0.195090,0.000000
14.113845,24.329024,-43.360664,0.000000,0.000000,-1.000000
10.868554,6.938422,43.360664,-0.000000,0.000000,1.000000
-9.623254,-29.920799,-43.360664,0.000000,0.000000,-1.000000
8.497487,7.370875,-5.393369,0.751840,0.659346,0.000000
24.472057,22.602871,36.747188,0.751840,0.659346,-0.000000
16.005990,-8.360265,-43.360664,0.000000,-0.000000,-1.000000
7.365228,-2.568631,-43.360664,0.000000,0.000000,-1.000000
-14.131388,2.566079,-43.360664,0.000000,0.000000,-1.000000
10.586029,3.809348,-14.479082,0.946930,0.321440,0.000000
-19.223073,-16.726091,32.274132,0.000000,-0.000000,-1.000000
11.683184,-31.202659,32.444210,0.321439,-0.946930,0.000000
-5.958153,9.547591,-10.553231,-0.555570,0.831470,0.000000
5.518773,14.599026,43.360664,-0.000000,-0.000000,1.000000
2.888263,-32.505909,-43.360664,0.000000,0.000000,-1.000000
11.896250,24.355672,43.360664,-0.000000,-0.000000,1.000000
4.062866,1.674744,-24.039102,-0.956940,-0.290285,0.000000
4.172814,-1.312294,38.509776,-0.956940,0.290285,0.000000
-12.355908,-23.191023,43.360664,-0.000000,-0.000000,1.000000
11.012204,2.296869,-12.209137,0.980785,0.195090,0.000000
14.260823,-29.214476,43.360664,0.000000,-0.000000,1.000000
-5.334450,-32.893516,-36.148135,-0.195091,-0.980785,0.000000
-19.435230,-19.454033,43.360664,0.000000,-0.000000,1.000000
-21.394736,25.531564,-40.818746,-0.659346,0.751840,0.000000
-13.384769,21.665703,43.360664,0.000000,-0.000000,1.000000
17.798523,28.159593,34.209057,0.555570,0.831470,0.000000
9.030442,6.732123,18.875632,0.831470,0.555570,-0.000000
-26.021137,14.753949,-32.274132,-0.000000,-0.000000,1.000000
13.675892,10.634943,-32.274132,-0.000000,0.000000,1.000000
-4.336156,0.599859,11.451197,0.995185,-0.098017,0.000000
0.548191,-25.692405,-42.434953,-0.290286,0.956940,0.000000
22.574608,-0.987756,38.792861,0.773011,0.634392,-0.000000
-0.789036,4.317524,-27.244984,0.098017,-0.995185,0.000000
-25.260547,-10.186810,43.360664,0.000000,-0.000000,1.000000
-2.004604,-11.070340,-25.858714,-0.195090,-0.980785,0.000000
24.611339,-22.444050,32.465205,0.751840,-0.659346,0.000000
0.254316,4.370189,15.104632,-0.098017,-0.995185,0.000000
-14.792152,-11.718482,43.360664,0.000000,-0.000000,1.000000
33.244804,1.965527,32.802742,0.997859,0.065403,0.000000
-0.069175,-22.276457,35.584494,0.098017,-0.995185,0.000000
-10.617852,31.564290,-37.993914,-0.321439,0.946930,0.000000
12.728000,16.604197,-43.360664,-0.000000,-0.000000,-1.000000
7.748980,-29.168584,43.360664,0.000000,0.000000,1.000000
-30.689558,9.834890,43.360664,0.000000,-0.000000,1.000000
-9.376591,31.669993,-43.360664,0.000000,0.000000,-1.000000
16.651910,-24.944025,-32.274132,-0.000000,0.000000,1.000000
-8.115500,-27.269413,32.274132,0.000000,-0.000000,-1.000000
-9.109948,-29.885364,-43.360664,0.000000,0.000000,-1.000000
-12.508252,-20.824050,-43.360664,0.000000,0.000000,-1.000000
-18.053941,5.514546,43.360664,-0.000000,0.000000,1.000000
-4.680145,10.234149,20.071469,-0.442288,0.896873,0.000000
-12.890614,14.224272,-32.274132,0.000000,0.000000,1.000000
33.005322,-4.772363,34.424162,0.980785,-0.195091,0.000000
-9.276795,-13.616638,32.274132,0.000000,-0.000000,-1.000000
-16.524815,-27.823618,-43.360664,0.000000,0.000000,-1.000000
-2.182452,11.034963,-10.141019,-0.195090,0.980785,0.000000
-28.321633,-15.515074,43.360664,0.000000,-0.000000,1.000000
-2.294849,-24.368600,43.360664,-0.000000,-0.000000,1.000000
-16.538675,15.031831,-43.360664,0.000000,0.000000,-1.000000
2.901310,15.399126,-32.274132,-0.000000,0.000000,1.000000
-14.817025,-22.621717,43.360664,0.000000,0.000000,1.000000
7.771208,20.751951,-43.360664,0.000000,-0.000000,-1.000000
28.252730,-0.666899,32.274132,0.000000,-0.000000,-1.000000
0.305177,-22.299701,38.233751,-0.098017,-0.995185,0.000000
-30.020547,-12.169329,-43.360664,0.000000,-0.000000,-1.000000
-1.304902,-11.187313,0.826766,-0.065403,-0.997859,0.000000
-29.675004,15.120154,33.614869,-0.896873,0.442289,0.000000
-4.278392,-0.964251,2.792754,0.956940,0.290285,-0.000000
-11.265655,0.109626,-17.896726,-0.997859,0.065403,0.000000
-3.713496,2.331501,-26.450186,0.881921,-0.471397,0.000000
15.669217,23.729575,-32.274132,0.000000,-0.000000,1.000000
15.270675,17.351324,-39.666607,0.956941,-0.290283,0.000000
-4.840152,32.599135,32.274132,0.000000,0.000000,-1.000000
-13.625369,11.739515,-32.274132,-0.000000,-0.000000,1.000000
-21.804681,-25.172051,-40.044919,-0.659346,-0.751840,-0.000000
9.854451,5.450098,31.588850,0.896873,0.442288,-0.000000
-15.274129,8.906624,-43.360664,0.000000,-0.000000,-1.000000
-25.943783,5.101699,43.360664,0.000000,-0.000000,1.000000
12.831809,30.803490,-40.648838,0.442289,0.896873,-0.000000
-20.016026,-24.383491,32.274132,0.000000,0.000000,-1.000000
-6.028466,9.500610,-16.871223,-0.555570,0.831470,0.000000
25.290153,-14.822029,-32.274132,-0.000000,-0.000000,1.000000
-29.373760,-15.731017,-34.468059,-0.896873,-0.442289,0.000000
7.690306,-27.723920,43.360664,0.000000,-0.000000,1.000000
-0.955644,-11.210205,12.564073,-0.065403,-0.997859,0.000000
3.803531,-10.588003,-23.587919,0.321440,-0.946930,0.000000
-17.938768,-14.863877,43.360664,0.000000,0.000000,1.000000
-2.288131,3.736677,-31.891151,0.471397,-0.881921,0.000000
18.478387,-17.922798,32.307180,-0.881923,0.471394,0.000000
-7.766173,8.150820,5.466160,-0.659346,0.751840,0.000000
-14.698547,22.762918,32.274132,0.000000,0.000000,-1.000000
22.759119,-1.212584,-36.549501,0.773011,0.634392,0.000000
-13.257582,-3.681635,-43.360664,0.000000,0.000000,-1.000000
-15.274940,16.616773,42.278619,-0.956941,0.290283,0.000000
0.773207,4.319083,-20.530815,-0.098017,-0.995185,0.000000
14.362141,5.332620,43.360664,-0.000000,-0.000000,1.000000
3.068333,10.837570,23.895904,0.321440,0.946930,-0.000000
-10.412230,-23.080616,-32.274132,0.000000,-0.000000,1.000000
3.116804,16.677654,-32.274132,-0.000000,0.000000,1.000000
12.119200,24.187091,-43.360664,0.000000,0.000000,-1.000000
12.279585,3.483423,-43.360664,0.000000,-0.000000,-1.000000
-3.965893,-1.859298,37.018452,0.881921,0.471397,0.000000
-5.030474,-8.133343,-43.360664,0.000000,0.000000,-1.000000
31.050118,-12.132555,34.743349,0.946930,-0.321439,0.000000
23.986140,-13.172935,32.274132,0.000000,-0.000000,-1.000000
1.045644,17.263393,32.274132,0.000000,0.000000,-1.000000
27.145120,3.826634,-43.360664,0.000000,0.000000,-1.000000
-8.529322,15.470411,32.274132,0.000000,0.000000,-1.000000
2.884284,-10.895360,8.117346,0.195090,-0.980785,0.000000
-9.246928,-6.408129,-23.151555,-0.831470,-0.555570,-0.000000
17.323834,24.303289,-32.274132,0.000000,-0.000000,1.000000
8.999175,-6.778916,-6.191328,0.831470,-0.555570,0.000000
-8.723653,7.112982,21.672527,-0.751840,0.659346,0.000000
-0.066838,20.257882,32.274132,0.000000,-0.000000,-1.000000
-16.388041,15.344325,42.340856,-0.290283,0.956941,0.000000
2.891715,3.285321,13.430329,-0.634393,-0.773010,0.000000
-20.620464,-26.210582,40.870617,-0.659346,-0.751840,0.000000
-18.592309,17.709662,39.738099,0.881923,-0.471394,0.000000
32.955205,5.024318,39.039173,0.980785,0.195091,0.000000
-20.044938,-6.450228,43.360664,0.000000,-0.000000,1.000000
8.553833,-20.760811,32.274132,0.000000,0.000000,-1.000000
-33.005538,2.710123,-43.360664,0.000000,0.000000,-1.000000
-8.334256,-7.557004,-28.476821,-0.751840,-0.659346,0.000000
17.365852,-19.735345,-43.360664,0.000000,0.000000,-1.000000
-4.173825,1.308962,-25.763774,0.956940,-0.290285,0.000000
-13.107846,19.177171,-32.274132,-0.000000,-0.000000,1.000000
-3.681902,-2.390609,37.745820,0.881921,0.471397,0.000000
12.367131,30.970490,34.172175,0.321439,0.946930,0.000000
-0.839508,26.514758,-43.360664,-0.000000,-0.000000,-1.000000
-9.134322,-6.576655,31.801148,-0.831470,-0.555570,0.000000
-8.357184,-7.530859,-1.849166,-0.751840,-0.659346,0.000000
5.306395,20.721636,-43.360664,-0.000000,-0.000000,-1.000000
-29.394031,-15.689911,-38.091988,-0.896873,-0.442289,0.000000
-17.414817,-20.432110,32.274132,0.000000,0.000000,-1.000000
-16.066323,0.135592,-43.360664,0.000000,-0.000000,-1.000000
0.987589,-25.483558,34.788837,-0.634392,0.773011,0.000000
16.539433,-18.683757,-35.349211,0.290286,0.956940,0.000000
29.056106,16.375155,-36.392322,0.896873,0.442289,-0.000000
23.462257,-9.289642,-43.360664,0.000000,-0.000000,-1.000000
15.248874,16.816800,-35.610544,0.995185,0.098017,0.000000
-16.901334,8.344770,-43.360664,0.000000,0.000000,-1.000000
9.056278,6.693457,-2.183155,0.831470,0.555570,-0.000000
-8.425860,7.452549,-6.468139,-0.751840,0.659346,0.000000
32.399631,7.817366,36.787894,0.980785,0.195091,-0.000000
3.070424,10.836860,-24.307119,0.321440,0.946930,-0.000000
1.016476,-4.262549,-9.884057,-0.290285,0.956940,0.000000
8.022219,-18.329334,32.274132,0.000000,0.000000,-1.000000
-8.087793,5.556764,-43.360664,0.000000,0.000000,-1.000000
6.921241,-14.104976,32.274132,0.000000,0.000000,-1.000000
12.983685,28.805428,-43.360664,0.000000,0.000000,-1.000000
10.999714,-2.359661,21.078049,0.980785,-0.195090,0.000000
10.693777,18.958549,32.274132,0.000000,0.000000,-1.000000
-32.085364,9.082819,36.640310,-0.946930,0.321439,0.000000
11.037199,2.171214,23.402722,0.980785,0.195090,-0.000000
24.194119,13.291550,32.274132,0.000000,0.000000,-1.000000
17.770845,-14.607574,-32.274132,0.000000,0.000000,1.000000
12.985401,10.668355,32.274132,0.000000,0.000000,-1.000000
-15.302807,-17.457249,-35.363326,-0.956941,0.290283,0.000000
4.389605,0.057185,-9.239016,-0.995185,-0.098017,0.000000
3.787205,10.593545,-31.694812,0.321440,0.946930,0.000000
-31.622308,-10.446937,-33.170600,-0.946930,-0.321439,0.000000
-20.764569,26.084205,-37.862209,-0.659346,0.751840,0.000000
-28.001939,-18.034469,34.606802,-0.831470,-0.555570,-0.000000
-1.001563,-22.585938,-34.475472,0.634392,-0.773011,0.000000
-16.412718,-15.046738,-32.274132,-0.000000,0.000000,1.000000
23.089521,19.637502,43.360664,-0.000000,-0.000000,1.000000
4.643204,23.085682,43.360664,-0.000000,0.000000,1.000000
7.723193,-3.353503,43.360664,0.000000,0.000000,1.000000
18.263316,27.849028,-33.124164,0.555570,0.831470,-0.000000
-10.541190,-17.862471,32.274132,0.000000,0.000000,-1.000000
4.297846,-0.900119,-25.967599,-0.956940,0.290285,0.000000
1.322908,4.169594,-9.081925,-0.290285,-0.956940,0.000000
15.256444,-24.937310,-32.274132,-0.000000,0.000000,1.000000
-29.292937,15.894910,-37.404548,-0.896873,0.442289,0.000000
