x,y,z,nx,ny,nz
-0.071584,-0.065543,0.291753,0.000000,0.000000,1.000000
0.250997,0.057915,-0.148766,0.866025,0.000000,-0.500000
-0.169727,0.027187,0.289530,-0.866025,0.000000,0.500000
-0.019564,-0.076431,-0.291753,-0.000000,0.000000,-1.000000
0.318912,-0.061628,0.031134,0.866025,0.000000,0.500000
0.122410,-0.109252,0.206889,0.000000,-1.000000,0.000000
0.293423,0.074232,-0.075282,0.866025,0.000000,-0.500000
0.219087,0.109252,-0.090276,0.000000,1.000000,0.000000
0.070791,-0.109252,-0.238793,0.000000,-1.000000,0.000000
0.262941,-0.093130,0.128078,0.866025,0.000000,0.500000
0.215722,0.067076,-0.209864,0.866025,0.000000,-0.500000
-0.292042,-0.096102,0.077673,-0.866025,0.000000,0.500000
-0.306621,0.016564,-0.052421,-0.866025,0.000000,-0.500000
-0.151420,0.109252,-0.104056,0.000000,1.000000,0.000000
0.108820,0.109252,0.127573,0.000000,1.000000,0.000000
0.234659,0.057233,-0.177064,0.866025,0.000000,-0.500000
-0.137399,0.020301,0.016361,0.992985,0.000000,-0.118242
-0.220298,0.054936,-0.201938,-0.866025,0.000000,-0.500000
-0.302098,0.004145,-0.060256,-0.866025,0.000000,-0.500000
0.284462,-0.089478,0.090802,0.866025,0.000000,0.500000
-0.238446,0.105429,-0.170505,-0.866025,0.000000,-0.500000
0.247211,-0.022334,0.155324,0.866025,0.000000,0.500000
0.258766,-0.021058,0.135309,0.866025,0.000000,0.500000
-0.065202,-0.027028,0.291753,0.000000,0.000000,1.000000
0.227227,-0.009606,-0.189937,0.866025,0.000000,-0.500000
0.189259,0.081101,-0.255700,0.866025,0.000000,-0.500000
0.080006,-0.064962,-0.291753,-0.000000,0.000000,-1.000000
0.137156,-0.104434,-0.018290,-0.991226,0.000000,0.132180
-0.179988,0.107561,0.271757,-0.866025,0.000000,0.500000
0.137504,0.095055,-0.015461,-0.993738,0.000000,0.111736
-0.158967,0.109252,0.157912,0.000000,1.000000,0.000000
0.187513,-0.055927,0.258723,0.866025,0.000000,0.500000
-0.069284,-0.101994,-0.291753,-0.000000,0.000000,-1.000000
0.313763,0.083509,0.040052,0.866025,0.000000,0.500000
0.206694,0.012063,0.225501,0.866025,0.000000,0.500000
-0.073273,-0.005187,0.291753,0.000000,0.000000,1.000000
0.291882,0.041319,-0.077951,0.866025,0.000000,-0.500000
-0.053576,0.109252,-0.178305,0.000000,1.000000,0.000000
0.196588,-0.097884,-0.243004,0.866025,0.000000,-0.500000
0.195760,0.104144,0.244439,0.866025,0.000000,0.500000
-0.236982,-0.018126,0.173041,-0.866025,0.000000,0.500000
-0.132585,0.074955,0.291753,0.000000,0.000000,1.000000
0.302335,-0.059945,-0.059846,0.866025,0.000000,-0.500000
0.235703,0.003267,0.175256,0.866025,0.000000,0.500000
0.006845,-0.098720,-0.138201,-0.049466,0.000000,0.998776
0.138027,-0.080774,0.009746,-0.997516,0.000000,-0.070438
-0.112211,0.109252,0.169805,0.000000,1.000000,0.000000
0.322929,-0.024432,0.024176,0.866025,0.000000,0.500000
-0.132892,0.073544,0.038548,0.960411,0.000000,-0.278587
0.174574,-0.026345,0.281134,0.866025,0.000000,0.500000
-0.098402,0.031205,0.097280,0.711149,0.000000,-0.703041
0.173176,0.042705,-0.283556,0.866025,0.000000,-0.500000
0.092486,0.061233,0.102921,-0.668393,0.000000,-0.743808
0.014617,0.039091,0.291753,0.000000,0.000000,1.000000
0.115865,-0.029574,0.291753,0.000000,0.000000,1.000000
0.320823,0.005394,0.027823,0.866025,0.000000,0.500000
-0.253686,-0.072743,-0.144109,-0.866025,0.000000,-0.500000
0.195224,-0.006174,0.245367,0.866025,0.000000,0.500000
-0.128491,-0.005329,0.291753,0.000000,0.000000,1.000000
-0.204758,-0.086326,-0.228854,-0.866025,0.000000,-0.500000
-0.048773,0.109252,0.132807,0.000000,1.000000,0.000000
0.314495,0.055498,0.038784,0.866025,0.000000,0.500000
0.069728,0.084003,-0.119517,-0.503926,0.000000,0.863747
0.229368,0.070790,-0.186228,0.866025,0.000000,-0.500000
0.158942,-0.109252,-0.076077,0.000000,-1.000000,0.000000
-0.136567,0.047771,0.022266,0.986968,0.000000,-0.160915
0.227450,0.109252,0.155570,0.000000,1.000000,0.000000
-0.209275,0.040755,-0.221030,-0.866025,0.000000,-0.500000
-0.011638,0.014475,-0.137880,0.084105,0.000000,0.996457
-0.064102,-0.055988,-0.291753,-0.000000,0.000000,-1.000000
-0.074653,0.100598,0.116504,0.539518,0.000000,-0.841974
0.094148,0.078145,-0.101403,-0.680405,0.000000,0.732837
-0.016297,0.071725,0.291753,0.000000,0.000000,1.000000
0.143281,-0.109252,-0.193769,0.000000,-1.000000,0.000000
0.018451,-0.071594,0.291753,0.000000,0.000000,1.000000
0.254423,-0.029846,-0.142831,0.866025,0.000000,-0.500000
-0.092148,0.033336,0.291753,0.000000,0.000000,1.000000
0.313441,0.061225,0.040609,0.866025,0.000000,0.500000
0.040331,-0.060038,0.291753,0.000000,0.000000,1.000000
0.196001,-0.059419,0.244021,0.866025,0.000000,0.500000
0.201662,-0.105647,-0.234216,0.866025,0.000000,-0.500000
0.047676,0.024592,-0.291753,-0.000000,0.000000,-1.000000
-0.170124,-0.021239,-0.288841,-0.866025,0.000000,-0.500000
-0.123969,0.092067,0.291753,0.000000,0.000000,1.000000
0.175286,0.098375,0.279902,0.866025,0.000000,0.500000
-0.084159,-0.018222,0.291753,0.000000,0.000000,1.000000
0.163536,-0.041986,0.291753,0.000000,0.000000,1.000000
-0.309137,-0.091400,0.048064,-0.866025,0.000000,0.500000
0.242565,0.040645,-0.163370,0.866025,0.000000,-0.500000
0.115226,0.054540,-0.291753,-0.000000,0.000000,-1.000000
-0.112563,-0.106658,-0.291753,-0.000000,0.000000,-1.000000
-0.322606,-0.037862,0.024735,-0.866025,0.000000,0.500000
0.175056,0.065445,0.280299,0.866025,0.000000,0.500000
0.304799,0.000738,-0.055577,0.866025,0.000000,-0.500000
0.166555,-0.103949,0.291753,0.000000,0.000000,1.000000
0.319554,0.037516,-0.030021,0.866025,0.000000,-0.500000
0.116928,-0.099852,-0.291753,-0.000000,0.000000,-1.000000
-0.260822,0.078758,0.131748,-0.866025,0.000000,0.500000
0.152161,0.109252,0.101249,0.000000,1.000000,0.000000
0.275778,-0.098424,-0.105843,0.866025,0.000000,-0.500000
0.129774,0.100785,-0.291753,-0.000000,0.000000,-1.000000
-0.048684,0.054633,0.291753,0.000000,0.000000,1.000000
0.134570,-0.037325,-0.291753,-0.000000,0.000000,-1.000000
-0.124902,-0.091594,-0.059547,0.902663,0.000000,0.430347
0.213154,0.002822,0.214312,0.866025,0.000000,0.500000
-0.131197,-0.021603,0.043974,0.948159,0.000000,-0.317797
-0.068811,-0.039499,0.291753,0.000000,0.000000,1.000000
0.289504,0.018808,-0.082069,0.866025,0.000000,-0.500000
-0.132700,0.090123,0.039206,0.959019,0.000000,-0.283341
0.036453,-0.075104,0.291753,0.000000,0.000000,1.000000
0.219961,-0.109252,0.056573,0.000000,-1.000000,0.000000
-0.104778,0.104744,0.291753,0.000000,0.000000,1.000000
0.207224,0.105022,-0.224583,0.866025,0.000000,-0.500000
0.131023,-0.074031,0.044490,-0.946899,0.000000,-0.321531
0.057780,0.036902,-0.291753,-0.000000,0.000000,-1.000000
-0.087047,0.047152,0.107560,0.629084,0.000000,-0.777337
0.017196,-0.000298,0.137298,-0.124274,0.000000,-0.992248
-0.268282,0.035947,-0.118826,-0.866025,0.000000,-0.500000
-0.327503,0.084853,-0.016253,-0.866025,0.000000,-0.500000
-0.155332,0.083463,0.291753,0.000000,0.000000,1.000000
0.184518,-0.078326,0.263910,0.866025,0.000000,0.500000
-0.241375,-0.001687,-0.165431,-0.866025,0.000000,-0.500000
-0.173091,-0.050007,-0.283703,-0.866025,0.000000,-0.500000
0.267609,0.017907,-0.119993,0.866025,0.000000,-0.500000
-0.276866,0.030480,-0.103958,-0.866025,0.000000,-0.500000
-0.034162,-0.109252,0.221578,0.000000,-1.000000,0.000000
-0.203285,0.061657,0.231406,-0.866025,0.000000,0.500000
0.228110,-0.014446,0.188408,0.866025,0.000000,0.500000
-0.040682,-0.028203,0.291753,0.000000,0.000000,1.000000
-0.225758,0.006973,-0.192480,-0.866025,0.000000,-0.500000
-0.178080,0.109252,0.002670,0.000000,1.000000,0.000000
0.294674,0.011036,-0.073114,0.866025,0.000000,-0.500000
-0.284968,0.013587,0.089927,-0.866025,0.000000,0.500000
-0.191496,-0.109252,-0.105519,0.000000,-1.000000,0.000000
-0.037215,-0.060777,-0.291753,-0.000000,0.000000,-1.000000
-0.180542,-0.109060,-0.270798,-0.866025,0.000000,-0.500000
-0.172896,0.064450,0.284040,-0.866025,0.000000,0.500000
-0.090519,-0.066743,-0.104655,0.654179,0.000000,0.756340
0.122657,-0.101583,0.291753,0.000000,0.000000,1.000000
0.142570,-0.016719,0.291753,0.000000,0.000000,1.000000
-0.039175,-0.042175,0.291753,0.000000,0.000000,1.000000
-0.216538,0.006949,0.208450,-0.866025,0.000000,0.500000
0.321624,0.106448,-0.026437,0.866025,0.000000,-0.500000
0.267569,0.008699,0.120061,0.866025,0.000000,0.500000
0.175982,0.022896,0.278695,0.866025,0.000000,0.500000
-0.335852,-0.068864,0.001793,-0.866025,0.000000,0.500000
-0.068104,0.012951,0.120450,0.492189,0.000000,-0.870488
0.031639,-0.027603,-0.291753,-0.000000,0.000000,-1.000000
-0.026189,0.021982,-0.291753,-0.000000,0.000000,-1.000000
-0.241341,-0.109252,-0.094529,0.000000,-1.000000,0.000000
0.210923,-0.018026,0.218176,0.866025,0.000000,0.500000
0.296285,-0.052048,-0.070325,0.866025,0.000000,-0.500000
0.136839,-0.066134,-0.020527,-0.988935,0.000000,0.148350
-0.319051,-0.102898,-0.030893,-0.866025,0.000000,-0.500000
0.063494,0.030367,-0.291753,-0.000000,0.000000,-1.000000
0.106045,-0.023827,0.291753,0.000000,0.000000,1.000000
-0.065700,0.109252,0.205093,0.000000,1.000000,0.000000
0.024547,-0.042995,-0.291753,-0.000000,0.000000,-1.000000
-0.074323,-0.057828,-0.291753,-0.000000,0.000000,-1.000000
-0.280695,-0.043492,0.097327,-0.866025,0.000000,0.500000
-0.119232,0.106825,-0.070215,0.861686,0.000000,0.507442
-0.016958,-0.057247,0.291753,0.000000,0.000000,1.000000
-0.229626,0.045226,-0.185781,-0.866025,0.000000,-0.500000
0.102627,-0.108679,-0.291753,-0.000000,0.000000,-1.000000
0.284570,-0.006668,0.090615,0.866025,0.000000,0.500000
0.241330,-0.041260,-0.165510,0.866025,0.000000,-0.500000
-0.270853,0.051515,0.114375,-0.866025,0.000000,0.500000
-0.093725,0.015683,0.291753,0.000000,0.000000,1.000000
0.219660,0.063438,-0.203043,0.866025,0.000000,-0.500000
0.191795,-0.040960,-0.251307,0.866025,0.000000,-0.500000
-0.319314,0.035512,0.030438,-0.866025,0.000000,0.500000
-0.288990,-0.082506,0.082960,-0.866025,0.000000,0.500000
-0.071043,-0.101109,-0.291753,-0.000000,0.000000,-1.000000
0.242938,-0.076134,0.162724,0.866025,0.000000,0.500000
-0.189139,0.077394,0.255907,-0.866025,0.000000,0.500000
0.328894,-0.081041,0.013844,0.866025,0.000000,0.500000
-0.110405,0.045683,0.083408,0.797899,0.000000,-0.602791
-0.203704,0.006429,0.230680,-0.866025,0.000000,0.500000
0.081376,0.081875,0.291753,0.000000,0.000000,1.000000
-0.093914,-0.109252,0.102250,0.000000,-1.000000,0.000000
0.283773,0.097957,-0.091997,0.866025,0.000000,-0.500000
0.023615,0.066154,0.136340,-0.170666,0.000000,-0.985329
0.007047,-0.046124,-0.291753,-0.000000,0.000000,-1.000000
-0.103058,0.068246,-0.092333,0.744801,0.000000,0.667286
0.335628,0.087723,-0.002180,0.866025,0.000000,-0.500000
0.042730,0.038033,-0.131607,-0.308811,0.000000,0.951123
0.102669,0.025045,0.291753,0.000000,0.000000,1.000000
0.246872,-0.035636,0.155910,0.866025,0.000000,0.500000
0.179471,0.071535,-0.272653,0.866025,0.000000,-0.500000
-0.285041,-0.011654,0.089799,-0.866025,0.000000,0.500000
-0.268329,-0.030990,-0.118746,-0.866025,0.000000,-0.500000
0.045038,0.018796,0.291753,0.000000,0.000000,1.000000
0.121177,0.103529,0.291753,0.000000,0.000000,1.000000
0.068034,0.071723,0.120489,-0.491682,0.000000,-0.870775
-0.145003,-0.109252,-0.071140,0.000000,-1.000000,0.000000
-0.295939,0.033203,-0.070924,-0.866025,0.000000,-0.500000
-0.231988,0.011132,0.181689,-0.866025,0.000000,0.500000
-0.074960,0.052782,-0.291753,-0.000000,0.000000,-1.000000
0.320245,-0.019644,-0.028824,0.866025,0.000000,-0.500000
0.150638,0.090283,0.291753,0.000000,0.000000,1.000000
-0.084107,-0.109252,-0.238235,0.000000,-1.000000,0.000000
-0.241103,-0.034180,-0.165903,-0.866025,0.000000,-0.500000
-0.014594,-0.047460,-0.291753,-0.000000,0.000000,-1.000000
-0.043323,0.072520,0.291753,0.000000,0.000000,1.000000
0.081993,-0.023412,-0.111460,-0.592565,0.000000,0.805523
0.212008,0.031059,-0.216297,0.866025,0.000000,-0.500000
0.137946,0.036480,0.010821,-0.996937,0.000000,-0.078204
0.317844,-0.002286,0.032983,0.866025,0.000000,0.500000
0.207642,0.027527,-0.223860,0.866025,0.000000,-0.500000
0.147935,-0.062921,-0.291753,-0.000000,0.000000,-1.000000
0.249760,-0.041362,0.150909,0.866025,0.000000,0.500000
0.122675,-0.007109,0.291753,0.000000,0.000000,1.000000
0.248142,0.065308,0.153710,0.866025,0.000000,0.500000
0.257463,0.096934,-0.137567,0.866025,0.000000,-0.500000
-0.322605,0.021393,-0.024737,-0.866025,0.000000,-0.500000
-0.148353,0.012576,0.291753,0.000000,0.000000,1.000000
-0.078699,-0.102772,-0.291753,-0.000000,0.000000,-1.000000
0.226053,-0.056837,0.191970,0.866025,0.000000,0.500000
-0.129329,-0.106120,0.049197,0.934659,0.000000,-0.355545
0.121038,-0.027727,-0.291753,-0.000000,0.000000,-1.000000
-0.108227,0.056961,-0.291753,-0.000000,0.000000,-1.000000
-0.101782,0.058133,-0.093737,0.735579,0.000000,0.677439
0.088742,-0.109252,0.207045,0.000000,-1.000000,0.000000
-0.120569,-0.109252,0.204700,0.000000,-1.000000,0.000000
0.307292,0.082611,0.051260,0.866025,0.000000,0.500000
0.024346,-0.025425,0.136212,-0.175949,0.000000,-0.984399
0.312004,0.062847,-0.043098,0.866025,0.000000,-0.500000
0.046216,-0.032642,-0.291753,-0.000000,0.000000,-1.000000
-0.267037,-0.004183,-0.120984,-0.866025,0.000000,-0.500000
0.325480,-0.090479,-0.019758,0.866025,0.000000,-0.500000
-0.271971,0.104543,-0.112437,-0.866025,0.000000,-0.500000
0.174662,0.001963,-0.280982,0.866025,0.000000,-0.500000
-0.178113,-0.011699,0.275004,-0.866025,0.000000,0.500000
0.306046,0.076792,0.053418,0.866025,0.000000,0.500000
-0.278257,0.093449,-0.101549,-0.866025,0.000000,-0.500000
0.182671,-0.101165,-0.267110,0.866025,0.000000,-0.500000
0.065101,0.086264,0.291753,0.000000,0.000000,1.000000
-0.178109,0.014922,0.275011,-0.866025,0.000000,0.500000
-0.306646,0.056786,0.052379,-0.866025,0.000000,0.500000
0.264329,0.028830,-0.125674,0.866025,0.000000,-0.500000
-0.207351,-0.109252,0.105240,0.000000,-1.000000,0.000000
0.118942,-0.015844,-0.070705,-0.859589,0.000000,0.510985
-0.267950,-0.075443,-0.119402,-0.866025,0.000000,-0.500000
-0.110655,-0.109252,-0.104158,0.000000,-1.000000,0.000000
-0.281161,0.010055,-0.096520,-0.866025,0.000000,-0.500000
-0.137840,-0.025353,-0.012102,0.996168,0.000000,0.087461
-0.250327,-0.055506,0.149926,-0.866025,0.000000,0.500000
0.033044,-0.109252,-0.153549,0.000000,-1.000000,0.000000
-0.091018,-0.004131,-0.104221,0.657785,0.000000,0.753205
0.021139,0.109252,0.180715,0.000000,1.000000,0.000000
0.134583,-0.021577,-0.032150,-0.972634,0.000000,0.232345
-0.133724,-0.012827,0.035556,0.966421,0.000000,-0.256962
0.058704,0.025291,-0.125300,-0.424250,0.000000,0.905545
-0.234030,0.079293,-0.178154,-0.866025,0.000000,-0.500000
0.192141,-0.007899,0.250708,0.866025,0.000000,0.500000
0.300188,-0.003547,-0.063565,0.866025,0.000000,-0.500000
0.299780,-0.052488,0.064271,0.866025,0.000000,0.500000
-0.242671,0.058656,-0.163186,-0.866025,0.000000,-0.500000
0.223822,0.107331,-0.195834,0.866025,0.000000,-0.500000
-0.173295,0.109252,-0.094297,0.000000,1.000000,0.000000
-0.235235,0.009151,-0.176067,-0.866025,0.000000,-0.500000
-0.114305,-0.027645,0.291753,0.000000,0.000000,1.000000
0.011516,0.109252,0.188532,0.000000,1.000000,0.000000
-0.305615,-0.090169,-0.054165,-0.866025,0.000000,-0.500000
0.173902,0.037118,0.282298,0.866025,0.000000,0.500000
-0.027589,0.087368,0.291753,0.000000,0.000000,1.000000
0.321622,0.011011,0.026439,0.866025,0.000000,0.500000
-0.049877,-0.057542,-0.291753,-0.000000,0.000000,-1.000000
-0.175391,-0.090707,-0.279719,-0.866025,0.000000,-0.500000
-0.209884,0.000860,-0.219976,-0.866025,0.000000,-0.500000
0.112122,0.051410,0.081086,-0.810307,0.000000,-0.586005
0.230475,0.109252,0.015778,0.000000,1.000000,0.000000
0.334250,-0.018562,-0.004566,0.866025,0.000000,-0.500000
0.311382,-0.050741,-0.044175,0.866025,0.000000,-0.500000
0.088000,-0.100802,0.106782,-0.635974,0.000000,-0.771710
0.141429,0.109252,0.132067,0.000000,1.000000,0.000000
-0.133132,0.086854,-0.037711,0.962145,0.000000,0.272536
0.069555,0.104161,0.119618,-0.502676,0.000000,-0.864475
0.313317,-0.052672,-0.040824,0.866025,0.000000,-0.500000
0.034842,-0.108899,-0.291753,-0.000000,0.000000,-1.000000
0.082664,-0.098336,0.110964,-0.597411,0.000000,-0.801935
0.117680,0.041276,0.072786,-0.850471,0.000000,-0.526021
-0.177612,-0.107297,0.275872,-0.866025,0.000000,0.500000
-0.313374,-0.020400,-0.040726,-0.866025,0.000000,-0.500000
-0.155582,0.097983,0.291753,0.000000,0.000000,1.000000
-0.091673,0.094940,-0.291753,-0.000000,0.000000,-1.000000
-0.225748,0.104390,-0.192498,-0.866025,0.000000,-0.500000
0.208737,0.025171,-0.221962,0.866025,0.000000,-0.500000
-0.160451,-0.002238,0.291753,0.000000,0.000000,1.000000
-0.333416,-0.074337,-0.006013,-0.866025,0.000000,-0.500000
0.113559,-0.109252,-0.179131,0.000000,-1.000000,0.000000
0.096393,-0.061687,-0.291753,-0.000000,0.000000,-1.000000
-0.242440,-0.018930,0.163587,-0.866025,0.000000,0.500000
-0.136664,0.060135,-0.021664,0.987668,0.000000,0.156565
-0.125939,0.109252,-0.097989,0.000000,1.000000,0.000000
0.241410,0.094260,-0.165370,0.866025,0.000000,-0.500000
0.140714,0.024779,-0.291753,-0.000000,0.000000,-1.000000
-0.311822,0.022366,0.043413,-0.866025,0.000000,0.500000
-0.142326,0.064797,-0.291753,-0.000000,0.000000,-1.000000
-0.138266,-0.109252,0.038194,0.000000,-1.000000,0.000000
-0.008872,0.090997,0.291753,0.000000,0.000000,1.000000
0.148723,0.025328,-0.291753,-0.000000,0.000000,-1.000000
0.182350,-0.109252,-0.134685,0.000000,-1.000000,0.000000
-0.087018,-0.098605,0.291753,0.000000,0.000000,1.000000
-0.096749,0.017091,0.098924,0.699207,0.000000,-0.714920
-0.170810,-0.109252,-0.031060,0.000000,-1.000000,0.000000
0.287265,0.086256,-0.085948,0.866025,0.000000,-0.500000
0.287076,-0.092012,0.086274,0.866025,0.000000,0.500000
0.291455,-0.051317,-0.078691,0.866025,0.000000,-0.500000
-0.253029,-0.107033,0.145247,-0.866025,0.000000,0.500000
-0.243512,-0.006729,0.161729,-0.866025,0.000000,0.500000
0.275827,-0.078730,0.105759,0.866025,0.000000,0.500000
0.105748,0.109252,0.092001,0.000000,1.000000,0.000000
-0.041380,-0.015138,-0.291753,-0.000000,0.000000,-1.000000
0.073717,0.010456,-0.291753,-0.000000,0.000000,-1.000000
-0.267793,-0.006645,-0.119674,-0.866025,0.000000,-0.500000
-0.225564,0.109252,0.127580,0.000000,1.000000,0.000000
-0.011332,-0.053836,0.291753,0.000000,0.000000,1.000000
-0.046351,-0.029549,0.291753,0.000000,0.000000,1.000000
0.272982,0.021787,-0.110687,0.866025,0.000000,-0.500000
-0.292652,0.028179,0.076618,-0.866025,0.000000,0.500000
-0.236734,-0.039256,-0.173470,-0.866025,0.000000,-0.500000
0.028762,0.050362,-0.291753,-0.000000,0.000000,-1.000000
-0.071033,-0.024528,-0.291753,-0.000000,0.000000,-1.000000
0.318978,-0.066009,-0.031020,0.866025,0.000000,-0.500000
-0.195332,-0.033330,0.245179,-0.866025,0.000000,0.500000
0.243081,-0.051280,0.162476,0.866025,0.000000,0.500000
0.006440,-0.078018,-0.291753,-0.000000,0.000000,-1.000000
-0.126517,-0.014597,-0.291753,-0.000000,0.000000,-1.000000
-0.120753,0.022812,-0.067565,0.872682,0.000000,0.488288
0.117735,0.004082,-0.291753,-0.000000,0.000000,-1.000000
0.262239,0.109252,-0.051817,0.000000,1.000000,0.000000
-0.086758,0.090996,0.291753,0.000000,0.000000,1.000000
0.087248,-0.081734,-0.107397,-0.630538,0.000000,0.776158
0.325601,-0.104125,-0.019547,0.866025,0.000000,-0.500000
-0.052406,-0.072538,0.291753,0.000000,0.000000,1.000000
-0.192247,-0.061427,0.250523,-0.866025,0.000000,0.500000
0.086352,0.074702,-0.108119,-0.624065,0.000000,0.781373
-0.241759,-0.006973,0.164766,-0.866025,0.000000,0.500000
0.246342,0.019118,-0.156828,0.866025,0.000000,-0.500000
0.079801,-0.084102,0.113040,-0.576722,0.000000,-0.816940
0.147460,-0.028093,-0.291753,-0.000000,0.000000,-1.000000
-0.231673,0.024037,-0.182235,-0.866025,0.000000,-0.500000
-0.064424,0.104637,-0.291753,-0.000000,0.000000,-1.000000
0.092073,-0.010853,0.103290,-0.665412,0.000000,-0.746477
0.239038,-0.025975,-0.169479,0.866025,0.000000,-0.500000
0.329941,-0.008351,0.012031,0.866025,0.000000,0.500000
-0.140716,-0.074713,-0.291753,-0.000000,0.000000,-1.000000
-0.251415,0.109252,0.132057,0.000000,1.000000,0.000000
-0.177068,-0.068308,0.276815,-0.866025,0.000000,0.500000
0.262025,0.090213,-0.129665,0.866025,0.000000,-0.500000
0.129521,0.109252,0.075445,0.000000,1.000000,0.000000
0.236008,-0.058487,-0.174727,0.866025,0.000000,-0.500000
-0.120649,-0.000535,-0.067750,0.871930,0.000000,0.489631
-0.018021,0.075861,0.291753,0.000000,0.000000,1.000000
0.047874,-0.057045,-0.291753,-0.000000,0.000000,-1.000000
-0.197940,-0.079560,-0.240663,-0.866025,0.000000,-0.500000
0.264907,-0.026194,-0.124672,0.866025,0.000000,-0.500000
0.128169,-0.098552,-0.052144,-0.926275,0.000000,0.376847
-0.270240,-0.003428,-0.115436,-0.866025,0.000000,-0.500000
-0.318240,-0.075982,0.032298,-0.866025,0.000000,0.500000
0.099798,-0.082344,-0.291753,-0.000000,0.000000,-1.000000
0.069835,-0.037957,0.291753,0.000000,0.000000,1.000000
0.217353,0.094436,0.207039,0.866025,0.000000,0.500000
-0.310332,0.083768,0.045995,-0.866025,0.000000,0.500000
0.309988,0.100001,-0.046590,0.866025,0.000000,-0.500000
-0.134485,0.098463,0.032559,0.971922,0.000000,-0.235302
-0.132409,-0.107329,-0.040178,0.956916,0.000000,0.290366
0.255762,0.107353,0.140512,0.866025,0.000000,0.500000
-0.050380,-0.083499,-0.128873,0.364097,0.000000,0.931361
-0.319786,0.055105,0.029619,-0.866025,0.000000,0.500000
-0.023079,-0.077456,-0.291753,-0.000000,0.000000,-1.000000
0.140594,-0.070549,0.291753,0.000000,0.000000,1.000000
-0.204228,-0.008105,-0.229772,-0.866025,0.000000,-0.500000
-0.020906,-0.026713,0.136782,0.151086,0.000000,-0.988521
-0.162944,-0.109252,-0.017629,0.000000,-1.000000,0.000000
0.026792,-0.089656,0.291753,0.000000,0.000000,1.000000
0.210198,-0.016113,-0.219431,0.866025,0.000000,-0.500000
-0.074816,0.097869,-0.116399,0.540696,0.000000,0.841218
-0.035326,-0.061006,-0.291753,-0.000000,0.000000,-1.000000
0.038280,0.108782,0.291753,0.000000,0.000000,1.000000
-0.067368,0.013939,0.291753,0.000000,0.000000,1.000000
-0.276221,0.073441,0.105076,-0.866025,0.000000,0.500000
-0.132673,0.035947,0.291753,0.000000,0.000000,1.000000
0.173987,0.040147,0.282151,0.866025,0.000000,0.500000
-0.327044,0.096707,-0.017049,-0.866025,0.000000,-0.500000
0.006324,-0.053515,-0.291753,-0.000000,0.000000,-1.000000
0.302894,-0.024258,0.058877,0.866025,0.000000,0.500000
-0.017070,0.015830,0.137313,0.123366,0.000000,-0.992361
0.251005,-0.011498,0.148752,0.866025,0.000000,0.500000
-0.321887,0.088039,0.025980,-0.866025,0.000000,0.500000
-0.116413,-0.012373,-0.291753,-0.000000,0.000000,-1.000000
-0.116621,0.027248,-0.074471,0.842817,0.000000,0.538200
-0.153259,-0.077681,-0.291753,-0.000000,0.000000,-1.000000
0.217298,0.019466,-0.207133,0.866025,0.000000,-0.500000
-0.011168,-0.109252,-0.144833,0.000000,-1.000000,0.000000
0.236850,0.007531,-0.173270,0.866025,0.000000,-0.500000
0.240343,-0.034938,-0.167219,0.866025,0.000000,-0.500000
-0.322139,-0.051601,0.025545,-0.866025,0.000000,0.500000
-0.015307,0.109252,0.238535,0.000000,1.000000,0.000000
-0.067446,0.109252,-0.185308,0.000000,1.000000,0.000000
0.014694,0.084177,-0.291753,-0.000000,0.000000,-1.000000
-0.072562,0.109252,0.184524,0.000000,1.000000,0.000000
0.233908,0.037371,0.178365,0.866025,0.000000,0.500000
0.077713,0.109252,-0.121673,0.000000,1.000000,0.000000
0.137603,-0.045664,0.014551,-0.994455,0.000000,-0.105161
0.195492,0.094108,-0.244904,0.866025,0.000000,-0.500000
-0.034259,-0.018066,-0.134062,0.247586,0.000000,0.968866
0.070219,-0.065155,0.291753,0.000000,0.000000,1.000000
-0.246343,-0.060581,-0.156827,-0.866025,0.000000,-0.500000
0.078889,-0.052837,0.113679,-0.570128,0.000000,-0.821556
-0.170555,-0.076359,0.288096,-0.866025,0.000000,0.500000
-0.187817,0.109252,-0.086082,0.000000,1.000000,0.000000
-0.132744,-0.033812,0.291753,0.000000,0.000000,1.000000
-0.057544,-0.109252,0.150358,0.000000,-1.000000,0.000000
-0.071428,0.096314,-0.118509,0.516207,0.000000,0.856464
0.245850,-0.018178,0.157681,0.866025,0.000000,0.500000
0.227490,-0.096794,-0.189481,0.866025,0.000000,-0.500000
0.175841,0.106013,-0.278940,0.866025,0.000000,-0.500000
-0.197364,0.033526,-0.241660,-0.866025,0.000000,-0.500000
-0.299087,-0.073469,-0.065471,-0.866025,0.000000,-0.500000
-0.021166,-0.038405,0.291753,0.000000,0.000000,1.000000
-0.207749,-0.074945,0.223674,-0.866025,0.000000,0.500000
-0.308455,0.011166,-0.049246,-0.866025,0.000000,-0.500000
-0.137183,-0.109252,-0.168338,0.000000,-1.000000,0.000000
0.272560,-0.011300,0.111417,0.866025,0.000000,0.500000
-0.213360,-0.017055,-0.213954,-0.866025,0.000000,-0.500000
-0.078120,0.046727,0.114209,0.564572,0.000000,-0.825384
0.287694,0.030396,-0.085204,0.866025,0.000000,-0.500000
-0.176548,-0.027557,0.277715,-0.866025,0.000000,0.500000
0.189069,0.092107,0.256027,0.866025,0.000000,0.500000
-0.182640,0.045739,0.267164,-0.866025,0.000000,0.500000
-0.179852,-0.101721,0.271993,-0.866025,0.000000,0.500000
0.191576,-0.081731,0.251686,0.866025,0.000000,0.500000
-0.291751,0.097235,0.078177,-0.866025,0.000000,0.500000
-0.026464,0.090352,0.291753,0.000000,0.000000,1.000000
0.079449,-0.085112,-0.291753,-0.000000,0.000000,-1.000000
-0.281002,-0.000196,0.096796,-0.866025,0.000000,0.500000
0.013251,-0.095216,-0.137734,-0.095762,0.000000,0.995404
-0.211190,0.010313,-0.217714,-0.866025,0.000000,-0.500000
0.134105,-0.071150,0.291753,0.000000,0.000000,1.000000
0.332248,-0.065376,0.008035,0.866025,0.000000,0.500000
-0.043397,0.109252,-0.204291,0.000000,1.000000,0.000000
0.043425,-0.103270,-0.291753,-0.000000,0.000000,-1.000000
0.101728,0.041919,-0.291753,-0.000000,0.000000,-1.000000
-0.209065,-0.104937,-0.221394,-0.866025,0.000000,-0.500000
-0.214398,-0.004285,-0.212157,-0.866025,0.000000,-0.500000
0.298882,-0.075624,0.065827,0.866025,0.000000,0.500000
-0.178571,-0.070989,0.274212,-0.866025,0.000000,0.500000
0.335932,0.038093,-0.001654,0.866025,0.000000,-0.500000
-0.207601,0.083164,0.223929,-0.866025,0.000000,0.500000
-0.272120,0.008789,0.112179,-0.866025,0.000000,0.500000
-0.026284,-0.060525,0.135851,0.189951,0.000000,-0.981793
0.255425,-0.007212,-0.141096,0.866025,0.000000,-0.500000
0.309632,0.024166,-0.047206,0.866025,0.000000,-0.500000
0.016314,-0.034749,0.291753,0.000000,0.000000,1.000000
0.330789,-0.095895,0.010561,0.866025,0.000000,0.500000
-0.275557,-0.086870,-0.106226,-0.866025,0.000000,-0.500000
0.114132,-0.109252,-0.105701,0.000000,-1.000000,0.000000
0.090675,-0.065651,0.104519,-0.655309,0.000000,-0.755361
-0.098755,-0.109252,0.120401,0.000000,-1.000000,0.000000
-0.076251,0.009362,0.291753,0.000000,0.000000,1.000000
0.102953,0.022348,0.291753,0.000000,0.000000,1.000000
-0.037051,0.072781,0.291753,0.000000,0.000000,1.000000
0.004481,-0.097511,-0.138298,-0.032382,0.000000,0.999476
0.052784,0.078509,0.291753,0.000000,0.000000,1.000000
-0.159309,0.109252,-0.095720,0.000000,1.000000,0.000000
0.041413,0.026786,-0.291753,-0.000000,0.000000,-1.000000
-0.272718,0.074765,0.111144,-0.866025,0.000000,0.500000
-0.124681,-0.109252,-0.179168,0.000000,-1.000000,0.000000
0.059786,0.109252,0.175067,0.000000,1.000000,0.000000
0.088044,0.084769,-0.106745,-0.636296,0.000000,0.771445
0.329228,0.080571,0.013265,0.866025,0.000000,0.500000
-0.111381,0.008341,-0.291753,-0.000000,0.000000,-1.000000
-0.088560,-0.037594,-0.291753,-0.000000,0.000000,-1.000000
0.198851,0.032614,0.239086,0.866025,0.000000,0.500000
-0.210688,-0.038471,0.218583,-0.866025,0.000000,0.500000
0.128248,0.066906,-0.051949,-0.926848,0.000000,0.375437
0.007009,-0.030590,0.138193,-0.050652,0.000000,-0.998716
-0.104586,-0.060600,-0.090599,0.755840,0.000000,0.654756
-0.230354,0.043438,0.184520,-0.866025,0.000000,0.500000
0.249730,-0.020926,-0.150960,0.866025,0.000000,-0.500000
-0.169187,0.109252,0.230258,0.000000,1.000000,0.000000
-0.055607,0.027567,-0.291753,-0.000000,0.000000,-1.000000
-0.072063,-0.073290,0.118124,0.520802,0.000000,-0.853678
-0.282773,0.109252,0.012247,0.000000,1.000000,0.000000
0.066084,0.069619,0.291753,0.000000,0.000000,1.000000
0.101638,-0.055457,-0.291753,-0.000000,0.000000,-1.000000
-0.175513,0.003703,0.279508,-0.866025,0.000000,0.500000
-0.108945,-0.084823,-0.085307,0.787344,0.000000,0.616514
0.065430,-0.066477,-0.291753,-0.000000,0.000000,-1.000000
-0.040473,-0.109252,-0.245450,0.000000,-1.000000,0.000000
0.229969,-0.072547,-0.185188,0.866025,0.000000,-0.500000
0.194920,0.109252,-0.014108,0.000000,1.000000,0.000000
-0.173378,0.041602,0.283206,-0.866025,0.000000,0.500000
-0.127436,-0.109252,-0.141014,0.000000,-1.000000,0.000000
-0.182300,0.109252,-0.164517,0.000000,1.000000,0.000000
0.122444,0.046689,0.291753,0.000000,0.000000,1.000000
-0.322095,-0.057417,0.025620,-0.866025,0.000000,0.500000
-0.329657,-0.072549,-0.012523,-0.866025,0.000000,-0.500000
-0.006020,0.056750,0.138239,0.043507,0.000000,-0.999053
0.094362,-0.059692,0.291753,0.000000,0.000000,1.000000
0.098152,0.016706,-0.097532,-0.709342,0.000000,0.704864
0.187866,-0.099607,-0.258111,0.866025,0.000000,-0.500000
0.272472,-0.088331,0.111569,0.866025,0.000000,0.500000
0.021202,-0.055725,0.136736,-0.153228,0.000000,-0.988191
0.172853,0.062917,0.284115,0.866025,0.000000,0.500000
-0.140519,0.109252,-0.003530,0.000000,1.000000,0.000000
-0.200049,0.061479,-0.237011,-0.866025,0.000000,-0.500000
0.228111,-0.081108,-0.188405,0.866025,0.000000,-0.500000
0.332558,-0.061454,-0.007497,0.866025,0.000000,-0.500000
-0.046218,0.009861,-0.130423,0.334019,0.000000,0.942566
-0.175927,0.005538,0.278791,-0.866025,0.000000,0.500000
0.132649,-0.059778,0.039378,-0.958652,0.000000,-0.284583
0.260069,0.047567,0.133052,0.866025,0.000000,0.500000
0.273146,0.004195,-0.110402,0.866025,0.000000,-0.500000
0.299968,0.074896,-0.063945,0.866025,0.000000,-0.500000
0.204210,0.006751,-0.229804,0.866025,0.000000,-0.500000
-0.083342,-0.074046,-0.110455,0.602315,0.000000,0.798259
0.067471,0.083470,0.120806,-0.487609,0.000000,-0.873062
-0.121359,-0.007163,0.291753,0.000000,0.000000,1.000000
0.285370,-0.094493,0.089229,0.866025,0.000000,0.500000
0.210529,-0.068102,-0.218859,0.866025,0.000000,-0.500000
0.304816,-0.103098,-0.055549,0.866025,0.000000,-0.500000
-0.219872,-0.005911,0.202675,-0.866025,0.000000,0.500000
-0.300698,-0.101952,-0.062681,-0.866025,0.000000,-0.500000
-0.135533,0.035864,-0.027876,0.979497,0.000000,0.201458
-0.232086,-0.023396,0.181521,-0.866025,0.000000,0.500000
0.095698,0.016731,0.291753,0.000000,0.000000,1.000000
-0.067632,-0.057669,-0.120715,0.488778,0.000000,0.872408
-0.300596,-0.045034,0.062858,-0.866025,0.000000,0.500000
0.187450,0.045835,-0.258832,0.866025,0.000000,-0.500000
-0.018295,-0.051899,0.291753,0.000000,0.000000,1.000000
0.113706,0.090116,-0.078850,-0.821751,0.000000,0.569847
-0.152304,-0.092796,0.291753,0.000000,0.000000,1.000000
0.094903,0.024881,0.291753,0.000000,0.000000,1.000000
-0.328174,-0.030805,0.015092,-0.866025,0.000000,0.500000
-0.113219,-0.000363,-0.079547,0.818234,0.000000,0.574886
-0.287527,0.078873,-0.085493,-0.866025,0.000000,-0.500000
0.247127,-0.027365,-0.155469,0.866025,0.000000,-0.500000
0.124035,0.095897,0.061332,-0.896400,0.000000,-0.443245
-0.252089,0.072525,0.146874,-0.866025,0.000000,0.500000
-0.099563,-0.109252,-0.101548,0.000000,-1.000000,0.000000
0.300118,0.007163,0.063686,0.866025,0.000000,0.500000
0.205024,-0.025630,-0.228394,0.866025,0.000000,-0.500000
-0.093596,0.109252,-0.260451,0.000000,1.000000,0.000000
0.289887,-0.094803,0.081406,0.866025,0.000000,0.500000
-0.199693,-0.109252,-0.111016,0.000000,-1.000000,0.000000
-0.212417,0.045259,-0.215587,-0.866025,0.000000,-0.500000
-0.266128,0.092431,-0.122558,-0.866025,0.000000,-0.500000
0.096839,0.018904,-0.291753,-0.000000,0.000000,-1.000000
0.164174,-0.109252,0.200186,0.000000,-1.000000,0.000000
0.238565,0.099098,-0.170299,0.866025,0.000000,-0.500000
-0.336594,-0.033533,-0.000508,-0.866025,0.000000,-0.500000
-0.305478,0.075297,-0.054402,-0.866025,0.000000,-0.500000
-0.091342,-0.059237,-0.103937,0.660129,0.000000,0.751152
-0.319585,-0.002745,0.029967,-0.866025,0.000000,0.500000
-0.278769,-0.070987,-0.100663,-0.866025,0.000000,-0.500000
-0.068591,-0.066201,-0.120173,0.495707,0.000000,0.868490
0.025489,0.063224,-0.291753,-0.000000,0.000000,-1.000000
0.278728,0.088698,0.100735,0.866025,0.000000,0.500000
-0.024370,-0.050039,0.291753,0.000000,0.000000,1.000000
0.298062,0.090124,-0.067246,0.866025,0.000000,-0.500000
-0.004844,0.012053,-0.291753,-0.000000,0.000000,-1.000000
-0.336260,0.081620,0.001086,-0.866025,0.000000,0.500000
-0.163398,-0.042429,0.291753,0.000000,0.000000,1.000000
0.040192,-0.044967,0.291753,0.000000,0.000000,1.000000
-0.232084,-0.109252,-0.098729,0.000000,-1.000000,0.000000
0.037755,-0.062308,-0.133120,-0.272857,0.000000,0.962055
-0.228401,-0.109252,0.024446,0.000000,-1.000000,0.000000
0.012064,-0.013870,0.291753,0.000000,0.000000,1.000000
-0.006891,0.036052,0.291753,0.000000,0.000000,1.000000
-0.002890,-0.103175,0.291753,0.000000,0.000000,1.000000
0.123503,0.031022,-0.291753,-0.000000,0.000000,-1.000000
-0.008791,0.049511,0.138091,0.063536,0.000000,-0.997980
0.310574,0.015459,-0.045575,0.866025,0.000000,-0.500000
0.326885,-0.006376,-0.017324,0.866025,0.000000,-0.500000
-0.020276,-0.039830,-0.136877,0.146531,0.000000,0.989206
-0.187136,-0.086234,-0.259376,-0.866025,0.000000,-0.500000
-0.113732,-0.109252,0.265655,0.000000,-1.000000,0.000000
-0.321550,-0.068407,0.026564,-0.866025,0.000000,0.500000
0.169160,-0.063114,0.290511,0.866025,0.000000,0.500000
0.101755,0.077861,0.093767,-0.735380,0.000000,-0.677655
0.102050,0.023186,-0.291753,-0.000000,0.000000,-1.000000
-0.049468,0.073137,0.129225,0.357506,0.000000,-0.933911
0.174896,-0.067584,0.280577,0.866025,0.000000,0.500000
0.249626,0.028382,0.151140,0.866025,0.000000,0.500000
0.131873,0.009025,-0.291753,-0.000000,0.000000,-1.000000
-0.028793,-0.037687,0.291753,0.000000,0.000000,1.000000
-0.124944,0.045216,0.291753,0.000000,0.000000,1.000000
-0.313910,-0.108505,-0.039797,-0.866025,0.000000,-0.500000
0.143278,0.027306,0.291753,0.000000,0.000000,1.000000
-0.000844,-0.086520,-0.291753,-0.000000,0.000000,-1.000000
-0.138163,0.109252,-0.255008,0.000000,1.000000,0.000000
-0.234002,-0.050412,-0.178202,-0.866025,0.000000,-0.500000
-0.225459,-0.061358,-0.192999,-0.866025,0.000000,-0.500000
0.279329,-0.046493,-0.099694,0.866025,0.000000,-0.500000
0.301728,0.042591,-0.060897,0.866025,0.000000,-0.500000
-0.305484,0.096798,0.054391,-0.866025,0.000000,0.500000
-0.183324,0.081826,-0.265978,-0.866025,0.000000,-0.500000
0.281354,-0.094262,-0.096186,0.866025,0.000000,-0.500000
0.297248,0.079069,-0.068657,0.866025,0.000000,-0.500000
0.310047,-0.106917,0.046488,0.866025,0.000000,0.500000
-0.041760,0.044990,0.291753,0.000000,0.000000,1.000000
-0.159168,0.022467,-0.291753,-0.000000,0.000000,-1.000000
-0.028136,-0.079713,-0.291753,-0.000000,0.000000,-1.000000
0.227649,0.006387,-0.189206,0.866025,0.000000,-0.500000
0.084175,0.033637,-0.109822,-0.608330,0.000000,0.793685
0.138121,0.011507,-0.008295,-0.998202,0.000000,0.059948
-0.330964,0.072012,-0.010259,-0.866025,0.000000,-0.500000
-0.305251,0.074378,-0.054795,-0.866025,0.000000,-0.500000
-0.283401,0.024024,-0.092639,-0.866025,0.000000,-0.500000
0.137647,0.091538,0.014128,-0.994774,0.000000,-0.102102
0.150873,0.070190,-0.291753,-0.000000,0.000000,-1.000000
0.283678,-0.108061,-0.092160,0.866025,0.000000,-0.500000
0.205245,0.051815,0.228011,0.866025,0.000000,0.500000
0.242277,-0.014620,-0.163870,0.866025,0.000000,-0.500000
0.147123,-0.006433,-0.291753,-0.000000,0.000000,-1.000000
0.084292,-0.061666,-0.291753,-0.000000,0.000000,-1.000000
-0.265128,-0.058861,-0.124291,-0.866025,0.000000,-0.500000
-0.242419,0.013250,0.163623,-0.866025,0.000000,0.500000
0.231303,0.017269,0.182877,0.866025,0.000000,0.500000
0.207967,-0.088913,0.223296,0.866025,0.000000,0.500000
0.309028,0.028573,-0.048254,0.866025,0.000000,-0.500000
-0.309409,0.087989,0.047592,-0.866025,0.000000,0.500000
0.004479,-0.039035,0.291753,0.000000,0.000000,1.000000
-0.113410,0.030528,0.291753,0.000000,0.000000,1.000000
0.209291,0.103560,0.221003,0.866025,0.000000,0.500000
-0.208940,-0.021751,-0.221610,-0.866025,0.000000,-0.500000
-0.156976,-0.019539,0.291753,0.000000,0.000000,1.000000
0.024822,0.082683,0.291753,0.000000,0.000000,1.000000
0.169952,0.050583,0.289139,0.866025,0.000000,0.500000
0.277942,0.080274,-0.102095,0.866025,0.000000,-0.500000
-0.273356,0.019690,0.110039,-0.866025,0.000000,0.500000
0.256396,-0.045610,0.139414,0.866025,0.000000,0.500000
-0.151866,-0.109252,-0.189843,0.000000,-1.000000,0.000000
-0.187903,-0.016762,-0.258048,-0.866025,0.000000,-0.500000
-0.310764,0.064939,0.045246,-0.866025,0.000000,0.500000
-0.252657,0.062544,0.145891,-0.866025,0.000000,0.500000
-0.072041,-0.088687,0.118137,0.520640,0.000000,-0.853776
0.091384,-0.078748,0.291753,0.000000,0.000000,1.000000
0.092909,-0.109252,-0.223322,0.000000,-1.000000,0.000000
-0.281364,-0.032060,0.096168,-0.866025,0.000000,0.500000
-0.147577,0.101879,0.291753,0.000000,0.000000,1.000000
0.134137,0.007447,-0.291753,-0.000000,0.000000,-1.000000
0.216100,-0.084263,0.209209,0.866025,0.000000,0.500000
-0.047455,-0.037582,-0.291753,-0.000000,0.000000,-1.000000
0.219515,-0.069474,0.203294,0.866025,0.000000,0.500000
0.209241,0.019473,-0.221089,0.866025,0.000000,-0.500000
-0.187996,0.032094,-0.257887,-0.866025,0.000000,-0.500000
-0.063044,0.109252,-0.274407,0.000000,1.000000,0.000000
0.239444,-0.109252,0.133889,0.000000,-1.000000,0.000000
0.151839,0.109252,-0.192957,0.000000,1.000000,0.000000
0.216997,0.044171,0.207656,0.866025,0.000000,0.500000
0.319620,-0.016120,-0.029906,0.866025,0.000000,-0.500000
0.139916,-0.109252,-0.078419,0.000000,-1.000000,0.000000
-0.050817,-0.008347,0.128701,0.367253,0.000000,-0.930121
-0.062834,0.092671,-0.123281,0.454101,0.000000,0.890950
0.209185,-0.109252,-0.193100,0.000000,-1.000000,0.000000
-0.202440,-0.069287,0.232869,-0.866025,0.000000,0.500000
0.120139,0.103224,0.291753,0.000000,0.000000,1.000000
-0.061316,0.109252,0.149975,0.000000,1.000000,0.000000
-0.091645,0.047686,0.103670,0.662321,0.000000,-0.749220
-0.148499,0.107311,-0.291753,-0.000000,0.000000,-1.000000
0.114441,-0.019720,0.077780,-0.827060,0.000000,-0.562113
0.328247,-0.098349,0.014964,0.866025,0.000000,0.500000
0.044456,0.100970,0.131034,-0.321283,0.000000,-0.946983
0.107712,-0.031060,0.291753,0.000000,0.000000,1.000000
0.166526,-0.039618,-0.291753,-0.000000,0.000000,-1.000000
0.152969,-0.109252,0.062141,0.000000,-1.000000,0.000000
-0.260504,-0.051556,-0.132300,-0.866025,0.000000,-0.500000
0.169713,-0.050189,0.289554,0.866025,0.000000,0.500000
-0.097366,-0.006801,-0.291753,-0.000000,0.000000,-1.000000
-0.107177,-0.109252,0.189055,0.000000,-1.000000,0.000000
-0.103798,0.015518,-0.091500,0.750147,0.000000,0.661271
-0.062779,-0.039098,0.291753,0.000000,0.000000,1.000000
-0.310194,-0.039740,0.046233,-0.866025,0.000000,0.500000
0.157687,0.083753,-0.291753,-0.000000,0.000000,-1.000000
-0.319479,0.015385,0.030152,-0.866025,0.000000,0.500000
0.192605,0.048777,0.249904,0.866025,0.000000,0.500000
0.264750,0.050378,0.124945,0.866025,0.000000,0.500000
-0.030914,0.109252,-0.194596,0.000000,1.000000,0.000000
-0.148840,0.047085,-0.291753,-0.000000,0.000000,-1.000000
-0.028051,0.108170,0.291753,0.000000,0.000000,1.000000
-0.334723,-0.014147,-0.003748,-0.866025,0.000000,-0.500000
-0.251089,0.089376,0.148607,-0.866025,0.000000,0.500000
-0.263873,0.065234,-0.126463,-0.866025,0.000000,-0.500000
-0.291386,0.069668,-0.078810,-0.866025,0.000000,-0.500000
-0.076171,0.108466,0.115517,0.550489,0.000000,-0.834842
-0.178890,0.107426,0.273658,-0.866025,0.000000,0.500000
-0.123502,0.050417,0.291753,0.000000,0.000000,1.000000
0.147416,-0.008152,0.291753,0.000000,0.000000,1.000000
0.097060,-0.108549,-0.291753,-0.000000,0.000000,-1.000000
-0.001371,-0.109252,0.147086,0.000000,-1.000000,0.000000
0.190161,0.005667,0.254137,0.866025,0.000000,0.500000
-0.117310,-0.109252,-0.156050,0.000000,-1.000000,0.000000
-0.227212,0.060444,-0.189962,-0.866025,0.000000,-0.500000
0.009113,-0.088523,0.138070,-0.065862,0.000000,-0.997829
-0.173116,-0.109252,-0.089828,0.000000,-1.000000,0.000000
-0.220925,-0.055957,-0.200851,-0.866025,0.000000,-0.500000
-0.293152,-0.070024,-0.075751,-0.866025,0.000000,-0.500000
-0.186737,-0.053088,-0.260067,-0.866025,0.000000,-0.500000
-0.112242,-0.041409,-0.291753,-0.000000,0.000000,-1.000000
-0.024057,0.041000,0.136263,0.173857,0.000000,-0.984771
0.189921,0.109252,-0.137262,0.000000,1.000000,0.000000
-0.062312,0.004994,-0.291753,-0.000000,0.000000,-1.000000
0.135145,0.109252,0.147651,0.000000,1.000000,0.000000
-0.265055,0.078993,0.124416,-0.866025,0.000000,0.500000
-0.112007,-0.109252,-0.145503,0.000000,-1.000000,0.000000
0.304060,0.094196,0.056858,0.866025,0.000000,0.500000
-0.165198,-0.109252,0.007239,0.000000,-1.000000,0.000000
-0.284656,0.034409,0.090467,-0.866025,0.000000,0.500000
0.203573,0.105980,0.230907,0.866025,0.000000,0.500000
0.007531,0.022986,0.291753,0.000000,0.000000,1.000000
-0.015206,0.109252,0.213300,0.000000,1.000000,0.000000
0.074122,-0.045478,-0.116843,-0.535682,0.000000,0.844420
0.091359,0.069031,-0.291753,-0.000000,0.000000,-1.000000
-0.192264,0.033083,0.250494,-0.866025,0.000000,0.500000
-0.124610,0.001757,0.291753,0.000000,0.000000,1.000000
-0.104034,0.088770,-0.091232,0.751852,0.000000,0.659332
-0.087607,-0.028490,-0.291753,-0.000000,0.000000,-1.000000
-0.003678,-0.071539,-0.291753,-0.000000,0.000000,-1.000000
-0.058498,-0.046626,-0.291753,-0.000000,0.000000,-1.000000
-0.173913,-0.053422,0.282278,-0.866025,0.000000,0.500000
0.212785,0.067777,-0.214950,0.866025,0.000000,-0.500000
-0.111201,0.052645,0.291753,0.000000,0.000000,1.000000
0.159871,0.090900,-0.291753,-0.000000,0.000000,-1.000000
-0.215230,-0.109252,0.105501,0.000000,-1.000000,0.000000
0.064753,-0.109252,0.217195,0.000000,-1.000000,0.000000
-0.236709,0.052413,-0.173513,-0.866025,0.000000,-0.500000
-0.227231,-0.068302,0.189929,-0.866025,0.000000,0.500000
-0.137845,0.109252,0.092432,0.000000,1.000000,0.000000
-0.191243,0.054037,0.252263,-0.866025,0.000000,0.500000
0.174936,0.046914,-0.280507,0.866025,0.000000,-0.500000
-0.176841,-0.102182,-0.277207,-0.866025,0.000000,-0.500000
-0.219966,0.006846,0.202512,-0.866025,0.000000,0.500000
-0.205490,-0.073342,0.227586,-0.866025,0.000000,0.500000
-0.053228,-0.109252,-0.258228,0.000000,-1.000000,0.000000
-0.298909,0.052717,-0.065779,-0.866025,0.000000,-0.500000
0.147393,0.000705,-0.291753,-0.000000,0.000000,-1.000000
-0.072402,-0.083822,0.117916,0.523251,0.000000,-0.852178
-0.045800,0.010239,0.291753,0.000000,0.000000,1.000000
-0.001336,-0.109252,-0.205583,0.000000,-1.000000,0.000000
-0.224345,0.081714,0.194929,-0.866025,0.000000,0.500000
0.315792,-0.106294,0.036537,0.866025,0.000000,0.500000
-0.006747,-0.109252,0.229047,0.000000,-1.000000,0.000000
0.120575,-0.092873,-0.291753,-0.000000,0.000000,-1.000000
-0.329241,-0.004890,0.013243,-0.866025,0.000000,0.500000
-0.120072,-0.018695,0.291753,0.000000,0.000000,1.000000
-0.026009,-0.090371,0.291753,0.000000,0.000000,1.000000
-0.069456,0.053437,-0.119675,0.501959,0.000000,0.864891
0.239619,-0.066415,0.168472,0.866025,0.000000,0.500000
0.298458,0.002204,0.066561,0.866025,0.000000,0.500000
0.018068,0.081616,0.291753,0.000000,0.000000,1.000000
0.134222,-0.109252,0.226686,0.000000,-1.000000,0.000000
-0.031813,-0.109252,0.230049,0.000000,-1.000000,0.000000
0.228038,-0.039503,-0.188531,0.866025,0.000000,-0.500000
0.214818,-0.036833,-0.211429,0.866025,0.000000,-0.500000
-0.011399,-0.086922,-0.137900,0.082379,0.000000,0.996601
0.261000,-0.059676,0.131441,0.866025,0.000000,0.500000
-0.217248,0.067164,-0.207220,-0.866025,0.000000,-0.500000
0.205073,-0.089958,0.228309,0.866025,0.000000,0.500000
-0.100841,-0.090012,-0.094749,0.728777,0.000000,0.684751
0.211384,-0.105542,-0.217377,0.866025,0.000000,-0.500000
0.279507,0.067830,0.099385,0.866025,0.000000,0.500000
0.316121,-0.036825,0.035967,0.866025,0.000000,0.500000
0.188631,0.088787,-0.256787,0.866025,0.000000,-0.500000
0.186354,0.037382,0.260731,0.866025,0.000000,0.500000
-0.187595,0.007265,0.258581,-0.866025,0.000000,0.500000
-0.068790,0.090692,0.291753,0.000000,0.000000,1.000000
-0.064936,-0.109252,-0.155647,0.000000,-1.000000,0.000000
0.042226,-0.109252,0.140896,0.000000,-1.000000,0.000000
-0.336074,-0.071872,0.001409,-0.866025,0.000000,0.500000
-0.061733,-0.094875,0.291753,0.000000,0.000000,1.000000
0.221854,-0.059236,0.199242,0.866025,0.000000,0.500000
0.206663,-0.056899,-0.225554,0.866025,0.000000,-0.500000
-0.300766,0.069944,-0.062564,-0.866025,0.000000,-0.500000
0.210760,0.109252,-0.181800,0.000000,1.000000,0.000000
-0.284178,-0.108197,-0.091294,-0.866025,0.000000,-0.500000
0.318716,0.053696,0.031473,0.866025,0.000000,0.500000
-0.023198,-0.109252,-0.280237,0.000000,-1.000000,0.000000
-0.188857,0.065918,0.256395,-0.866025,0.000000,0.500000
-0.200352,-0.012865,-0.236485,-0.866025,0.000000,-0.500000
0.015150,-0.109252,-0.281523,0.000000,-1.000000,0.000000
0.122707,0.109252,0.158999,0.000000,1.000000,0.000000
-0.177081,0.095654,-0.276791,-0.866025,0.000000,-0.500000
0.220118,0.101639,0.202249,0.866025,0.000000,0.500000
-0.323477,0.025389,-0.023226,-0.866025,0.000000,-0.500000
0.330321,0.066597,-0.011372,0.866025,0.000000,-0.500000
0.121321,0.046220,-0.066540,-0.876783,0.000000,0.480885
-0.291905,0.072434,-0.077911,-0.866025,0.000000,-0.500000
0.023608,-0.109252,-0.174158,0.000000,-1.000000,0.000000
-0.139812,0.083481,-0.291753,-0.000000,0.000000,-1.000000
0.117635,-0.109252,0.228691,0.000000,-1.000000,0.000000
-0.114472,0.108637,0.077734,0.827286,0.000000,-0.561782
0.188396,-0.069099,-0.257194,0.866025,0.000000,-0.500000
0.027628,-0.109252,0.137092,0.000000,-1.000000,0.000000
0.189388,-0.044264,0.255476,0.866025,0.000000,0.500000
0.234441,-0.085268,0.177442,0.866025,0.000000,0.500000
0.132142,-0.039240,-0.041047,-0.954986,0.000000,0.296650
0.185702,-0.029508,0.261861,0.866025,0.000000,0.500000
-0.046140,-0.057000,-0.130451,0.333453,0.000000,0.942767
-0.190611,-0.100892,-0.253357,-0.866025,0.000000,-0.500000
-0.265117,0.069737,0.124308,-0.866025,0.000000,0.500000
-0.303653,-0.019923,-0.057563,-0.866025,0.000000,-0.500000
0.191082,-0.005694,-0.252541,0.866025,0.000000,-0.500000
0.007371,0.109252,-0.269194,0.000000,1.000000,0.000000
-0.118430,0.109252,0.106673,0.000000,1.000000,0.000000
-0.036330,0.066016,0.133516,0.262559,0.000000,-0.964916
0.240649,0.016778,0.166689,0.866025,0.000000,0.500000
0.085342,0.029391,-0.108918,-0.616765,0.000000,0.787147
0.094193,-0.072912,-0.291753,-0.000000,0.000000,-1.000000
0.126693,-0.009993,0.291753,0.000000,0.000000,1.000000
0.082937,-0.002298,0.110760,-0.599383,0.000000,-0.800462
0.120417,0.006794,0.291753,0.000000,0.000000,1.000000
-0.300910,0.035408,0.062314,-0.866025,0.000000,0.500000
0.143489,-0.109252,0.168706,0.000000,-1.000000,0.000000
-0.070797,0.053715,-0.118887,0.511651,0.000000,0.859193
-0.209178,0.018986,0.221198,-0.866025,0.000000,0.500000
-0.334700,-0.006325,-0.003787,-0.866025,0.000000,-0.500000
-0.257993,-0.004611,-0.136647,-0.866025,0.000000,-0.500000
-0.117654,-0.109252,-0.223884,0.000000,-1.000000,0.000000
0.198144,0.079758,-0.240309,0.866025,0.000000,-0.500000
0.123447,0.109252,-0.143525,0.000000,1.000000,0.000000
0.140294,-0.096869,-0.291753,-0.000000,0.000000,-1.000000
-0.044310,-0.016642,0.291753,0.000000,0.000000,1.000000
0.127867,-0.101116,-0.052879,-0.924097,0.000000,0.382159
0.098868,0.096261,-0.291753,-0.000000,0.000000,-1.000000
0.265965,0.028545,-0.122840,0.866025,0.000000,-0.500000
-0.225739,0.109252,-0.173857,0.000000,1.000000,0.000000
0.039509,-0.063053,-0.291753,-0.000000,0.000000,-1.000000
-0.300023,-0.064245,0.063850,-0.866025,0.000000,0.500000
-0.012273,-0.014519,-0.291753,-0.000000,0.000000,-1.000000
0.102811,-0.052734,0.291753,0.000000,0.000000,1.000000
0.316169,-0.063490,0.035884,0.866025,0.000000,0.500000
-0.101489,0.093492,0.291753,0.000000,0.000000,1.000000
0.262195,-0.103214,0.129371,0.866025,0.000000,0.500000
-0.032981,-0.049466,-0.291753,-0.000000,0.000000,-1.000000
-0.284307,0.107894,0.091072,-0.866025,0.000000,0.500000
-0.335151,-0.038931,-0.003007,-0.866025,0.000000,-0.500000
0.103526,-0.100728,-0.091807,-0.748184,0.000000,0.663491
-0.043804,0.067761,0.131254,0.316570,0.000000,-0.948569
-0.104414,0.009881,0.090796,0.754601,0.000000,-0.656184
-0.280607,0.104208,0.097479,-0.866025,0.000000,0.500000
0.175630,0.074619,-0.279305,0.866025,0.000000,-0.500000
0.189012,-0.073176,-0.256128,0.866025,0.000000,-0.500000
-0.212053,0.109252,0.039698,0.000000,1.000000,0.000000
0.149191,-0.015715,-0.291753,-0.000000,0.000000,-1.000000
-0.247095,0.103090,0.155524,-0.866025,0.000000,0.500000
-0.289718,-0.090664,-0.081699,-0.866025,0.000000,-0.500000
