x,y,z,nx,ny,nz
38.030325,-6.816100,-4.333801,0.000000,0.000000,-1.000000
28.932715,26.276667,4.333801,-0.000000,0.000000,1.000000
17.832162,31.756176,1.377870,-0.000000,1.000000,0.000000
-30.476472,-16.452766,-4.333801,0.000000,0.000000,-1.000000
-10.013151,12.839394,-4.333801,0.000000,-0.000000,-1.000000
-40.151326,-14.163870,4.333801,0.000000,-0.000000,1.000000
-10.251686,-11.057696,4.333801,-0.000000,-0.000000,1.000000
37.632388,-13.267074,4.333801,0.000000,-0.000000,1.000000
14.380734,-16.446853,4.333801,-0.000000,-0.000000,1.000000
18.416049,-22.789931,4.333801,-0.000000,-0.000000,1.000000
30.700743,-20.391763,-1.448684,-0.290284,0.956940,0.000000
25.986182,-26.268077,4.333801,-0.000000,-0.000000,1.000000
-29.400011,12.594051,4.333801,0.000000,-0.000000,1.000000
29.226689,-7.303854,-0.974070,-0.634393,-0.773011,0.000000
-28.850199,-17.001504,-4.333801,0.000000,0.000000,-1.000000
8.651525,-31.756176,3.776179,0.000000,-1.000000,0.000000
-31.550885,-1.321449,4.333801,0.000000,-0.000000,1.000000
5.445147,-31.756176,-2.077015,0.000000,-1.000000,0.000000
-14.331696,30.906044,-4.333801,0.000000,-0.000000,-1.000000
42.606491,-15.212860,-3.042845,1.000000,0.000000,-0.000000
32.248391,-21.152528,-4.333801,0.000000,0.000000,-1.000000
10.403809,-1.555322,4.333801,-0.000000,0.000000,1.000000
-19.220499,-23.273004,4.333801,0.000000,-0.000000,1.000000
-36.902082,3.296540,4.333801,0.000000,-0.000000,1.000000
-34.331371,20.636922,4.333801,0.000000,-0.000000,1.000000
38.788649,9.479122,-4.333801,0.000000,0.000000,-1.000000
-5.172172,-4.002786,-1.777635,0.471397,0.881921,0.000000
13.776018,14.779588,4.333801,-0.000000,0.000000,1.000000
7.063087,3.848870,-4.333801,0.000000,0.000000,-1.000000
-22.229595,-19.170021,-4.333801,0.000000,0.000000,-1.000000
-40.646985,-31.756176,-0.884075,0.000000,-1.000000,0.000000
19.265883,29.906717,-4.333801,0.000000,-0.000000,-1.000000
-33.385783,-21.736444,-4.333801,0.000000,0.000000,-1.000000
-41.775084,-31.756176,1.131038,0.000000,-1.000000,0.000000
21.597700,31.756176,-4.029469,-0.000000,1.000000,0.000000
19.067683,-23.203477,4.333801,-0.000000,-0.000000,1.000000
7.957423,3.633954,4.333801,-0.000000,0.000000,1.000000
27.245238,17.435085,-4.333801,0.000000,-0.000000,-1.000000
-42.606491,8.176469,1.481320,-1.000000,0.000000,0.000000
-30.876504,31.756176,0.746967,0.000000,1.000000,0.000000
-27.386241,2.167643,4.333801,0.000000,-0.000000,1.000000
-28.840638,26.421853,-4.333801,0.000000,-0.000000,-1.000000
37.720695,22.396997,4.333801,-0.000000,0.000000,1.000000
-3.718808,31.756176,1.361153,0.000000,1.000000,0.000000
-26.437331,31.756176,3.643561,0.000000,1.000000,0.000000
3.774436,20.533522,-4.333801,0.000000,-0.000000,-1.000000
-42.606491,-7.303697,-2.515009,-1.000000,0.000000,0.000000
31.518141,3.783472,4.333801,0.000000,0.000000,1.000000
-33.798905,-26.297079,-4.333801,0.000000,0.000000,-1.000000
21.423488,15.664641,4.333801,-0.000000,0.000000,1.000000
-15.407967,-10.875389,4.333801,0.000000,-0.000000,1.000000
-42.606491,23.250446,0.838218,-1.000000,0.000000,0.000000
35.705127,12.924412,-4.333801,-0.000000,0.000000,-1.000000
37.244815,31.756176,1.288994,-0.000000,1.000000,0.000000
-38.847049,-19.099404,-4.333801,0.000000,0.000000,-1.000000
23.228458,1.289179,-4.333801,0.000000,-0.000000,-1.000000
-8.088626,-1.048211,-3.307161,0.881921,0.471396,-0.000000
20.926378,-20.038883,4.333801,-0.000000,-0.000000,1.000000
-13.591709,-31.756176,-2.409313,0.000000,-1.000000,0.000000
38.086163,-7.336935,-4.333801,0.000000,0.000000,-1.000000
2.718949,-21.225819,4.333801,-0.000000,-0.000000,1.000000
-27.891724,15.168262,-4.333801,0.000000,0.000000,-1.000000
-11.430971,26.314952,-4.333801,0.000000,-0.000000,-1.000000
-14.971648,15.820271,4.333801,-0.000000,0.000000,1.000000
-11.024008,22.320045,4.333801,-0.000000,0.000000,1.000000
26.351514,-24.786620,-4.333801,0.000000,0.000000,-1.000000
2.528517,-2.520679,4.333801,-0.000000,-0.000000,1.000000
-34.957147,15.889284,-4.333801,0.000000,0.000000,-1.000000
-25.616490,29.348928,4.333801,-0.000000,0.000000,1.000000
26.831840,10.522773,-4.333801,0.000000,-0.000000,-1.000000
-11.350236,11.072199,-4.333801,0.000000,-0.000000,-1.000000
35.089206,-15.291404,0.259356,-0.995184,0.098020,0.000000
-4.788397,26.969288,4.333801,-0.000000,0.000000,1.000000
-20.040891,-24.915844,-4.333801,0.000000,0.000000,-1.000000
28.948327,-5.119527,-4.333801,-0.000000,0.000000,-1.000000
-42.606491,26.739854,2.312623,-1.000000,0.000000,0.000000
28.218778,26.196289,4.333801,-0.000000,0.000000,1.000000
-39.249356,31.756176,-1.650708,0.000000,1.000000,0.000000
21.374856,-18.962661,-4.333801,0.000000,0.000000,-1.000000
-8.255766,-25.991804,4.333801,0.000000,-0.000000,1.000000
-20.831291,7.800882,4.333801,0.000000,-0.000000,1.000000
27.051663,30.843485,4.333801,-0.000000,0.000000,1.000000
-4.234837,6.536482,1.064146,0.290285,-0.956940,0.000000
2.601164,1.779913,-1.635130,-0.995185,-0.098017,0.000000
-27.633589,-21.901595,-4.333801,0.000000,0.000000,-1.000000
-5.197535,29.462580,4.333801,-0.000000,0.000000,1.000000
31.053328,14.000726,4.333801,-0.000000,0.000000,1.000000
-41.402560,-6.284293,4.333801,0.000000,-0.000000,1.000000
-0.208623,11.470849,-4.333801,0.000000,-0.000000,-1.000000
-16.221204,-8.689179,-1.544092,-0.995185,-0.098017,0.000000
-29.179428,31.756176,3.432223,0.000000,1.000000,0.000000
9.485053,-9.448330,4.333801,-0.000000,-0.000000,1.000000
12.189513,-7.609158,-4.333801,0.000000,0.000000,-1.000000
-18.551457,-14.219261,3.407795,-0.634393,0.773011,0.000000
-18.380678,-14.079106,0.985635,-0.634393,0.773011,0.000000
21.047793,-23.822169,4.333801,-0.000000,-0.000000,1.000000
15.960041,-19.276096,4.333801,-0.000000,-0.000000,1.000000
-18.437780,22.178161,4.333801,-0.000000,0.000000,1.000000
33.699060,25.362791,-4.333801,0.000000,0.000000,-1.000000
-29.004846,-27.529647,4.333801,0.000000,-0.000000,1.000000
-11.630674,0.671343,4.333801,0.000000,-0.000000,1.000000
29.798843,31.756176,4.310703,0.000000,1.000000,0.000000
0.458183,-14.767454,-4.333801,0.000000,0.000000,-1.000000
-27.111088,-4.498448,-4.333801,0.000000,0.000000,-1.000000
-0.236995,27.550770,4.333801,-0.000000,0.000000,1.000000
1.495751,4.499733,0.624718,-0.773010,-0.634393,0.000000
-14.914938,12.123629,-4.333801,0.000000,-0.000000,-1.000000
-13.323641,-14.495472,-4.333801,0.000000,0.000000,-1.000000
-42.606491,12.725159,3.885946,-1.000000,0.000000,0.000000
-27.790751,10.621826,-4.333801,0.000000,0.000000,-1.000000
-25.884376,-5.908862,3.254652,0.773011,-0.634393,0.000000
-7.455653,16.206723,-4.333801,0.000000,-0.000000,-1.000000
-13.895806,0.807436,4.333801,0.000000,-0.000000,1.000000
-17.418176,28.162997,4.333801,-0.000000,0.000000,1.000000
35.944401,-7.648277,4.333801,0.000000,-0.000000,1.000000
6.008000,31.756176,-1.048396,-0.000000,1.000000,0.000000
-16.497763,-7.668703,-3.823907,-0.956940,-0.290286,0.000000
39.429626,-31.756176,0.399866,0.000000,-1.000000,0.000000
-3.966216,20.682282,4.333801,-0.000000,0.000000,1.000000
8.344748,14.673867,-4.333801,0.000000,-0.000000,-1.000000
-15.014469,-12.941067,-4.333801,0.000000,0.000000,-1.000000
-28.885598,-16.839652,4.333801,0.000000,-0.000000,1.000000
15.215851,20.830940,-4.333801,0.000000,-0.000000,-1.000000
41.100761,31.223426,-4.333801,0.000000,-0.000000,-1.000000
-14.781548,-9.807245,-4.333801,0.000000,0.000000,-1.000000
-42.606491,-6.633832,1.527752,-1.000000,0.000000,0.000000
-37.564903,0.793924,4.333801,0.000000,-0.000000,1.000000
-13.396353,17.231144,4.333801,-0.000000,0.000000,1.000000
-8.721380,-25.035185,-4.333801,0.000000,0.000000,-1.000000
6.373361,-1.546745,-4.333801,0.000000,-0.000000,-1.000000
-4.816111,-17.061737,-4.333801,0.000000,0.000000,-1.000000
-40.058372,-5.604918,4.333801,0.000000,-0.000000,1.000000
-22.795064,-31.756176,-0.913157,0.000000,-1.000000,0.000000
33.131340,-0.634732,4.333801,0.000000,0.000000,1.000000
11.763154,-15.700406,-4.333801,0.000000,0.000000,-1.000000
2.699336,-20.355779,-4.333801,0.000000,0.000000,-1.000000
19.052724,12.311622,4.333801,-0.000000,0.000000,1.000000
31.558657,12.751767,4.333801,-0.000000,0.000000,1.000000
29.938286,14.725516,-4.333801,0.000000,-0.000000,-1.000000
13.156888,16.609971,-4.333801,0.000000,-0.000000,-1.000000
-41.900004,17.847626,4.333801,0.000000,-0.000000,1.000000
9.906701,29.153162,4.333801,-0.000000,0.000000,1.000000
31.445487,-20.165848,0.114868,-0.290284,0.956940,0.000000
36.832037,-31.756176,3.010676,0.000000,-1.000000,0.000000
-20.810490,-15.125664,3.798123,-0.098017,0.995185,0.000000
-19.280511,-19.080331,4.333801,0.000000,-0.000000,1.000000
-15.210267,-26.117618,4.333801,0.000000,-0.000000,1.000000
37.874615,-8.479850,-4.333801,0.000000,0.000000,-1.000000
18.913512,6.198261,-4.333801,0.000000,-0.000000,-1.000000
-18.377855,-5.162825,-2.370342,-0.634393,-0.773011,0.000000
-15.080760,-9.885398,-4.333801,0.000000,0.000000,-1.000000
-3.228545,28.546701,4.333801,-0.000000,0.000000,1.000000
34.331531,-12.045103,-4.333801,0.000000,0.000000,-1.000000
-1.714102,-4.338111,-3.655721,-0.290285,0.956940,0.000000
41.448026,-13.723957,4.333801,0.000000,-0.000000,1.000000
-8.769972,18.088869,-4.333801,0.000000,-0.000000,-1.000000
-9.883278,4.239222,4.333801,-0.000000,0.000000,1.000000
-1.446006,-14.386544,-4.333801,0.000000,0.000000,-1.000000
37.069285,31.756176,-3.491164,-0.000000,1.000000,0.000000
-11.925149,5.670232,-4.333801,0.000000,0.000000,-1.000000
-42.606491,25.936359,3.565227,-1.000000,0.000000,0.000000
-35.768731,29.112667,-4.333801,0.000000,-0.000000,-1.000000
30.308229,-7.191053,4.333801,0.000000,0.000000,1.000000
-17.496045,8.066816,-4.333801,0.000000,0.000000,-1.000000
19.696998,29.248532,-4.333801,0.000000,-0.000000,-1.000000
17.373962,22.908332,4.333801,-0.000000,0.000000,1.000000
42.606491,18.980971,4.130708,1.000000,-0.000000,0.000000
-30.499500,17.157580,-4.333801,0.000000,0.000000,-1.000000
32.499909,1.913196,-4.333801,-0.000000,0.000000,-1.000000
33.525504,1.991026,4.333801,0.000000,0.000000,1.000000
34.912419,20.032136,4.333801,-0.000000,0.000000,1.000000
28.583689,-6.950271,-3.823459,-0.471396,-0.881921,0.000000
27.915647,26.624751,4.333801,-0.000000,0.000000,1.000000
-29.658606,22.072360,-4.333801,0.000000,-0.000000,-1.000000
-42.252205,-28.517689,4.333801,0.000000,-0.000000,1.000000
42.606491,-0.241365,-3.332263,1.000000,0.000000,-0.000000
-6.787180,-24.136771,-4.333801,0.000000,0.000000,-1.000000
23.222772,-23.944350,4.333801,-0.000000,-0.000000,1.000000
37.423812,-12.573486,4.333801,0.000000,-0.000000,1.000000
2.073953,3.566740,-0.210734,-0.881921,-0.471397,0.000000
-19.061647,13.286432,-4.333801,0.000000,-0.000000,-1.000000
35.006326,2.349030,-4.333801,0.000000,-0.000000,-1.000000
-2.390586,-4.429998,0.728701,-0.098017,0.995185,0.000000
17.553056,16.177902,4.333801,-0.000000,0.000000,1.000000
-29.718140,-31.756176,-0.002293,0.000000,-1.000000,0.000000
39.688446,-28.312534,-4.333801,0.000000,0.000000,-1.000000
-24.417087,-14.742999,-4.333801,0.000000,0.000000,-1.000000
-41.295038,-24.290086,4.333801,0.000000,-0.000000,1.000000
10.879007,6.150086,-4.333801,0.000000,0.000000,-1.000000
-41.148813,-30.998890,-4.333801,0.000000,0.000000,-1.000000
32.599599,2.771154,-4.333801,-0.000000,0.000000,-1.000000
17.184254,0.317998,4.333801,-0.000000,0.000000,1.000000
-28.874927,29.904686,4.333801,-0.000000,0.000000,1.000000
-32.245063,-19.681058,-4.333801,0.000000,0.000000,-1.000000
-33.230771,18.831079,4.333801,0.000000,-0.000000,1.000000
-42.606491,-21.798274,-0.331155,-1.000000,0.000000,0.000000
37.901853,-28.513939,-4.333801,0.000000,0.000000,-1.000000
12.973545,16.939713,-4.333801,0.000000,-0.000000,-1.000000
19.577944,31.756176,1.157332,-0.000000,1.000000,0.000000
-40.477721,28.374959,-4.333801,0.000000,0.000000,-1.000000
42.606491,28.934961,1.306637,1.000000,-0.000000,0.000000
-6.506903,-22.740105,4.333801,0.000000,-0.000000,1.000000
38.907397,-21.203113,-4.333801,0.000000,0.000000,-1.000000
30.036086,7.873728,-4.333801,0.000000,-0.000000,-1.000000
20.540159,-12.466310,-1.296255,0.995185,0.098017,-0.000000
33.834757,26.261893,-4.333801,0.000000,-0.000000,-1.000000
14.308399,8.388427,-4.333801,0.000000,-0.000000,-1.000000
-16.599757,-31.756176,0.064494,0.000000,-1.000000,0.000000
-36.369111,-21.553608,-4.333801,0.000000,0.000000,-1.000000
30.311819,-8.302489,-0.816690,-0.773011,-0.634393,0.000000
-5.534529,-31.756176,-2.376994,0.000000,-1.000000,0.000000
17.702178,31.756176,1.458332,-0.000000,1.000000,0.000000
13.498344,14.662282,4.333801,-0.000000,0.000000,1.000000
12.044468,-18.401655,4.333801,-0.000000,-0.000000,1.000000
-30.595595,9.931628,4.333801,0.000000,-0.000000,1.000000
-34.096391,-7.582646,-4.333801,0.000000,0.000000,-1.000000
-17.942600,7.044502,4.333801,0.000000,-0.000000,1.000000
30.861316,31.756176,0.619220,-0.000000,1.000000,0.000000
-36.058032,-18.695278,4.333801,0.000000,-0.000000,1.000000
24.046770,-18.901817,-4.333801,0.000000,0.000000,-1.000000
40.047337,-16.177761,-4.333801,0.000000,0.000000,-1.000000
27.493027,-31.756176,1.955080,0.000000,-1.000000,0.000000
18.903379,-2.709003,4.333801,-0.000000,0.000000,1.000000
-42.606491,17.113719,-1.700212,-1.000000,0.000000,0.000000
17.148601,4.429018,4.333801,-0.000000,0.000000,1.000000
19.912381,-27.741912,4.333801,0.000000,-0.000000,1.000000
35.120048,-14.876863,-2.755390,-0.995184,-0.098020,0.000000
-28.445088,11.644525,-4.333801,0.000000,0.000000,-1.000000
-34.624910,29.755284,4.333801,-0.000000,0.000000,1.000000
-3.657233,-16.214516,-4.333801,0.000000,0.000000,-1.000000
37.216975,-3.755711,-4.333801,0.000000,0.000000,-1.000000
-35.889701,21.383368,-4.333801,0.000000,0.000000,-1.000000
17.941424,15.030408,-4.333801,0.000000,0.000000,-1.000000
24.169154,-31.756176,1.868557,0.000000,-1.000000,0.000000
24.950221,17.189685,4.333801,-0.000000,0.000000,1.000000
-31.049081,5.623998,-4.333801,0.000000,0.000000,-1.000000
-42.432218,15.017041,4.333801,0.000000,-0.000000,1.000000
-1.365150,31.756176,3.181594,0.000000,1.000000,0.000000
-38.284926,-24.740182,-4.333801,0.000000,0.000000,-1.000000
23.538095,28.515075,-4.333801,0.000000,-0.000000,-1.000000
24.775070,-20.939063,-4.333801,0.000000,0.000000,-1.000000
-42.606491,14.578095,-3.163043,-1.000000,0.000000,0.000000
-42.606491,-22.441788,-0.229825,-1.000000,0.000000,0.000000
16.610952,0.094491,-4.333801,0.000000,-0.000000,-1.000000
42.606491,14.093843,-3.828143,1.000000,0.000000,-0.000000
-28.903962,23.637476,4.333801,-0.000000,0.000000,1.000000
-8.916496,-23.350660,-4.333801,0.000000,0.000000,-1.000000
18.327448,21.443977,-4.333801,0.000000,-0.000000,-1.000000
34.232717,5.686045,4.333801,0.000000,0.000000,1.000000
42.139644,-31.756176,-2.995073,0.000000,-1.000000,0.000000
-0.907642,-12.954926,-4.333801,0.000000,0.000000,-1.000000
0.523923,12.657969,-4.333801,0.000000,-0.000000,-1.000000
36.600650,16.702794,-4.333801,-0.000000,0.000000,-1.000000
42.606491,-26.940106,3.517431,1.000000,0.000000,-0.000000
30.030723,-30.270816,4.333801,0.000000,-0.000000,1.000000
-31.878651,17.664316,4.333801,0.000000,-0.000000,1.000000
30.212748,-31.756176,-0.632555,0.000000,-1.000000,0.000000
-27.393410,-21.207658,4.333801,0.000000,-0.000000,1.000000
-16.658170,-25.721539,-4.333801,0.000000,0.000000,-1.000000
-38.353804,-12.896862,4.333801,0.000000,-0.000000,1.000000
30.156472,-29.760798,4.333801,0.000000,-0.000000,1.000000
32.675057,-10.305074,3.993039,-0.634393,-0.773010,0.000000
4.827913,-19.871418,4.333801,-0.000000,-0.000000,1.000000
16.772008,-29.614530,4.333801,0.000000,-0.000000,1.000000
-24.647443,-16.641218,4.333801,0.000000,-0.000000,1.000000
41.814795,8.742166,-4.333801,0.000000,0.000000,-1.000000
-27.697101,-31.756176,2.676544,0.000000,-1.000000,0.000000
-33.696296,14.095243,-4.333801,0.000000,0.000000,-1.000000
24.867378,-26.710464,4.333801,-0.000000,-0.000000,1.000000
-35.155083,-2.517364,-4.333801,0.000000,0.000000,-1.000000
17.757494,24.143155,-4.333801,0.000000,-0.000000,-1.000000
21.738547,-15.412967,0.204818,0.773010,0.634393,-0.000000
-38.873345,2.998544,-4.333801,0.000000,0.000000,-1.000000
32.499135,14.555158,-4.333801,0.000000,-0.000000,-1.000000
10.140897,8.210742,4.333801,0.000000,-0.000000,1.000000
-11.892752,-27.807451,-4.333801,0.000000,0.000000,-1.000000
22.376890,-28.217152,-4.333801,0.000000,0.000000,-1.000000
25.498848,7.533767,-4.333801,0.000000,-0.000000,-1.000000
16.854020,-18.150823,-4.333801,0.000000,0.000000,-1.000000
-40.991939,19.915333,-4.333801,0.000000,0.000000,-1.000000
-36.476100,-18.729355,-4.333801,0.000000,0.000000,-1.000000
-34.042234,10.365128,-4.333801,0.000000,0.000000,-1.000000
35.378811,-26.176262,4.333801,-0.000000,-0.000000,1.000000
20.363676,-31.385329,4.333801,0.000000,-0.000000,1.000000
16.028459,9.236856,-4.333801,0.000000,-0.000000,-1.000000
19.450063,-31.031976,-4.333801,0.000000,0.000000,-1.000000
-4.621585,31.756176,3.252907,0.000000,1.000000,0.000000
-7.597805,-4.881977,4.333801,-0.000000,-0.000000,1.000000
4.882889,2.147989,4.333801,-0.000000,0.000000,1.000000
24.688607,10.218178,4.333801,-0.000000,0.000000,1.000000
-25.128622,-31.756176,-1.229446,0.000000,-1.000000,0.000000
-6.440691,18.049097,4.333801,-0.000000,0.000000,1.000000
21.000699,-0.115639,4.333801,-0.000000,0.000000,1.000000
2.095129,-27.382866,-4.333801,0.000000,0.000000,-1.000000
-16.174576,-29.995644,4.333801,0.000000,-0.000000,1.000000
33.315226,-24.895415,4.333801,-0.000000,-0.000000,1.000000
34.913671,-2.478313,4.333801,-0.000000,0.000000,1.000000
-24.781933,-31.756176,0.891968,0.000000,-1.000000,0.000000
11.422011,2.444899,4.333801,-0.000000,0.000000,1.000000
-21.701764,-31.756176,1.030435,0.000000,-1.000000,0.000000
-36.367420,-31.756176,2.780025,0.000000,-1.000000,0.000000
13.446442,-26.592304,4.333801,0.000000,-0.000000,1.000000
36.159857,16.128292,4.333801,0.000000,0.000000,1.000000
-37.790255,31.756176,3.444336,0.000000,1.000000,0.000000
9.761536,6.977196,4.333801,-0.000000,0.000000,1.000000
42.606491,-24.289148,-1.747050,1.000000,0.000000,-0.000000
8.267468,-31.756176,0.167760,0.000000,-1.000000,0.000000
32.872817,1.364084,4.333801,0.000000,0.000000,1.000000
13.996794,13.712866,4.333801,-0.000000,0.000000,1.000000
-8.505225,-2.780001,-4.333801,0.000000,0.000000,-1.000000
37.355573,-4.605923,4.333801,0.000000,-0.000000,1.000000
26.119793,-23.824012,-4.333801,0.000000,0.000000,-1.000000
9.031302,-31.756176,-3.229714,0.000000,-1.000000,0.000000
7.198726,26.368968,-4.333801,0.000000,-0.000000,-1.000000
-41.564690,-3.218737,4.333801,0.000000,-0.000000,1.000000
20.047627,14.970295,-4.333801,0.000000,-0.000000,-1.000000
-7.998427,-13.426061,4.333801,-0.000000,-0.000000,1.000000
-11.769061,24.262290,-4.333801,0.000000,-0.000000,-1.000000
12.085091,-25.116813,-4.333801,0.000000,0.000000,-1.000000
-18.612046,-14.268985,-2.492824,-0.634393,0.773011,0.000000
-40.096488,5.557424,4.333801,0.000000,-0.000000,1.000000
-32.367504,31.592761,-4.333801,0.000000,-0.000000,-1.000000
35.879505,-8.438644,-4.333801,0.000000,0.000000,-1.000000
11.844650,-6.602907,-4.333801,0.000000,-0.000000,-1.000000
-38.279304,15.219693,4.333801,0.000000,-0.000000,1.000000
-42.606491,-26.129641,1.887232,-1.000000,0.000000,0.000000
29.844880,-21.140667,-4.333801,0.000000,0.000000,-1.000000
-32.043370,-30.663367,-4.333801,0.000000,0.000000,-1.000000
-0.212649,21.674045,4.333801,-0.000000,0.000000,1.000000
-11.836588,23.782523,4.333801,-0.000000,0.000000,1.000000
-10.408071,4.744583,4.333801,-0.000000,0.000000,1.000000
-42.606491,24.585086,-4.265371,-1.000000,0.000000,0.000000
-35.061024,28.331811,4.333801,-0.000000,0.000000,1.000000
-16.234188,-8.557349,-0.459425,-0.995185,-0.098017,0.000000
31.135203,18.848917,4.333801,-0.000000,0.000000,1.000000
-7.636373,30.220074,4.333801,-0.000000,0.000000,1.000000
41.329970,28.524470,-4.333801,-0.000000,0.000000,-1.000000
-32.612412,11.779864,4.333801,0.000000,-0.000000,1.000000
8.059832,31.756176,4.119437,0.000000,1.000000,0.000000
3.893179,26.421287,4.333801,-0.000000,0.000000,1.000000
32.836409,11.435942,4.333801,-0.000000,0.000000,1.000000
-36.918702,19.437539,-4.333801,0.000000,0.000000,-1.000000
-16.289907,-10.885708,-1.344013,-0.956940,0.290286,0.000000
10.223667,16.458554,-4.333801,0.000000,-0.000000,-1.000000
18.246984,-0.346502,4.333801,-0.000000,0.000000,1.000000
21.711475,-8.476759,0.029561,0.773010,-0.634394,0.000000
21.130382,-25.451626,-4.333801,0.000000,0.000000,-1.000000
-32.782457,-17.092036,-4.333801,0.000000,0.000000,-1.000000
-14.557042,29.365773,4.333801,-0.000000,0.000000,1.000000
40.355485,-2.008794,-4.333801,0.000000,0.000000,-1.000000
27.690430,-20.189447,2.865565,0.290285,0.956940,0.000000
-28.158125,-0.884653,-4.333801,0.000000,0.000000,-1.000000
-37.911814,-27.238833,4.333801,0.000000,-0.000000,1.000000
39.506791,-31.756176,3.916303,0.000000,-1.000000,0.000000
-13.800362,31.756176,3.599462,0.000000,1.000000,0.000000
12.929801,-12.075566,-4.333801,0.000000,0.000000,-1.000000
-31.760202,-28.576068,4.333801,0.000000,-0.000000,1.000000
-37.334330,-26.609760,4.333801,0.000000,-0.000000,1.000000
35.250602,-26.792080,-4.333801,0.000000,0.000000,-1.000000
41.534934,26.602101,-4.333801,0.000000,-0.000000,-1.000000
42.606491,-4.977126,3.280572,1.000000,-0.000000,0.000000
10.823037,4.083455,-4.333801,0.000000,-0.000000,-1.000000
34.274030,7.357575,-4.333801,-0.000000,0.000000,-1.000000
1.336901,29.966965,-4.333801,0.000000,-0.000000,-1.000000
38.458556,-27.054689,4.333801,-0.000000,-0.000000,1.000000
35.149733,-24.978932,4.333801,-0.000000,-0.000000,1.000000
-23.507045,-28.219818,-4.333801,0.000000,0.000000,-1.000000
-16.121971,-31.756176,-3.003744,0.000000,-1.000000,0.000000
-31.141562,10.781188,4.333801,0.000000,-0.000000,1.000000
24.604144,-6.557399,1.327199,0.290285,-0.956940,0.000000
25.957452,-31.756176,2.801651,0.000000,-1.000000,0.000000
8.530361,-22.764942,-4.333801,0.000000,0.000000,-1.000000
-30.496170,22.754810,-4.333801,0.000000,-0.000000,-1.000000
-12.576751,19.567876,4.333801,-0.000000,0.000000,1.000000
1.641704,4.321889,1.543978,-0.773010,-0.634393,0.000000
20.755369,-13.549738,-1.208011,0.956940,0.290286,-0.000000
-5.334271,-14.978484,4.333801,-0.000000,-0.000000,1.000000
0.446928,21.200807,4.333801,-0.000000,0.000000,1.000000
42.606491,5.837082,-1.734317,1.000000,0.000000,-0.000000
23.974359,-25.732554,-4.333801,0.000000,0.000000,-1.000000
-34.282508,-0.159383,4.333801,0.000000,-0.000000,1.000000
-42.606491,12.341102,-3.539641,-1.000000,0.000000,0.000000
-21.720413,30.478399,4.333801,-0.000000,0.000000,1.000000
9.465978,-11.394310,-4.333801,0.000000,0.000000,-1.000000
-26.268849,-31.756176,-1.545344,0.000000,-1.000000,0.000000
36.049115,-8.591622,4.333801,0.000000,-0.000000,1.000000
24.264953,-18.195656,4.333801,-0.000000,-0.000000,1.000000
39.186553,20.491800,-4.333801,-0.000000,0.000000,-1.000000
42.606491,7.409571,0.580874,1.000000,-0.000000,0.000000
2.626573,-0.715484,-4.333801,0.000000,-0.000000,-1.000000
-42.606491,-17.287155,-3.253255,-1.000000,0.000000,0.000000
-38.516047,-14.130874,4.333801,0.000000,-0.000000,1.000000
13.049845,0.963061,4.333801,-0.000000,0.000000,1.000000
22.691001,20.790039,-4.333801,0.000000,-0.000000,-1.000000
-10.646098,-29.116897,-4.333801,0.000000,0.000000,-1.000000
5.767470,-23.325522,-4.333801,0.000000,0.000000,-1.000000
-11.029996,-17.265848,4.333801,-0.000000,-0.000000,1.000000
-2.528480,-7.817131,4.333801,-0.000000,-0.000000,1.000000
18.639713,-2.964265,4.333801,-0.000000,0.000000,1.000000
-22.601104,-31.756176,2.674714,0.000000,-1.000000,0.000000
-0.991898,-18.805882,-4.333801,0.000000,0.000000,-1.000000
30.842473,-20.348770,-2.388176,-0.290284,0.956940,0.000000
20.994025,-14.221170,-2.562875,0.881922,0.471396,-0.000000
-15.276672,-31.756176,-4.085384,0.000000,-1.000000,0.000000
15.106657,-9.105747,-4.333801,0.000000,0.000000,-1.000000
-11.616892,-17.232963,4.333801,-0.000000,-0.000000,1.000000
-16.400502,-31.430571,-4.333801,0.000000,0.000000,-1.000000
-35.500162,-4.869982,-4.333801,0.000000,0.000000,-1.000000
-10.948801,-27.458006,4.333801,0.000000,-0.000000,1.000000
-10.980141,-12.286680,-4.333801,0.000000,0.000000,-1.000000
-26.844443,-17.368711,4.333801,0.000000,-0.000000,1.000000
17.774126,31.756176,-3.519597,-0.000000,1.000000,0.000000
23.367803,4.814801,-4.333801,0.000000,-0.000000,-1.000000
28.949888,17.779589,-4.333801,0.000000,-0.000000,-1.000000
-23.504054,-3.415446,4.333801,0.000000,-0.000000,1.000000
25.389247,25.887674,-4.333801,0.000000,-0.000000,-1.000000
26.818406,5.211008,4.333801,-0.000000,0.000000,1.000000
11.984888,-3.154549,4.333801,-0.000000,0.000000,1.000000
-3.679738,-22.105341,4.333801,0.000000,-0.000000,1.000000
-22.824040,-0.384064,4.333801,-0.000000,-0.000000,1.000000
-19.710335,15.397063,4.333801,-0.000000,0.000000,1.000000
17.799485,31.756176,3.616275,0.000000,1.000000,0.000000
40.377926,10.987473,4.333801,0.000000,-0.000000,1.000000
42.606491,9.052225,3.385521,1.000000,-0.000000,0.000000
-42.020345,-15.988824,-4.333801,0.000000,0.000000,-1.000000
30.260604,9.566758,-4.333801,0.000000,-0.000000,-1.000000
35.050094,-15.688497,-0.571110,-0.995184,0.098020,0.000000
-42.606491,-25.897703,-0.846558,-1.000000,0.000000,0.000000
-42.606491,-15.658426,-1.871930,-1.000000,0.000000,0.000000
24.206037,31.756176,1.188814,-0.000000,1.000000,0.000000
7.720556,-23.035534,-4.333801,0.000000,0.000000,-1.000000
39.489325,31.756176,-3.502662,-0.000000,1.000000,0.000000
-18.206734,-18.877915,4.333801,0.000000,-0.000000,1.000000
-38.991227,9.852047,-4.333801,0.000000,0.000000,-1.000000
-17.751035,18.115845,-4.333801,0.000000,-0.000000,-1.000000
30.994030,-20.302796,3.181277,-0.290284,0.956940,0.000000
-4.705948,-29.849390,-4.333801,0.000000,0.000000,-1.000000
-10.446533,-1.626823,-4.333801,0.000000,0.000000,-1.000000
2.673092,31.756176,3.871402,0.000000,1.000000,0.000000
-37.789933,23.098081,4.333801,0.000000,-0.000000,1.000000
-4.669129,26.080936,-4.333801,0.000000,-0.000000,-1.000000
10.558606,-24.016305,-4.333801,0.000000,0.000000,-1.000000
13.889749,-23.766753,4.333801,-0.000000,-0.000000,1.000000
12.420535,-23.655157,4.333801,-0.000000,-0.000000,1.000000
-13.861981,22.317042,4.333801,-0.000000,0.000000,1.000000
-42.606491,-8.036386,3.720465,-1.000000,0.000000,0.000000
39.474758,-31.756176,3.813540,0.000000,-1.000000,0.000000
17.340647,-1.760976,4.333801,-0.000000,0.000000,1.000000
-42.606491,8.453859,3.260524,-1.000000,0.000000,0.000000
-36.899912,-29.794888,4.333801,0.000000,-0.000000,1.000000
-11.787433,14.407759,-4.333801,0.000000,-0.000000,-1.000000
16.872602,-31.756176,-4.128829,0.000000,-1.000000,0.000000
-0.977755,19.112004,-4.333801,0.000000,-0.000000,-1.000000
30.060181,31.756176,-3.036079,-0.000000,1.000000,0.000000
-42.319130,31.370054,-4.333801,0.000000,0.000000,-1.000000
25.857644,7.000669,-4.333801,0.000000,-0.000000,-1.000000
-26.250841,-12.884213,0.920843,0.773011,0.634392,-0.000000
-21.320871,4.112249,4.333801,0.000000,-0.000000,1.000000
-38.206444,4.524967,4.333801,0.000000,-0.000000,1.000000
-12.017016,-17.782164,4.333801,0.000000,-0.000000,1.000000
8.128450,2.181801,-4.333801,0.000000,-0.000000,-1.000000
2.627873,31.756176,-0.986782,-0.000000,1.000000,0.000000
14.879657,-6.836585,-4.333801,0.000000,-0.000000,-1.000000
-3.846114,18.651679,4.333801,-0.000000,0.000000,1.000000
1.076117,10.837741,4.333801,-0.000000,0.000000,1.000000
-4.946353,-25.383859,-4.333801,0.000000,0.000000,-1.000000
11.571574,5.727368,4.333801,-0.000000,0.000000,1.000000
25.148396,-18.368231,3.967170,0.773010,0.634393,0.000000
34.616090,-8.224800,-4.333801,0.000000,-0.000000,-1.000000
11.727403,18.869614,-4.333801,0.000000,-0.000000,-1.000000
-30.227954,17.206781,4.333801,0.000000,-0.000000,1.000000
-26.958181,-11.554786,2.407907,0.956940,0.290285,0.000000
42.377155,-3.902296,-4.333801,0.000000,0.000000,-1.000000
21.466392,-21.072344,4.333801,-0.000000,-0.000000,1.000000
-32.396352,18.886707,4.333801,0.000000,-0.000000,1.000000
26.388845,3.946546,4.333801,-0.000000,0.000000,1.000000
-42.606491,-15.108427,-3.011951,-1.000000,0.000000,0.000000
-16.888798,10.042553,-4.333801,0.000000,0.000000,-1.000000
-3.472601,20.508082,-4.333801,0.000000,-0.000000,-1.000000
17.464002,-30.651701,4.333801,0.000000,-0.000000,1.000000
1.234111,24.710076,4.333801,-0.000000,0.000000,1.000000
-28.420701,2.530344,-4.333801,0.000000,0.000000,-1.000000
-32.057490,-12.460843,-4.333801,0.000000,0.000000,-1.000000
12.518977,27.244304,-4.333801,0.000000,-0.000000,-1.000000
-32.146313,-17.634407,4.333801,0.000000,-0.000000,1.000000
-32.225061,7.697986,4.333801,0.000000,-0.000000,1.000000
38.930171,-14.088542,-4.333801,0.000000,0.000000,-1.000000
29.993193,-31.756176,-1.191977,0.000000,-1.000000,0.000000
-27.827449,-22.759873,-4.333801,0.000000,0.000000,-1.000000
20.819597,-27.060594,4.333801,0.000000,-0.000000,1.000000
-42.606491,22.776920,1.458433,-1.000000,0.000000,0.000000
31.446270,-27.256254,4.333801,-0.000000,-0.000000,1.000000
27.822581,-31.756176,0.852561,0.000000,-1.000000,0.000000
-14.993978,-3.154261,-4.333801,0.000000,-0.000000,-1.000000
18.067454,-25.568556,4.333801,0.000000,-0.000000,1.000000
-34.674600,-23.921180,-4.333801,0.000000,0.000000,-1.000000
-27.010407,-31.756176,-0.610269,0.000000,-1.000000,0.000000
-31.582008,27.620001,4.333801,-0.000000,0.000000,1.000000
13.581757,-9.788067,4.333801,-0.000000,-0.000000,1.000000
-16.277991,-8.393187,3.690962,-0.956940,-0.290286,0.000000
8.112995,-1.410787,-4.333801,0.000000,-0.000000,-1.000000
31.244172,28.992727,-4.333801,0.000000,-0.000000,-1.000000
42.606491,-17.536125,-3.389903,1.000000,0.000000,-0.000000
10.132580,-17.814112,4.333801,-0.000000,-0.000000,1.000000
42.397552,-29.762114,4.333801,0.000000,-0.000000,1.000000
-37.563282,13.418515,4.333801,0.000000,-0.000000,1.000000
42.606491,14.654294,-3.394616,1.000000,0.000000,-0.000000
11.616265,-4.971754,4.333801,-0.000000,0.000000,1.000000
-32.510309,-27.815019,4.333801,0.000000,-0.000000,1.000000
-10.503642,-7.520977,4.333801,-0.000000,-0.000000,1.000000
11.483706,-10.141236,-4.333801,0.000000,0.000000,-1.000000
39.297193,31.756176,1.671118,-0.000000,1.000000,0.000000
-28.469828,-18.402794,-4.333801,0.000000,0.000000,-1.000000
-41.088033,14.193632,-4.333801,0.000000,0.000000,-1.000000
30.977034,31.756176,2.323515,-0.000000,1.000000,0.000000
-39.677131,4.932544,-4.333801,0.000000,0.000000,-1.000000
36.470662,21.904106,4.333801,-0.000000,0.000000,1.000000
-15.338473,-15.029664,-4.333801,0.000000,0.000000,-1.000000
-26.488368,-6.716561,0.696452,0.881921,-0.471397,0.000000
30.701484,-8.777298,-3.576886,-0.773011,-0.634393,0.000000
-30.666723,17.288625,-4.333801,0.000000,0.000000,-1.000000
-6.566057,-31.756176,-2.395536,0.000000,-1.000000,0.000000
32.782972,25.962056,-4.333801,0.000000,-0.000000,-1.000000
-42.606491,-14.131347,2.203845,-1.000000,0.000000,0.000000
-17.039806,-12.667345,3.246775,-0.881922,0.471395,0.000000
42.606491,-14.946326,-0.471674,1.000000,0.000000,-0.000000
-31.817069,8.028374,-4.333801,0.000000,0.000000,-1.000000
-6.412455,-27.480719,4.333801,0.000000,-0.000000,1.000000
-12.203358,-18.453687,4.333801,0.000000,-0.000000,1.000000
8.363581,-31.756176,-3.419674,0.000000,-1.000000,0.000000
24.489105,-29.795505,-4.333801,0.000000,0.000000,-1.000000
-13.563748,31.756176,3.277743,0.000000,1.000000,0.000000
-1.230655,-10.452474,4.333801,-0.000000,-0.000000,1.000000
-5.262401,-31.756176,-2.044844,0.000000,-1.000000,0.000000
22.084752,-5.539161,4.333801,-0.000000,0.000000,1.000000
42.078337,30.460468,-4.333801,-0.000000,0.000000,-1.000000
1.062412,-9.576070,4.333801,-0.000000,-0.000000,1.000000
42.606491,-10.991467,-2.859979,1.000000,0.000000,-0.000000
-34.673565,23.348857,-4.333801,0.000000,0.000000,-1.000000
38.257418,12.584615,4.333801,-0.000000,0.000000,1.000000
-4.262317,31.756176,0.279354,0.000000,1.000000,0.000000
13.093667,-18.405885,4.333801,-0.000000,-0.000000,1.000000
-12.802632,-28.796378,4.333801,0.000000,-0.000000,1.000000
-42.606491,28.498395,-2.099386,-1.000000,0.000000,0.000000
29.115550,23.776598,4.333801,-0.000000,0.000000,1.000000
-31.673692,-31.251585,-4.333801,0.000000,0.000000,-1.000000
18.773915,-19.400922,4.333801,-0.000000,-0.000000,1.000000
3.560820,-2.390318,4.333801,-0.000000,-0.000000,1.000000
-42.606491,17.583645,-0.307326,-1.000000,0.000000,0.000000
4.493712,-6.076606,4.333801,-0.000000,-0.000000,1.000000
-2.430304,-7.523303,4.333801,-0.000000,-0.000000,1.000000
-0.203869,-31.756176,4.195664,0.000000,-1.000000,0.000000
2.374847,-26.121288,4.333801,0.000000,-0.000000,1.000000
-39.977234,12.644297,4.333801,0.000000,-0.000000,1.000000
25.886180,16.552784,4.333801,-0.000000,0.000000,1.000000
-7.506019,11.597972,-4.333801,0.000000,-0.000000,-1.000000
-13.109773,-9.831586,-4.333801,0.000000,0.000000,-1.000000
-20.060749,16.336175,4.333801,-0.000000,0.000000,1.000000
-33.180872,-0.685767,-4.333801,0.000000,0.000000,-1.000000
-16.948209,-6.743638,2.725298,-0.881922,-0.471395,0.000000
19.739225,5.552733,-4.333801,0.000000,-0.000000,-1.000000
-22.566896,6.150060,4.333801,0.000000,-0.000000,1.000000
-9.599160,29.134944,4.333801,-0.000000,0.000000,1.000000
-1.189472,-4.178966,-3.964519,-0.290285,0.956940,0.000000
-29.453070,16.882147,4.333801,0.000000,-0.000000,1.000000
-36.972223,9.061054,-4.333801,0.000000,0.000000,-1.000000
-1.427498,-24.418251,-4.333801,0.000000,0.000000,-1.000000
42.606491,25.514201,1.488729,1.000000,-0.000000,0.000000
38.726589,10.050122,-4.333801,0.000000,0.000000,-1.000000
27.679862,8.142903,-4.333801,0.000000,-0.000000,-1.000000
-20.380244,-0.390527,4.333801,0.000000,-0.000000,1.000000
-22.819495,16.288133,-4.333801,0.000000,-0.000000,-1.000000
-23.328727,31.756176,-3.571735,-0.000000,1.000000,0.000000
12.849995,10.490001,4.333801,0.000000,-0.000000,1.000000
18.929763,9.861882,4.333801,-0.000000,0.000000,1.000000
-13.911298,-27.391330,4.333801,0.000000,-0.000000,1.000000
7.287203,19.343573,4.333801,-0.000000,0.000000,1.000000
-23.164598,21.135651,-4.333801,0.000000,-0.000000,-1.000000
33.873242,-5.392858,-4.333801,0.000000,-0.000000,-1.000000
-31.167014,-19.878640,4.333801,0.000000,-0.000000,1.000000
22.470475,-1.871977,4.333801,-0.000000,0.000000,1.000000
20.792463,18.272686,-4.333801,0.000000,-0.000000,-1.000000
39.564035,-4.789414,-4.333801,0.000000,0.000000,-1.000000
4.036182,19.246735,4.333801,-0.000000,0.000000,1.000000
-30.599296,-2.710163,4.333801,0.000000,-0.000000,1.000000
-18.056522,24.248466,-4.333801,0.000000,-0.000000,-1.000000
-40.776833,-20.519686,4.333801,0.000000,-0.000000,1.000000
-18.169374,26.942795,-4.333801,0.000000,-0.000000,-1.000000
-31.431185,-17.335229,-4.333801,0.000000,0.000000,-1.000000
1.384048,-9.422619,4.333801,-0.000000,-0.000000,1.000000
-34.473632,-17.204418,4.333801,0.000000,-0.000000,1.000000
21.005938,12.101985,4.333801,-0.000000,0.000000,1.000000
-34.312308,-3.100223,-4.333801,0.000000,0.000000,-1.000000
-2.679675,17.675163,-4.333801,0.000000,-0.000000,-1.000000
30.016099,-31.756176,-3.821957,0.000000,-1.000000,0.000000
-19.374614,-15.720025,-4.333801,0.000000,0.000000,-1.000000
-12.705277,15.154882,4.333801,-0.000000,0.000000,1.000000
27.238328,-6.459162,-0.127782,-0.290285,-0.956940,-0.000000
-34.114409,-16.128911,4.333801,0.000000,-0.000000,1.000000
-23.032550,-27.260900,4.333801,0.000000,-0.000000,1.000000
17.609013,-14.282944,4.333801,-0.000000,-0.000000,1.000000
-9.353300,-13.886003,-4.333801,0.000000,0.000000,-1.000000
22.872242,31.756176,-3.901483,-0.000000,1.000000,0.000000
-25.604722,5.383874,-4.333801,0.000000,0.000000,-1.000000
-13.340394,-7.633774,-4.333801,0.000000,0.000000,-1.000000
-25.075149,19.582342,-4.333801,0.000000,-0.000000,-1.000000
-21.099997,26.269817,-4.333801,0.000000,-0.000000,-1.000000
9.503300,13.769929,-4.333801,0.000000,-0.000000,-1.000000
-35.379923,18.856270,4.333801,0.000000,-0.000000,1.000000
42.606491,26.628482,-1.265219,1.000000,-0.000000,0.000000
-42.606491,-2.282487,-0.059973,-1.000000,0.000000,0.000000
-20.053889,-28.566990,-4.333801,0.000000,0.000000,-1.000000
-25.817608,14.972452,-4.333801,0.000000,0.000000,-1.000000
-34.489428,-19.149796,-4.333801,0.000000,0.000000,-1.000000
-23.523791,4.517072,4.333801,0.000000,-0.000000,1.000000
33.134839,-10.682407,-3.825984,-0.634393,-0.773010,0.000000
-16.179526,-9.112347,0.559532,-0.995185,-0.098017,0.000000
-4.735092,-10.977428,-4.333801,0.000000,0.000000,-1.000000
0.036947,11.595917,4.333801,-0.000000,0.000000,1.000000
-21.848615,17.085409,4.333801,-0.000000,0.000000,1.000000
-16.715344,-12.060315,-2.476317,-0.881922,0.471395,0.000000
22.813970,22.008901,-4.333801,0.000000,-0.000000,-1.000000
-22.294425,-15.159755,-3.268907,0.098017,0.995185,-0.000000
42.606491,21.443901,2.999890,1.000000,-0.000000,0.000000
-20.670516,6.036074,-4.333801,0.000000,0.000000,-1.000000
-21.418185,-31.756176,-1.121195,0.000000,-1.000000,0.000000
20.613872,18.005407,-4.333801,0.000000,-0.000000,-1.000000
37.217584,-31.756176,-1.554325,0.000000,-1.000000,0.000000
-6.975350,-22.798596,-4.333801,0.000000,0.000000,-1.000000
-39.010672,-10.876221,4.333801,0.000000,-0.000000,1.000000
-1.118113,-29.928086,4.333801,0.000000,-0.000000,1.000000
-24.559045,-31.724985,4.333801,0.000000,-0.000000,1.000000
-17.971749,16.667183,-4.333801,-0.000000,-0.000000,-1.000000
-26.797702,-30.661180,-4.333801,0.000000,0.000000,-1.000000
-18.923139,8.732408,-4.333801,0.000000,0.000000,-1.000000
18.022584,1.491388,-4.333801,0.000000,-0.000000,-1.000000
-35.533765,15.587767,4.333801,0.000000,-0.000000,1.000000
40.233269,20.385809,4.333801,-0.000000,0.000000,1.000000
-7.653876,-2.516715,4.333801,0.000000,-0.000000,1.000000
40.941785,24.033776,4.333801,-0.000000,0.000000,1.000000
-8.004057,31.756176,-3.814429,-0.000000,1.000000,0.000000
18.040303,-21.527732,-4.333801,0.000000,0.000000,-1.000000
-22.752808,13.911334,4.333801,-0.000000,0.000000,1.000000
-7.067109,-18.107313,4.333801,-0.000000,-0.000000,1.000000
42.606491,20.846210,1.196254,1.000000,-0.000000,0.000000
14.794153,26.631297,-4.333801,0.000000,-0.000000,-1.000000
6.114437,27.945839,-4.333801,0.000000,-0.000000,-1.000000
19.897526,-11.822190,4.333801,-0.000000,-0.000000,1.000000
-1.482534,6.493747,-3.401592,-0.290285,-0.956940,0.000000
-0.576938,10.224762,-4.333801,0.000000,-0.000000,-1.000000
13.755016,-7.660276,-4.333801,0.000000,-0.000000,-1.000000
42.606491,22.438191,1.221052,1.000000,-0.000000,0.000000
42.606491,-25.274613,-1.827855,1.000000,0.000000,-0.000000
34.812847,31.440448,-4.333801,0.000000,-0.000000,-1.000000
19.168799,31.756176,-2.651529,-0.000000,1.000000,0.000000
-30.025011,6.474271,4.333801,0.000000,-0.000000,1.000000
19.258245,31.756176,3.212914,0.000000,1.000000,0.000000
-34.753805,4.668297,-4.333801,0.000000,0.000000,-1.000000
-39.606789,14.608252,-4.333801,0.000000,0.000000,-1.000000
-36.798136,23.154949,-4.333801,0.000000,0.000000,-1.000000
-11.704106,7.017748,4.333801,-0.000000,0.000000,1.000000
13.189901,-31.756176,2.655282,0.000000,-1.000000,0.000000
18.679156,-14.722696,4.333801,-0.000000,-0.000000,1.000000
8.818284,-19.456796,-4.333801,0.000000,0.000000,-1.000000
-29.231862,24.186936,4.333801,-0.000000,0.000000,1.000000
18.629109,-21.004286,-4.333801,0.000000,0.000000,-1.000000
-24.191983,-16.202587,4.333801,0.000000,-0.000000,1.000000
-11.493847,-19.065152,-4.333801,0.000000,0.000000,-1.000000
-42.606491,14.249218,-1.940518,-1.000000,0.000000,0.000000
-40.446853,-12.981698,-4.333801,0.000000,0.000000,-1.000000
9.442981,29.344890,4.333801,-0.000000,0.000000,1.000000
42.606491,-20.119401,-0.315532,1.000000,0.000000,-0.000000
-29.002974,24.984465,4.333801,-0.000000,0.000000,1.000000
-9.193676,25.482404,-4.333801,0.000000,-0.000000,-1.000000
-42.606491,-23.296771,-3.368257,-1.000000,0.000000,0.000000
-8.245971,-26.484946,-4.333801,0.000000,0.000000,-1.000000
-23.879264,12.252286,-4.333801,0.000000,0.000000,-1.000000
-2.610554,-26.020888,-4.333801,0.000000,0.000000,-1.000000
42.606491,21.708247,-2.997349,1.000000,0.000000,-0.000000
11.648393,17.749798,4.333801,-0.000000,0.000000,1.000000
0.643676,-31.756176,1.610461,0.000000,-1.000000,0.000000
7.156430,-7.902560,-4.333801,0.000000,0.000000,-1.000000
-2.346897,13.875831,-4.333801,0.000000,-0.000000,-1.000000
-24.535840,9.244098,-4.333801,0.000000,0.000000,-1.000000
-32.591675,26.625815,-4.333801,0.000000,-0.000000,-1.000000
-39.850602,31.756176,-3.905957,0.000000,1.000000,0.000000
23.764605,-6.510438,4.333801,-0.000000,0.000000,1.000000
-33.207016,-30.236404,4.333801,0.000000,-0.000000,1.000000
-36.747433,-28.359471,-4.333801,0.000000,0.000000,-1.000000
-16.797128,13.542790,4.333801,-0.000000,0.000000,1.000000
-24.355747,-14.528586,-0.095912,0.471396,0.881921,-0.000000
23.166350,-27.645822,4.333801,0.000000,-0.000000,1.000000
-31.165191,10.356835,4.333801,0.000000,-0.000000,1.000000
41.790280,24.020899,-4.333801,0.000000,0.000000,-1.000000
0.760282,-6.838434,-4.333801,0.000000,0.000000,-1.000000
2.172931,21.607898,4.333801,-0.000000,0.000000,1.000000
24.591368,1.718982,4.333801,-0.000000,0.000000,1.000000
-5.923228,-20.804796,-4.333801,0.000000,0.000000,-1.000000
23.807134,-31.756176,0.099140,0.000000,-1.000000,0.000000
32.210359,-30.312655,-4.333801,0.000000,0.000000,-1.000000
-25.664485,25.957537,-4.333801,0.000000,-0.000000,-1.000000
-10.013968,-24.340136,-4.333801,0.000000,0.000000,-1.000000
1.557186,31.756176,2.434272,0.000000,1.000000,0.000000
-34.815308,31.360306,-4.333801,0.000000,-0.000000,-1.000000
21.234707,-15.373152,4.333801,-0.000000,-0.000000,1.000000
-26.956528,-31.756176,0.580552,0.000000,-1.000000,0.000000
41.524701,0.613202,-4.333801,0.000000,0.000000,-1.000000
-42.606491,6.147812,3.503224,-1.000000,0.000000,0.000000
-17.357194,-29.246266,-4.333801,0.000000,0.000000,-1.000000
16.044613,24.301950,-4.333801,0.000000,-0.000000,-1.000000
-25.234595,-13.944334,2.857851,0.634393,0.773011,0.000000
-8.338872,-9.341241,4.333801,-0.000000,-0.000000,1.000000
-4.376668,24.414642,4.333801,-0.000000,0.000000,1.000000
-23.320328,10.621937,-4.333801,0.000000,0.000000,-1.000000
28.406297,9.859605,-4.333801,0.000000,-0.000000,-1.000000
4.766676,-31.756176,0.546254,0.000000,-1.000000,0.000000
24.835062,1.525532,-4.333801,0.000000,-0.000000,-1.000000
7.186876,-28.957906,-4.333801,0.000000,0.000000,-1.000000
41.208431,-30.874354,-4.333801,0.000000,0.000000,-1.000000
-1.842273,-31.756176,2.906494,0.000000,-1.000000,0.000000
37.315011,-7.982975,4.333801,0.000000,-0.000000,1.000000
-42.606491,6.852745,-2.820560,-1.000000,0.000000,0.000000
3.630521,0.900846,4.333801,-0.000000,0.000000,1.000000
-34.288887,17.985215,-4.333801,0.000000,0.000000,-1.000000
-31.100921,11.350829,-4.333801,0.000000,0.000000,-1.000000
-34.308681,19.650517,4.333801,0.000000,-0.000000,1.000000
-23.859403,31.756176,2.741810,0.000000,1.000000,0.000000
21.498063,31.756176,0.600085,-0.000000,1.000000,0.000000
42.606491,-28.232735,0.095080,1.000000,0.000000,-0.000000
28.897352,19.170520,4.333801,-0.000000,0.000000,1.000000
18.370961,30.703587,4.333801,-0.000000,0.000000,1.000000
-16.697030,-25.885163,4.333801,0.000000,-0.000000,1.000000
22.272858,-17.568401,-4.333801,0.000000,0.000000,-1.000000
-31.693641,-25.940003,4.333801,0.000000,-0.000000,1.000000
-30.076853,-18.545329,-4.333801,0.000000,0.000000,-1.000000
-13.958950,-4.247298,-4.333801,0.000000,0.000000,-1.000000
-2.651420,27.566732,-4.333801,0.000000,-0.000000,-1.000000
24.569990,-23.145618,4.333801,-0.000000,-0.000000,1.000000
40.484335,11.212590,-4.333801,0.000000,0.000000,-1.000000
26.038739,-20.128700,-4.333801,0.000000,0.000000,-1.000000
-37.325894,18.272363,-4.333801,0.000000,0.000000,-1.000000
4.620657,-21.328474,-4.333801,0.000000,0.000000,-1.000000
-23.543912,-31.756176,0.732747,0.000000,-1.000000,0.000000
36.981219,-18.605578,-4.333801,0.000000,0.000000,-1.000000
-42.606491,19.341406,-0.906350,-1.000000,0.000000,0.000000
14.347734,-13.852925,4.333801,-0.000000,-0.000000,1.000000
27.476429,-2.426713,4.333801,-0.000000,0.000000,1.000000
-35.918454,-31.756176,1.719897,0.000000,-1.000000,0.000000
-27.767228,-30.940939,-4.333801,0.000000,0.000000,-1.000000
-26.785504,-7.272463,-1.259420,0.881921,-0.471397,0.000000
-32.655162,24.592627,4.333801,-0.000000,0.000000,1.000000
7.352909,22.626994,4.333801,-0.000000,0.000000,1.000000
-36.783789,-1.158465,4.333801,0.000000,-0.000000,1.000000
-38.661326,18.405930,4.333801,0.000000,-0.000000,1.000000
24.651110,28.451270,4.333801,-0.000000,0.000000,1.000000
-0.247027,31.756176,0.835987,0.000000,1.000000,0.000000
13.224887,24.275417,-4.333801,0.000000,-0.000000,-1.000000
-25.193285,-18.031982,-4.333801,0.000000,0.000000,-1.000000
-1.860839,-4.774330,-4.333801,0.000000,0.000000,-1.000000
-4.129761,25.159930,-4.333801,0.000000,-0.000000,-1.000000
30.257341,31.756176,-1.786793,-0.000000,1.000000,0.000000
-5.199615,-11.379302,4.333801,-0.000000,-0.000000,1.000000
-1.264447,-14.994838,4.333801,-0.000000,-0.000000,1.000000
-3.335017,16.962358,-4.333801,0.000000,-0.000000,-1.000000
-0.882882,-14.866219,-4.333801,0.000000,0.000000,-1.000000
-3.884248,-5.461613,-4.333801,0.000000,0.000000,-1.000000
-19.162712,1.235511,-4.333801,0.000000,0.000000,-1.000000
-34.162007,-12.941247,-4.333801,0.000000,0.000000,-1.000000
10.559977,29.397264,4.333801,-0.000000,0.000000,1.000000
16.465139,8.354091,4.333801,-0.000000,0.000000,1.000000
-17.994299,-13.762014,0.477034,-0.634393,0.773011,0.000000
-31.824830,7.246921,4.333801,0.000000,-0.000000,1.000000
15.932326,22.969703,-4.333801,0.000000,-0.000000,-1.000000
42.606491,30.147316,-2.906705,1.000000,-0.000000,0.000000
-1.426197,23.392479,4.333801,-0.000000,0.000000,1.000000
-11.585777,-15.412137,4.333801,-0.000000,-0.000000,1.000000
17.179957,-15.217299,4.333801,-0.000000,-0.000000,1.000000
-2.956942,-4.480300,0.752503,0.098017,0.995185,0.000000
-14.498092,28.517773,4.333801,-0.000000,0.000000,1.000000
-0.345773,-15.011239,-4.333801,0.000000,0.000000,-1.000000
-33.628335,-3.619369,-4.333801,0.000000,0.000000,-1.000000
33.891898,-26.832438,-4.333801,0.000000,0.000000,-1.000000
-42.606491,1.055527,4.191013,-1.000000,0.000000,0.000000
-6.076273,-15.519903,-4.333801,0.000000,0.000000,-1.000000
1.016566,-26.069161,-4.333801,0.000000,0.000000,-1.000000
-14.813292,-1.527614,-4.333801,0.000000,0.000000,-1.000000
13.112468,0.298385,4.333801,-0.000000,0.000000,1.000000
-38.306996,14.443030,-4.333801,0.000000,0.000000,-1.000000
-41.513003,-16.534320,4.333801,0.000000,-0.000000,1.000000
40.803189,6.577260,4.333801,0.000000,-0.000000,1.000000
-1.026961,-4.684346,-4.333801,0.000000,0.000000,-1.000000
16.871616,-21.232028,4.333801,-0.000000,-0.000000,1.000000
-11.122856,-24.269422,4.333801,0.000000,-0.000000,1.000000
5.900979,18.648986,-4.333801,0.000000,-0.000000,-1.000000
-34.532492,-27.331716,4.333801,0.000000,-0.000000,1.000000
10.350344,5.284590,-4.333801,0.000000,-0.000000,-1.000000
34.207055,1.183255,4.333801,0.000000,-0.000000,1.000000
-5.190363,20.165195,-4.333801,0.000000,-0.000000,-1.000000
6.624459,28.195191,4.333801,-0.000000,0.000000,1.000000
42.606491,6.175956,4.143030,1.000000,-0.000000,0.000000
-42.606491,8.691189,1.261548,-1.000000,0.000000,0.000000
39.152227,-4.797630,-4.333801,0.000000,0.000000,-1.000000
42.606491,-6.837693,4.043263,1.000000,-0.000000,0.000000
-41.454398,17.146730,4.333801,0.000000,-0.000000,1.000000
26.272298,-31.756176,-1.157382,0.000000,-1.000000,0.000000
29.682061,7.725999,4.333801,-0.000000,0.000000,1.000000
21.524117,11.461342,-4.333801,0.000000,-0.000000,-1.000000
-9.563568,-11.664124,4.333801,-0.000000,-0.000000,1.000000
2.869606,31.756176,-2.270861,-0.000000,1.000000,0.000000
8.516794,26.622333,-4.333801,0.000000,-0.000000,-1.000000
-21.948420,-15.193834,0.868188,0.098017,0.995185,0.000000
42.606491,29.820160,1.921733,1.000000,-0.000000,0.000000
-17.718960,2.176313,-4.333801,0.000000,0.000000,-1.000000
-7.793587,-28.658555,-4.333801,0.000000,0.000000,-1.000000
34.500131,-21.787832,4.333801,0.000000,0.000000,1.000000
-7.620814,31.756176,4.329948,0.000000,1.000000,0.000000
-17.928509,5.444524,4.333801,0.000000,-0.000000,1.000000
37.149101,-16.917984,-4.333801,0.000000,0.000000,-1.000000
36.577527,31.756176,4.109421,0.000000,1.000000,0.000000
22.214377,23.961035,4.333801,-0.000000,0.000000,1.000000
-3.138589,-12.789712,-4.333801,0.000000,0.000000,-1.000000
-25.257182,2.927497,-4.333801,0.000000,0.000000,-1.000000
-26.236374,23.557237,4.333801,-0.000000,0.000000,1.000000
