x,y,z,nx,ny,nz
-13.047670,5.119309,-31.522802,-0.000000,-0.000000,1.000000
0.947064,15.346450,-33.767185,0.065403,0.997859,-0.000000
1.347780,9.711199,-32.337000,-0.634394,0.773010,0.000000
6.144837,2.564354,5.777002,0.896873,0.442288,0.000000
3.572326,-10.941988,31.522802,0.000000,0.000000,-1.000000
5.915135,3.030144,-27.964571,0.896873,0.442288,0.000000
-1.349802,1.902534,-40.354008,0.000000,0.000000,-1.000000
6.625042,-0.526957,-3.171172,0.997859,-0.065403,0.000000
6.322446,-2.048309,25.014922,0.946930,-0.321440,0.000000
-15.290241,1.804650,-32.105174,-0.997859,0.065403,0.000000
-6.646439,-0.200497,-30.477507,-0.997859,-0.065403,-0.000000
0.030793,15.406506,34.522475,0.065403,0.997859,-0.000000
-6.548473,-1.141396,8.282520,-0.980785,-0.195090,-0.000000
1.168777,-6.543027,-16.113496,0.195090,-0.980785,0.000000
0.664471,-12.903197,38.253276,-0.290286,0.956940,0.000000
0.966628,1.834218,-23.836186,-0.471397,-0.881921,0.000000
-13.868807,2.032021,40.354008,-0.000000,-0.000000,1.000000
7.958095,13.174568,-39.450180,0.555570,0.831470,0.000000
-3.845174,5.422997,10.487863,-0.555570,0.831469,0.000000
-0.700204,6.613687,13.747078,-0.065403,0.997859,0.000000
-6.074321,2.707346,-17.800792,-0.896873,0.442288,0.000000
-2.058574,-0.251376,29.137395,0.995185,0.098017,0.000000
3.939388,5.360046,27.809715,0.555570,0.831469,-0.000000
5.155524,4.199911,26.182535,0.751840,0.659346,-0.000000
2.724098,-6.066060,-12.289866,0.442288,-0.896873,0.000000
-5.064910,4.303237,-15.011130,-0.751840,0.659346,0.000000
1.692600,1.205724,15.246612,-0.773010,-0.634393,0.000000
5.262587,-14.450834,36.016362,0.321439,-0.946930,0.000000
-6.027862,-4.310960,-31.522802,0.000000,-0.000000,1.000000
-9.777553,-1.408540,36.211561,-0.634393,0.773011,0.000000
2.046521,0.373754,20.492731,-0.995185,-0.098017,0.000000
1.124121,-14.615660,40.354008,0.000000,0.000000,1.000000
14.918284,3.813108,-38.308524,0.980785,0.195090,-0.000000
-10.228427,-1.718923,36.220285,-0.471396,0.881921,0.000000
-2.850969,-6.003494,17.669791,-0.442288,-0.896873,0.000000
1.409361,6.495172,-25.950669,0.195090,0.980785,0.000000
-6.094697,-2.666028,-16.486163,-0.896873,-0.442288,0.000000
-4.687165,4.728214,-7.854551,-0.659346,0.751840,0.000000
-9.481227,-1.064049,37.361321,-0.881921,0.471397,0.000000
-6.751442,13.814052,39.768114,-0.442289,0.896873,0.000000
-3.711743,5.512153,-19.907861,-0.555570,0.831469,0.000000
-4.939686,4.446026,8.682677,-0.751840,0.659346,0.000000
5.886462,-3.088288,24.919688,0.896873,-0.442288,0.000000
-5.545790,-3.474624,-40.354008,0.000000,0.000000,-1.000000
4.669582,4.743633,-12.463278,0.659346,0.751840,0.000000
14.976736,3.519249,39.343769,0.980785,0.195090,-0.000000
12.895481,7.170540,-31.522802,0.000000,-0.000000,1.000000
-0.165941,6.648704,-27.932149,-0.065403,0.997859,0.000000
-1.194747,-12.602667,33.936952,0.634393,0.773011,-0.000000
5.315284,-14.432946,31.656129,0.321439,-0.946930,0.000000
-10.427944,-5.319974,-31.522802,-0.000000,0.000000,1.000000
-15.181850,2.488071,38.919343,-0.980785,0.195090,0.000000
12.749062,-6.372373,-31.522802,-0.000000,0.000000,1.000000
5.829429,3.203938,-26.171701,0.896873,0.442288,0.000000
0.968624,-1.833151,-33.236724,-0.471397,0.881921,0.000000
-11.335235,2.737701,31.522802,-0.000000,-0.000000,-1.000000
-6.438491,1.694314,-16.390432,-0.980785,0.195090,0.000000
0.657443,6.616489,-1.246532,0.065403,0.997859,0.000000
1.791208,10.370817,-40.176265,-0.956940,0.290285,0.000000
-0.972364,1.831152,33.586222,0.471397,-0.881921,0.000000
1.032527,-1.798994,9.284804,-0.471397,0.881921,0.000000
5.594242,11.087041,31.522802,0.000000,0.000000,-1.000000
1.880310,10.664546,38.348242,-0.956940,0.290285,0.000000
-1.738019,6.427775,27.682527,-0.321440,0.946930,0.000000
6.589075,0.937280,23.177597,0.980785,0.195090,0.000000
5.438018,-3.822694,-6.659988,0.831469,-0.555570,0.000000
4.748455,-4.862577,31.522802,0.000000,0.000000,-1.000000
15.047668,-3.162646,-32.416094,0.980785,-0.195090,0.000000
7.310614,-12.594686,40.354008,0.000000,0.000000,1.000000
-11.482603,10.225978,-33.622101,-0.751840,0.659346,0.000000
0.623500,-1.977457,13.128624,-0.290284,0.956940,0.000000
14.322487,5.640685,-37.992692,0.946930,0.321439,-0.000000
-1.174896,1.717900,-29.433022,0.634393,-0.773010,0.000000
-5.694974,14.304059,-35.748732,-0.321439,0.946930,0.000000
2.044400,-0.395288,-11.707921,-0.995185,0.098017,0.000000
14.185457,5.998309,33.498163,0.896873,0.442289,0.000000
-4.960047,4.422810,-0.670719,-0.751840,0.659346,0.000000
13.802740,-2.388384,40.354008,0.000000,0.000000,1.000000
1.308132,-1.608556,-1.239785,-0.634393,0.773010,0.000000
14.906435,3.872673,31.824731,0.980785,0.195090,0.000000
0.179194,2.065684,-2.465063,-0.098017,-0.995185,0.000000
-9.971774,-1.567933,35.631366,-0.634393,0.773011,0.000000
-10.980314,10.798729,38.754195,-0.751840,0.659346,0.000000
-14.247224,-5.862403,-36.245518,-0.946930,-0.321439,0.000000
1.066310,9.482436,-37.128153,-0.471397,0.881921,0.000000
-1.383531,6.500310,5.467244,-0.195090,0.980785,0.000000
6.237595,-9.148741,40.354008,0.000000,0.000000,1.000000
9.833890,-1.454774,-32.386222,0.634393,0.773011,0.000000
9.880980,-11.785158,38.659655,0.659346,-0.751840,0.000000
-13.403991,7.582964,-39.689578,-0.896873,0.442289,0.000000
-2.711653,-15.137376,-33.480168,-0.195090,-0.980785,0.000000
11.415227,-1.901734,-37.281400,-0.098017,0.995185,0.000000
-7.869627,2.390891,40.354008,0.000000,0.000000,1.000000
-9.309222,12.271774,35.741419,-0.555570,0.831470,0.000000
0.242073,13.003654,-36.673723,-0.098016,-0.995185,0.000000
0.377934,-15.383753,-33.315794,0.065403,-0.997859,0.000000
6.264532,-2.218918,22.323399,0.946930,-0.321440,0.000000
4.579766,12.529672,-40.354008,0.000000,0.000000,-1.000000
-6.763416,13.808147,-38.480461,-0.442289,0.896873,0.000000
-10.079352,1.639242,39.986998,-0.471396,-0.881921,0.000000
12.113041,7.847716,-40.354008,0.000000,0.000000,-1.000000
-0.581672,-6.621456,14.511576,-0.065403,-0.997859,0.000000
-2.446572,6.187254,9.819479,-0.321440,0.946930,0.000000
15.013538,-3.334233,-33.494750,0.980785,-0.195090,0.000000
6.263533,-2.221861,-27.418467,0.946930,-0.321440,0.000000
-0.731743,-15.360563,34.685407,-0.065403,-0.997859,0.000000
-0.479066,-2.021271,23.296146,0.290284,0.956940,0.000000
-4.392856,-4.986316,-23.212679,-0.659346,-0.751840,-0.000000
6.037864,-2.781275,-31.034824,0.896873,-0.442288,0.000000
-3.506145,-5.649529,11.190243,-0.555570,-0.831469,0.000000
2.529120,15.173685,-36.671377,0.195090,0.980785,-0.000000
1.073756,-9.486416,39.399402,-0.471397,-0.881921,0.000000
-7.309114,-13.539039,-38.252348,-0.442289,-0.896873,-0.000000
-13.116440,1.783748,31.522802,0.000000,-0.000000,-1.000000
-10.234512,1.722176,37.821878,-0.471396,-0.881921,0.000000
0.234115,6.644236,22.769529,0.065403,0.997859,-0.000000
-0.946871,-6.587167,-6.337230,-0.195090,-0.980785,0.000000
-10.816270,-7.572581,31.522802,0.000000,0.000000,-1.000000
-6.482370,-1.473722,-28.351557,-0.980785,-0.195090,-0.000000
-7.902777,13.211530,-39.355230,-0.555570,0.831470,0.000000
-5.428074,-3.837575,6.729450,-0.831469,-0.555570,0.000000
-3.850607,5.419367,-10.894237,-0.555570,0.831469,0.000000
-6.203838,-2.397717,5.572329,-0.946930,-0.321440,0.000000
5.779220,14.275461,-39.121908,0.321439,0.946930,0.000000
6.612722,0.714918,0.204918,0.997859,0.065403,-0.000000
1.729587,10.248377,37.166835,-0.881921,0.471396,0.000000
5.879675,3.102050,19.351472,0.896873,0.442288,-0.000000
10.915729,-9.301831,-40.354008,0.000000,-0.000000,-1.000000
-5.003532,-5.640195,31.522802,0.000000,0.000000,-1.000000
1.533859,-1.399150,15.074438,-0.773010,0.634393,0.000000
-2.100747,10.482021,40.354008,0.000000,0.000000,1.000000
-6.223446,2.339952,15.746034,-0.946930,0.321440,0.000000
6.258301,2.237274,-2.967027,0.946930,0.321440,-0.000000
1.792018,10.373486,-34.216044,-0.956940,0.290285,0.000000
-3.649076,5.554026,3.717279,-0.555570,0.831469,0.000000
6.405273,-1.804306,28.677401,0.946930,-0.321440,0.000000
1.982337,-0.607413,19.638228,-0.956940,0.290284,0.000000
-12.359777,-9.177516,34.072675,-0.831470,-0.555570,0.000000
-6.616899,0.651188,12.980765,-0.997859,0.065403,0.000000
0.121978,14.909874,31.522802,0.000000,0.000000,-1.000000
-4.310804,5.058273,-22.978031,-0.659346,0.751840,0.000000
-0.474420,2.022680,-11.219646,0.290284,-0.956940,0.000000
-8.554120,-7.057629,31.522802,0.000000,-0.000000,-1.000000
0.200409,-15.395389,-35.480186,0.065403,-0.997859,0.000000
2.054587,-0.291863,-7.037820,-0.995185,0.098017,0.000000
1.066196,-9.482375,33.282053,-0.471397,-0.881921,0.000000
-1.007053,7.864140,-31.522802,0.000000,0.000000,1.000000
14.785679,-0.554715,-31.522802,-0.000000,0.000000,1.000000
-2.820471,-11.323406,-31.522802,0.000000,-0.000000,1.000000
-5.536547,-3.675234,26.648895,-0.831469,-0.555570,0.000000
5.386474,-3.899835,2.577418,0.831469,-0.555570,0.000000
0.410508,-7.148070,31.522802,0.000000,-0.000000,-1.000000
-1.778481,1.070905,21.001234,0.881921,-0.471397,0.000000
-4.724147,-4.691801,27.470972,-0.751840,-0.659346,0.000000
15.146749,-2.664535,33.151745,0.980785,-0.195090,0.000000
-1.159894,12.631270,38.286123,0.634393,-0.773011,0.000000
1.923477,0.799635,-22.473834,-0.881921,-0.471397,0.000000
0.506276,9.237089,-37.389370,-0.290284,0.956941,0.000000
-0.575708,1.991955,39.729637,0.290284,-0.956940,0.000000
-6.398586,2.558907,31.522802,0.000000,-0.000000,-1.000000
2.904842,5.976927,-17.556103,0.442288,0.896873,0.000000
2.719378,-6.068387,11.563365,0.442288,-0.896873,0.000000
-3.327150,-9.135816,-40.354008,0.000000,0.000000,-1.000000
5.549746,-3.655482,-27.990797,0.831469,-0.555570,0.000000
5.066764,14.517307,33.630596,0.321439,0.946930,0.000000
3.187886,-5.837345,20.202484,0.442288,-0.896873,0.000000
-0.574347,1.992367,-20.099664,0.290284,-0.956940,0.000000
4.114320,14.840618,39.753362,0.321439,0.946930,-0.000000
-6.575190,-1.007084,-20.353848,-0.980785,-0.195090,-0.000000
12.950572,7.531399,-40.354008,0.000000,0.000000,-1.000000
-1.362057,-12.465360,36.334657,0.634393,0.773011,-0.000000
1.401602,-6.496715,24.918005,0.195090,-0.980785,0.000000
5.322466,-8.295827,40.354008,0.000000,-0.000000,1.000000
3.668891,14.946970,-31.801413,0.195090,0.980785,-0.000000
-5.760814,-3.339596,-13.123766,-0.831469,-0.555570,-0.000000
6.621490,0.581145,26.246989,0.997859,0.065403,-0.000000
-11.235884,-3.141289,-31.522802,0.000000,-0.000000,1.000000
-1.081796,6.560329,-24.400870,-0.195090,0.980785,0.000000
6.587294,0.946234,-7.246937,0.980785,0.195090,0.000000
2.165536,6.199995,-40.354008,0.000000,-0.000000,-1.000000
-4.263512,-5.099747,-14.272250,-0.659346,-0.751840,-0.000000
7.671669,13.360247,-32.638084,0.442289,0.896873,0.000000
6.637313,-0.339732,8.690641,0.997859,-0.065403,0.000000
11.346953,5.208745,-31.522802,0.000000,-0.000000,1.000000
13.131265,7.934563,-40.354008,0.000000,0.000000,-1.000000
-4.399370,9.256030,31.522802,0.000000,0.000000,-1.000000
11.120846,-10.638483,-34.897482,0.751840,-0.659346,0.000000
-2.127961,7.610124,-40.354008,0.000000,0.000000,-1.000000
1.824872,-10.481792,35.982452,-0.956940,-0.290285,0.000000
-13.336373,-2.500697,40.354008,-0.000000,-0.000000,1.000000
-5.500627,-3.728993,-17.318966,-0.831469,-0.555570,-0.000000
-5.337388,-3.973297,-1.593274,-0.831469,-0.555570,0.000000
-2.268852,6.247581,5.406821,-0.321440,0.946930,0.000000
10.442673,11.292567,-31.970826,0.659346,0.751840,-0.000000
1.267334,6.523423,28.783730,0.195090,0.980785,-0.000000
-1.249353,-1.656795,-12.761486,0.634393,0.773010,0.000000
4.010130,-9.908228,-40.354008,0.000000,0.000000,-1.000000
-3.049104,5.905785,-13.328655,-0.442288,0.896873,0.000000
1.896307,-11.470327,-38.885972,-0.995185,0.098017,0.000000
5.688126,3.448380,19.846239,0.831469,0.555570,0.000000
4.012229,-5.311375,10.838127,0.555570,-0.831469,0.000000
-11.410427,10.308279,-32.995403,-0.751840,0.659346,0.000000
10.609030,1.863470,37.264261,0.290285,-0.956940,0.000000
1.261710,-15.325827,-38.843484,0.065403,-0.997859,0.000000
1.727396,1.163326,36.767449,-0.773010,-0.634393,0.000000
-2.064356,-0.192671,-0.535109,0.995185,0.098017,-0.000000
6.183613,2.457296,29.038697,0.946930,0.321440,-0.000000
1.753134,10.292430,32.409927,-0.881921,0.471396,0.000000
-7.581171,10.894581,40.354008,0.000000,0.000000,1.000000
2.564908,6.144564,24.770720,0.442288,0.896873,-0.000000
5.854319,3.153467,-11.881745,0.896873,0.442288,-0.000000
4.591008,-7.442933,-31.522802,-0.000000,-0.000000,1.000000
-7.268048,-4.095921,-31.522802,-0.000000,0.000000,1.000000
-1.725738,-1.165345,-14.316069,0.773010,0.634393,-0.000000
9.614479,-9.550766,31.522802,0.000000,-0.000000,-1.000000
3.086236,-5.887473,-7.419709,0.442288,-0.896873,0.000000
6.140303,-13.581996,-40.354008,0.000000,-0.000000,-1.000000
-6.831884,-13.774383,33.305883,-0.442289,-0.896873,-0.000000
5.770074,3.324299,-5.843103,0.896873,0.442288,-0.000000
-2.879507,7.247532,-31.522802,0.000000,0.000000,1.000000
-1.144962,15.333479,33.440849,-0.065403,0.997859,0.000000
13.697759,-6.987262,-32.410535,0.896873,-0.442289,0.000000
-0.535427,-6.712937,31.522802,0.000000,0.000000,-1.000000
-5.825908,-3.211079,4.704351,-0.896873,-0.442288,0.000000
1.376593,-9.738625,35.960674,-0.773011,-0.634393,0.000000
-6.276997,2.182197,6.140635,-0.946930,0.321440,0.000000
1.148653,15.333238,-37.065655,0.065403,0.997859,0.000000
-2.050029,0.338136,-1.195860,0.995185,-0.098017,0.000000
-13.687067,-7.008942,39.631513,-0.896873,-0.442289,0.000000
-1.756053,1.112864,-29.063575,0.881921,-0.471397,0.000000
-12.365997,-9.168207,33.501263,-0.831470,-0.555570,0.000000
4.718797,4.697902,25.005775,0.751840,0.659346,-0.000000
-5.780998,-3.302147,-31.282837,-0.896873,-0.442288,0.000000
5.108259,4.253806,30.097022,0.751840,0.659346,-0.000000
-0.154897,-13.012240,-37.382069,0.098016,0.995185,-0.000000
15.223857,-2.276884,-39.413846,0.980785,-0.195090,0.000000
1.445834,-6.153178,40.354008,0.000000,-0.000000,1.000000
7.238854,8.945873,31.522802,0.000000,0.000000,-1.000000
6.491934,-1.425639,4.266365,0.980785,-0.195090,0.000000
8.046266,11.226273,40.354008,0.000000,-0.000000,1.000000
-2.140928,6.291006,-6.351543,-0.321440,0.946930,0.000000
-10.486302,-9.411127,-31.522802,-0.000000,0.000000,1.000000
1.272591,9.649493,-31.706159,-0.634394,0.773010,0.000000
-9.740119,11.908690,36.623553,-0.659346,0.751840,0.000000
2.314884,-6.231956,11.744659,0.321440,-0.946930,0.000000
-6.777584,13.801161,-37.428881,-0.442289,0.896873,0.000000
-12.338849,-8.879130,31.522802,0.000000,0.000000,-1.000000
11.026663,10.745879,-38.005168,0.751840,0.659346,-0.000000
-8.104163,-13.076968,38.997222,-0.555570,-0.831470,0.000000
-1.997849,-6.339575,4.773929,-0.321440,-0.946930,0.000000
-15.083164,2.984198,-36.599235,-0.980785,0.195090,0.000000
4.311730,-14.773606,-38.948989,0.321439,-0.946930,0.000000
-3.916097,5.375608,-26.744207,-0.555570,0.831469,0.000000
9.691695,4.567282,40.354008,0.000000,-0.000000,1.000000
-14.615741,-4.776787,-39.254833,-0.946930,-0.321439,-0.000000
-8.647063,7.007352,40.354008,0.000000,0.000000,1.000000
4.387140,-14.748008,31.718996,0.321439,-0.946930,0.000000
-14.897772,3.916227,34.273290,-0.980785,0.195090,0.000000
-13.197685,-7.923497,-34.750410,-0.831470,-0.555570,-0.000000
-6.657656,0.029365,30.001396,-0.997859,0.065403,0.000000
-8.878778,4.575080,40.354008,0.000000,0.000000,1.000000
-1.487529,-1.455604,3.578013,0.773010,0.634393,0.000000
7.096562,4.676540,31.522802,0.000000,0.000000,-1.000000
7.855175,11.333009,-40.354008,0.000000,-0.000000,-1.000000
2.961191,-15.087740,35.631412,0.195090,-0.980785,0.000000
-9.722336,11.660643,-31.522802,-0.000000,-0.000000,1.000000
-3.463361,-14.039411,31.522802,0.000000,0.000000,-1.000000
15.018519,-3.309189,37.698029,0.980785,-0.195090,0.000000
-8.343880,9.308753,-40.354008,0.000000,0.000000,-1.000000
15.027010,3.266501,36.101176,0.980785,0.195090,-0.000000
-14.521487,5.054451,33.967527,-0.946930,0.321439,0.000000
14.454181,0.116814,-40.354008,0.000000,0.000000,-1.000000
-7.958955,13.173993,37.833259,-0.555570,0.831470,0.000000
-1.406317,-1.527978,-6.902100,0.634393,0.773010,-0.000000
-4.901674,4.489370,31.334790,-0.751840,0.659346,0.000000
-2.467282,6.180224,-26.244783,-0.321440,0.946930,0.000000
2.984731,-5.937530,-3.148070,0.442288,-0.896873,0.000000
-6.242738,-7.267731,-31.522802,0.000000,-0.000000,1.000000
-2.882118,11.232093,40.354008,0.000000,0.000000,1.000000
6.433236,-1.720734,-25.681124,0.980785,-0.195090,0.000000
10.845890,-6.451927,40.354008,0.000000,0.000000,1.000000
6.112513,2.629901,13.396443,0.896873,0.442288,0.000000
1.070325,12.703692,33.108156,-0.471397,-0.881921,0.000000
6.744201,11.852321,-40.354008,0.000000,-0.000000,-1.000000
6.487286,-1.449007,-24.678566,0.980785,-0.195090,0.000000
-12.240228,-1.548461,-39.195034,0.634393,0.773011,-0.000000
-3.469356,14.986660,39.953428,-0.195090,0.980785,0.000000
-5.872288,3.117029,-23.529849,-0.896873,0.442288,0.000000
-0.134504,-6.650764,-26.404837,-0.065403,-0.997859,0.000000
10.595987,-11.158114,-34.144927,0.659346,-0.751840,0.000000
9.622457,-2.338566,-31.522802,-0.000000,-0.000000,1.000000
-4.731719,-4.683168,25.154495,-0.751840,-0.659346,0.000000
-13.699433,-6.983868,-36.851654,-0.896873,-0.442289,0.000000
-0.812925,15.355242,-37.716911,-0.065403,0.997859,0.000000
1.113620,9.519028,34.364531,-0.634394,0.773010,0.000000
-14.967553,3.565412,-31.977842,-0.980785,0.195090,0.000000
-13.416754,7.557084,32.885030,-0.896873,0.442289,0.000000
10.176364,11.526114,-32.647600,0.659346,0.751840,-0.000000
-9.448197,-3.661074,-31.522802,0.000000,-0.000000,1.000000
1.750517,-1.123221,-38.057550,-0.881921,0.471397,0.000000
-5.487041,3.749325,6.275544,-0.831469,0.555570,0.000000
1.580415,6.461147,22.875526,0.195090,0.980785,-0.000000
-11.862879,9.792357,-40.154719,-0.751840,0.659346,0.000000
-3.112310,-5.874615,18.934515,-0.442288,-0.896873,0.000000
10.416201,10.014931,40.354008,0.000000,-0.000000,1.000000
-2.118205,-0.208912,40.354008,0.000000,0.000000,1.000000
-6.328638,3.138343,-40.354008,0.000000,0.000000,-1.000000
1.907514,-6.370239,-30.077707,0.321440,-0.946930,0.000000
-5.586049,-3.601151,-4.288089,-0.831469,-0.555570,-0.000000
15.393307,0.232170,-39.628355,0.997859,0.065403,0.000000
1.031990,6.570236,-19.045500,0.195090,0.980785,-0.000000
0.690897,2.476748,40.354008,0.000000,-0.000000,1.000000
6.648502,0.169018,-16.386910,0.997859,0.065403,0.000000
-1.678712,6.441595,-5.536839,-0.195090,0.980785,0.000000
4.513764,-14.705025,-33.820376,0.321439,-0.946930,0.000000
1.256975,-1.650540,-25.965070,-0.634393,0.773010,0.000000
15.319426,1.359371,36.052810,0.997859,0.065403,-0.000000
2.400870,14.945502,31.522802,0.000000,0.000000,-1.000000
-4.732385,10.464457,-31.522802,0.000000,-0.000000,1.000000
-12.538507,1.272926,-36.931284,0.773011,-0.634393,0.000000
-15.306231,1.560690,-36.468879,-0.997859,0.065403,0.000000
1.676774,6.441980,21.864073,0.195090,0.980785,0.000000
-8.349271,-9.427261,40.354008,-0.000000,-0.000000,1.000000
6.614665,0.685275,-26.805152,0.997859,0.065403,0.000000
10.497012,2.494721,40.354008,0.000000,0.000000,1.000000
-13.916570,-6.543558,35.061097,-0.896873,-0.442289,0.000000
0.373379,6.635108,4.913587,0.065403,0.997859,-0.000000
-1.353411,-1.571397,27.560156,0.634393,0.773010,0.000000
-1.335076,6.509948,-3.224216,-0.195090,0.980785,0.000000
-10.118211,1.660012,38.993803,-0.471396,-0.881921,0.000000
1.903614,-0.836798,-38.746905,-0.881921,0.471397,0.000000
-6.347106,1.975661,-15.385459,-0.946930,0.321440,0.000000
-5.357667,-3.942947,-29.380722,-0.831469,-0.555570,-0.000000
3.390353,-5.726899,21.625693,0.555570,-0.831469,0.000000
-2.626111,-12.879064,40.354008,0.000000,0.000000,1.000000
8.725450,0.278547,-40.354008,-0.000000,0.000000,-1.000000
-9.057613,-12.439893,-37.614661,-0.555570,-0.831470,0.000000
3.319955,5.772216,-13.441087,0.442288,0.896873,0.000000
-3.990466,-1.114408,40.354008,0.000000,0.000000,1.000000
6.521031,-1.279356,30.140509,0.980785,-0.195090,0.000000
-2.050730,-0.331024,-9.536695,0.995185,0.098017,0.000000
0.523451,2.007807,37.088448,-0.290284,-0.956940,0.000000
14.702767,-4.520416,32.304047,0.946930,-0.321439,0.000000
-6.385077,13.994724,35.702089,-0.442289,0.896873,0.000000
-6.606872,-0.804181,-21.659779,-0.997859,-0.065403,0.000000
8.327415,1.563066,31.522802,0.000000,0.000000,-1.000000
1.126511,-12.658667,-37.719593,-0.634393,0.773011,0.000000
4.134913,-5.212525,23.674779,0.659346,-0.751840,0.000000
1.969257,-0.650534,30.816866,-0.956940,0.290284,0.000000
-0.867289,-1.887316,-18.567119,0.471397,0.881921,0.000000
-0.868602,-1.886614,-35.217834,0.471397,0.881921,-0.000000
-12.700692,-2.517378,31.522802,0.000000,0.000000,-1.000000
-5.163064,-4.191313,-3.507052,-0.751840,-0.659346,0.000000
2.893876,-5.982335,-14.205333,0.442288,-0.896873,0.000000
-9.739174,9.849592,40.354008,0.000000,0.000000,1.000000
6.656615,0.045236,-13.584225,0.997859,0.065403,0.000000
1.833025,10.508668,35.962946,-0.956940,0.290285,0.000000
-3.747180,5.488475,-23.570152,-0.555570,0.831469,0.000000
-9.894412,-11.773379,37.645128,-0.659346,-0.751840,0.000000
3.975802,-5.335714,25.585719,0.555570,-0.831469,0.000000
2.490957,-6.172187,19.376305,0.321440,-0.946930,0.000000
-6.129111,-2.596242,21.349720,-0.896873,-0.442288,0.000000
6.214602,-2.366005,-1.130351,0.946930,-0.321440,0.000000
-4.767956,-4.641847,18.097476,-0.751840,-0.659346,0.000000
3.822497,-10.669214,31.522802,0.000000,0.000000,-1.000000
0.037997,2.079590,-35.296758,-0.098017,-0.995185,0.000000
0.903898,-8.457381,31.522802,0.000000,0.000000,-1.000000
-12.443494,7.968008,-40.354008,0.000000,0.000000,-1.000000
1.010988,1.810507,-13.393879,-0.471397,-0.881921,0.000000
1.497292,-1.443707,-39.546332,-0.773010,0.634393,0.000000
6.366330,1.919031,20.473685,0.946930,0.321440,-0.000000
3.024926,-15.075063,-34.911161,0.195090,-0.980785,0.000000
-1.666507,6.246099,-40.354008,0.000000,0.000000,-1.000000
10.565040,2.547048,40.354008,0.000000,0.000000,1.000000
-6.603004,-0.863184,-28.092510,-0.997859,-0.065403,0.000000
4.985259,-8.543783,31.522802,0.000000,-0.000000,-1.000000
-11.942896,9.255391,-31.522802,-0.000000,-0.000000,1.000000
13.383223,7.625078,-32.055408,0.896873,0.442289,-0.000000
-12.702381,-1.072778,-39.924490,0.881921,0.471397,0.000000
0.587895,1.988258,12.160866,-0.290284,-0.956940,0.000000
2.344930,-1.063296,-40.354008,0.000000,-0.000000,-1.000000
1.931081,-6.362239,31.077432,0.321440,-0.946930,0.000000
5.931458,2.997045,-8.411132,0.896873,0.442288,0.000000
11.246054,10.495710,33.830716,0.751840,0.659346,0.000000
-6.497394,-1.398191,11.647006,-0.980785,-0.195090,0.000000
-7.986378,1.216291,-31.522802,0.000000,0.000000,1.000000
2.009436,-0.518080,10.373805,-0.956940,0.290284,0.000000
-5.472197,-3.771541,26.810862,-0.831469,-0.555570,0.000000
-11.655788,10.028499,34.027721,-0.751840,0.659346,0.000000
-5.222512,4.123526,4.667500,-0.751840,0.659346,0.000000
0.107382,15.401486,-38.233062,0.065403,0.997859,-0.000000
-1.760691,1.104188,25.336449,0.881921,-0.471397,0.000000
0.702759,12.891583,33.955754,-0.290286,-0.956940,0.000000
-4.600901,-4.803865,9.574818,-0.659346,-0.751840,-0.000000
-11.987137,9.650667,34.826608,-0.751840,0.659346,0.000000
-1.347372,-9.710864,-32.372082,0.634394,-0.773010,0.000000
11.320739,-2.885970,-31.522802,-0.000000,-0.000000,1.000000
-3.881825,5.398508,16.956260,-0.555570,0.831469,0.000000
-0.675442,-15.364254,35.846090,-0.065403,-0.997859,0.000000
-6.657459,-0.032360,19.020165,-0.997859,-0.065403,-0.000000
12.992483,-0.355492,32.063069,-0.995185,0.098016,0.000000
-4.234835,-5.124896,-27.220846,-0.659346,-0.751840,-0.000000
-11.196643,-3.480462,31.522802,0.000000,0.000000,-1.000000
3.517104,14.977162,39.759323,0.195090,0.980785,-0.000000
-2.856683,6.000676,20.077119,-0.442288,0.896873,0.000000
-8.987352,-5.047550,40.354008,0.000000,0.000000,1.000000
2.026603,14.605201,-31.522802,0.000000,-0.000000,1.000000
-2.103452,-6.303727,1.728876,-0.321440,-0.946930,0.000000
-10.304031,7.198807,40.354008,0.000000,0.000000,1.000000
-6.603856,0.850184,-19.215390,-0.997859,0.065403,0.000000
-2.177803,-6.278488,7.559121,-0.321440,-0.946930,0.000000
-2.374363,10.295808,40.354008,0.000000,0.000000,1.000000
12.606336,3.358131,31.522802,0.000000,0.000000,-1.000000
4.840772,-4.558817,-20.371887,0.751840,-0.659346,0.000000
0.922147,-1.857993,6.317215,-0.471397,0.881921,0.000000
5.292094,-14.440818,-34.774753,0.321439,-0.946930,0.000000
-0.066354,-15.404175,-32.182400,-0.065403,-0.997859,0.000000
2.083097,-0.002392,-0.189081,-0.995185,0.098017,0.000000
-0.199157,2.063717,4.751925,0.098017,-0.995185,0.000000
12.515715,-5.636449,-31.522802,-0.000000,0.000000,1.000000
-6.616245,-0.661172,12.501178,-0.997859,-0.065403,0.000000
4.043597,-2.802312,-40.354008,-0.000000,0.000000,-1.000000
6.632126,-0.418864,27.660866,0.997859,-0.065403,0.000000
1.016146,-5.555458,-40.354008,-0.000000,0.000000,-1.000000
10.163098,8.772365,-31.522802,0.000000,-0.000000,1.000000
-5.995728,2.866717,-15.108387,-0.896873,0.442288,0.000000
6.578166,-0.992121,-11.527094,0.980785,-0.195090,0.000000
-2.425069,-6.194553,-2.160672,-0.321440,-0.946930,0.000000
-7.367354,1.193706,31.522802,0.000000,-0.000000,-1.000000
12.846999,8.448337,-33.718497,0.831470,0.555570,-0.000000
-0.932852,-1.852272,22.361337,0.471397,0.881921,0.000000
-6.609557,-0.763212,-21.840353,-0.997859,-0.065403,0.000000
-0.901016,-1.869288,24.128010,0.471397,0.881921,0.000000
6.435842,-1.707631,-1.930438,0.980785,-0.195090,0.000000
-6.298918,9.541151,-40.354008,0.000000,0.000000,-1.000000
9.683971,1.314603,40.017043,0.773010,-0.634394,0.000000
-5.941721,4.339710,-31.522802,-0.000000,0.000000,1.000000
2.564299,5.321422,-40.354008,0.000000,0.000000,-1.000000
-14.716738,4.479260,-32.610140,-0.946930,0.321439,0.000000
1.603315,1.314518,0.918194,-0.773010,-0.634393,0.000000
-2.021981,-0.476725,12.120683,0.956940,0.290284,-0.000000
1.074786,-6.561723,27.599226,0.195090,-0.980785,0.000000
-1.098173,-2.695887,-40.354008,0.000000,0.000000,-1.000000
3.860775,5.412573,-20.596800,0.555570,0.831469,0.000000
-4.723720,-14.633755,35.028094,-0.321439,-0.946930,0.000000
5.888453,-3.084250,-9.909646,0.896873,-0.442288,0.000000
6.517527,1.296975,-20.752159,0.980785,0.195090,0.000000
-13.053836,-8.138783,39.791122,-0.831470,-0.555570,0.000000
11.524959,-10.177680,-33.454776,0.751840,-0.659346,0.000000
10.372439,11.354161,-37.643991,0.659346,0.751840,0.000000
-12.491548,1.330146,37.739649,0.773011,-0.634393,0.000000
-2.191266,-6.273918,9.706882,-0.321440,-0.946930,0.000000
7.868600,13.234367,-38.697503,0.555570,0.831470,-0.000000
0.239273,-6.643897,-7.819482,0.065403,-0.997859,0.000000
12.687993,-1.090777,-34.110625,-0.773011,0.634393,0.000000
5.575081,1.345960,-40.354008,-0.000000,0.000000,-1.000000
0.156578,-9.176201,-38.985746,-0.098018,-0.995185,0.000000
9.126710,-4.034624,31.522802,0.000000,0.000000,-1.000000
6.087884,2.679844,-5.162769,0.896873,0.442288,0.000000
-8.691664,12.684413,32.238547,-0.555570,0.831470,0.000000
1.689824,-1.209106,32.096874,-0.773010,0.634393,0.000000
6.627837,-0.484303,21.246057,0.997859,-0.065403,0.000000
3.947808,-14.891490,37.722910,0.195090,-0.980785,0.000000
6.696617,-2.349803,-40.354008,-0.000000,0.000000,-1.000000
-6.270978,2.199927,30.992176,-0.946930,0.321440,0.000000
-0.179898,-2.065614,16.945297,0.098017,0.995185,0.000000
-0.723529,9.302992,34.350219,0.290284,0.956941,-0.000000
13.582693,-7.220593,37.045476,0.896873,-0.442289,0.000000
-11.977578,-1.709447,-32.617431,0.471396,0.881921,0.000000
-6.206288,-2.390498,-27.713066,-0.946930,-0.321440,-0.000000
0.149319,-9.175486,37.184195,-0.098018,-0.995185,0.000000
7.424193,-5.188675,-40.354008,0.000000,0.000000,-1.000000
1.226376,9.002553,40.354008,0.000000,-0.000000,1.000000
-6.494642,-1.412024,-14.549582,-0.980785,-0.195090,-0.000000
1.691146,10.176459,-31.893487,-0.881921,0.471396,0.000000
-3.132909,-15.053583,38.375526,-0.195090,-0.980785,0.000000
2.058558,6.318967,8.186571,0.321440,0.946930,-0.000000
-8.165637,12.144113,-40.354008,0.000000,0.000000,-1.000000
-0.891720,15.350078,40.206577,-0.065403,0.997859,0.000000
8.563089,-0.193795,-31.522802,0.000000,0.000000,1.000000
0.415886,9.209670,35.234995,-0.290284,0.956941,0.000000
11.898171,-1.751891,-40.176512,-0.471396,0.881921,0.000000
-6.848253,-7.614145,-31.522802,0.000000,-0.000000,1.000000
11.949881,-9.693149,32.696790,0.751840,-0.659346,0.000000
-3.087436,-5.886882,-8.899299,-0.442288,-0.896873,-0.000000
-5.282322,4.055325,7.694672,-0.751840,0.659346,0.000000
13.259450,7.831061,35.834608,0.831470,0.555570,0.000000
-7.697963,0.205520,-31.522802,-0.000000,0.000000,1.000000
11.417923,1.901468,-31.928138,-0.098017,-0.995185,-0.000000
1.014803,1.808468,13.456447,-0.471397,-0.881921,0.000000
8.887061,-1.457635,31.522802,0.000000,0.000000,-1.000000
-4.916026,-4.473005,19.866929,-0.751840,-0.659346,0.000000
0.199825,2.063652,5.910132,-0.098017,-0.995185,0.000000
-11.813305,2.903728,31.522802,-0.000000,-0.000000,-1.000000
-6.352150,5.441022,40.354008,0.000000,0.000000,1.000000
-6.525572,1.256529,-12.120588,-0.980785,0.195090,0.000000
-12.471129,1.782212,-40.354008,0.000000,0.000000,-1.000000
-2.063451,0.201858,19.509410,0.995185,-0.098017,0.000000
8.577752,-11.504570,-31.522802,-0.000000,0.000000,1.000000
0.518080,2.009436,32.464841,-0.290284,-0.956940,0.000000
-8.020997,-11.150178,40.354008,0.000000,0.000000,1.000000
10.862255,-10.730958,-31.522802,-0.000000,0.000000,1.000000
-6.611327,-0.736210,28.002577,-0.997859,-0.065403,0.000000
-8.804415,9.926285,-40.354008,0.000000,0.000000,-1.000000
2.068493,0.150671,39.599210,-0.995185,-0.098017,0.000000
1.323849,15.321755,32.000350,0.065403,0.997859,0.000000
14.876913,-4.007398,39.996660,0.946930,-0.321439,0.000000
1.639806,7.415739,-40.354008,0.000000,0.000000,-1.000000
-10.931236,-10.854692,-35.339548,-0.751840,-0.659346,0.000000
-5.515612,3.706566,10.366914,-0.831469,0.555570,0.000000
-0.818390,-6.340234,-40.354008,0.000000,0.000000,-1.000000
-6.014630,3.143373,31.522802,0.000000,-0.000000,-1.000000
4.864132,-4.532180,20.927756,0.751840,-0.659346,0.000000
-11.023368,-1.926388,38.150198,-0.098017,0.995185,0.000000
2.050833,0.329974,38.966179,-0.995185,-0.098017,0.000000
-1.482248,-9.867367,37.467833,0.773011,-0.634393,0.000000
13.107706,8.058160,-35.817066,0.831470,0.555570,0.000000
-6.654222,0.081749,0.771925,-0.997859,0.065403,0.000000
15.227730,-2.257416,39.733898,0.980785,-0.195090,0.000000
1.602975,12.760962,-31.522802,-0.000000,0.000000,1.000000
-14.249218,-5.856529,36.003347,-0.946930,-0.321439,0.000000
5.098238,4.265232,-21.864072,0.751840,0.659346,0.000000
5.836455,-3.189691,23.168642,0.896873,-0.442288,0.000000
10.172440,-11.529555,39.876098,0.659346,-0.751840,0.000000
0.488401,-9.231667,-39.651285,-0.290284,-0.956941,0.000000
3.764006,-8.274272,-31.522802,0.000000,0.000000,1.000000
3.915551,-8.795127,-31.522802,0.000000,0.000000,1.000000
4.751349,2.820338,40.354008,0.000000,-0.000000,1.000000
1.241258,-1.663438,-6.922754,-0.634393,0.773010,0.000000
-1.739067,1.396977,-40.354008,0.000000,0.000000,-1.000000
3.202198,5.830287,-1.912751,0.442288,0.896873,0.000000
-2.360837,-15.207158,-31.757490,-0.195090,-0.980785,0.000000
6.122544,2.609560,0.524137,0.896873,0.442288,0.000000
-0.384022,6.634410,10.008211,-0.065403,0.997859,0.000000
-12.992452,0.355802,31.920262,0.995185,-0.098016,0.000000
-14.641292,-4.701515,39.783398,-0.946930,-0.321439,0.000000
11.303071,1.912780,37.676882,-0.098017,-0.995185,-0.000000
15.147989,-2.658301,-34.701232,0.980785,-0.195090,0.000000
-6.512550,1.321997,-7.590407,-0.980785,0.195090,0.000000
-9.256175,-5.603224,-40.354008,-0.000000,-0.000000,-1.000000
-5.948959,-2.961555,30.501066,-0.896873,-0.442288,0.000000
-12.406082,9.108216,34.734733,-0.831470,0.555570,0.000000
12.925627,0.590531,-39.170042,-0.956940,-0.290286,0.000000
6.880459,-8.309788,-31.522802,-0.000000,-0.000000,1.000000
6.630383,0.445459,0.544406,0.997859,0.065403,-0.000000
5.893216,3.074591,-21.131087,0.896873,0.442288,0.000000
-3.903372,-6.556884,31.522802,0.000000,0.000000,-1.000000
0.629592,-1.975609,15.540314,-0.290284,0.956940,0.000000
1.974878,0.632003,20.721811,-0.956940,-0.290284,0.000000
-6.630236,-0.447705,12.510549,-0.997859,-0.065403,0.000000
6.174220,2.484967,19.294241,0.946930,0.321440,-0.000000
15.345109,-0.967535,37.947729,0.997859,-0.065403,0.000000
-2.300229,-0.613949,-40.354008,-0.000000,-0.000000,-1.000000
-5.178991,-4.173151,-17.020297,-0.751840,-0.659346,0.000000
-8.179475,-6.387526,-31.522802,0.000000,-0.000000,1.000000
9.951635,-7.353880,-31.522802,-0.000000,-0.000000,1.000000
-4.900174,10.856000,-31.522802,0.000000,0.000000,1.000000
6.323015,2.046633,-14.532945,0.946930,0.321440,0.000000
-6.586754,0.948948,10.575694,-0.980785,0.195090,0.000000
-4.507281,14.707226,35.217922,-0.321439,0.946930,0.000000
-15.293258,1.758624,35.971751,-0.997859,0.065403,0.000000
-4.630548,-4.777865,11.143761,-0.659346,-0.751840,-0.000000
9.052974,-12.442993,-39.832698,0.555570,-0.831470,0.000000
-11.667494,-1.836700,40.111963,0.290285,0.956940,0.000000
6.619382,-0.613301,29.668237,0.997859,-0.065403,0.000000
-5.930355,2.999281,-0.495738,-0.896873,0.442288,0.000000
-0.934499,-1.851391,22.370867,0.471397,0.881921,0.000000
-12.251762,9.339171,34.393621,-0.831470,0.555570,0.000000
-11.392255,1.903996,-36.626661,0.098017,-0.995185,0.000000
2.210197,-6.267492,13.292926,0.321440,-0.946930,0.000000
-6.561302,1.076901,23.411678,-0.980785,0.195090,0.000000
-1.776504,-1.074603,35.878094,0.881921,0.471397,0.000000
9.867647,7.423785,-40.354008,0.000000,-0.000000,-1.000000
-9.847935,-3.384951,-31.522802,0.000000,-0.000000,1.000000
6.108016,-6.002330,40.354008,-0.000000,0.000000,1.000000
15.133918,-2.729040,35.780466,0.980785,-0.195090,0.000000
12.339062,-1.467350,36.152077,-0.634393,0.773011,0.000000
-6.253454,2.251553,17.532416,-0.946930,0.321440,0.000000
-3.059914,-15.068103,34.605005,-0.195090,-0.980785,0.000000
-0.429225,-5.559599,-40.354008,-0.000000,-0.000000,-1.000000
-4.057094,-7.981832,31.522802,0.000000,0.000000,-1.000000
-0.026788,2.080694,-7.134034,0.098017,-0.995185,-0.000000
-1.442938,1.497924,37.376575,0.634393,-0.773010,0.000000
-1.355057,1.570046,-10.553441,0.634393,-0.773010,0.000000
1.340261,-6.508917,0.252260,0.195090,-0.980785,0.000000
6.328521,-2.030413,25.633297,0.946930,-0.321440,0.000000
-5.876255,-3.108985,26.564829,-0.896873,-0.442288,0.000000
-13.017530,0.101179,-37.800051,0.995185,-0.098016,0.000000
-3.309093,5.777573,-22.824498,-0.442288,0.896873,0.000000
15.358606,-0.761599,-37.066286,0.997859,-0.065403,0.000000
-6.167688,12.787143,31.522802,0.000000,0.000000,-1.000000
-6.233401,-2.310626,-22.873512,-0.946930,-0.321440,-0.000000
-5.088100,-4.276793,-3.926700,-0.751840,-0.659346,0.000000
-10.306397,-11.412078,-38.676957,-0.659346,-0.751840,-0.000000
-1.077001,-4.176047,40.354008,0.000000,-0.000000,1.000000
3.210312,-5.826286,-8.887873,0.442288,-0.896873,0.000000
0.071948,15.403809,35.540642,0.065403,0.997859,-0.000000
-1.200333,-1.697025,-39.478969,0.634393,0.773010,-0.000000
0.195073,13.860553,-40.354008,0.000000,0.000000,-1.000000
-15.003871,3.382831,32.935560,-0.980785,0.195090,0.000000
-8.593295,-10.960048,31.522802,0.000000,0.000000,-1.000000
-1.308978,12.508920,-34.870506,0.634393,-0.773011,0.000000
-0.288427,-12.999088,-33.698552,0.098016,0.995185,-0.000000
4.025906,9.459376,40.354008,0.000000,-0.000000,1.000000
-1.913010,-10.887538,39.838079,0.995185,-0.098017,0.000000
8.556289,10.045737,-40.354008,0.000000,-0.000000,-1.000000
-14.925084,-3.778921,-34.123379,-0.980785,-0.195090,0.000000
-0.022276,-2.081139,-23.619435,0.098017,0.995185,0.000000
1.913332,10.890809,-38.947104,-0.995185,0.098017,0.000000
4.933727,-10.239976,40.354008,0.000000,0.000000,1.000000
-6.430893,13.972130,-38.920728,-0.442289,0.896873,0.000000
5.833851,11.399032,-40.354008,0.000000,-0.000000,-1.000000
12.232707,4.837428,31.522802,0.000000,0.000000,-1.000000
5.679604,6.141639,31.522802,0.000000,0.000000,-1.000000
-5.974453,-2.909860,16.790592,-0.896873,-0.442288,0.000000
9.761029,-4.035823,-31.522802,-0.000000,-0.000000,1.000000
-10.896870,1.913929,-39.034898,-0.098017,-0.995185,0.000000
-12.964618,8.272307,32.111342,-0.831470,0.555570,0.000000
11.574679,-5.672663,31.522802,0.000000,-0.000000,-1.000000
2.050921,-0.329081,-38.128580,-0.995185,0.098017,0.000000
-0.131311,-6.650974,17.742866,-0.065403,-0.997859,0.000000
6.328515,2.030428,21.075304,0.946930,0.321440,-0.000000
4.349078,5.024708,22.001051,0.659346,0.751840,-0.000000
14.362120,5.523930,-34.282841,0.946930,0.321439,-0.000000
1.874861,-6.381323,-4.482627,0.321440,-0.946930,0.000000
1.323935,-1.595587,-13.937950,-0.634393,0.773010,0.000000
-6.606300,-0.812904,31.381085,-0.997859,-0.065403,0.000000
-12.635709,-1.154485,31.543367,0.773011,0.634393,-0.000000
2.042130,-0.410301,8.313878,-0.956940,0.290284,0.000000
-11.510633,-8.558581,31.522802,0.000000,0.000000,-1.000000
-5.614311,-3.558853,19.281245,-0.831469,-0.555570,0.000000
6.100590,-2.654078,4.038721,0.896873,-0.442288,0.000000
-12.551561,-3.167452,31.522802,0.000000,0.000000,-1.000000
-1.830307,6.396447,-27.772724,-0.321440,0.946930,0.000000
-14.349856,3.502229,40.354008,0.000000,-0.000000,1.000000
-7.980332,-0.917208,40.354008,0.000000,0.000000,1.000000
-1.734029,10.256688,-32.276563,0.881921,0.471396,0.000000
-5.438541,-3.821911,27.003904,-0.831469,-0.555570,0.000000
-3.187261,-5.837653,-11.515428,-0.442288,-0.896873,-0.000000
1.419247,1.517366,-1.111563,-0.634393,-0.773010,0.000000
5.147940,-4.208558,-19.900409,0.751840,-0.659346,0.000000
-2.065351,0.182569,33.499510,0.995185,-0.098017,0.000000
-5.976217,-2.906281,-2.700023,-0.896873,-0.442288,0.000000
-1.668850,-1.234664,2.336986,0.773010,0.634393,-0.000000
1.840737,-6.392907,3.453495,0.321440,-0.946930,0.000000
-14.152787,-6.064557,37.253819,-0.896873,-0.442289,0.000000
5.167470,14.483122,-35.955974,0.321439,0.946930,0.000000
10.763918,2.712681,31.522802,0.000000,0.000000,-1.000000
15.172009,-2.537542,-39.767992,0.980785,-0.195090,0.000000
-1.330551,-15.321315,38.732919,-0.065403,-0.997859,0.000000
1.912782,-10.885221,33.086313,-0.995185,-0.098017,0.000000
-14.908128,3.864161,-35.047442,-0.980785,0.195090,0.000000
-15.289537,-1.815392,-38.839106,-0.997859,-0.065403,0.000000
-11.871949,1.765907,-32.725530,0.471396,-0.881921,0.000000
7.293792,-11.712166,40.354008,0.000000,0.000000,1.000000
-2.057524,0.262045,-34.496267,0.995185,-0.098017,0.000000
6.611521,-0.733251,1.314018,0.997859,-0.065403,0.000000
-5.824120,-6.405521,-31.522802,0.000000,-0.000000,1.000000
-5.110017,-10.304481,-40.354008,0.000000,0.000000,-1.000000
4.128138,5.218467,24.534115,0.659346,0.751840,-0.000000
-9.169036,12.365443,-38.019231,-0.555570,0.831470,0.000000
-10.400154,-8.438142,31.522802,0.000000,-0.000000,-1.000000
1.901594,0.840577,-18.765121,-0.881921,-0.471397,0.000000
0.542496,6.624023,25.017346,0.065403,0.997859,-0.000000
0.891685,15.180926,-31.522802,0.000000,-0.000000,1.000000
-5.390965,9.700765,31.522802,0.000000,0.000000,-1.000000
9.267720,-5.856207,40.354008,0.000000,0.000000,1.000000
4.295698,5.071521,27.459149,0.659346,0.751840,-0.000000
-6.650349,0.967711,-40.354008,0.000000,-0.000000,-1.000000
-15.135723,-2.719964,33.443420,-0.980785,-0.195090,-0.000000
4.927400,2.508204,40.354008,0.000000,-0.000000,1.000000
1.838880,-0.957906,-18.130257,-0.881921,0.471397,0.000000
-1.491704,15.310753,-38.985559,-0.065403,0.997859,0.000000
-2.698679,6.078595,-25.588224,-0.442288,0.896873,0.000000
14.661330,-4.642486,-32.489735,0.946930,-0.321439,0.000000
7.527514,10.536265,31.522802,0.000000,0.000000,-1.000000
-0.862822,-9.373669,34.004103,0.471397,-0.881921,0.000000
6.626639,0.502594,2.397752,0.997859,0.065403,-0.000000
-6.947222,11.410565,31.522802,0.000000,0.000000,-1.000000
-9.409951,-0.930699,-32.100634,-0.881921,0.471397,0.000000
-10.664240,11.098258,-31.840893,-0.659346,0.751840,0.000000
6.204683,12.483372,-40.354008,0.000000,-0.000000,-1.000000
-1.888312,-11.497351,33.166089,0.956940,0.290285,-0.000000
-9.267563,-9.080976,-40.354008,0.000000,0.000000,-1.000000
8.603210,-9.114169,-40.354008,0.000000,-0.000000,-1.000000
-5.609511,3.566037,-17.655983,-0.831469,0.555570,0.000000
1.843004,-0.950190,-26.788668,-0.881921,0.471397,0.000000
-2.005076,-0.532454,37.822612,0.956940,0.290284,0.000000
3.505836,-5.649736,23.447325,0.555570,-0.831469,0.000000
-14.859253,3.092003,40.354008,-0.000000,-0.000000,1.000000
1.516956,-1.419748,37.913478,-0.773010,0.634393,0.000000
10.071777,11.617834,37.172272,0.659346,0.751840,-0.000000
4.796591,5.696982,40.354008,0.000000,-0.000000,1.000000
-2.553840,-15.168767,34.711854,-0.195090,-0.980785,0.000000
10.804713,-6.493039,-40.354008,0.000000,-0.000000,-1.000000
12.486484,-3.682518,-40.354008,0.000000,-0.000000,-1.000000
4.617448,4.789354,-3.978279,0.659346,0.751840,0.000000
6.617202,0.646571,-31.474522,0.997859,0.065403,0.000000
-0.034437,-2.079941,13.243142,0.098017,0.995185,0.000000
11.364745,-10.360370,-32.680732,0.751840,-0.659346,0.000000
4.207123,5.149199,2.145779,0.659346,0.751840,-0.000000
-4.040069,-14.865823,39.289300,-0.321439,-0.946930,0.000000
-9.672746,-3.022865,31.522802,0.000000,0.000000,-1.000000
4.409735,4.971513,-5.258479,0.659346,0.751840,0.000000
14.296982,5.715822,-32.809094,0.946930,0.321439,-0.000000
-14.256334,5.835566,-39.468416,-0.946930,0.321439,0.000000
-1.949322,15.280759,34.625589,-0.065403,0.997859,0.000000
-0.887478,6.598981,-11.275772,-0.195090,0.980785,0.000000
-0.430007,7.133896,31.522802,0.000000,0.000000,-1.000000
-10.425333,-9.284918,40.354008,0.000000,0.000000,1.000000
6.180437,-2.466653,4.529760,0.946930,-0.321440,0.000000
10.755686,-11.018062,-39.478218,0.659346,-0.751840,0.000000
-6.455131,-1.610659,-21.085061,-0.980785,-0.195090,0.000000
-14.107757,-6.155868,-37.759819,-0.896873,-0.442289,0.000000
6.484762,-1.461694,1.903212,0.980785,-0.195090,0.000000
-15.156228,2.616879,-33.156424,-0.980785,0.195090,0.000000
10.667198,-5.098721,-40.354008,0.000000,-0.000000,-1.000000
1.056104,-1.786392,20.511640,-0.471397,0.881921,0.000000
15.018569,-3.308940,35.845728,0.980785,-0.195090,0.000000
12.565723,4.029487,40.354008,0.000000,-0.000000,1.000000
7.164060,9.861939,31.522802,0.000000,0.000000,-1.000000
-4.482223,4.907942,26.245304,-0.659346,0.751840,0.000000
3.554547,5.617188,-2.122257,0.555570,0.831469,-0.000000
-0.913181,-1.862786,38.158012,0.471397,0.881921,0.000000
1.848104,-6.390406,-31.495084,0.321440,-0.946930,0.000000
4.517983,-4.876582,-12.327501,0.659346,-0.751840,0.000000
0.426663,15.380559,-36.437758,0.065403,0.997859,-0.000000
5.123256,-14.498131,-32.249570,0.321439,-0.946930,0.000000
-10.424825,1.807591,32.343964,-0.290285,-0.956940,0.000000
8.676097,12.694815,33.054236,0.555570,0.831470,0.000000
-4.947263,4.437387,28.025184,-0.751840,0.659346,0.000000
-4.376206,14.751720,36.497163,-0.321439,0.946930,0.000000
6.479553,-1.487882,-8.031154,0.980785,-0.195090,0.000000
6.606521,-0.809531,-6.435977,0.997859,-0.065403,0.000000
6.573439,-1.015888,-10.691671,0.980785,-0.195090,0.000000
-0.737345,1.942923,-20.162856,0.290284,-0.956940,0.000000
-8.343683,0.278745,40.354008,0.000000,0.000000,1.000000
-14.398661,-5.416286,38.511949,-0.946930,-0.321439,0.000000
-6.170501,13.890243,-40.354008,0.000000,0.000000,-1.000000
11.804797,-9.858586,-31.661775,0.751840,-0.659346,0.000000
8.562537,-11.431816,-40.354008,0.000000,-0.000000,-1.000000
-7.624468,-1.764637,-31.522802,0.000000,-0.000000,1.000000
10.147222,-11.551670,38.343715,0.659346,-0.751840,0.000000
-14.781004,-4.289939,-31.861014,-0.946930,-0.321439,0.000000
6.454634,1.613157,-6.582813,0.980785,0.195090,-0.000000
-6.462296,0.220750,-40.354008,0.000000,-0.000000,-1.000000
-15.397873,0.162516,-35.381672,-0.997859,0.065403,0.000000
-2.045796,-6.323299,21.732464,-0.321440,-0.946930,0.000000
-2.419562,10.922971,31.522802,0.000000,0.000000,-1.000000
3.194873,-15.041258,-33.251640,0.195090,-0.980785,0.000000
2.718873,6.068637,25.220845,0.442288,0.896873,-0.000000
-5.329133,-3.985652,-13.519769,-0.831469,-0.555570,0.000000
-13.165406,7.971806,32.310120,-0.831470,0.555570,0.000000
-2.867510,-5.995337,0.976199,-0.442288,-0.896873,0.000000
-9.797019,1.424515,34.907595,-0.634393,-0.773011,0.000000
2.925080,-5.966947,-6.067216,0.442288,-0.896873,0.000000
-9.310613,-10.456765,31.522802,0.000000,0.000000,-1.000000
14.866458,-4.038199,35.665852,0.946930,-0.321439,0.000000
-1.153973,12.649369,31.522802,0.000000,-0.000000,-1.000000
-3.990044,-12.016318,40.354008,-0.000000,-0.000000,1.000000
2.081470,-0.018913,-33.054776,-0.995185,0.098017,0.000000
-9.084950,-9.380924,31.522802,0.000000,0.000000,-1.000000
10.774772,1.901903,34.466027,0.098017,-0.995185,0.000000
5.166888,-4.186952,-25.427232,0.751840,-0.659346,0.000000
-5.708999,-4.433341,31.522802,0.000000,-0.000000,-1.000000
-0.237947,-6.643984,18.398954,-0.065403,-0.997859,0.000000
11.374081,-10.349724,-36.814276,0.751840,-0.659346,0.000000
-15.122056,2.788672,-32.188784,-0.980785,0.195090,0.000000
0.869817,1.885964,6.163551,-0.471397,-0.881921,0.000000
-0.927758,-1.854995,27.367804,0.471397,0.881921,0.000000
6.762276,8.674688,40.354008,0.000000,-0.000000,1.000000
-0.502374,-2.014200,30.613223,0.290284,0.956940,0.000000
-0.496720,-2.015915,13.040911,0.290284,0.956940,0.000000
6.536998,1.199087,-15.825330,0.980785,0.195090,0.000000
-7.356015,7.697602,31.522802,0.000000,-0.000000,-1.000000
-2.030789,6.328393,-1.029208,-0.321440,0.946930,0.000000
-3.329991,-10.853125,-40.354008,0.000000,0.000000,-1.000000
-12.649355,-7.587855,-40.354008,-0.000000,-0.000000,-1.000000
-2.591949,6.131229,3.222462,-0.442288,0.896873,0.000000
-11.211764,10.534811,-39.001706,-0.751840,0.659346,0.000000
4.725873,-8.760279,31.522802,0.000000,0.000000,-1.000000
-6.109446,-2.636121,-25.188548,-0.896873,-0.442288,0.000000
15.243123,-2.180029,36.449799,0.980785,-0.195090,0.000000
-1.564845,-15.305959,-40.144218,-0.065403,-0.997859,0.000000
11.428450,10.287728,-33.377546,0.751840,0.659346,-0.000000
0.425228,2.037602,7.335461,-0.290284,-0.956940,0.000000
-6.509922,-1.335207,-4.850218,-0.980785,-0.195090,-0.000000
-0.262652,-13.001627,32.468152,0.098016,0.995185,-0.000000
-0.545618,2.001082,-34.879459,0.290284,-0.956940,0.000000
14.442662,5.286663,-34.655987,0.946930,0.321439,-0.000000
-2.957107,10.185608,40.354008,0.000000,0.000000,1.000000
15.392615,-0.242736,-39.046490,0.997859,-0.065403,0.000000
-9.572348,9.293961,-31.522802,-0.000000,0.000000,1.000000
-4.935007,-4.451362,-2.472245,-0.751840,-0.659346,0.000000
0.948856,-9.419656,38.793025,-0.471397,-0.881921,0.000000
-7.034533,-13.674447,35.856611,-0.442289,-0.896873,-0.000000
-0.603155,1.983629,-33.040138,0.290284,-0.956940,0.000000
-1.277818,1.633434,9.700959,0.634393,-0.773010,0.000000
12.250156,5.383414,31.522802,0.000000,0.000000,-1.000000
-14.591379,1.533592,-31.522802,-0.000000,0.000000,1.000000
-10.567056,-11.183486,-31.725667,-0.659346,-0.751840,0.000000
-8.360608,12.905617,34.251152,-0.555570,0.831470,0.000000
4.953789,4.429946,14.252176,0.751840,0.659346,-0.000000
-2.432847,6.191912,19.169063,-0.321440,0.946930,0.000000
9.590309,-12.040069,-34.217727,0.659346,-0.751840,0.000000
1.730561,10.250199,36.549410,-0.881921,0.471396,0.000000
-4.954802,4.428790,-19.212322,-0.751840,0.659346,0.000000
-5.522877,-14.362478,36.074167,-0.321439,-0.946930,0.000000
-2.994926,-4.941548,-40.354008,0.000000,0.000000,-1.000000
1.711392,10.214336,-37.196326,-0.881921,0.471396,0.000000
2.958498,13.677659,40.354008,0.000000,-0.000000,1.000000
14.271799,0.399209,31.522802,0.000000,0.000000,-1.000000
-5.310545,-4.013471,19.720680,-0.831469,-0.555570,0.000000
5.785593,3.292829,-5.795777,0.896873,0.442288,-0.000000
0.851421,-7.458970,-31.522802,0.000000,0.000000,1.000000
-9.818932,-2.227688,31.522802,0.000000,0.000000,-1.000000
2.152362,-6.287124,-20.653558,0.321440,-0.946930,0.000000
-0.501156,-2.014570,-6.980118,0.290284,0.956940,0.000000
-4.454752,-4.932034,-4.740848,-0.659346,-0.751840,-0.000000
-4.748657,4.663854,-5.597579,-0.751840,0.659346,0.000000
1.932961,11.098169,-36.482849,-0.995185,-0.098017,0.000000
0.201243,13.242803,40.354008,0.000000,0.000000,1.000000
-9.336801,-0.793846,-31.938060,-0.881921,0.471397,0.000000
-0.126431,2.070880,33.626710,0.098017,-0.995185,0.000000
1.857903,-0.922316,-24.552107,-0.881921,0.471397,0.000000
-6.130355,2.593721,-8.810509,-0.896873,0.442288,0.000000
-7.045896,-7.441771,-31.522802,0.000000,-0.000000,1.000000
