x,y,z,nx,ny,nz
13.562144,-16.078037,-9.109009,-0.000000,1.000000,0.000000
-6.752104,2.452689,-10.755220,-0.000000,0.000000,1.000000
31.733065,-21.042049,-15.820742,0.000000,0.000000,-1.000000
22.212990,-21.143559,1.382782,0.000000,-1.000000,0.000000
39.921811,-1.708001,-15.820742,0.000000,0.000000,-1.000000
-17.188880,21.143559,-9.531016,-0.000000,1.000000,0.000000
44.992025,-3.232758,-10.755220,-0.000000,0.000000,1.000000
-31.474090,-21.143559,-13.574236,0.000000,-1.000000,0.000000
-40.951306,16.078037,10.206235,0.000000,-1.000000,0.000000
-18.216505,21.143559,11.211317,0.000000,1.000000,0.000000
-4.155053,-21.112254,15.820742,0.000000,0.000000,1.000000
29.408362,14.762372,-10.755220,-0.000000,0.000000,1.000000
-37.528673,-21.143559,4.036082,0.000000,-1.000000,0.000000
-39.480430,16.651006,-15.820742,0.000000,0.000000,-1.000000
36.566646,16.078037,5.419062,-0.000000,-1.000000,0.000000
12.022560,21.143559,10.561758,0.000000,1.000000,0.000000
-36.800916,21.143559,8.212987,-0.000000,1.000000,0.000000
-5.049972,-6.869674,-15.820742,0.000000,0.000000,-1.000000
-15.307340,-10.758581,-15.820742,0.000000,0.000000,-1.000000
-30.482979,-6.204982,-10.755220,0.000000,-0.000000,1.000000
-49.721531,-19.664974,-6.692773,-1.000000,0.000000,0.000000
-46.257026,21.143559,8.015112,-0.000000,1.000000,0.000000
-43.515250,3.061761,-10.755220,0.000000,-0.000000,1.000000
34.507142,5.218030,-15.820742,0.000000,0.000000,-1.000000
26.819396,21.143559,-11.764399,-0.000000,1.000000,0.000000
33.120181,21.143559,7.304493,-0.000000,1.000000,0.000000
-41.428599,-16.078037,9.059484,-0.000000,1.000000,0.000000
10.164567,-21.143559,-14.747550,0.000000,-1.000000,0.000000
25.383051,-17.074519,15.820742,0.000000,0.000000,1.000000
-39.476533,9.216171,-15.820742,0.000000,0.000000,-1.000000
-10.497820,8.891228,-10.755220,-0.000000,0.000000,1.000000
38.766538,-21.143559,-9.962838,0.000000,-1.000000,0.000000
-36.608215,-21.143559,11.762572,0.000000,-1.000000,0.000000
-48.551897,-16.078037,3.806373,-0.000000,1.000000,0.000000
-39.790987,21.143559,13.671267,-0.000000,1.000000,0.000000
-23.581492,16.858501,-15.820742,0.000000,0.000000,-1.000000
-22.302771,-16.078037,-10.171303,-0.000000,1.000000,0.000000
-15.884107,-21.143559,-3.503946,0.000000,-1.000000,0.000000
28.752531,-21.143559,3.986709,-0.000000,-1.000000,0.000000
17.565792,16.078037,3.977754,0.000000,-1.000000,0.000000
-36.388824,16.078037,-2.487308,0.000000,-1.000000,0.000000
-47.534535,16.078037,3.692604,0.000000,-1.000000,0.000000
8.384969,-16.078037,13.672703,-0.000000,1.000000,0.000000
7.699223,-21.143559,0.349768,0.000000,-1.000000,0.000000
49.721531,17.172973,-10.908460,1.000000,0.000000,-0.000000
-17.517332,16.078037,-0.251715,0.000000,-1.000000,0.000000
-14.872741,16.078037,12.453895,0.000000,-1.000000,0.000000
37.426641,-16.078037,-8.179021,-0.000000,1.000000,0.000000
-7.062907,-16.078037,11.058732,0.000000,1.000000,0.000000
-33.701468,16.078037,-7.734785,0.000000,-1.000000,0.000000
-31.181749,-21.143559,-15.160827,0.000000,-1.000000,0.000000
-13.718872,-21.143559,15.485870,0.000000,-1.000000,0.000000
39.462167,0.569297,-15.820742,0.000000,0.000000,-1.000000
21.127636,-21.143559,11.053689,-0.000000,-1.000000,0.000000
-45.826444,9.796746,-10.755220,0.000000,-0.000000,1.000000
27.810079,-21.143559,-10.410008,0.000000,-1.000000,0.000000
-36.210416,21.143559,-4.359875,0.000000,1.000000,0.000000
-29.294852,-21.143559,-6.965545,0.000000,-1.000000,0.000000
-40.107029,-18.505105,-15.820742,0.000000,0.000000,-1.000000
27.021618,21.143559,2.000564,-0.000000,1.000000,0.000000
12.596762,-15.778928,-15.820742,0.000000,0.000000,-1.000000
-49.721531,-17.532545,0.074990,-1.000000,0.000000,0.000000
-28.203638,-16.078037,-1.366030,0.000000,1.000000,0.000000
-33.206209,-16.078037,-2.269042,0.000000,1.000000,0.000000
30.869442,-9.108195,-15.820742,0.000000,0.000000,-1.000000
39.757819,-21.143559,-14.250215,0.000000,-1.000000,0.000000
-17.393727,-21.143559,-11.017135,0.000000,-1.000000,0.000000
-19.056741,-21.143559,11.522138,0.000000,-1.000000,0.000000
-49.721531,-20.176371,5.665719,-1.000000,0.000000,0.000000
43.331666,-3.641543,-15.820742,0.000000,0.000000,-1.000000
36.002323,16.078037,14.199940,-0.000000,-1.000000,0.000000
-9.397968,14.101467,-10.755220,-0.000000,0.000000,1.000000
4.780434,-4.377772,-15.820742,0.000000,0.000000,-1.000000
48.375606,-16.078037,-7.867141,-0.000000,1.000000,0.000000
33.796820,-21.143559,7.493481,-0.000000,-1.000000,0.000000
-38.928464,7.091099,-10.755220,0.000000,-0.000000,1.000000
-24.406477,16.078037,-9.086624,0.000000,-1.000000,0.000000
-1.159395,14.383632,-10.755220,-0.000000,0.000000,1.000000
-25.020288,16.078037,4.310881,0.000000,-1.000000,0.000000
48.747410,-20.709896,15.820742,0.000000,-0.000000,1.000000
1.429237,-16.078037,10.575782,-0.000000,1.000000,0.000000
25.024594,-4.358510,-10.755220,-0.000000,0.000000,1.000000
-8.448069,-16.078037,14.824763,-0.000000,1.000000,0.000000
-24.508046,16.078037,-4.603682,0.000000,-1.000000,0.000000
28.715384,21.143559,-2.005857,-0.000000,1.000000,0.000000
48.873043,7.590263,-10.755220,-0.000000,0.000000,1.000000
-24.900451,-1.468495,-15.820742,0.000000,0.000000,-1.000000
35.571998,-16.078037,12.008063,-0.000000,1.000000,0.000000
27.192225,8.702232,-15.820742,0.000000,0.000000,-1.000000
-27.883892,16.078037,2.988532,0.000000,-1.000000,0.000000
17.233899,-21.143559,3.867499,0.000000,-1.000000,0.000000
23.822124,-15.397452,-15.820742,0.000000,0.000000,-1.000000
5.932702,14.259838,-15.820742,0.000000,0.000000,-1.000000
-17.575954,-20.174488,15.820742,0.000000,-0.000000,1.000000
19.540666,-18.493400,15.693381,-0.773009,0.000000,-0.634395
29.499370,-14.345066,-10.755220,0.000000,-0.000000,1.000000
-36.650743,21.143559,12.087844,-0.000000,1.000000,0.000000
20.428263,-17.011019,13.335229,-0.995185,-0.000000,-0.098017
48.277757,16.078037,6.701961,-0.000000,-1.000000,0.000000
23.851395,-7.871617,-10.755220,0.000000,-0.000000,1.000000
-26.237240,-15.167662,-15.820742,0.000000,0.000000,-1.000000
-48.181275,21.143559,13.800261,-0.000000,1.000000,0.000000
-23.743882,-11.125752,-10.755220,0.000000,-0.000000,1.000000
49.721531,-18.165175,5.917366,1.000000,0.000000,-0.000000
23.990306,-6.479949,-10.755220,-0.000000,0.000000,1.000000
-16.427989,16.078037,-10.298933,0.000000,-1.000000,0.000000
-23.897115,1.969130,-15.820742,0.000000,0.000000,-1.000000
-4.695677,-10.007898,-10.755220,0.000000,-0.000000,1.000000
-29.291428,16.078037,-1.769420,0.000000,-1.000000,0.000000
23.174886,16.078037,15.628597,-0.000000,-1.000000,-0.000000
-37.234625,16.078037,12.893508,0.000000,-1.000000,0.000000
-39.803673,16.078037,-2.490429,0.000000,-1.000000,0.000000
-31.299156,16.078037,1.231507,0.000000,-1.000000,0.000000
3.439484,21.143559,-3.051975,-0.000000,1.000000,0.000000
7.086637,21.143559,-10.287737,-0.000000,1.000000,0.000000
-26.991537,-21.143559,-7.427142,0.000000,-1.000000,0.000000
36.077593,-16.078037,4.308503,-0.000000,1.000000,0.000000
-44.066892,16.078037,-7.707414,0.000000,-1.000000,0.000000
-5.059316,-21.143559,-13.765889,0.000000,-1.000000,0.000000
-0.699008,0.843519,-15.820742,0.000000,0.000000,-1.000000
-20.888160,21.143559,-0.012466,0.000000,1.000000,0.000000
-8.568750,16.078037,9.836042,0.000000,-1.000000,0.000000
49.234908,16.078037,-7.845741,-0.000000,-1.000000,0.000000
-31.256187,21.143559,13.370200,-0.000000,1.000000,0.000000
41.739427,16.078037,-0.087748,-0.000000,-1.000000,0.000000
-9.611821,10.585237,-15.820742,0.000000,0.000000,-1.000000
-6.728868,2.398879,-10.755220,-0.000000,0.000000,1.000000
-29.028113,16.078037,3.330974,0.000000,-1.000000,0.000000
-25.762401,4.570613,-15.820742,0.000000,0.000000,-1.000000
15.682169,-21.143559,-12.368258,0.000000,-1.000000,0.000000
-16.585877,-16.078037,7.332016,0.000000,1.000000,0.000000
-8.920876,21.143559,8.314525,0.000000,1.000000,0.000000
22.662506,16.078037,0.977421,0.000000,-1.000000,0.000000
11.627744,17.937378,-15.820742,0.000000,0.000000,-1.000000
13.132934,-20.637274,15.820742,0.000000,0.000000,1.000000
12.133028,21.143559,-15.356844,-0.000000,1.000000,0.000000
-32.359518,-16.078037,7.908996,-0.000000,1.000000,0.000000
23.572852,1.454086,-15.820742,0.000000,0.000000,-1.000000
-46.468097,-6.672004,-15.820742,0.000000,0.000000,-1.000000
48.777040,-20.135851,-15.820742,0.000000,0.000000,-1.000000
49.721531,20.628778,-2.072490,1.000000,0.000000,-0.000000
-30.456782,21.143559,9.243802,-0.000000,1.000000,0.000000
-12.938456,-12.359100,-15.820742,0.000000,0.000000,-1.000000
25.481192,-19.489335,15.820742,0.000000,0.000000,1.000000
-40.397799,-0.241706,-10.755220,0.000000,-0.000000,1.000000
-40.268812,-16.078037,0.312435,-0.000000,1.000000,0.000000
39.479637,8.117315,-10.755220,-0.000000,0.000000,1.000000
-31.243862,16.078037,12.382541,0.000000,-1.000000,0.000000
31.212328,16.078037,-5.390871,0.000000,-1.000000,0.000000
-23.672409,21.143559,-1.476956,0.000000,1.000000,0.000000
-15.131898,13.752463,-10.755220,-0.000000,0.000000,1.000000
-37.206212,-16.078037,1.342320,-0.000000,1.000000,0.000000
-41.946996,16.078037,5.638676,0.000000,-1.000000,0.000000
-14.261600,6.018196,-15.820742,0.000000,0.000000,-1.000000
-20.782979,-6.190972,-10.755220,0.000000,-0.000000,1.000000
18.573408,21.143559,-9.869517,-0.000000,1.000000,0.000000
6.312935,4.237630,-10.755220,-0.000000,0.000000,1.000000
-11.250528,21.143559,5.940870,0.000000,1.000000,0.000000
17.500372,16.078037,-2.354737,0.000000,-1.000000,0.000000
-0.018040,-7.457239,-10.755220,0.000000,-0.000000,1.000000
-9.234712,21.143559,12.502188,0.000000,1.000000,0.000000
11.793643,-9.221435,-10.755220,0.000000,-0.000000,1.000000
10.775217,20.052967,-15.820742,0.000000,0.000000,-1.000000
32.474430,-17.983067,-15.820742,0.000000,0.000000,-1.000000
38.780010,21.143559,5.486425,-0.000000,1.000000,0.000000
-13.944184,21.143559,-14.866553,-0.000000,1.000000,0.000000
-13.476664,-10.855235,-10.755220,0.000000,-0.000000,1.000000
49.721531,0.375143,-14.323443,1.000000,0.000000,-0.000000
20.915604,16.078037,11.347571,-0.000000,-1.000000,0.000000
-20.385712,16.078037,8.926931,0.000000,-1.000000,0.000000
-31.813112,21.143559,4.050248,-0.000000,1.000000,0.000000
49.120838,-8.783047,-15.820742,0.000000,0.000000,-1.000000
-15.947816,-13.528048,-10.755220,0.000000,-0.000000,1.000000
35.478148,-16.078037,-2.569004,-0.000000,1.000000,0.000000
46.208995,16.078037,0.767060,-0.000000,-1.000000,0.000000
-14.205299,-4.447585,-15.820742,0.000000,0.000000,-1.000000
-15.397615,21.143559,8.089209,0.000000,1.000000,0.000000
43.974203,21.143559,-7.489628,-0.000000,1.000000,0.000000
30.464213,-15.907990,-15.820742,0.000000,0.000000,-1.000000
46.892212,16.078037,-9.977347,0.000000,-1.000000,0.000000
36.721651,16.078037,11.075032,-0.000000,-1.000000,0.000000
3.475587,21.143559,14.483948,-0.000000,1.000000,0.000000
-11.145290,6.621503,-15.820742,0.000000,0.000000,-1.000000
29.417413,-16.078037,9.412032,-0.000000,1.000000,0.000000
33.171860,-21.143559,-13.036970,0.000000,-1.000000,0.000000
-45.377391,-16.078037,2.769876,-0.000000,1.000000,0.000000
-15.405371,21.143559,-4.610224,0.000000,1.000000,0.000000
6.306864,-21.143559,-1.152208,0.000000,-1.000000,0.000000
5.742837,-11.480042,-15.820742,0.000000,0.000000,-1.000000
-31.707075,-16.078037,9.719947,-0.000000,1.000000,0.000000
-3.291566,3.924900,-15.820742,0.000000,0.000000,-1.000000
40.622947,18.991457,15.820742,0.000000,-0.000000,1.000000
49.721531,20.499975,14.506655,1.000000,0.000000,-0.000000
15.806347,21.143559,6.021504,0.000000,1.000000,0.000000
20.851156,21.143559,6.907671,0.000000,1.000000,0.000000
30.956106,-21.143559,-1.903967,0.000000,-1.000000,0.000000
9.404595,-2.710129,-15.820742,0.000000,0.000000,-1.000000
-10.974324,16.078037,-0.633083,0.000000,-1.000000,0.000000
-43.422708,21.143559,3.218235,-0.000000,1.000000,0.000000
20.626104,-16.078037,12.245838,0.000000,1.000000,-0.000000
-48.982429,16.078037,9.766919,0.000000,-1.000000,0.000000
-12.510012,-16.078037,13.279796,0.000000,1.000000,0.000000
-5.133677,-21.143559,10.910288,0.000000,-1.000000,0.000000
20.893706,-16.078037,11.858790,0.000000,1.000000,-0.000000
10.714872,-12.098796,-10.755220,0.000000,-0.000000,1.000000
-17.250466,21.143559,-5.029771,0.000000,1.000000,0.000000
-49.477250,-16.078037,10.874631,-0.000000,1.000000,0.000000
-17.141369,-16.078037,-1.873591,0.000000,1.000000,0.000000
-9.481959,-16.078037,-1.586742,-0.000000,1.000000,0.000000
21.718580,21.143559,-7.248438,-0.000000,1.000000,0.000000
20.296432,-8.300113,-15.820742,0.000000,0.000000,-1.000000
49.721531,-5.049204,-12.493491,1.000000,0.000000,-0.000000
29.492362,3.069391,-10.755220,-0.000000,0.000000,1.000000
-4.288861,-21.143559,8.649613,0.000000,-1.000000,0.000000
12.070507,-18.914554,-15.820742,0.000000,0.000000,-1.000000
22.335750,-16.078037,12.320258,0.000000,1.000000,-0.000000
9.757773,0.466964,-15.820742,0.000000,0.000000,-1.000000
12.963107,-20.281329,12.698312,0.995185,0.000000,0.098017
30.452765,21.143559,1.216115,-0.000000,1.000000,0.000000
-6.827948,-16.078037,14.885247,-0.000000,1.000000,0.000000
49.721531,-3.208031,-13.876095,1.000000,0.000000,-0.000000
41.786426,16.078037,-8.589672,0.000000,-1.000000,0.000000
11.789429,21.143559,3.492718,-0.000000,1.000000,0.000000
-1.780091,-18.644104,-15.820742,0.000000,0.000000,-1.000000
5.786429,16.748834,15.820742,0.000000,0.000000,1.000000
-16.163374,11.297413,-10.755220,-0.000000,0.000000,1.000000
-26.959916,-7.171900,-15.820742,0.000000,0.000000,-1.000000
48.671715,16.078037,10.312745,-0.000000,-1.000000,0.000000
-37.957518,16.078037,-10.665259,0.000000,-1.000000,0.000000
14.231942,16.078037,-2.605032,0.000000,-1.000000,0.000000
19.337579,-16.078037,1.633474,-0.000000,1.000000,0.000000
-27.035446,20.350479,-15.820742,0.000000,0.000000,-1.000000
12.367878,-0.311025,-10.755220,-0.000000,0.000000,1.000000
-7.104137,-21.143559,8.177439,0.000000,-1.000000,0.000000
27.561219,4.381298,-15.820742,0.000000,0.000000,-1.000000
-18.741417,-21.143559,3.825821,0.000000,-1.000000,0.000000
-21.203321,-16.078037,5.462145,0.000000,1.000000,0.000000
-43.845554,19.124105,-15.820742,0.000000,0.000000,-1.000000
-15.286456,-16.078037,1.329488,0.000000,1.000000,0.000000
34.253930,21.143559,-14.250268,-0.000000,1.000000,0.000000
-49.501147,21.143559,-0.350960,-0.000000,1.000000,0.000000
13.437615,-13.743457,-15.820742,0.000000,0.000000,-1.000000
-30.091682,-21.143559,12.544673,0.000000,-1.000000,0.000000
44.150294,1.176779,-15.820742,0.000000,0.000000,-1.000000
-1.714149,-16.078037,0.923625,-0.000000,1.000000,0.000000
3.536610,16.078037,-1.450334,0.000000,-1.000000,0.000000
-45.723762,-16.078037,4.915372,-0.000000,1.000000,0.000000
12.965074,16.685258,13.897623,0.995185,0.000000,-0.098017
9.061436,-15.333794,-15.820742,0.000000,0.000000,-1.000000
-22.445110,4.279133,-15.820742,0.000000,0.000000,-1.000000
37.531736,16.078037,-2.712291,-0.000000,-1.000000,0.000000
-39.558313,-21.143559,-10.114209,0.000000,-1.000000,0.000000
49.721531,-20.264776,-4.212264,1.000000,0.000000,-0.000000
34.453188,6.917849,-10.755220,-0.000000,0.000000,1.000000
-12.655210,21.143559,10.201053,-0.000000,1.000000,0.000000
22.098676,-4.626207,-10.755220,-0.000000,0.000000,1.000000
-40.834646,17.517174,15.820742,0.000000,0.000000,1.000000
-20.633075,21.143559,-2.870217,0.000000,1.000000,0.000000
-45.184724,21.143559,7.190266,-0.000000,1.000000,0.000000
-10.095262,21.143559,-11.700831,-0.000000,1.000000,0.000000
-49.721531,-20.716275,9.681346,-1.000000,0.000000,0.000000
-49.721531,15.939139,-13.595968,-1.000000,0.000000,0.000000
36.827048,-21.143559,-11.611966,0.000000,-1.000000,0.000000
13.416880,-20.673578,15.149956,0.881921,0.000000,-0.471397
-41.980417,21.143559,2.111446,-0.000000,1.000000,0.000000
-43.547242,-21.143559,15.336110,0.000000,-1.000000,0.000000
36.090530,-16.078037,9.953991,-0.000000,1.000000,0.000000
33.680393,10.983728,-15.820742,0.000000,0.000000,-1.000000
15.280250,-17.933508,-15.820742,0.000000,0.000000,-1.000000
-9.199768,-3.170243,-15.820742,0.000000,0.000000,-1.000000
-38.357728,6.859904,-10.755220,0.000000,-0.000000,1.000000
-43.272911,16.678878,-15.820742,0.000000,0.000000,-1.000000
20.795833,-7.864493,-10.755220,0.000000,-0.000000,1.000000
31.933167,4.511361,-10.755220,-0.000000,0.000000,1.000000
49.721531,19.939917,-5.991311,1.000000,0.000000,-0.000000
10.943094,-21.143559,-7.579293,0.000000,-1.000000,0.000000
-31.383781,16.078037,5.694841,0.000000,-1.000000,0.000000
10.062072,21.143559,0.792908,-0.000000,1.000000,0.000000
-6.330649,-20.315704,15.820742,0.000000,0.000000,1.000000
-46.358151,-4.491383,-10.755220,0.000000,-0.000000,1.000000
5.525961,-16.078037,-8.173913,-0.000000,1.000000,0.000000
10.052843,-16.078037,3.948938,-0.000000,1.000000,0.000000
16.662537,3.610160,-15.820742,0.000000,0.000000,-1.000000
-35.702323,16.078037,-3.579360,0.000000,-1.000000,0.000000
3.706159,-21.143559,15.246714,0.000000,-1.000000,0.000000
22.193139,-16.078037,5.900546,-0.000000,1.000000,0.000000
14.480106,11.744799,-15.820742,0.000000,0.000000,-1.000000
20.610186,-7.301320,-10.755220,0.000000,-0.000000,1.000000
-33.617145,-14.127710,-10.755220,0.000000,-0.000000,1.000000
-15.063151,-21.143559,0.336017,0.000000,-1.000000,0.000000
4.482679,21.143559,-4.907150,-0.000000,1.000000,0.000000
24.333784,16.586156,15.820742,0.000000,-0.000000,1.000000
40.889495,-16.078037,15.773147,0.000000,1.000000,0.000000
1.271505,-21.143559,8.316874,0.000000,-1.000000,0.000000
13.711249,-16.078037,-3.469850,-0.000000,1.000000,0.000000
-24.784839,-21.143559,-6.933568,0.000000,-1.000000,0.000000
46.544014,11.762881,-15.820742,0.000000,0.000000,-1.000000
39.924796,-18.082240,15.820742,0.000000,-0.000000,1.000000
-28.862300,19.301793,-15.820742,0.000000,0.000000,-1.000000
40.340204,10.501678,-15.820742,0.000000,0.000000,-1.000000
-4.436004,19.342347,-15.820742,0.000000,0.000000,-1.000000
33.287401,21.143559,7.030542,-0.000000,1.000000,0.000000
-44.539829,-16.078037,12.497229,-0.000000,1.000000,0.000000
-41.253435,-3.425482,-15.820742,0.000000,0.000000,-1.000000
-40.960380,5.909483,-10.755220,0.000000,-0.000000,1.000000
-43.386309,15.957932,-15.820742,0.000000,0.000000,-1.000000
-46.532956,17.444913,15.820742,0.000000,-0.000000,1.000000
-4.118190,-8.284891,-15.820742,0.000000,0.000000,-1.000000
28.344320,16.078037,11.836216,-0.000000,-1.000000,0.000000
-17.748946,-16.078037,-7.573463,-0.000000,1.000000,0.000000
-27.973358,-17.731473,-15.820742,0.000000,0.000000,-1.000000
-35.555173,-6.367590,-15.820742,0.000000,0.000000,-1.000000
49.721531,17.185866,3.517768,1.000000,0.000000,-0.000000
-24.352296,-16.078037,5.746780,0.000000,1.000000,0.000000
49.721531,-10.134195,-12.796389,1.000000,0.000000,-0.000000
-10.831091,3.218644,-15.820742,0.000000,0.000000,-1.000000
-4.368018,16.078037,-2.225785,0.000000,-1.000000,0.000000
-20.026940,18.256800,11.878106,-0.956941,0.000000,0.290284
-28.296437,21.143559,0.372765,0.000000,1.000000,0.000000
-32.132320,21.143559,-9.365086,0.000000,1.000000,0.000000
35.383155,-10.988043,-15.820742,0.000000,0.000000,-1.000000
-44.247460,21.143559,-6.268874,-0.000000,1.000000,0.000000
42.780642,-16.078037,-10.670953,-0.000000,1.000000,0.000000
39.832007,21.143559,2.001136,-0.000000,1.000000,0.000000
-39.413511,21.143559,2.711221,-0.000000,1.000000,0.000000
3.741585,8.415918,-10.755220,-0.000000,0.000000,1.000000
35.531960,-16.078037,8.842163,-0.000000,1.000000,0.000000
-19.875977,-10.388816,-15.820742,0.000000,0.000000,-1.000000
-30.679666,-21.143559,12.995673,0.000000,-1.000000,0.000000
35.622174,-16.078037,5.112456,-0.000000,1.000000,0.000000
31.373272,-21.143559,5.955621,-0.000000,-1.000000,0.000000
30.253769,-14.115472,-10.755220,0.000000,-0.000000,1.000000
28.535770,21.143559,7.390332,-0.000000,1.000000,0.000000
21.132994,-3.312552,-10.755220,-0.000000,0.000000,1.000000
6.955706,-16.078037,-2.706916,-0.000000,1.000000,0.000000
-9.761671,-21.143559,-7.287844,0.000000,-1.000000,0.000000
7.013035,12.768933,-10.755220,-0.000000,0.000000,1.000000
-3.680453,21.143559,12.314769,0.000000,1.000000,0.000000
40.260847,-21.143559,-1.470205,-0.000000,-1.000000,0.000000
6.782623,16.078037,14.491838,-0.000000,-1.000000,0.000000
26.847740,10.984071,-10.755220,-0.000000,0.000000,1.000000
-24.587359,-21.143559,-2.540268,0.000000,-1.000000,0.000000
32.710431,16.078037,-4.829965,0.000000,-1.000000,0.000000
37.889218,-3.336939,-15.820742,0.000000,0.000000,-1.000000
32.229087,-20.644525,-15.820742,0.000000,0.000000,-1.000000
35.770673,-21.143559,-12.754502,0.000000,-1.000000,0.000000
-13.554160,16.078037,14.382418,-0.000000,-1.000000,0.000000
-49.721531,-17.684613,3.542281,-1.000000,0.000000,0.000000
-31.523600,21.143559,6.766393,-0.000000,1.000000,0.000000
9.915965,-16.078037,-1.418412,-0.000000,1.000000,0.000000
8.045691,21.143559,-9.226115,-0.000000,1.000000,0.000000
-20.415222,18.942354,11.158834,-0.773011,0.000000,0.634393
1.781183,20.654850,-15.820742,0.000000,0.000000,-1.000000
10.749896,16.127458,-15.820742,0.000000,0.000000,-1.000000
42.676613,-16.078037,12.706488,-0.000000,1.000000,0.000000
-48.733898,-16.078037,-1.957803,-0.000000,1.000000,0.000000
-39.451161,-18.194027,-15.820742,0.000000,0.000000,-1.000000
-35.047083,-16.078037,-5.169724,0.000000,1.000000,0.000000
12.591701,-16.078037,-9.187416,-0.000000,1.000000,0.000000
6.028295,9.104620,-15.820742,0.000000,0.000000,-1.000000
-19.573867,21.143559,1.218138,0.000000,1.000000,0.000000
-45.001526,-6.630931,-10.755220,0.000000,-0.000000,1.000000
17.354464,-17.533613,9.591553,-0.098018,0.000000,0.995185
40.326510,-17.346252,15.820742,0.000000,0.000000,1.000000
25.289013,-21.143559,-3.607387,0.000000,-1.000000,0.000000
33.313792,21.143559,13.692975,0.000000,1.000000,-0.000000
-21.250190,21.143559,10.176320,0.000000,1.000000,0.000000
19.229082,-7.826106,-10.755220,0.000000,-0.000000,1.000000
-31.694927,16.078037,9.209496,0.000000,-1.000000,0.000000
37.492023,16.078037,8.515000,-0.000000,-1.000000,0.000000
24.480790,16.078037,-9.432285,0.000000,-1.000000,0.000000
10.433855,16.078037,-2.166385,0.000000,-1.000000,0.000000
31.660938,21.143559,15.557477,0.000000,1.000000,0.000000
47.608969,11.767686,-10.755220,-0.000000,0.000000,1.000000
-4.307048,-21.143559,-5.616343,0.000000,-1.000000,0.000000
-38.314047,16.078037,-8.589118,0.000000,-1.000000,0.000000
0.996740,3.746898,-15.820742,0.000000,0.000000,-1.000000
4.677387,16.078037,-4.676611,0.000000,-1.000000,0.000000
-2.748038,5.167775,-10.755220,-0.000000,0.000000,1.000000
-28.404406,-13.952111,-15.820742,0.000000,0.000000,-1.000000
-49.721531,-15.177737,-11.141679,-1.000000,0.000000,0.000000
13.159756,16.669074,14.623592,0.956941,0.000000,-0.290284
42.537988,16.078037,0.067406,-0.000000,-1.000000,0.000000
-29.591421,21.143559,-7.139470,0.000000,1.000000,0.000000
42.030453,21.143559,13.628053,0.000000,1.000000,0.000000
-26.718835,-15.685518,-15.820742,0.000000,0.000000,-1.000000
-31.838448,-20.980248,15.820742,0.000000,0.000000,1.000000
12.217269,21.143559,-12.935752,-0.000000,1.000000,0.000000
24.788850,21.143559,11.787568,0.000000,1.000000,-0.000000
39.321691,-16.078037,8.935043,-0.000000,1.000000,0.000000
-35.482926,21.143559,3.749788,-0.000000,1.000000,0.000000
49.721531,16.054820,-13.222090,1.000000,-0.000000,-0.000000
-3.910085,13.521969,-15.820742,0.000000,0.000000,-1.000000
-13.985427,-18.154295,-15.820742,0.000000,0.000000,-1.000000
45.161062,16.078037,13.695359,-0.000000,-1.000000,0.000000
32.238580,-16.078037,-0.323231,-0.000000,1.000000,0.000000
-21.894626,16.078037,9.858866,0.000000,-1.000000,0.000000
41.778591,-14.046637,-15.820742,0.000000,0.000000,-1.000000
-49.464077,-4.496897,-10.755220,0.000000,-0.000000,1.000000
6.691392,16.078037,11.476816,0.000000,-1.000000,0.000000
-29.022464,7.065097,-15.820742,0.000000,0.000000,-1.000000
12.738181,-8.743887,-10.755220,0.000000,-0.000000,1.000000
-11.346813,-12.629901,-10.755220,0.000000,-0.000000,1.000000
-24.322363,21.143559,5.669816,0.000000,1.000000,0.000000
-49.721531,16.538867,11.067284,-1.000000,0.000000,0.000000
43.739495,-16.078037,2.784184,-0.000000,1.000000,0.000000
41.485463,-21.143559,5.663557,-0.000000,-1.000000,0.000000
-38.409059,-7.487341,-15.820742,0.000000,0.000000,-1.000000
-3.141035,-21.143559,-11.759731,0.000000,-1.000000,0.000000
-49.721531,-18.237192,-2.655964,-1.000000,0.000000,0.000000
-23.536461,-21.143559,6.254329,0.000000,-1.000000,0.000000
27.345679,18.726461,-15.820742,0.000000,0.000000,-1.000000
-46.027414,16.078037,4.088807,0.000000,-1.000000,0.000000
18.810578,21.143559,9.050106,0.000000,1.000000,0.000000
24.666454,-3.033428,-15.820742,0.000000,0.000000,-1.000000
14.100597,19.307368,10.550039,0.634394,0.000000,0.773010
45.737365,6.079358,-15.820742,0.000000,0.000000,-1.000000
-39.394685,-1.921319,-15.820742,0.000000,0.000000,-1.000000
14.685419,9.191527,-10.755220,-0.000000,0.000000,1.000000
-15.240507,17.955334,15.820742,0.000000,-0.000000,1.000000
-19.250709,18.997379,-15.820742,0.000000,0.000000,-1.000000
29.792343,-1.799049,-15.820742,0.000000,0.000000,-1.000000
29.383467,21.143559,-0.733164,-0.000000,1.000000,0.000000
12.604972,-16.078037,-10.493339,-0.000000,1.000000,0.000000
-43.391153,16.078037,7.396601,0.000000,-1.000000,0.000000
25.990153,21.143559,13.007969,0.000000,1.000000,-0.000000
-22.677125,-21.143559,6.699455,0.000000,-1.000000,0.000000
-24.628923,-21.143559,2.963552,0.000000,-1.000000,0.000000
-39.781603,-21.143559,11.596954,0.000000,-1.000000,0.000000
18.438285,16.078037,7.878199,0.000000,-1.000000,0.000000
7.644816,10.591597,-15.820742,0.000000,0.000000,-1.000000
34.206026,16.078037,1.282775,-0.000000,-1.000000,0.000000
-28.020232,-16.078037,4.374244,0.000000,1.000000,0.000000
10.157195,-21.134171,15.820742,0.000000,0.000000,1.000000
-4.485795,-21.143559,-10.897679,0.000000,-1.000000,0.000000
19.698624,-19.742320,15.500910,-0.773009,0.000000,-0.634395
-42.905233,-16.078037,0.979052,-0.000000,1.000000,0.000000
-41.180920,-16.078037,9.432818,-0.000000,1.000000,0.000000
-7.556825,21.143559,-12.019025,-0.000000,1.000000,0.000000
-49.721531,-20.887830,3.274877,-1.000000,0.000000,0.000000
-15.328198,-4.310741,-10.755220,0.000000,-0.000000,1.000000
-49.721531,20.312383,-11.245242,-1.000000,0.000000,0.000000
-9.231370,12.507279,-10.755220,-0.000000,0.000000,1.000000
-10.293081,-16.078037,-3.980367,-0.000000,1.000000,0.000000
-8.192318,16.078037,10.273892,0.000000,-1.000000,0.000000
9.254408,6.595338,-15.820742,0.000000,0.000000,-1.000000
-31.392504,21.143559,-3.441268,0.000000,1.000000,0.000000
-43.835158,-21.143559,-6.742137,0.000000,-1.000000,0.000000
13.918878,-21.143559,-12.242963,0.000000,-1.000000,0.000000
-49.721531,16.334500,14.882375,-1.000000,0.000000,0.000000
29.190740,-13.573186,-10.755220,0.000000,-0.000000,1.000000
6.550367,-21.143559,4.693113,0.000000,-1.000000,0.000000
9.691725,21.143559,-12.370107,-0.000000,1.000000,0.000000
34.015587,16.078037,9.043252,-0.000000,-1.000000,0.000000
-43.116544,-0.332857,-10.755220,0.000000,-0.000000,1.000000
-23.124365,-21.143559,6.732551,0.000000,-1.000000,0.000000
25.090907,-21.143559,0.583988,0.000000,-1.000000,0.000000
22.176030,-9.504285,-15.820742,0.000000,0.000000,-1.000000
-29.365503,11.222652,-15.820742,0.000000,0.000000,-1.000000
7.824944,-1.421935,-10.755220,-0.000000,0.000000,1.000000
2.734589,21.143559,-6.741786,-0.000000,1.000000,0.000000
-0.392756,7.497721,-15.820742,0.000000,0.000000,-1.000000
-29.486392,16.078037,13.397489,0.000000,-1.000000,0.000000
-49.721531,-18.553814,-2.449102,-1.000000,0.000000,0.000000
10.793625,16.078037,7.613857,0.000000,-1.000000,0.000000
21.985200,-9.967082,-15.820742,0.000000,0.000000,-1.000000
19.457506,-16.078037,5.402549,-0.000000,1.000000,0.000000
-22.173104,-21.143559,-11.078917,0.000000,-1.000000,0.000000
25.035146,-21.143559,12.846495,-0.000000,-1.000000,0.000000
-41.647612,-21.143559,15.510561,0.000000,-1.000000,0.000000
19.244686,16.078037,-7.714721,0.000000,-1.000000,0.000000
-28.726077,5.221053,-15.820742,0.000000,0.000000,-1.000000
-10.112013,-16.078037,11.647086,-0.000000,1.000000,0.000000
41.046302,-16.078037,-1.484033,-0.000000,1.000000,0.000000
3.008177,-21.143559,0.419827,0.000000,-1.000000,0.000000
-20.546043,19.409632,10.999426,-0.773011,0.000000,0.634393
42.284131,-21.143559,2.109372,-0.000000,-1.000000,0.000000
-43.044008,5.288611,-10.755220,0.000000,-0.000000,1.000000
15.784870,19.282371,-15.820742,0.000000,0.000000,-1.000000
-45.133662,-21.143559,15.501858,0.000000,-1.000000,0.000000
-36.902650,0.393742,-15.820742,0.000000,0.000000,-1.000000
19.831713,16.078037,2.670048,0.000000,-1.000000,0.000000
49.721531,-17.423939,-12.806546,1.000000,0.000000,-0.000000
37.712779,-16.195955,15.820742,0.000000,0.000000,1.000000
-16.083914,-16.078037,-6.592034,-0.000000,1.000000,0.000000
-12.503314,16.078037,4.765941,0.000000,-1.000000,0.000000
-47.327329,-15.340988,-10.755220,0.000000,-0.000000,1.000000
-44.373414,16.078037,11.307231,0.000000,-1.000000,0.000000
-35.173273,-16.910339,15.820742,0.000000,-0.000000,1.000000
-43.635786,-16.078037,12.704278,-0.000000,1.000000,0.000000
-27.813225,-4.061539,-15.820742,0.000000,0.000000,-1.000000
-22.469665,16.078037,-6.905399,0.000000,-1.000000,0.000000
-9.451363,19.308604,15.820742,0.000000,-0.000000,1.000000
-29.756910,-5.224486,-15.820742,0.000000,0.000000,-1.000000
-49.301497,18.694450,15.820742,0.000000,-0.000000,1.000000
24.807209,21.143559,0.154551,-0.000000,1.000000,0.000000
22.123191,21.143559,-10.504521,-0.000000,1.000000,0.000000
-23.994336,-17.208227,9.571383,0.098018,0.000000,0.995185
-30.916351,-6.808294,-10.755220,0.000000,-0.000000,1.000000
-6.436599,-16.078037,11.889451,-0.000000,1.000000,0.000000
-47.466368,-16.078037,-10.704446,-0.000000,1.000000,0.000000
14.945366,-16.078037,-6.357014,-0.000000,1.000000,0.000000
-20.401605,-8.380453,-10.755220,0.000000,-0.000000,1.000000
1.614451,14.487036,-15.820742,0.000000,0.000000,-1.000000
49.721531,-16.532824,9.520922,1.000000,0.000000,-0.000000
30.278142,-16.078037,5.833766,-0.000000,1.000000,0.000000
10.813968,-21.143559,13.760095,0.000000,-1.000000,0.000000
20.185657,9.721222,-10.755220,-0.000000,0.000000,1.000000
-14.996814,16.078037,6.139242,0.000000,-1.000000,0.000000
-15.368799,-3.591832,-15.820742,0.000000,0.000000,-1.000000
45.772743,-17.748236,-15.820742,0.000000,0.000000,-1.000000
-16.639041,1.547188,-10.755220,0.000000,-0.000000,1.000000
24.168733,-21.143559,-15.441301,0.000000,-1.000000,0.000000
25.651967,-21.143559,-5.887655,0.000000,-1.000000,0.000000
-0.760741,21.143559,-5.314744,-0.000000,1.000000,0.000000
-20.764625,-21.143559,7.110141,0.000000,-1.000000,0.000000
-45.910988,21.143559,6.675601,-0.000000,1.000000,0.000000
-29.380613,-16.078037,-1.018848,0.000000,1.000000,0.000000
-30.983490,-6.460856,-10.755220,0.000000,-0.000000,1.000000
19.610630,-12.879839,-10.755220,0.000000,-0.000000,1.000000
28.279264,-16.078037,-7.444135,-0.000000,1.000000,0.000000
-31.850311,21.143559,-1.495334,0.000000,1.000000,0.000000
-35.104996,-16.078037,-8.976865,-0.000000,1.000000,0.000000
42.037914,7.574669,-10.755220,-0.000000,0.000000,1.000000
25.899246,2.389587,-15.820742,0.000000,0.000000,-1.000000
-8.428583,-21.143559,7.137111,0.000000,-1.000000,0.000000
-3.745064,-11.334920,-15.820742,0.000000,0.000000,-1.000000
-12.113404,16.078037,6.726227,0.000000,-1.000000,0.000000
-13.415465,-21.143559,-4.927450,0.000000,-1.000000,0.000000
-19.721532,-16.078037,-1.867086,0.000000,1.000000,0.000000
24.201192,-21.143559,4.681580,-0.000000,-1.000000,0.000000
20.530581,-16.078037,6.602759,-0.000000,1.000000,0.000000
-23.957126,19.219950,9.567718,0.098018,0.000000,0.995185
-44.097426,21.143559,15.610578,0.000000,1.000000,0.000000
-20.474913,5.359020,-15.820742,0.000000,0.000000,-1.000000
-43.586283,21.143559,9.535747,-0.000000,1.000000,0.000000
-15.851568,16.078037,13.845659,-0.000000,-1.000000,0.000000
-47.150146,21.143559,14.631183,-0.000000,1.000000,0.000000
-1.913981,5.729020,-15.820742,0.000000,0.000000,-1.000000
-9.529935,-0.184181,-10.755220,0.000000,-0.000000,1.000000
41.318306,16.078037,-5.603847,0.000000,-1.000000,0.000000
29.845363,17.733538,-15.820742,0.000000,0.000000,-1.000000
-34.983581,-4.828973,-15.820742,0.000000,0.000000,-1.000000
-43.115326,21.143559,14.121033,-0.000000,1.000000,0.000000
33.444747,-21.143559,13.464502,-0.000000,-1.000000,0.000000
-16.366208,21.143559,9.235078,0.000000,1.000000,0.000000
-48.031881,-11.131326,-15.820742,0.000000,0.000000,-1.000000
-30.369686,-15.369258,-10.755220,0.000000,-0.000000,1.000000
-46.267871,19.683780,15.820742,0.000000,-0.000000,1.000000
25.392450,6.245298,-15.820742,0.000000,0.000000,-1.000000
28.240073,-4.331001,-15.820742,0.000000,0.000000,-1.000000
46.766838,8.441116,-15.820742,0.000000,0.000000,-1.000000
-8.630303,-16.078037,9.014308,0.000000,1.000000,0.000000
-25.916934,21.143559,-8.176065,0.000000,1.000000,0.000000
9.819528,21.143559,-9.588494,-0.000000,1.000000,0.000000
41.952783,21.143559,-2.332265,-0.000000,1.000000,0.000000
45.194028,-21.143559,11.063465,-0.000000,-1.000000,0.000000
44.693088,20.730512,-15.820742,0.000000,0.000000,-1.000000
-21.894995,-8.073116,-10.755220,0.000000,-0.000000,1.000000
-17.313172,-16.078037,15.307337,0.000000,1.000000,-0.000000
30.229569,-15.486951,-10.755220,0.000000,-0.000000,1.000000
-33.125070,3.571914,-10.755220,0.000000,-0.000000,1.000000
31.508191,-21.143559,10.048806,-0.000000,-1.000000,0.000000
14.303152,-21.143559,-5.212744,0.000000,-1.000000,0.000000
-46.197837,16.078037,7.822990,0.000000,-1.000000,0.000000
-49.721531,20.476619,13.166356,-1.000000,0.000000,0.000000
-49.721531,-3.532293,-14.252065,-1.000000,0.000000,0.000000
0.913062,2.968584,-15.820742,0.000000,0.000000,-1.000000
-46.130009,21.143559,11.294551,-0.000000,1.000000,0.000000
-49.721531,-16.810050,0.043932,-1.000000,0.000000,0.000000
-27.886605,-18.816855,15.820742,0.000000,0.000000,1.000000
-46.356608,16.078037,-6.766291,0.000000,-1.000000,0.000000
-5.238759,21.143559,4.364798,0.000000,1.000000,0.000000
-24.866495,2.027851,-10.755220,0.000000,-0.000000,1.000000
44.500181,16.078037,2.528157,-0.000000,-1.000000,0.000000
-2.734368,16.078037,5.603625,0.000000,-1.000000,0.000000
29.159617,-16.078037,3.246809,-0.000000,1.000000,0.000000
-46.814565,21.143559,-15.495349,-0.000000,1.000000,0.000000
-36.728273,-16.376996,-15.820742,0.000000,0.000000,-1.000000
-2.417598,18.947729,15.820742,0.000000,-0.000000,1.000000
-36.054128,-16.078037,-3.554088,0.000000,1.000000,0.000000
43.834227,10.588191,-15.820742,0.000000,0.000000,-1.000000
34.459117,0.148486,-15.820742,0.000000,0.000000,-1.000000
47.363160,9.774476,-15.820742,0.000000,0.000000,-1.000000
-19.016461,-18.100877,15.820742,0.000000,-0.000000,1.000000
-11.252655,-18.970224,-15.820742,0.000000,0.000000,-1.000000
-40.745127,21.143559,5.665629,-0.000000,1.000000,0.000000
37.355639,16.078037,7.375820,-0.000000,-1.000000,0.000000
-19.947346,-21.143559,-4.707244,0.000000,-1.000000,0.000000
49.721531,17.246878,13.355371,1.000000,0.000000,-0.000000
-8.220721,-16.078037,7.051993,0.000000,1.000000,0.000000
-16.318919,-21.143559,-9.377035,0.000000,-1.000000,0.000000
-18.233689,1.663047,-10.755220,0.000000,-0.000000,1.000000
11.815644,-2.645312,-15.820742,0.000000,0.000000,-1.000000
20.337820,-21.143559,-9.535994,0.000000,-1.000000,0.000000
23.861423,-19.743913,-15.820742,0.000000,0.000000,-1.000000
-18.964716,8.658214,-10.755220,-0.000000,0.000000,1.000000
21.753407,14.075942,-10.755220,-0.000000,0.000000,1.000000
24.890032,16.078037,5.363102,-0.000000,-1.000000,0.000000
-11.575037,-5.318551,-10.755220,0.000000,-0.000000,1.000000
-45.599283,16.078037,3.396772,0.000000,-1.000000,0.000000
44.325921,-16.078037,15.374335,0.000000,1.000000,0.000000
-16.705948,16.078037,1.582211,0.000000,-1.000000,0.000000
21.595521,-16.078037,11.771239,0.000000,1.000000,-0.000000
-6.859780,9.319987,-10.755220,-0.000000,0.000000,1.000000
-39.315058,-21.143559,-10.216016,0.000000,-1.000000,0.000000
23.687196,-21.143559,4.019765,0.000000,-1.000000,0.000000
49.721531,17.692881,-3.784293,1.000000,0.000000,-0.000000
-40.203616,5.504597,-15.820742,0.000000,0.000000,-1.000000
-37.870522,-16.078037,-9.942720,-0.000000,1.000000,0.000000
6.881382,21.143559,13.248120,-0.000000,1.000000,0.000000
-30.270160,6.395143,-10.755220,0.000000,-0.000000,1.000000
-32.739525,-21.143559,-11.702693,0.000000,-1.000000,0.000000
10.833140,10.476447,-15.820742,0.000000,0.000000,-1.000000
14.920346,-11.163497,-15.820742,0.000000,0.000000,-1.000000
26.885528,12.648523,-10.755220,-0.000000,0.000000,1.000000
-32.179306,-16.078037,10.560405,-0.000000,1.000000,0.000000
24.675166,-3.040347,-10.755220,-0.000000,0.000000,1.000000
-34.841042,2.983366,-10.755220,0.000000,-0.000000,1.000000
38.593509,0.904824,-10.755220,-0.000000,0.000000,1.000000
23.015298,-10.914917,-15.820742,0.000000,0.000000,-1.000000
-14.057250,16.078037,-4.877250,0.000000,-1.000000,0.000000
8.629467,0.950063,-10.755220,-0.000000,0.000000,1.000000
29.417064,20.279022,15.820742,0.000000,0.000000,1.000000
-1.729204,-16.078037,-9.784381,-0.000000,1.000000,0.000000
12.339221,-20.514544,-15.820742,0.000000,0.000000,-1.000000
49.588208,-20.016903,-15.820742,0.000000,0.000000,-1.000000
40.630018,-16.078037,10.767433,-0.000000,1.000000,0.000000
5.758277,-12.169031,-15.820742,0.000000,0.000000,-1.000000
13.833933,-16.078037,-0.560017,-0.000000,1.000000,0.000000
-14.300153,14.854745,-10.755220,-0.000000,0.000000,1.000000
-30.073251,21.143559,-0.271656,0.000000,1.000000,0.000000
13.537629,-21.143559,-8.042059,0.000000,-1.000000,0.000000
8.047856,-19.655388,-15.820742,0.000000,0.000000,-1.000000
40.927173,-6.095326,-10.755220,-0.000000,0.000000,1.000000
18.622251,-4.921480,-15.820742,0.000000,0.000000,-1.000000
41.087848,16.078037,3.565633,-0.000000,-1.000000,0.000000
10.973311,-16.078037,5.687929,0.000000,1.000000,0.000000
-14.716475,16.078037,13.537996,-0.000000,-1.000000,0.000000
31.623216,16.201896,15.820742,0.000000,-0.000000,1.000000
14.573019,-21.143559,-11.049545,0.000000,-1.000000,0.000000
3.493319,-0.243041,-15.820742,0.000000,0.000000,-1.000000
-34.033168,-11.761028,-15.820742,0.000000,0.000000,-1.000000
-47.148112,-17.003235,-15.820742,0.000000,0.000000,-1.000000
8.544512,10.748440,-15.820742,0.000000,0.000000,-1.000000
-10.705999,-18.861306,15.820742,0.000000,-0.000000,1.000000
32.352668,-17.826367,15.820742,0.000000,0.000000,1.000000
-7.418270,14.044106,-10.755220,-0.000000,0.000000,1.000000
-20.769570,4.654986,-10.755220,0.000000,-0.000000,1.000000
16.569433,21.143559,-15.339057,-0.000000,1.000000,0.000000
-28.895815,-21.143559,-1.825148,0.000000,-1.000000,0.000000
-12.847235,21.143559,5.883162,0.000000,1.000000,0.000000
13.794903,-16.078037,5.854134,-0.000000,1.000000,0.000000
-28.474197,-21.143559,-10.850316,0.000000,-1.000000,0.000000
37.115671,-12.250037,-15.820742,0.000000,0.000000,-1.000000
-17.401156,16.078037,0.835641,0.000000,-1.000000,0.000000
47.876066,16.078037,15.605417,-0.000000,-1.000000,0.000000
45.948533,16.078037,-2.260892,-0.000000,-1.000000,0.000000
-48.574366,-11.772067,-10.755220,0.000000,-0.000000,1.000000
34.004752,-21.143559,4.661476,-0.000000,-1.000000,0.000000
-11.141397,-21.143559,7.914215,0.000000,-1.000000,0.000000
17.463765,21.143559,-7.927756,-0.000000,1.000000,0.000000
-2.582092,-21.143559,-6.008643,0.000000,-1.000000,0.000000
23.113897,17.927079,-15.820742,0.000000,0.000000,-1.000000
-43.083772,7.463846,-10.755220,0.000000,-0.000000,1.000000
17.684761,-21.143559,-10.677325,0.000000,-1.000000,0.000000
-45.118372,21.143559,2.447561,-0.000000,1.000000,0.000000
24.347904,-16.078037,-2.486778,-0.000000,1.000000,0.000000
-33.814590,16.078037,-8.383764,0.000000,-1.000000,0.000000
-30.972290,-21.143559,11.949918,0.000000,-1.000000,0.000000
35.063430,-21.143559,12.255241,-0.000000,-1.000000,0.000000
-46.597410,-21.143559,-14.801437,0.000000,-1.000000,0.000000
-11.898121,-16.078037,0.734277,0.000000,1.000000,0.000000
12.541769,8.188133,-10.755220,-0.000000,0.000000,1.000000
-17.824741,16.078037,-0.505439,0.000000,-1.000000,0.000000
-29.110358,-21.143559,-13.113947,0.000000,-1.000000,0.000000
25.592448,-21.143559,-4.054557,0.000000,-1.000000,0.000000
49.721531,-16.682345,-15.112337,1.000000,0.000000,-0.000000
46.387487,-19.437411,15.820742,0.000000,-0.000000,1.000000
36.790037,6.187305,-15.820742,0.000000,0.000000,-1.000000
-2.870067,-0.536972,-10.755220,0.000000,-0.000000,1.000000
20.476513,-21.143559,-11.285877,0.000000,-1.000000,0.000000
-46.415456,14.727087,-10.755220,0.000000,-0.000000,1.000000
24.222607,12.842847,-15.820742,0.000000,0.000000,-1.000000
-28.943336,21.143559,-4.577686,0.000000,1.000000,0.000000
-3.770979,21.143559,-15.566067,-0.000000,1.000000,0.000000
-0.949972,-16.078037,12.737202,0.000000,1.000000,0.000000
20.766713,-14.237536,-10.755220,0.000000,-0.000000,1.000000
31.451844,16.078037,1.182274,-0.000000,-1.000000,0.000000
-2.376856,21.143559,-9.794804,-0.000000,1.000000,0.000000
-31.507152,16.078037,-4.162556,0.000000,-1.000000,0.000000
33.098209,-13.697274,-15.820742,0.000000,0.000000,-1.000000
23.440030,21.143559,0.436571,-0.000000,1.000000,0.000000
46.824564,9.773699,-15.820742,0.000000,0.000000,-1.000000
-10.631533,21.143559,3.519683,0.000000,1.000000,0.000000
11.667447,-16.078037,15.496137,-0.000000,1.000000,0.000000
17.623498,-7.664335,-15.820742,0.000000,0.000000,-1.000000
46.311067,-19.335565,-15.820742,0.000000,0.000000,-1.000000
42.852724,6.557888,-15.820742,0.000000,0.000000,-1.000000
24.962131,16.078037,1.680933,0.000000,-1.000000,0.000000
24.496616,16.078037,0.772167,0.000000,-1.000000,0.000000
30.823794,16.078037,4.121965,-0.000000,-1.000000,0.000000
23.662337,21.143559,-6.768969,-0.000000,1.000000,0.000000
0.375825,12.073418,-15.820742,0.000000,0.000000,-1.000000
49.721531,-16.707618,12.799418,1.000000,0.000000,-0.000000
13.203455,20.737218,11.825296,0.881921,0.000000,0.471397
-29.717842,-21.143559,3.455747,0.000000,-1.000000,0.000000
-30.109647,16.078037,8.481559,0.000000,-1.000000,0.000000
-17.816153,-21.143559,-4.354801,0.000000,-1.000000,0.000000
47.187852,-16.078037,-5.195617,-0.000000,1.000000,0.000000
36.219296,8.525159,-15.820742,0.000000,0.000000,-1.000000
-46.432830,21.143559,-14.997032,-0.000000,1.000000,0.000000
4.997318,-21.143559,1.300890,0.000000,-1.000000,0.000000
-45.239248,9.048466,-15.820742,0.000000,0.000000,-1.000000
12.192840,-16.078037,7.655363,0.000000,1.000000,0.000000
-8.255822,-19.703419,-15.820742,0.000000,0.000000,-1.000000
33.927035,21.143559,-6.315303,-0.000000,1.000000,0.000000
18.580140,-21.143559,-2.410343,0.000000,-1.000000,0.000000
12.902166,-16.078037,-5.956644,-0.000000,1.000000,0.000000
19.163471,4.544676,-15.820742,0.000000,0.000000,-1.000000
41.571501,-21.143559,-13.310728,0.000000,-1.000000,0.000000
32.649310,-16.078037,-9.359200,-0.000000,1.000000,0.000000
4.472418,-17.547297,-15.820742,0.000000,0.000000,-1.000000
39.555998,-5.635792,-15.820742,0.000000,0.000000,-1.000000
-48.781274,-16.078037,-1.811669,-0.000000,1.000000,0.000000
-49.721531,17.535978,-1.607425,-1.000000,0.000000,0.000000
-0.450328,-21.143559,7.723989,0.000000,-1.000000,0.000000
-14.586108,-16.078037,8.796393,0.000000,1.000000,0.000000
-26.353587,-21.143559,5.856765,0.000000,-1.000000,0.000000
10.087557,16.078037,-4.230183,0.000000,-1.000000,0.000000
44.166322,-16.078037,3.693770,-0.000000,1.000000,0.000000
-3.593324,12.212298,-10.755220,-0.000000,0.000000,1.000000
2.718933,-16.078037,15.430303,-0.000000,1.000000,0.000000
44.112845,-21.143559,2.573317,-0.000000,-1.000000,0.000000
40.250967,1.718509,-15.820742,0.000000,0.000000,-1.000000
-5.605659,19.339517,15.820742,0.000000,-0.000000,1.000000
47.869394,-21.143559,-12.393342,-0.000000,-1.000000,0.000000
32.336044,1.917542,-10.755220,-0.000000,0.000000,1.000000
28.078149,16.468981,15.820742,0.000000,-0.000000,1.000000
49.721531,-7.413565,-11.095214,1.000000,-0.000000,-0.000000
-19.974328,17.754132,14.524416,-0.956941,0.000000,-0.290284
-33.940925,-16.078037,10.546400,-0.000000,1.000000,0.000000
-2.782687,21.143559,-1.360632,-0.000000,1.000000,0.000000
-32.417634,16.078037,12.360775,0.000000,-1.000000,0.000000
-9.011095,-16.078037,6.181478,0.000000,1.000000,0.000000
-41.008556,16.078037,8.351317,0.000000,-1.000000,0.000000
19.318957,-21.143559,-15.549447,0.000000,-1.000000,0.000000
-26.490680,-16.078037,8.140237,-0.000000,1.000000,0.000000
32.189560,-5.228746,-15.820742,0.000000,0.000000,-1.000000
-26.476704,-18.693790,10.993928,0.773011,0.000000,0.634393
9.155877,-12.319119,-10.755220,0.000000,-0.000000,1.000000
-43.740499,16.078037,-0.251089,0.000000,-1.000000,0.000000
44.142320,-20.343907,-15.820742,0.000000,0.000000,-1.000000
-45.869212,21.143559,3.080281,-0.000000,1.000000,0.000000
2.750061,12.330655,-15.820742,0.000000,0.000000,-1.000000
5.616940,6.852602,-15.820742,0.000000,0.000000,-1.000000
24.873741,-5.249066,-15.820742,0.000000,0.000000,-1.000000
-45.299868,16.078037,8.696899,0.000000,-1.000000,0.000000
-11.460747,-21.143559,14.750147,-0.000000,-1.000000,0.000000
46.107935,-21.143559,-14.837639,0.000000,-1.000000,0.000000
2.750479,1.959943,-10.755220,-0.000000,0.000000,1.000000
-13.144061,12.691335,-10.755220,-0.000000,0.000000,1.000000
36.983611,16.078037,-5.705390,0.000000,-1.000000,0.000000
27.493180,-16.078037,-3.386732,-0.000000,1.000000,0.000000
-32.233442,-17.770517,-15.820742,0.000000,0.000000,-1.000000
2.050587,-20.275064,15.820742,0.000000,0.000000,1.000000
9.978586,16.078037,-3.173792,0.000000,-1.000000,0.000000
-27.016761,-3.029765,-15.820742,0.000000,0.000000,-1.000000
46.683223,21.142144,15.820742,0.000000,0.000000,1.000000
45.914636,10.740589,-10.755220,-0.000000,0.000000,1.000000
36.502775,21.143559,-15.019215,-0.000000,1.000000,0.000000
19.068856,21.143559,0.983442,-0.000000,1.000000,0.000000
4.316801,15.559107,-15.820742,0.000000,0.000000,-1.000000
1.609222,15.243701,-10.755220,-0.000000,0.000000,1.000000
13.264611,-21.143559,2.819547,0.000000,-1.000000,0.000000
-33.870145,20.634813,-15.820742,0.000000,0.000000,-1.000000
13.113555,-2.253191,-15.820742,0.000000,0.000000,-1.000000
28.202256,4.679241,-15.820742,0.000000,0.000000,-1.000000
-45.985323,16.078037,9.484689,0.000000,-1.000000,0.000000
-0.031844,-5.004174,-10.755220,0.000000,-0.000000,1.000000
-17.033044,-10.709285,-10.755220,0.000000,-0.000000,1.000000
-16.290593,-2.161606,-10.755220,0.000000,-0.000000,1.000000
-2.162625,-21.143559,-15.082429,0.000000,-1.000000,0.000000
-49.484725,-16.078037,10.569447,-0.000000,1.000000,0.000000
-14.304528,16.078037,9.743583,0.000000,-1.000000,0.000000
17.102509,15.985464,-15.820742,0.000000,0.000000,-1.000000
29.473473,21.143559,-11.395436,-0.000000,1.000000,0.000000
-6.736394,-16.078037,14.475655,0.000000,1.000000,-0.000000
-45.318325,-21.143559,-7.951573,0.000000,-1.000000,0.000000
49.721531,13.181095,-14.528926,1.000000,-0.000000,-0.000000
37.360975,21.143559,5.123766,-0.000000,1.000000,0.000000
48.069238,-16.078037,2.943890,-0.000000,1.000000,0.000000
-47.552698,12.094964,-10.755220,0.000000,-0.000000,1.000000
15.338753,0.145723,-10.755220,-0.000000,0.000000,1.000000
-3.031704,-21.143559,7.227261,0.000000,-1.000000,0.000000
-16.560709,15.050214,-10.755220,-0.000000,0.000000,1.000000
11.717131,21.143559,4.364769,0.000000,1.000000,0.000000
-7.061989,-16.078037,-1.268713,-0.000000,1.000000,0.000000
4.116081,17.172747,15.820742,0.000000,0.000000,1.000000
29.586840,5.458073,-10.755220,-0.000000,0.000000,1.000000
-35.327798,21.143559,9.923080,-0.000000,1.000000,0.000000
-6.117359,16.078037,14.435120,0.000000,-1.000000,0.000000
31.470953,16.078037,1.327981,-0.000000,-1.000000,0.000000
-26.653250,-16.078037,0.944880,0.000000,1.000000,0.000000
-26.616416,20.333969,15.820742,0.000000,0.000000,1.000000
-44.136225,21.143559,4.941903,-0.000000,1.000000,0.000000
-23.516945,-21.143559,7.710067,0.000000,-1.000000,0.000000
-30.166992,16.078037,1.773122,0.000000,-1.000000,0.000000
37.023019,21.143559,-6.559876,-0.000000,1.000000,0.000000
46.488895,5.098306,-15.820742,0.000000,0.000000,-1.000000
40.583480,-21.143559,15.081159,0.000000,-1.000000,-0.000000
-42.821134,-21.143559,10.649481,0.000000,-1.000000,0.000000
33.449680,-14.595246,-10.755220,0.000000,-0.000000,1.000000
-26.380604,17.485305,-15.820742,0.000000,0.000000,-1.000000
-8.072906,-21.143559,-1.063222,0.000000,-1.000000,0.000000
