x,y,z,nx,ny,nz
-39.923309,11.502001,4.754430,0.000000,-0.000000,1.000000
33.498702,4.009660,4.754430,0.000000,-0.000000,1.000000
-25.348566,-10.208700,-4.754430,0.000000,0.000000,-1.000000
18.384358,17.958784,-2.997817,-0.000000,1.000000,0.000000
28.865313,10.567772,4.754430,0.000000,0.000000,1.000000
34.740983,3.770924,4.754430,0.000000,-0.000000,1.000000
23.154345,17.958784,-1.507142,-0.000000,1.000000,0.000000
-23.892077,-11.781148,4.754430,0.000000,-0.000000,1.000000
-37.582738,11.812891,4.754430,0.000000,-0.000000,1.000000
-39.904347,0.524523,-4.754430,0.000000,0.000000,-1.000000
-25.495065,0.702994,-4.079772,-0.471396,-0.881922,0.000000
-15.668349,15.061888,4.754430,-0.000000,0.000000,1.000000
-27.607314,1.380866,0.737354,-0.098017,-0.995185,0.000000
-25.771972,-16.857205,-4.754430,0.000000,0.000000,-1.000000
-24.646077,-17.958784,4.663946,0.000000,-1.000000,0.000000
30.650807,-4.631256,4.754430,0.000000,-0.000000,1.000000
-40.769119,-13.922598,1.636844,-1.000000,0.000000,0.000000
16.015373,11.584627,-4.754430,0.000000,0.000000,-1.000000
-1.955102,-17.958784,-2.752675,0.000000,-1.000000,0.000000
2.896353,-17.808934,-4.754430,0.000000,0.000000,-1.000000
4.473646,9.719195,-4.754430,0.000000,0.000000,-1.000000
-21.979262,-5.467216,-4.754430,0.000000,0.000000,-1.000000
22.024304,-17.864237,4.754430,0.000000,-0.000000,1.000000
20.361159,-12.799760,-4.754430,0.000000,0.000000,-1.000000
-10.064262,-17.958784,-0.793426,0.000000,-1.000000,0.000000
-21.047561,11.054340,-4.754430,0.000000,-0.000000,-1.000000
4.772947,0.093418,-3.049464,-0.471397,0.881921,0.000000
7.609056,-17.958784,-4.606983,0.000000,-1.000000,0.000000
40.769119,-12.352462,-3.193279,1.000000,0.000000,-0.000000
10.277379,-1.278475,0.784310,0.773011,0.634393,0.000000
1.733843,16.515100,-4.754430,0.000000,-0.000000,-1.000000
5.128033,9.013981,3.264445,-0.634394,-0.773010,0.000000
-32.068839,17.958784,1.132731,0.000000,1.000000,0.000000
17.789265,-5.153262,-4.754430,0.000000,0.000000,-1.000000
17.528402,6.872243,-3.084221,-0.634393,-0.773010,0.000000
18.556658,-17.958784,-4.557959,0.000000,-1.000000,0.000000
0.519557,-2.472086,-1.286926,-0.956940,0.290285,0.000000
-10.236568,5.876949,4.754430,-0.000000,0.000000,1.000000
40.769119,-10.874310,4.632059,1.000000,-0.000000,0.000000
25.535210,6.749923,-4.754430,0.000000,0.000000,-1.000000
-14.633331,9.007759,-4.754430,0.000000,-0.000000,-1.000000
-25.214235,17.958784,3.619868,0.000000,1.000000,0.000000
-31.025075,-17.958784,-1.362012,0.000000,-1.000000,0.000000
-11.249721,17.958784,1.579625,0.000000,1.000000,0.000000
9.529325,-11.699622,4.754430,0.000000,-0.000000,1.000000
-32.595774,17.958784,-4.175022,-0.000000,1.000000,0.000000
-11.017044,4.158037,-4.754430,0.000000,0.000000,-1.000000
-10.496296,17.958784,-4.354029,-0.000000,1.000000,0.000000
22.133775,-12.652809,-4.754430,0.000000,0.000000,-1.000000
19.537478,3.528207,0.864700,-0.995185,-0.098017,0.000000
-25.125497,8.489114,-4.754430,0.000000,0.000000,-1.000000
30.703093,-3.819700,4.754430,0.000000,-0.000000,1.000000
-26.143026,7.148124,-4.754430,0.000000,0.000000,-1.000000
25.102011,11.277431,4.754430,0.000000,0.000000,1.000000
30.882020,-17.334295,4.754430,0.000000,-0.000000,1.000000
37.122165,17.958784,0.478793,-0.000000,1.000000,0.000000
12.978260,7.931056,-0.684557,0.290285,-0.956940,0.000000
0.213169,-15.101043,4.754430,0.000000,-0.000000,1.000000
-17.980447,2.893979,-4.754430,0.000000,0.000000,-1.000000
39.973817,-17.536169,4.754430,0.000000,0.000000,1.000000
17.753115,-2.009584,4.754430,0.000000,0.000000,1.000000
-26.377213,8.652304,-4.754430,0.000000,0.000000,-1.000000
-33.109366,7.841823,4.754430,0.000000,-0.000000,1.000000
35.879527,0.908835,-4.754430,0.000000,0.000000,-1.000000
26.145873,-6.749278,-4.754430,0.000000,0.000000,-1.000000
-31.504986,6.856209,4.754430,0.000000,0.000000,1.000000
40.769119,0.415311,4.557436,1.000000,-0.000000,0.000000
-26.280727,-9.603597,4.754430,0.000000,-0.000000,1.000000
22.203806,0.164950,-4.754430,0.000000,0.000000,-1.000000
-17.348155,-5.513189,4.754430,0.000000,-0.000000,1.000000
8.445525,-7.638081,-4.754430,0.000000,0.000000,-1.000000
-8.641817,-4.564510,2.504280,0.773010,0.634394,0.000000
26.942688,2.874390,4.754430,0.000000,-0.000000,1.000000
40.769119,17.854394,3.714207,1.000000,-0.000000,0.000000
-31.580068,17.958784,0.812094,0.000000,1.000000,0.000000
7.247978,4.324367,4.194268,-0.995185,0.098017,0.000000
-14.292736,12.751318,4.754430,-0.000000,0.000000,1.000000
36.598510,17.958784,-4.249948,-0.000000,1.000000,0.000000
27.340912,-17.958784,-0.871862,0.000000,-1.000000,0.000000
6.428443,1.772119,-1.443433,-0.881921,0.471396,0.000000
-25.334856,0.617360,4.106553,-0.471396,-0.881922,0.000000
-27.240129,-9.423099,4.024371,-0.098017,0.995185,0.000000
18.570491,-0.617476,2.757662,-0.773011,0.634393,0.000000
39.765709,-17.958784,-3.930777,0.000000,-1.000000,0.000000
-18.996011,0.684683,4.754430,0.000000,0.000000,1.000000
22.494188,17.958784,3.667207,0.000000,1.000000,0.000000
-25.999444,-9.050987,1.203537,-0.471396,0.881921,0.000000
23.522438,16.462277,-4.754430,0.000000,-0.000000,-1.000000
-32.979452,17.227456,-4.754430,0.000000,-0.000000,-1.000000
2.782323,-2.428404,-4.754430,0.000000,0.000000,-1.000000
40.769119,-9.206838,-3.571330,1.000000,0.000000,-0.000000
-9.328272,-17.418029,4.754430,0.000000,-0.000000,1.000000
9.806368,17.240007,4.754430,-0.000000,0.000000,1.000000
-29.227033,-13.809263,4.754430,0.000000,-0.000000,1.000000
32.577806,-16.115233,4.754430,0.000000,-0.000000,1.000000
35.304615,-17.918362,4.754430,0.000000,-0.000000,1.000000
28.235373,-0.945884,4.754430,0.000000,-0.000000,1.000000
-30.322388,-12.767515,-4.754430,0.000000,0.000000,-1.000000
-33.040105,16.187650,4.754430,-0.000000,0.000000,1.000000
25.898907,12.766951,4.754430,0.000000,0.000000,1.000000
-37.175022,17.958784,-0.286122,0.000000,1.000000,0.000000
28.526778,2.376882,4.754430,0.000000,-0.000000,1.000000
35.119286,8.399575,4.754430,0.000000,-0.000000,1.000000
26.852960,-9.170388,4.754430,0.000000,0.000000,1.000000
31.037607,3.028562,-4.754430,0.000000,0.000000,-1.000000
28.037461,-14.688280,-4.754430,0.000000,0.000000,-1.000000
19.954689,-2.052378,-4.754430,0.000000,0.000000,-1.000000
-16.166949,1.961702,4.754430,0.000000,-0.000000,1.000000
16.056709,7.709744,-4.038981,-0.290285,-0.956940,0.000000
-34.397982,11.691505,4.754430,0.000000,-0.000000,1.000000
28.343790,-17.958784,0.731687,0.000000,-1.000000,0.000000
18.658816,-6.737326,4.754430,0.000000,0.000000,1.000000
14.233066,8.060512,4.404202,-0.098017,-0.995185,0.000000
23.543735,-7.532871,-4.754430,0.000000,0.000000,-1.000000
-8.109331,-5.040044,0.604083,0.634393,0.773011,0.000000
31.507093,17.958784,0.601628,-0.000000,1.000000,0.000000
18.540086,-2.095806,-4.754430,0.000000,0.000000,-1.000000
-20.415463,16.670925,4.754430,-0.000000,0.000000,1.000000
32.035776,-5.623668,-4.754430,0.000000,0.000000,-1.000000
-10.094329,17.958784,-2.693086,-0.000000,1.000000,0.000000
-8.958536,-5.078640,4.754430,0.000000,-0.000000,1.000000
12.271867,-4.778910,-4.754430,0.000000,0.000000,-1.000000
-4.589644,16.566651,4.754430,-0.000000,0.000000,1.000000
-13.049219,-17.711229,-4.754430,0.000000,0.000000,-1.000000
-21.699072,-9.020652,-4.754430,0.000000,0.000000,-1.000000
-4.813112,17.958784,-2.471579,-0.000000,1.000000,0.000000
-35.444755,-14.091520,4.754430,0.000000,-0.000000,1.000000
6.087959,8.063752,-2.480302,-0.773010,-0.634393,0.000000
5.786665,8.430880,2.493342,-0.773010,-0.634393,0.000000
35.914356,15.881334,4.754430,0.000000,0.000000,1.000000
16.501549,7.516348,2.840976,-0.471397,-0.881921,-0.000000
19.011056,5.064853,-0.225413,-0.881921,-0.471397,0.000000
12.582004,-3.247231,4.754430,0.000000,0.000000,1.000000
-6.408969,4.359385,2.361413,0.290285,-0.956940,0.000000
-40.769119,5.048833,3.177055,-1.000000,0.000000,0.000000
-22.781762,-4.779822,-3.619271,-0.995185,0.098017,0.000000
16.528543,-10.320628,4.754430,-0.000000,-0.000000,1.000000
-20.116779,5.684121,4.754430,0.000000,-0.000000,1.000000
-2.911047,7.424796,0.033590,0.881921,-0.471397,0.000000
-21.834267,-13.329673,4.754430,0.000000,-0.000000,1.000000
-32.093831,-7.869272,2.483437,0.773011,0.634393,0.000000
18.138875,15.128459,-4.754430,0.000000,-0.000000,-1.000000
-1.998271,17.864085,4.754430,-0.000000,0.000000,1.000000
-12.489240,0.744523,-4.754430,0.000000,-0.000000,-1.000000
29.538588,3.581816,-4.754430,0.000000,0.000000,-1.000000
-12.034465,-5.570993,-4.754430,0.000000,0.000000,-1.000000
-26.815899,14.828509,-4.754430,0.000000,-0.000000,-1.000000
19.354684,-16.692849,4.754430,0.000000,-0.000000,1.000000
33.920000,15.626266,-4.754430,0.000000,-0.000000,-1.000000
-7.408800,14.768585,-4.754430,0.000000,-0.000000,-1.000000
9.874697,-17.958784,1.224141,0.000000,-1.000000,0.000000
10.823628,-16.545218,4.754430,0.000000,-0.000000,1.000000
-37.190188,-1.278970,-4.754430,0.000000,0.000000,-1.000000
20.687073,10.830112,-4.754430,0.000000,-0.000000,-1.000000
-23.419453,-6.684687,1.693373,-0.881922,0.471396,0.000000
-11.919077,-2.085736,4.754430,0.000000,-0.000000,1.000000
-13.867387,-1.865498,4.754430,0.000000,0.000000,1.000000
14.352141,-3.213156,-4.754430,0.000000,0.000000,-1.000000
16.582735,-17.958784,3.192985,0.000000,-1.000000,0.000000
-11.468301,9.855646,-4.754430,0.000000,-0.000000,-1.000000
18.270419,-0.983114,3.120093,-0.773011,0.634393,0.000000
34.933480,7.846642,4.754430,0.000000,-0.000000,1.000000
-20.326295,0.137834,-4.754430,0.000000,0.000000,-1.000000
27.373810,-13.854203,4.754430,-0.000000,-0.000000,1.000000
21.612108,-15.100488,-4.754430,0.000000,0.000000,-1.000000
-6.708255,-7.129316,4.754430,0.000000,-0.000000,1.000000
18.597970,12.061278,4.754430,0.000000,-0.000000,1.000000
-3.664724,4.571583,4.754430,-0.000000,-0.000000,1.000000
32.301139,7.249355,4.754430,0.000000,-0.000000,1.000000
25.384405,5.607743,-4.754430,0.000000,0.000000,-1.000000
-27.734155,3.170210,4.754430,-0.000000,-0.000000,1.000000
13.542394,8.008317,-2.085178,0.098017,-0.995185,0.000000
13.225258,-14.555072,4.754430,0.000000,-0.000000,1.000000
2.855627,-0.685319,-2.339189,-0.098017,0.995185,0.000000
-10.326565,-1.467169,4.754430,0.000000,-0.000000,1.000000
-28.631881,-9.472317,1.762603,0.098017,0.995185,0.000000
-20.120802,-13.659269,-4.754430,0.000000,0.000000,-1.000000
-4.048937,13.245611,-4.754430,0.000000,-0.000000,-1.000000
11.645770,7.431851,3.578304,0.471397,-0.881921,0.000000
-10.815227,-9.246446,4.754430,0.000000,-0.000000,1.000000
40.769119,-16.768353,4.389066,1.000000,0.000000,-0.000000
-40.769119,-14.195137,-2.939629,-1.000000,0.000000,0.000000
19.660682,17.639391,-4.754430,0.000000,-0.000000,-1.000000
-5.488813,-13.343571,4.754430,0.000000,-0.000000,1.000000
39.127938,17.958784,-3.698744,-0.000000,1.000000,0.000000
-9.781121,7.049315,-4.754430,0.000000,-0.000000,-1.000000
-40.769119,5.181752,4.505804,-1.000000,0.000000,0.000000
9.969198,-17.958784,0.666730,0.000000,-1.000000,0.000000
-14.020239,-17.863285,4.754430,0.000000,-0.000000,1.000000
22.197313,-9.574050,-4.754430,0.000000,0.000000,-1.000000
-40.769119,-2.684524,-3.488736,-1.000000,0.000000,0.000000
21.549492,2.851794,-4.754430,0.000000,0.000000,-1.000000
-24.396636,11.544800,-4.754430,0.000000,-0.000000,-1.000000
-6.571204,17.958784,-2.601127,-0.000000,1.000000,0.000000
-4.139498,13.028044,-4.754430,0.000000,-0.000000,-1.000000
-0.573704,-14.754196,-4.754430,0.000000,0.000000,-1.000000
36.352810,13.957764,4.754430,0.000000,-0.000000,1.000000
-24.793122,-8.306076,4.516437,-0.634394,0.773010,0.000000
34.026948,17.679141,-4.754430,0.000000,-0.000000,-1.000000
0.070896,-3.498980,1.367921,-0.881921,0.471397,0.000000
22.049141,-17.958784,4.146569,0.000000,-1.000000,0.000000
2.999819,-5.735199,-4.754430,0.000000,0.000000,-1.000000
-25.761164,-8.923624,-3.996838,-0.471396,0.881921,0.000000
-40.769119,7.276424,1.608553,-1.000000,0.000000,0.000000
-28.957929,-11.960169,4.754430,0.000000,-0.000000,1.000000
18.739634,-0.389889,-0.225980,-0.881921,0.471397,0.000000
27.044816,-17.958784,3.270133,0.000000,-1.000000,0.000000
31.825069,6.634397,-4.754430,0.000000,0.000000,-1.000000
40.769119,-0.137052,-1.204894,1.000000,0.000000,-0.000000
34.302038,4.666610,-4.754430,0.000000,0.000000,-1.000000
39.971955,3.229883,4.754430,0.000000,-0.000000,1.000000
-9.571442,14.656176,4.754430,-0.000000,0.000000,1.000000
-30.214461,14.575135,4.754430,-0.000000,0.000000,1.000000
23.572482,5.092890,4.754430,0.000000,-0.000000,1.000000
9.504564,-0.275384,-2.948968,0.881921,0.471397,0.000000
39.199774,0.016685,-4.754430,0.000000,0.000000,-1.000000
21.922480,-7.818944,-4.754430,0.000000,0.000000,-1.000000
-30.224290,16.456955,-4.754430,0.000000,-0.000000,-1.000000
-3.197229,-17.958784,-4.358035,0.000000,-1.000000,0.000000
19.600267,-3.684682,4.754430,0.000000,0.000000,1.000000
12.841100,-10.640653,4.754430,0.000000,-0.000000,1.000000
38.086362,-12.091446,-4.754430,0.000000,0.000000,-1.000000
-40.769119,-9.898778,-1.849252,-1.000000,0.000000,0.000000
-30.742297,-16.171073,4.754430,0.000000,-0.000000,1.000000
5.101565,-8.569755,4.754430,0.000000,-0.000000,1.000000
-6.643320,-5.907655,3.334385,0.290285,0.956940,-0.000000
-14.279127,5.517776,4.754430,0.000000,-0.000000,1.000000
-8.906019,-13.920414,4.754430,0.000000,-0.000000,1.000000
30.229255,15.033004,-4.754430,0.000000,0.000000,-1.000000
36.685753,10.312457,4.754430,0.000000,-0.000000,1.000000
-27.028804,17.958784,1.484295,0.000000,1.000000,0.000000
-10.131094,-0.992957,2.061919,0.995185,0.098018,-0.000000
23.539804,4.238788,4.754430,0.000000,-0.000000,1.000000
-18.479952,-10.424083,-4.754430,0.000000,0.000000,-1.000000
8.621561,-8.721280,-4.754430,0.000000,0.000000,-1.000000
40.769119,10.701566,-0.672083,1.000000,-0.000000,0.000000
-25.334809,10.322499,-4.754430,0.000000,0.000000,-1.000000
24.038701,-17.958784,-0.390292,0.000000,-1.000000,0.000000
-22.825279,-5.144714,4.205053,-0.956940,0.290285,0.000000
-26.615638,-17.958784,-3.729323,0.000000,-1.000000,0.000000
32.968876,-14.049935,-4.754430,0.000000,0.000000,-1.000000
3.757468,-17.958784,3.433312,0.000000,-1.000000,0.000000
10.324726,17.887369,-4.754430,0.000000,-0.000000,-1.000000
11.880680,7.557414,-1.077130,0.471397,-0.881921,0.000000
0.545466,-10.216433,4.754430,0.000000,-0.000000,1.000000
34.015696,1.865612,4.754430,0.000000,-0.000000,1.000000
3.134649,-5.446018,4.754430,-0.000000,-0.000000,1.000000
-16.621431,11.861354,4.754430,-0.000000,0.000000,1.000000
-40.769119,-8.787200,-0.218288,-1.000000,0.000000,0.000000
-22.732952,-4.284248,3.709403,-0.995185,0.098017,0.000000
-40.501969,17.958784,4.089221,0.000000,1.000000,0.000000
-11.621082,-0.319182,4.754430,0.000000,-0.000000,1.000000
19.155905,17.958784,-4.566062,-0.000000,1.000000,0.000000
19.877852,17.958784,3.804462,0.000000,1.000000,0.000000
-14.447937,-0.306545,-4.754430,0.000000,-0.000000,-1.000000
19.084114,-2.779948,4.754430,0.000000,0.000000,1.000000
17.112222,17.958784,-1.188099,-0.000000,1.000000,0.000000
-40.769119,-9.609436,0.968114,-1.000000,0.000000,0.000000
-14.633576,11.922678,-4.754430,0.000000,-0.000000,-1.000000
-31.893823,17.958784,-2.990400,0.000000,1.000000,0.000000
28.018460,-6.546002,4.754430,0.000000,0.000000,1.000000
29.186798,4.086367,-4.754430,0.000000,0.000000,-1.000000
13.447267,-2.816189,3.857602,0.098017,0.995185,0.000000
29.851923,-9.619339,4.754430,0.000000,0.000000,1.000000
-17.873987,-16.678993,-4.754430,0.000000,0.000000,-1.000000
35.139163,-8.367093,4.754430,0.000000,-0.000000,1.000000
23.684102,14.773951,-4.754430,0.000000,-0.000000,-1.000000
25.156679,-9.465897,4.754430,0.000000,0.000000,1.000000
20.851111,-8.972546,-4.754430,0.000000,0.000000,-1.000000
38.521445,-15.377233,4.754430,0.000000,-0.000000,1.000000
18.628690,9.117950,-4.754430,-0.000000,0.000000,-1.000000
40.769119,6.790257,2.233293,1.000000,-0.000000,0.000000
27.671336,-17.958784,-0.455754,0.000000,-1.000000,0.000000
40.769119,-7.353668,3.195891,1.000000,-0.000000,0.000000
-40.769119,11.663204,-2.914592,-1.000000,0.000000,0.000000
-33.387138,-2.408509,4.384226,0.956940,-0.290285,0.000000
-11.718183,17.958784,-3.309282,-0.000000,1.000000,0.000000
14.524361,8.031822,-2.430179,-0.098017,-0.995185,0.000000
-30.343598,-12.944579,4.754430,0.000000,-0.000000,1.000000
-16.724889,17.958784,-1.020252,0.000000,1.000000,0.000000
1.396382,-14.005357,4.754430,0.000000,-0.000000,1.000000
40.769119,-11.237608,3.517596,1.000000,-0.000000,0.000000
2.834682,14.157579,-4.754430,0.000000,-0.000000,-1.000000
-39.530530,-11.821312,4.754430,0.000000,-0.000000,1.000000
-13.876342,11.214378,-4.754430,0.000000,-0.000000,-1.000000
7.845407,-13.180702,4.754430,0.000000,-0.000000,1.000000
-2.873127,9.934389,4.754430,-0.000000,0.000000,1.000000
10.808137,-15.529335,-4.754430,0.000000,0.000000,-1.000000
34.838777,-6.666026,4.754430,0.000000,-0.000000,1.000000
23.069766,17.841795,-4.754430,0.000000,-0.000000,-1.000000
6.759247,17.958784,-0.988377,-0.000000,1.000000,0.000000
22.720858,17.958784,-3.184555,-0.000000,1.000000,0.000000
32.084923,-17.695797,-4.754430,0.000000,0.000000,-1.000000
1.089374,-6.368564,4.754430,-0.000000,-0.000000,1.000000
35.331899,4.547176,-4.754430,0.000000,0.000000,-1.000000
8.748060,3.326536,-1.160515,0.995185,-0.098017,0.000000
-40.769119,-17.726840,4.125923,-1.000000,0.000000,0.000000
38.352997,11.875180,4.754430,0.000000,-0.000000,1.000000
-40.769119,-2.555004,-1.795131,-1.000000,0.000000,0.000000
-8.109165,10.114989,4.754430,-0.000000,0.000000,1.000000
-1.186907,-5.000688,-2.194000,-0.634393,0.773011,0.000000
13.111178,-13.140712,-4.754430,0.000000,0.000000,-1.000000
-0.783042,-16.626453,-4.754430,0.000000,0.000000,-1.000000
-40.769119,-2.824667,0.472545,-1.000000,0.000000,0.000000
24.370300,-17.958784,-0.627521,0.000000,-1.000000,0.000000
-2.401780,-5.776624,-2.392411,-0.471397,0.881921,0.000000
-37.598361,-8.210007,-4.754430,0.000000,0.000000,-1.000000
-6.271483,5.956424,-4.754430,0.000000,-0.000000,-1.000000
23.289696,9.871390,4.754430,0.000000,0.000000,1.000000
24.135979,-8.244008,4.754430,0.000000,0.000000,1.000000
5.799577,-13.826215,4.754430,0.000000,-0.000000,1.000000
20.649485,-6.292222,4.754430,0.000000,0.000000,1.000000
-0.615166,-17.958784,-2.673547,0.000000,-1.000000,0.000000
-39.657789,-7.178172,4.754430,0.000000,-0.000000,1.000000
21.914028,-9.715361,-4.754430,0.000000,0.000000,-1.000000
-29.116356,-17.958784,1.491628,0.000000,-1.000000,0.000000
-27.419654,15.244129,4.754430,-0.000000,0.000000,1.000000
-18.370593,17.958784,4.735657,0.000000,1.000000,0.000000
-36.364092,-17.958784,-1.582445,0.000000,-1.000000,0.000000
17.050713,-2.040055,-0.785497,-0.471397,0.881921,0.000000
-31.344945,-8.497836,3.982791,0.634394,0.773010,0.000000
-2.903750,-17.958784,2.693018,0.000000,-1.000000,0.000000
-33.387205,-5.669666,-1.561880,0.956940,0.290285,-0.000000
22.578830,17.958784,-1.931344,-0.000000,1.000000,0.000000
7.435331,-6.153419,-4.754430,0.000000,0.000000,-1.000000
40.769119,13.359448,-0.505429,1.000000,-0.000000,0.000000
33.518810,15.194256,-4.754430,-0.000000,0.000000,-1.000000
35.846821,-4.116844,-4.754430,0.000000,0.000000,-1.000000
-33.078313,-15.993287,4.754430,0.000000,-0.000000,1.000000
-2.498386,-5.828261,-0.814857,-0.471397,0.881921,0.000000
-24.862468,0.284590,-4.754110,-0.634394,-0.773010,0.000000
35.096612,15.403093,4.754430,0.000000,0.000000,1.000000
40.225800,17.958784,2.018197,-0.000000,1.000000,0.000000
-33.650178,-4.168470,2.597001,0.995185,0.098017,-0.000000
1.626001,17.331973,-4.754430,0.000000,-0.000000,-1.000000
32.897235,-11.553543,4.754430,0.000000,0.000000,1.000000
-5.699162,-14.474310,-4.754430,0.000000,0.000000,-1.000000
18.767162,-0.338387,-0.916980,-0.881921,0.471397,0.000000
31.825888,-15.848344,-4.754430,0.000000,0.000000,-1.000000
-23.627307,6.791753,-4.754430,0.000000,0.000000,-1.000000
-23.760296,-17.958784,1.199891,0.000000,-1.000000,0.000000
-40.769119,4.913940,4.314384,-1.000000,0.000000,0.000000
38.177400,17.958784,-4.539737,-0.000000,1.000000,0.000000
-40.769119,-4.645773,-2.603175,-1.000000,0.000000,0.000000
-37.988285,12.345172,4.754430,0.000000,-0.000000,1.000000
-26.906363,17.177350,-4.754430,0.000000,-0.000000,-1.000000
10.811204,17.958784,-2.753799,-0.000000,1.000000,0.000000
-27.178252,15.842257,-4.754430,0.000000,-0.000000,-1.000000
38.679553,-12.358002,4.754430,0.000000,-0.000000,1.000000
-13.321899,2.923972,4.754430,0.000000,-0.000000,1.000000
-14.274890,17.958784,4.179063,0.000000,1.000000,0.000000
40.769119,8.751922,-3.739000,1.000000,0.000000,-0.000000
-7.870305,-5.236208,-2.106789,0.634393,0.773011,0.000000
-20.231456,-8.102158,-4.754430,0.000000,0.000000,-1.000000
20.071653,7.221464,4.754430,0.000000,0.000000,1.000000
-40.349667,11.852305,4.754430,0.000000,-0.000000,1.000000
-9.711545,11.965906,-4.754430,0.000000,-0.000000,-1.000000
-27.037467,-10.432154,4.754430,0.000000,-0.000000,1.000000
-38.221520,-12.792485,-4.754430,0.000000,0.000000,-1.000000
23.189567,-13.782569,4.754430,0.000000,-0.000000,1.000000
-40.769119,10.430722,-3.028588,-1.000000,0.000000,0.000000
8.805082,-0.693423,4.754430,-0.000000,-0.000000,1.000000
-22.752644,-16.116624,-4.754430,0.000000,0.000000,-1.000000
-32.468731,16.383225,-4.754430,0.000000,-0.000000,-1.000000
-40.769119,-16.750766,-4.344490,-1.000000,0.000000,0.000000
-40.132242,-0.033237,4.754430,0.000000,-0.000000,1.000000
-40.769119,-12.916176,0.191361,-1.000000,0.000000,0.000000
-40.769119,7.181644,0.283384,-1.000000,0.000000,0.000000
-25.084550,4.904166,-4.754430,0.000000,0.000000,-1.000000
-19.935989,-13.920606,4.754430,0.000000,-0.000000,1.000000
-25.751787,-8.918611,3.876161,-0.471396,0.881921,0.000000
35.654347,-7.019187,4.754430,0.000000,-0.000000,1.000000
-22.746204,-4.418804,-4.316203,-0.995185,0.098017,0.000000
-40.769119,11.663916,-0.708677,-1.000000,0.000000,0.000000
-23.267161,-1.678628,-4.410961,-0.881922,-0.471396,0.000000
0.082985,-17.958784,-4.352431,0.000000,-1.000000,0.000000
24.341506,17.958784,0.197743,-0.000000,1.000000,0.000000
-31.447796,-17.958784,-3.133785,0.000000,-1.000000,0.000000
23.666196,0.306607,-4.754430,0.000000,0.000000,-1.000000
-25.798138,10.127373,-4.754430,0.000000,0.000000,-1.000000
7.187472,3.710039,-2.229745,-0.995185,0.098017,0.000000
10.839814,10.325843,4.754430,0.000000,-0.000000,1.000000
12.427262,-17.958784,-0.692138,0.000000,-1.000000,0.000000
-5.109630,7.523800,-4.754430,0.000000,-0.000000,-1.000000
-5.671558,4.568929,2.855224,0.098017,-0.995185,0.000000
17.438419,-17.958784,1.953236,0.000000,-1.000000,0.000000
7.977725,12.014834,4.754430,-0.000000,0.000000,1.000000
12.195116,-7.025503,4.754430,-0.000000,-0.000000,1.000000
19.492651,3.764916,1.125086,-0.956941,-0.290283,0.000000
-1.294112,17.958784,4.550635,0.000000,1.000000,0.000000
17.863797,-10.270969,-4.754430,0.000000,0.000000,-1.000000
-40.769119,9.499673,4.203339,-1.000000,0.000000,0.000000
-7.576229,-5.437843,-4.185680,0.471397,0.881921,-0.000000
4.426481,-0.091772,0.321624,-0.471397,0.881921,0.000000
19.277735,4.775693,-4.754430,-0.000000,0.000000,-1.000000
-5.545749,-17.479866,-4.754430,0.000000,0.000000,-1.000000
18.017817,-14.588637,-4.754430,0.000000,0.000000,-1.000000
-36.447738,-6.534870,-4.754430,0.000000,0.000000,-1.000000
35.127176,15.652785,-4.754430,-0.000000,0.000000,-1.000000
21.064092,-0.212197,4.754430,0.000000,0.000000,1.000000
39.888826,11.904893,-4.754430,0.000000,0.000000,-1.000000
35.492085,-2.993070,-4.754430,0.000000,0.000000,-1.000000
19.111425,10.360274,-4.754430,0.000000,-0.000000,-1.000000
-6.284247,13.759770,4.754430,-0.000000,0.000000,1.000000
17.868196,-17.958784,0.921654,0.000000,-1.000000,0.000000
-4.554252,4.655761,4.194840,-0.098017,-0.995185,0.000000
-21.161295,10.844378,4.754430,0.000000,0.000000,1.000000
4.881024,10.965980,4.754430,-0.000000,0.000000,1.000000
-12.657779,17.958784,-2.082882,-0.000000,1.000000,0.000000
-7.104992,4.070365,-4.721721,0.471397,-0.881921,0.000000
5.747908,8.478106,1.360554,-0.773010,-0.634393,0.000000
40.769119,15.590764,-3.524476,1.000000,-0.000000,0.000000
-36.378969,14.541283,-4.754430,0.000000,0.000000,-1.000000
27.554603,6.328944,-4.754430,0.000000,0.000000,-1.000000
38.250316,-6.957561,-4.754430,0.000000,0.000000,-1.000000
-0.091240,17.958784,-3.905666,-0.000000,1.000000,0.000000
23.528220,17.857208,-4.754430,0.000000,-0.000000,-1.000000
21.910813,17.958784,-2.850774,-0.000000,1.000000,0.000000
-16.127075,4.662620,4.754430,0.000000,-0.000000,1.000000
20.196180,-2.513407,4.754430,0.000000,0.000000,1.000000
-28.291183,1.427476,-1.305443,0.098017,-0.995185,0.000000
-28.996044,4.513797,4.754430,-0.000000,-0.000000,1.000000
40.769119,2.040957,1.180294,1.000000,-0.000000,0.000000
14.667395,-17.958784,-1.869766,0.000000,-1.000000,0.000000
23.411402,0.926763,4.754430,0.000000,-0.000000,1.000000
18.399978,6.813026,-4.754430,-0.000000,0.000000,-1.000000
20.121340,-4.691008,-4.754430,0.000000,0.000000,-1.000000
40.769119,-11.130652,-2.042510,1.000000,0.000000,-0.000000
-38.599508,11.686584,4.754430,0.000000,-0.000000,1.000000
18.675133,-0.489968,-1.830856,-0.773011,0.634393,0.000000
35.592040,-7.580593,-4.754430,0.000000,0.000000,-1.000000
16.485173,-13.794562,4.754430,0.000000,-0.000000,1.000000
28.823548,-7.236409,-4.754430,0.000000,0.000000,-1.000000
40.769119,-8.122493,-3.980536,1.000000,0.000000,-0.000000
40.769119,2.652052,1.151951,1.000000,-0.000000,0.000000
-17.056819,-10.947660,4.754430,0.000000,-0.000000,1.000000
-0.053216,13.491778,-4.754430,0.000000,-0.000000,-1.000000
10.939871,9.741736,4.754430,0.000000,-0.000000,1.000000
-32.146444,-7.805163,3.972217,0.773011,0.634393,0.000000
7.892313,13.964572,-4.754430,0.000000,-0.000000,-1.000000
40.769119,3.268252,-0.885206,1.000000,0.000000,-0.000000
-36.980896,-7.303895,4.754430,0.000000,-0.000000,1.000000
21.325319,17.958784,-2.572876,-0.000000,1.000000,0.000000
34.082618,9.825825,-4.754430,0.000000,0.000000,-1.000000
-23.440942,10.108950,-4.754430,0.000000,-0.000000,-1.000000
-33.357066,-2.309378,3.762121,0.956940,-0.290285,0.000000
-40.769119,-0.605584,3.984447,-1.000000,0.000000,0.000000
-6.846207,-17.958784,-2.760750,0.000000,-1.000000,0.000000
3.435097,-17.958784,-0.778333,0.000000,-1.000000,0.000000
-22.970153,17.958784,3.826030,0.000000,1.000000,0.000000
-22.778649,-5.443813,-4.754430,0.000000,0.000000,-1.000000
9.750781,17.958784,0.281628,-0.000000,1.000000,0.000000
36.080233,-12.751555,-4.754430,0.000000,0.000000,-1.000000
9.221900,17.958784,-0.162028,-0.000000,1.000000,0.000000
-26.561088,-11.339410,4.754430,0.000000,-0.000000,1.000000
5.000460,-6.910594,-4.754430,0.000000,0.000000,-1.000000
-15.629773,2.039355,-4.754430,0.000000,-0.000000,-1.000000
14.044250,17.958784,-1.287978,-0.000000,1.000000,0.000000
-40.769119,-15.382034,-1.827783,-1.000000,0.000000,0.000000
40.769119,-7.566188,1.563378,1.000000,0.000000,-0.000000
-35.634358,7.388477,4.754430,0.000000,-0.000000,1.000000
40.769119,-12.971596,-2.320678,1.000000,0.000000,-0.000000
-6.141270,-14.101307,4.754430,0.000000,-0.000000,1.000000
-40.769119,14.393476,-3.987372,-1.000000,0.000000,0.000000
28.196822,9.561161,4.754430,0.000000,0.000000,1.000000
-6.872480,4.194645,-4.366710,0.471397,-0.881921,0.000000
-33.704298,-4.767617,4.754430,0.000000,-0.000000,1.000000
27.058288,13.458831,-4.754430,0.000000,-0.000000,-1.000000
19.617278,-17.958784,-4.273117,0.000000,-1.000000,0.000000
-3.173232,-16.524962,-4.754430,0.000000,0.000000,-1.000000
-39.001175,-0.545679,-4.754430,0.000000,0.000000,-1.000000
-25.059208,0.446051,2.095567,-0.634394,-0.773010,-0.000000
-38.764328,-17.958784,-0.853168,0.000000,-1.000000,0.000000
29.648939,8.115472,-4.754430,0.000000,0.000000,-1.000000
-33.709743,-1.724700,-4.754430,0.000000,0.000000,-1.000000
-0.118379,-17.958784,-3.843483,0.000000,-1.000000,0.000000
-39.740084,-3.227599,-4.754430,0.000000,0.000000,-1.000000
17.734525,-2.863891,4.754430,0.000000,0.000000,1.000000
26.986200,17.493631,-4.754430,0.000000,-0.000000,-1.000000
-3.250354,-17.958784,-1.997393,0.000000,-1.000000,0.000000
18.773078,-0.327319,-0.120650,-0.881921,0.471397,0.000000
28.773871,10.700528,-4.754430,-0.000000,0.000000,-1.000000
-20.119168,17.958784,2.461062,0.000000,1.000000,0.000000
13.812323,-15.329026,4.754430,0.000000,-0.000000,1.000000
-32.346436,8.681146,-4.754430,0.000000,0.000000,-1.000000
38.108393,1.219220,-4.754430,0.000000,0.000000,-1.000000
-40.574803,14.826987,4.754430,0.000000,-0.000000,1.000000
-11.566555,-3.003587,-4.754430,0.000000,0.000000,-1.000000
36.587024,-3.118963,-4.754430,0.000000,0.000000,-1.000000
22.382719,17.958784,-1.217552,-0.000000,1.000000,0.000000
8.843558,-3.375802,4.754430,-0.000000,-0.000000,1.000000
-34.489170,4.509846,-4.754430,0.000000,0.000000,-1.000000
24.245005,-7.320745,-4.754430,0.000000,0.000000,-1.000000
32.430354,16.452975,4.754430,-0.000000,0.000000,1.000000
-0.108627,10.630108,4.754430,-0.000000,0.000000,1.000000
18.602811,17.958784,-2.057238,-0.000000,1.000000,0.000000
-37.429135,7.248984,4.754430,0.000000,-0.000000,1.000000
32.792857,17.958784,1.601896,-0.000000,1.000000,0.000000
31.082858,4.523228,-4.754430,0.000000,0.000000,-1.000000
4.465771,16.778468,-4.754430,0.000000,-0.000000,-1.000000
-6.367533,-9.950204,4.754430,0.000000,-0.000000,1.000000
1.521511,-0.760523,0.826106,0.098017,0.995185,0.000000
-9.869460,4.059459,4.754430,0.000000,-0.000000,1.000000
-27.332632,1.353813,-0.385509,-0.098017,-0.995185,0.000000
32.500305,17.958784,-0.680432,-0.000000,1.000000,0.000000
-16.095320,-16.095171,-4.754430,0.000000,0.000000,-1.000000
13.212715,15.346800,-4.754430,0.000000,-0.000000,-1.000000
19.160011,-13.561124,4.754430,0.000000,-0.000000,1.000000
-20.930243,11.902938,-4.754430,0.000000,-0.000000,-1.000000
-23.875315,17.327404,-4.754430,0.000000,-0.000000,-1.000000
33.395490,-12.150098,-4.754430,0.000000,0.000000,-1.000000
18.559581,-7.754192,-4.754430,0.000000,0.000000,-1.000000
-40.769119,8.888599,2.728193,-1.000000,0.000000,0.000000
26.083423,12.457181,4.754430,0.000000,0.000000,1.000000
40.769119,-8.561183,4.129451,1.000000,-0.000000,0.000000
-7.553953,-17.958784,-4.008796,0.000000,-1.000000,0.000000
-19.582271,11.240251,-4.754430,0.000000,-0.000000,-1.000000
18.745801,-2.992573,4.754430,0.000000,0.000000,1.000000
26.380553,-13.528395,-4.754430,0.000000,0.000000,-1.000000
-29.976037,7.997498,4.754430,0.000000,-0.000000,1.000000
-18.823886,-15.631915,4.754430,0.000000,-0.000000,1.000000
-36.489858,-17.958784,0.924944,0.000000,-1.000000,0.000000
40.769119,-13.491450,-0.811238,1.000000,0.000000,-0.000000
-26.933106,1.276720,1.543070,-0.290285,-0.956940,0.000000
30.819101,-7.799012,4.754430,0.000000,-0.000000,1.000000
40.769119,-9.061974,-4.368504,1.000000,0.000000,-0.000000
-29.395152,17.958784,3.296912,0.000000,1.000000,0.000000
-4.859890,-17.958784,-0.382963,0.000000,-1.000000,0.000000
-1.719548,8.845667,-1.776796,0.634394,-0.773010,0.000000
-19.916941,3.062833,4.754430,0.000000,-0.000000,1.000000
-15.805456,16.252891,4.754430,-0.000000,0.000000,1.000000
33.764631,10.408160,4.754430,0.000000,-0.000000,1.000000
-33.590633,-4.773046,-3.624851,0.995185,0.098017,-0.000000
36.343498,-10.234167,-4.754430,0.000000,0.000000,-1.000000
16.280263,-15.158215,-4.754430,0.000000,0.000000,-1.000000
-21.318526,-17.958784,2.264558,0.000000,-1.000000,0.000000
-39.410967,15.731558,-4.754430,0.000000,0.000000,-1.000000
-22.134826,-17.958784,1.785960,0.000000,-1.000000,0.000000
1.922732,-17.958784,2.897480,0.000000,-1.000000,0.000000
-21.531820,12.269254,-4.754430,0.000000,-0.000000,-1.000000
17.391719,6.984416,3.068087,-0.634393,-0.773010,0.000000
-32.568259,-13.377492,4.754430,0.000000,-0.000000,1.000000
16.218838,-17.958784,-4.434907,0.000000,-1.000000,0.000000
21.262261,0.439036,4.754430,0.000000,0.000000,1.000000
-7.931733,3.566435,-0.694267,0.634393,-0.773010,0.000000
15.898456,-15.125663,-4.754430,0.000000,0.000000,-1.000000
-17.869717,-3.211912,-4.754430,0.000000,0.000000,-1.000000
40.769119,11.743041,4.281048,1.000000,-0.000000,0.000000
-24.075632,-17.958784,-3.230566,0.000000,-1.000000,0.000000
-40.769119,15.582988,3.599215,-1.000000,0.000000,0.000000
-17.910494,10.783859,4.754430,-0.000000,0.000000,1.000000
-23.772516,16.933845,-4.754430,0.000000,-0.000000,-1.000000
37.358493,-17.873601,4.754430,0.000000,-0.000000,1.000000
-14.050944,-16.805890,4.754430,0.000000,-0.000000,1.000000
13.984093,-3.656274,-4.754430,0.000000,0.000000,-1.000000
37.038207,-3.447319,-4.754430,0.000000,0.000000,-1.000000
40.769119,1.995699,0.136072,1.000000,-0.000000,0.000000
-21.019017,-17.958784,-2.690514,0.000000,-1.000000,0.000000
26.565217,-3.425202,-4.754430,0.000000,0.000000,-1.000000
-23.414829,0.705113,-4.754430,-0.000000,-0.000000,-1.000000
-33.061724,8.174058,4.754430,-0.000000,-0.000000,1.000000
-39.354437,4.712598,4.754430,0.000000,-0.000000,1.000000
-9.901454,16.356046,4.754430,-0.000000,0.000000,1.000000
-30.521400,-17.958784,1.159625,0.000000,-1.000000,0.000000
-18.846918,-3.632795,4.754430,0.000000,-0.000000,1.000000
-20.752979,-9.183935,-4.754430,0.000000,0.000000,-1.000000
-23.295609,9.555355,4.754430,0.000000,-0.000000,1.000000
16.415626,17.958784,3.251823,0.000000,1.000000,0.000000
-25.702630,17.958784,-2.013749,0.000000,1.000000,0.000000
29.016476,0.190918,-4.754430,0.000000,0.000000,-1.000000
19.412712,-14.341620,4.754430,0.000000,-0.000000,1.000000
-40.769119,14.246205,-4.289870,-1.000000,0.000000,0.000000
-31.158020,7.395140,4.754430,0.000000,-0.000000,1.000000
-2.279910,11.800112,-4.754430,0.000000,-0.000000,-1.000000
0.428668,-14.470974,4.754430,0.000000,-0.000000,1.000000
-27.074602,15.739557,-4.754430,0.000000,-0.000000,-1.000000
-34.268836,17.958784,2.653796,0.000000,1.000000,0.000000
-40.769119,-7.753576,2.381246,-1.000000,0.000000,0.000000
-26.703700,17.958784,2.222569,0.000000,1.000000,0.000000
40.769119,-0.904929,-1.286103,1.000000,0.000000,-0.000000
40.769119,1.570613,0.720633,1.000000,-0.000000,0.000000
-40.769119,-6.192285,2.861510,-1.000000,0.000000,0.000000
0.205977,-3.246262,-4.357650,-0.881921,0.471397,0.000000
37.272746,-6.558659,4.754430,0.000000,-0.000000,1.000000
37.534544,-11.419146,-4.754430,0.000000,0.000000,-1.000000
-23.659356,3.968901,4.754430,0.000000,-0.000000,1.000000
40.151900,-14.447573,4.754430,0.000000,-0.000000,1.000000
7.426220,-14.129857,-4.754430,0.000000,0.000000,-1.000000
-31.052051,11.033616,4.754430,0.000000,-0.000000,1.000000
17.344773,-8.745886,-4.754430,0.000000,0.000000,-1.000000
38.586466,-4.491898,-4.754430,0.000000,0.000000,-1.000000
6.205729,1.456604,3.956094,-0.773010,0.634393,0.000000
-12.263709,-6.615028,-4.754430,0.000000,0.000000,-1.000000
-16.741802,-4.523420,-4.754430,0.000000,0.000000,-1.000000
9.632434,-17.958784,-3.883307,0.000000,-1.000000,0.000000
20.335091,-4.302244,4.754430,0.000000,0.000000,1.000000
35.739131,-10.191174,4.754430,0.000000,-0.000000,1.000000
-40.769119,-1.067677,4.444134,-1.000000,0.000000,0.000000
5.614714,8.614571,0.737060,-0.634394,-0.773010,0.000000
-23.503986,-17.958784,1.396712,0.000000,-1.000000,0.000000
-21.973826,-16.341476,4.754430,0.000000,-0.000000,1.000000
23.831479,-17.958784,0.866358,0.000000,-1.000000,0.000000
28.983524,-5.733968,-4.754430,0.000000,0.000000,-1.000000
-22.050286,13.691033,-4.754430,0.000000,-0.000000,-1.000000
-21.604228,9.382046,-4.754430,0.000000,-0.000000,-1.000000
-30.448664,-10.904739,4.754430,0.000000,-0.000000,1.000000
40.667181,2.434675,4.754430,0.000000,-0.000000,1.000000
-5.715856,11.548386,-4.754430,-0.000000,-0.000000,-1.000000
-38.241039,5.222495,4.754430,0.000000,-0.000000,1.000000
-8.494472,-16.961139,-4.754430,0.000000,0.000000,-1.000000
15.681962,-2.640663,0.506238,-0.290285,0.956940,0.000000
3.482169,-17.958784,-0.016074,0.000000,-1.000000,0.000000
-23.291453,10.361569,-4.754430,0.000000,-0.000000,-1.000000
36.839711,14.416404,4.754430,0.000000,-0.000000,1.000000
7.861283,-17.958784,-1.136135,0.000000,-1.000000,0.000000
11.926441,-15.205774,4.754430,0.000000,-0.000000,1.000000
-23.717581,-15.155579,4.754430,0.000000,-0.000000,1.000000
31.091699,-17.958784,3.157101,0.000000,-1.000000,0.000000
-40.769119,6.815242,-4.214757,-1.000000,0.000000,0.000000
2.693903,-11.838668,4.754430,0.000000,-0.000000,1.000000
-12.948401,-17.958784,0.497056,0.000000,-1.000000,0.000000
16.016374,17.523332,-4.754430,0.000000,-0.000000,-1.000000
-40.769119,-8.738462,0.843328,-1.000000,0.000000,0.000000
9.230500,0.237353,0.459543,0.881921,0.471397,-0.000000
28.805221,1.946048,4.754430,0.000000,-0.000000,1.000000
-37.185814,-13.217647,4.754430,0.000000,-0.000000,1.000000
-7.440962,-5.510145,-0.831129,0.471397,0.881921,-0.000000
20.523444,-10.311127,-4.754430,0.000000,0.000000,-1.000000
-3.645630,4.938501,0.018973,0.995185,-0.098017,0.000000
7.596290,12.052816,-4.754430,0.000000,-0.000000,-1.000000
27.255443,6.932791,4.754430,0.000000,-0.000000,1.000000
10.524586,17.958784,-2.934509,-0.000000,1.000000,0.000000
7.394361,-1.344365,4.754430,-0.000000,-0.000000,1.000000
4.949520,17.958784,2.584623,0.000000,1.000000,0.000000
1.882283,-0.781185,3.782391,-0.098017,0.995185,0.000000
1.247509,10.110390,-3.998024,0.098017,-0.995185,0.000000
-16.156694,9.758335,4.754430,-0.000000,0.000000,1.000000
39.519600,-3.888377,-4.754430,0.000000,0.000000,-1.000000
2.402221,-0.729975,1.362644,-0.098017,0.995185,0.000000
-0.618455,9.572562,2.591126,0.471396,-0.881921,0.000000
-27.391556,17.844629,-4.754430,0.000000,-0.000000,-1.000000
6.234011,13.861777,4.754430,-0.000000,0.000000,1.000000
23.103734,-6.718025,4.754430,0.000000,0.000000,1.000000
-7.616540,7.619797,-4.754430,0.000000,-0.000000,-1.000000
31.839072,5.864366,4.754430,0.000000,-0.000000,1.000000
2.629759,-7.551418,4.754430,0.000000,-0.000000,1.000000
24.582887,-17.958784,-3.071210,0.000000,-1.000000,0.000000
-12.225284,-1.904604,-4.754430,0.000000,0.000000,-1.000000
-18.269265,-4.040967,4.754430,0.000000,-0.000000,1.000000
10.350160,-9.272417,-4.754430,0.000000,0.000000,-1.000000
29.032072,17.958784,1.304779,-0.000000,1.000000,0.000000
-8.230751,3.321037,-0.723958,0.634393,-0.773010,0.000000
-38.160497,-11.263810,4.754430,0.000000,-0.000000,1.000000
4.559721,11.937362,-4.754430,0.000000,-0.000000,-1.000000
-0.133050,-9.893912,4.754430,0.000000,-0.000000,1.000000
-10.836060,-16.705292,-4.754430,0.000000,0.000000,-1.000000
-25.419157,9.034272,-4.754430,0.000000,0.000000,-1.000000
-17.832992,-9.056045,-4.754430,0.000000,0.000000,-1.000000
-33.869791,17.706367,4.754430,-0.000000,0.000000,1.000000
-13.210957,0.378435,4.754430,0.000000,-0.000000,1.000000
-3.621873,11.817757,4.754430,-0.000000,0.000000,1.000000
13.676738,-17.258429,-4.754430,0.000000,0.000000,-1.000000
17.865532,-16.099073,-4.754430,0.000000,0.000000,-1.000000
22.968956,9.846202,-4.754430,-0.000000,0.000000,-1.000000
-37.029060,-7.590091,4.754430,0.000000,-0.000000,1.000000
-33.090808,-6.425507,3.096604,0.881921,0.471397,0.000000
-27.067767,1.317569,1.667582,-0.290285,-0.956940,0.000000
-20.543801,-6.884650,4.754430,0.000000,-0.000000,1.000000
-38.676884,12.710343,4.754430,0.000000,-0.000000,1.000000
-18.609796,-2.380056,4.754430,0.000000,0.000000,1.000000
15.734800,-2.624635,1.089821,-0.290285,0.956940,0.000000
8.868204,8.067711,4.754430,-0.000000,0.000000,1.000000
23.680106,-17.958784,3.057861,0.000000,-1.000000,0.000000
-35.526783,-0.202459,-4.754430,0.000000,0.000000,-1.000000
6.242601,14.651745,-4.754430,0.000000,-0.000000,-1.000000
15.402623,14.188563,4.754430,-0.000000,0.000000,1.000000
1.513126,-12.486860,4.754430,0.000000,-0.000000,1.000000
-8.220362,-17.958784,0.966747,0.000000,-1.000000,0.000000
-40.042839,17.958784,4.454687,0.000000,1.000000,0.000000
-38.437609,17.958784,3.380512,0.000000,1.000000,0.000000
-29.290536,-17.958784,-2.077318,0.000000,-1.000000,0.000000
-35.715298,11.788941,4.754430,-0.000000,-0.000000,1.000000
38.987579,8.807054,4.754430,0.000000,-0.000000,1.000000
4.326910,-1.441617,4.754430,-0.000000,-0.000000,1.000000
-33.002709,-1.488069,-3.539154,0.881921,-0.471397,0.000000
-40.769119,1.254533,2.431714,-1.000000,0.000000,0.000000
-12.487896,-14.070105,-4.754430,0.000000,0.000000,-1.000000
-26.203333,-17.958784,2.403664,0.000000,-1.000000,0.000000
-23.416695,16.245170,-4.754430,0.000000,-0.000000,-1.000000
12.863375,14.339228,-4.754430,0.000000,-0.000000,-1.000000
-17.647749,11.505317,-4.754430,0.000000,-0.000000,-1.000000
19.534832,1.627691,0.029550,-0.995185,0.098017,0.000000
11.720461,17.958784,-3.719930,-0.000000,1.000000,0.000000
9.765601,5.837631,0.267558,0.773011,-0.634393,0.000000
-13.983457,17.958784,0.404174,0.000000,1.000000,0.000000
35.381888,-3.404155,-4.754430,0.000000,0.000000,-1.000000
-2.598801,-17.958784,0.506001,0.000000,-1.000000,0.000000
-8.732572,-4.453925,-2.839523,0.773010,0.634394,-0.000000
32.301589,-14.685322,4.754430,-0.000000,-0.000000,1.000000
-15.645278,-5.722145,4.754430,0.000000,-0.000000,1.000000
32.070167,-11.593697,4.754430,0.000000,0.000000,1.000000
27.428650,-9.238098,-4.754430,0.000000,0.000000,-1.000000
-17.651839,10.008458,4.754430,-0.000000,0.000000,1.000000
-38.416510,-17.958784,-4.450905,0.000000,-1.000000,0.000000
9.424900,-8.303504,-4.754430,0.000000,0.000000,-1.000000
-39.063982,-5.354301,4.754430,0.000000,-0.000000,1.000000
-15.744041,3.116198,4.754430,0.000000,-0.000000,1.000000
-26.888793,-17.958784,1.285958,0.000000,-1.000000,0.000000
-19.702299,6.731305,-4.754430,0.000000,0.000000,-1.000000
22.159053,4.312987,4.754430,0.000000,-0.000000,1.000000
2.357624,-5.165059,-4.754430,0.000000,0.000000,-1.000000
31.327003,-4.242118,4.754430,0.000000,-0.000000,1.000000
-4.124618,17.958784,-0.742665,-0.000000,1.000000,0.000000
24.382387,-1.683138,-4.754430,0.000000,0.000000,-1.000000
-6.650015,4.286264,-3.772240,0.290285,-0.956940,0.000000
24.840646,15.394740,-4.754430,0.000000,-0.000000,-1.000000
36.777706,-1.505471,-4.754430,0.000000,0.000000,-1.000000
10.905124,6.977391,-1.601864,0.634393,-0.773010,0.000000
-20.196204,-17.759346,4.754430,0.000000,-0.000000,1.000000
11.251838,7.221290,-1.531408,0.471397,-0.881921,0.000000
-23.422294,-15.133707,-4.754430,0.000000,0.000000,-1.000000
-7.550841,13.410384,-4.754430,0.000000,-0.000000,-1.000000
34.775787,14.534609,-4.754430,-0.000000,0.000000,-1.000000
-38.146550,7.973397,-4.754430,0.000000,0.000000,-1.000000
15.256448,17.958784,1.582726,-0.000000,1.000000,0.000000
-16.258967,-2.011141,-4.754430,0.000000,0.000000,-1.000000
-40.769119,17.131786,3.294153,-1.000000,0.000000,0.000000
37.119606,17.958784,2.737077,-0.000000,1.000000,0.000000
-13.351809,-8.580938,-4.754430,0.000000,0.000000,-1.000000
5.809708,-15.293942,4.754430,0.000000,-0.000000,1.000000
-10.027605,5.945871,-4.754430,0.000000,-0.000000,-1.000000
-21.864246,13.827621,-4.754430,0.000000,-0.000000,-1.000000
-4.525976,-17.958784,4.313213,0.000000,-1.000000,0.000000
-15.861294,-17.958784,4.225748,0.000000,-1.000000,0.000000
-14.837628,-17.958784,-1.115308,0.000000,-1.000000,0.000000
28.012295,16.804959,4.754430,-0.000000,0.000000,1.000000
-16.626147,3.563318,-4.754430,0.000000,0.000000,-1.000000
-26.162355,-13.048481,4.754430,0.000000,-0.000000,1.000000
4.557955,-12.543657,4.754430,0.000000,-0.000000,1.000000
36.787786,-17.958784,1.162012,0.000000,-1.000000,0.000000
-10.068688,0.007209,1.277450,0.995185,-0.098018,0.000000
-16.751198,8.790674,-4.754430,0.000000,-0.000000,-1.000000
-36.327374,-7.411405,4.754430,0.000000,-0.000000,1.000000
5.873232,-13.506858,-4.754430,0.000000,0.000000,-1.000000
-14.218278,1.847469,4.754430,0.000000,0.000000,1.000000
-35.679032,-11.726353,4.754430,0.000000,-0.000000,1.000000
-28.853004,-17.958784,0.554632,0.000000,-1.000000,0.000000
35.226463,11.878967,-4.754430,0.000000,0.000000,-1.000000
40.567918,-17.958784,-3.054269,0.000000,-1.000000,0.000000
0.485336,-17.958784,1.140430,0.000000,-1.000000,0.000000
-8.044561,11.396019,4.754430,-0.000000,0.000000,1.000000
-32.073873,-0.184806,-2.150483,0.773011,-0.634393,0.000000
15.045729,-15.234004,-4.754430,0.000000,0.000000,-1.000000
-34.128226,11.381419,4.754430,0.000000,-0.000000,1.000000
8.175962,12.399283,4.754430,-0.000000,0.000000,1.000000
13.113853,-11.562130,4.754430,0.000000,-0.000000,1.000000
18.342004,-13.969525,-4.754430,0.000000,0.000000,-1.000000
-3.219395,13.942602,4.754430,-0.000000,0.000000,1.000000
40.769119,10.224460,3.542135,1.000000,-0.000000,0.000000
-16.107060,16.474980,4.754430,-0.000000,0.000000,1.000000
31.154582,-5.076082,4.754430,0.000000,-0.000000,1.000000
-18.998827,1.686003,-4.754430,0.000000,-0.000000,-1.000000
-24.502469,17.958784,2.731307,0.000000,1.000000,0.000000
-20.875461,7.175791,-4.754430,0.000000,0.000000,-1.000000
-9.867236,-2.460597,-2.656149,0.956940,0.290284,-0.000000
0.791956,-0.941614,1.166304,-0.995185,0.098017,0.000000
39.615767,10.567664,4.754430,0.000000,-0.000000,1.000000
-14.467886,-5.378599,4.754430,0.000000,-0.000000,1.000000
-19.322733,-2.905164,4.754430,0.000000,-0.000000,1.000000
8.042025,16.208428,-4.754430,0.000000,-0.000000,-1.000000
40.769119,0.672049,-0.414876,1.000000,0.000000,-0.000000
18.254666,7.721055,4.754430,0.000000,0.000000,1.000000
-34.182385,-3.335550,-4.754430,0.000000,0.000000,-1.000000
-19.181151,-16.204110,-4.754430,0.000000,0.000000,-1.000000
37.491727,-11.928515,4.754430,0.000000,-0.000000,1.000000
1.714234,12.239905,-4.754430,0.000000,-0.000000,-1.000000
20.230324,17.958784,1.638918,-0.000000,1.000000,0.000000
-27.308040,16.148817,4.754430,-0.000000,0.000000,1.000000
34.875933,-7.052176,-4.754430,0.000000,0.000000,-1.000000
11.841437,17.958784,3.779591,0.000000,1.000000,0.000000
27.127177,-12.110262,4.754430,-0.000000,-0.000000,1.000000
10.452711,6.606106,2.382611,0.634393,-0.773010,0.000000
-5.158401,-17.958784,-0.953548,0.000000,-1.000000,0.000000
3.470432,9.879705,3.664524,-0.290284,-0.956940,0.000000
36.262189,-17.958784,-2.070311,0.000000,-1.000000,0.000000
19.545116,3.450654,4.713965,-0.995185,-0.098017,0.000000
26.778576,16.972366,4.754430,-0.000000,0.000000,1.000000
38.947220,-11.581863,4.754430,0.000000,-0.000000,1.000000
-39.322620,-14.087935,4.754430,0.000000,-0.000000,1.000000
8.054366,5.276088,4.754430,0.000000,-0.000000,1.000000
9.329993,17.958784,3.555783,0.000000,1.000000,0.000000
-30.857806,11.576684,4.754430,0.000000,-0.000000,1.000000
17.518426,-17.958784,-1.498127,0.000000,-1.000000,0.000000
-0.086873,-3.794144,0.977599,-0.881921,0.471397,0.000000
40.769119,16.118469,-2.182491,1.000000,-0.000000,0.000000
24.421047,2.980439,-4.754430,0.000000,0.000000,-1.000000
21.474349,-7.167487,4.754430,0.000000,0.000000,1.000000
-8.343300,-5.559349,4.754430,0.000000,-0.000000,1.000000
-20.290295,4.519517,4.754430,0.000000,-0.000000,1.000000
29.963382,8.619524,4.754430,0.000000,-0.000000,1.000000
-3.857668,-17.958784,0.794030,0.000000,-1.000000,0.000000
-40.758532,-17.094790,4.754430,0.000000,-0.000000,1.000000
-40.769119,-17.089781,2.546023,-1.000000,0.000000,0.000000
-9.227436,2.230698,2.221933,0.881921,-0.471396,0.000000
31.082089,-17.958784,-2.037238,0.000000,-1.000000,0.000000
34.561292,-17.958784,-4.155685,0.000000,-1.000000,0.000000
12.884157,7.902510,-3.010634,0.290285,-0.956940,0.000000
37.748163,-9.489724,4.754430,0.000000,-0.000000,1.000000
-15.033945,11.169696,4.754430,-0.000000,0.000000,1.000000
-36.774785,15.310313,-4.754430,0.000000,0.000000,-1.000000
-8.897940,-4.252424,1.100818,0.773010,0.634394,0.000000
-33.301953,5.383546,-4.754430,0.000000,0.000000,-1.000000
32.057503,-17.958784,2.191186,0.000000,-1.000000,0.000000
32.915874,13.094543,-4.754430,-0.000000,0.000000,-1.000000
-10.059104,17.958784,-0.667357,0.000000,1.000000,0.000000
26.953810,17.958784,4.549024,0.000000,1.000000,0.000000
-9.381883,-3.561108,3.486300,0.881921,0.471396,0.000000
-38.949778,-7.159471,4.754430,0.000000,-0.000000,1.000000
19.382479,13.358268,4.754430,-0.000000,0.000000,1.000000
8.387832,14.451753,-4.754430,0.000000,-0.000000,-1.000000
3.390872,-5.277206,4.754430,-0.000000,-0.000000,1.000000
27.091617,-17.958784,4.058358,0.000000,-1.000000,0.000000
-37.641571,-7.293531,-4.754430,0.000000,0.000000,-1.000000
19.698842,5.917854,4.754430,0.000000,0.000000,1.000000
7.708210,3.866402,-4.754430,0.000000,0.000000,-1.000000
7.208156,5.456806,-1.798037,-0.995185,-0.098017,0.000000
7.258823,4.434480,-3.803087,-0.995185,0.098017,0.000000
-3.840934,-13.578788,4.754430,0.000000,-0.000000,1.000000
-2.026453,17.958784,-3.570252,-0.000000,1.000000,0.000000
