x,y,z,nx,ny,nz
-5.309088,-31.203791,4.267067,-0.000000,0.000000,1.000000
27.444060,16.681763,-1.808436,-0.956940,0.290286,0.000000
28.541204,-9.151070,-4.267067,0.000000,-0.000000,-1.000000
11.600648,-30.843125,3.265340,-0.634394,0.773010,0.000000
39.778872,0.508088,2.830056,0.998795,0.049067,0.000000
-7.673557,-34.149012,-4.267067,0.000000,0.000000,-1.000000
-21.695397,33.346476,-3.121986,-0.514102,0.857729,0.000000
-37.795855,-12.376226,2.294088,-0.941544,-0.336889,-0.000000
-35.893684,17.093430,-2.806196,-0.903989,0.427555,0.000000
31.718004,23.971405,-3.420708,0.803207,0.595699,0.000000
-22.754715,31.170387,-4.267067,0.000000,0.000000,-1.000000
-1.382934,-14.998049,-4.267067,0.000000,0.000000,-1.000000
-7.805889,39.028860,-3.484803,-0.242981,0.970031,0.000000
-3.272082,16.802726,4.267067,0.000000,-0.000000,1.000000
17.406251,30.903354,4.267067,0.000000,-0.000000,1.000000
-38.343878,1.995599,4.267067,0.000000,-0.000000,1.000000
-3.855284,22.964473,-4.267067,0.000000,0.000000,-1.000000
-0.216376,16.256983,-4.267067,0.000000,-0.000000,-1.000000
-38.514580,-9.859004,1.970006,-0.970031,-0.242981,0.000000
4.632318,-24.508606,4.267067,0.000000,0.000000,1.000000
-10.535517,-23.934365,-4.267067,0.000000,-0.000000,-1.000000
-3.948576,-33.073995,-4.267067,0.000000,-0.000000,-1.000000
-32.203781,13.412747,-4.267067,0.000000,0.000000,-1.000000
-22.648560,-9.908763,4.267067,0.000000,-0.000000,1.000000
-37.598955,8.890676,4.267067,-0.000000,-0.000000,1.000000
-23.599806,-20.911192,1.712876,-0.098018,0.995185,0.000000
-11.969688,26.373543,2.653477,0.773011,0.634393,0.000000
-28.323241,-27.949521,3.508111,-0.740951,-0.671559,0.000000
-1.429716,-21.255510,-4.267067,0.000000,-0.000000,-1.000000
10.237288,-19.510984,-4.267067,0.000000,0.000000,-1.000000
-32.764241,11.968104,-4.267067,0.000000,0.000000,-1.000000
12.989442,-37.576443,1.096219,0.336889,-0.941544,0.000000
18.295259,34.744483,4.267067,0.000000,-0.000000,1.000000
-32.093430,16.439037,4.267067,-0.000000,-0.000000,1.000000
25.030848,-9.810940,-4.267067,0.000000,0.000000,-1.000000
-32.147924,-2.517462,3.568955,0.634393,0.773011,0.000000
18.594317,4.573082,-4.267067,0.000000,0.000000,-1.000000
27.381151,-27.797517,4.267067,-0.000000,0.000000,1.000000
20.025700,25.216428,-4.267067,0.000000,0.000000,-1.000000
26.672145,29.307358,4.267067,0.000000,-0.000000,1.000000
-13.426224,1.111823,-1.214469,0.995185,-0.098017,0.000000
11.799728,-38.002129,-4.166636,0.336889,-0.941544,0.000000
-29.232382,-3.357335,-2.164624,-0.098017,0.995185,0.000000
-10.733912,-21.484827,-4.267067,0.000000,-0.000000,-1.000000
-18.258026,31.000166,4.267067,-0.000000,-0.000000,1.000000
6.575154,-26.258090,4.209865,0.773011,-0.634392,0.000000
16.437278,-23.327057,4.267067,-0.000000,0.000000,1.000000
-21.572106,4.650756,4.267067,-0.000000,-0.000000,1.000000
-8.492653,18.490019,-4.267067,0.000000,0.000000,-1.000000
10.206057,9.692182,-4.267067,0.000000,-0.000000,-1.000000
17.109090,-35.247409,4.267067,-0.000000,0.000000,1.000000
-32.682223,1.915017,1.441713,0.773010,-0.634394,0.000000
-7.921222,-33.945506,4.267067,0.000000,0.000000,1.000000
37.930000,-3.977935,-4.267067,0.000000,-0.000000,-1.000000
-4.990284,29.349420,-4.267067,0.000000,0.000000,-1.000000
7.393577,31.401011,-4.267067,0.000000,0.000000,-1.000000
-37.580704,3.645058,4.267067,-0.000000,0.000000,1.000000
-12.606868,36.592368,4.267067,-0.000000,-0.000000,1.000000
-26.662049,1.200742,-2.398470,-0.956941,-0.290284,0.000000
18.652074,10.085796,-4.267067,0.000000,-0.000000,-1.000000
39.742342,-1.251687,1.453608,0.998795,-0.049067,0.000000
3.556425,39.629118,-2.817515,0.049067,0.998795,0.000000
-26.493680,0.601596,-3.052053,-0.995185,-0.098018,0.000000
-24.772749,31.123687,0.438417,-0.595699,0.803207,0.000000
4.017858,29.073861,-4.267067,0.000000,0.000000,-1.000000
-16.843803,-9.395373,4.267067,-0.000000,0.000000,1.000000
-5.024218,37.284139,4.267067,-0.000000,-0.000000,1.000000
-21.883324,24.229805,-4.267067,0.000000,0.000000,-1.000000
-0.713732,-17.973486,4.267067,0.000000,-0.000000,1.000000
-31.936468,23.676842,-0.815244,-0.803207,0.595699,0.000000
-32.995618,22.248743,-2.440002,-0.803207,0.595699,0.000000
-11.046531,-31.275641,-0.197400,0.471397,0.881921,-0.000000
7.195283,-12.028134,4.267067,-0.000000,-0.000000,1.000000
-34.963649,-4.332265,-4.267067,0.000000,0.000000,-1.000000
-7.144651,-31.693571,-4.267067,0.000000,0.000000,-1.000000
15.951086,30.133607,-4.267067,0.000000,0.000000,-1.000000
-26.640963,1.131229,2.450862,-0.956941,-0.290284,0.000000
-3.474653,-29.583923,4.267067,-0.000000,0.000000,1.000000
-12.182918,5.783188,-1.135569,0.881921,-0.471397,0.000000
31.486410,23.490933,4.267067,0.000000,-0.000000,1.000000
-3.544223,-32.089958,-4.267067,0.000000,-0.000000,-1.000000
-6.138598,-26.949287,-3.369461,-0.881921,-0.471397,0.000000
21.448717,33.494330,3.535273,0.514102,0.857729,-0.000000
-11.437719,-35.528565,4.267067,-0.000000,0.000000,1.000000
35.714104,6.885459,-4.267067,0.000000,0.000000,-1.000000
-16.938123,-34.389806,4.267067,-0.000000,0.000000,1.000000
24.421985,31.383831,2.811796,0.595699,0.803207,-0.000000
-38.948462,-1.368617,4.267067,0.000000,-0.000000,1.000000
17.439955,-21.161083,4.267067,-0.000000,-0.000000,1.000000
14.413643,-21.954426,-4.267067,0.000000,0.000000,-1.000000
14.239554,-27.467021,4.267067,0.000000,-0.000000,1.000000
-12.016089,30.353460,-0.140199,0.773010,-0.634394,0.000000
11.429453,7.932546,-4.267067,0.000000,-0.000000,-1.000000
-27.204406,12.694234,4.267067,-0.000000,-0.000000,1.000000
-22.507764,-4.859906,4.267067,0.000000,-0.000000,1.000000
-8.803288,10.201419,4.130258,0.634393,-0.773010,0.000000
36.310225,-2.976002,4.267067,-0.000000,-0.000000,1.000000
-30.225019,-3.381795,-0.833807,0.098017,0.995185,-0.000000
8.077617,19.855981,4.267067,0.000000,-0.000000,1.000000
31.793423,-23.869715,-3.779152,0.803207,-0.595699,0.000000
38.476536,-1.856882,-4.267067,0.000000,0.000000,-1.000000
-18.965472,-7.783319,-4.267067,0.000000,0.000000,-1.000000
25.873784,5.027490,4.267067,0.000000,-0.000000,1.000000
31.906441,-21.334530,-4.267067,0.000000,0.000000,-1.000000
1.407007,27.123026,4.267067,0.000000,-0.000000,1.000000
24.497175,-9.827959,4.267067,-0.000000,0.000000,1.000000
1.583756,-39.726028,-2.670343,0.049067,-0.998795,0.000000
-37.557183,11.993869,4.267067,-0.000000,-0.000000,1.000000
26.138547,29.088478,4.267067,0.000000,-0.000000,1.000000
-24.455556,-26.219825,4.267067,0.000000,-0.000000,1.000000
-2.854034,28.612061,4.267067,-0.000000,-0.000000,1.000000
-7.130173,-39.133235,3.797708,-0.146730,-0.989177,0.000000
-15.371207,-35.766003,4.267067,-0.000000,0.000000,1.000000
11.734292,-6.622508,-1.696034,-0.881921,0.471397,0.000000
-20.131530,32.085759,4.267067,-0.000000,-0.000000,1.000000
-11.692287,18.587769,4.267067,-0.000000,0.000000,1.000000
-13.350862,-1.876985,1.148204,0.995185,0.098017,0.000000
-23.560727,-25.439296,-4.267067,0.000000,0.000000,-1.000000
-17.821856,-24.255320,-4.267067,0.000000,-0.000000,-1.000000
-7.994289,-16.876618,-4.267067,0.000000,-0.000000,-1.000000
-27.361830,-18.683470,-3.543578,0.956940,0.290286,-0.000000
-21.426758,14.155251,4.267067,-0.000000,-0.000000,1.000000
14.434569,-37.059369,-1.516570,0.336889,-0.941544,0.000000
-2.912932,13.193060,-3.906387,0.290285,-0.956940,0.000000
-39.782157,-0.441230,0.954528,-0.998795,-0.049067,-0.000000
29.315888,-24.726696,-4.267067,0.000000,0.000000,-1.000000
-18.401981,-28.977403,4.267067,-0.000000,0.000000,1.000000
10.175472,-9.336470,-4.267067,0.000000,0.000000,-1.000000
-6.031246,29.582710,-3.295174,-0.956940,-0.290284,0.000000
-18.686235,-35.140343,0.243202,-0.427555,-0.903989,0.000000
-26.279418,2.096266,-4.267067,-0.000000,-0.000000,-1.000000
-6.227328,-18.887173,4.267067,0.000000,-0.000000,1.000000
-37.746629,-4.702405,-4.267067,0.000000,0.000000,-1.000000
-20.428015,2.552864,-4.267067,0.000000,-0.000000,-1.000000
14.157821,-26.298412,4.267067,0.000000,-0.000000,1.000000
37.700796,4.093415,-4.267067,0.000000,0.000000,-1.000000
-38.820925,8.636013,-3.444584,-0.970031,0.242981,0.000000
-21.677504,10.300810,4.267067,-0.000000,-0.000000,1.000000
8.721554,31.760631,-1.997626,0.098018,-0.995185,0.000000
26.439750,2.293141,-4.267067,0.000000,-0.000000,-1.000000
-32.052059,-4.803907,-4.267067,0.000000,0.000000,-1.000000
-25.298448,-4.043515,-4.267067,0.000000,0.000000,-1.000000
-27.034367,-29.152689,3.928748,-0.671559,-0.740951,0.000000
-13.097010,21.206317,-4.267067,0.000000,0.000000,-1.000000
-16.785832,17.699827,-4.267067,0.000000,0.000000,-1.000000
-5.231613,-18.209722,-4.267067,0.000000,-0.000000,-1.000000
-25.336638,-25.724716,4.267067,0.000000,-0.000000,1.000000
32.219164,-23.295670,-3.538286,0.803207,-0.595699,0.000000
-34.072131,20.484714,3.438364,-0.857729,0.514102,0.000000
11.310726,-7.414945,-2.915695,-0.881921,0.471397,0.000000
25.792334,11.445846,4.267067,0.000000,-0.000000,1.000000
-14.797934,12.067285,-4.267067,0.000000,-0.000000,-1.000000
14.138015,37.165478,-3.411659,0.336889,0.941544,0.000000
25.226872,-20.775932,-1.537097,-0.290284,0.956941,0.000000
39.784286,0.397888,-3.736322,0.998795,0.049067,0.000000
-19.455089,-8.262152,-4.267067,0.000000,0.000000,-1.000000
-22.761715,-22.949953,4.267067,0.000000,-0.000000,1.000000
-13.009125,20.835645,4.267067,-0.000000,0.000000,1.000000
2.098474,-15.311173,4.267067,0.000000,0.000000,1.000000
17.287646,-30.975950,-4.267067,0.000000,0.000000,-1.000000
30.114596,10.681624,-4.267067,0.000000,0.000000,-1.000000
-13.040579,36.221591,4.267067,-0.000000,-0.000000,1.000000
-3.081257,-13.141999,-1.396991,0.290285,0.956940,0.000000
30.144158,6.455982,-4.267067,0.000000,0.000000,-1.000000
-32.348790,-23.120890,-1.823464,-0.803207,-0.595699,-0.000000
20.027189,12.892544,4.267067,-0.000000,0.000000,1.000000
-36.099206,2.707368,-4.267067,0.000000,-0.000000,-1.000000
-27.187575,19.083776,2.174282,0.881922,-0.471394,0.000000
21.873162,-12.093948,4.267067,-0.000000,-0.000000,1.000000
-9.987746,-20.802159,4.267067,0.000000,0.000000,1.000000
-33.962540,-20.667556,0.739724,-0.857729,-0.514102,0.000000
-29.686276,-12.317324,4.267067,0.000000,-0.000000,1.000000
35.874796,-17.133366,0.560735,0.903989,-0.427555,0.000000
-17.964724,15.706065,-4.267067,0.000000,0.000000,-1.000000
-12.507730,37.748802,2.562860,-0.336889,0.941544,0.000000
19.987671,14.579603,4.267067,0.000000,-0.000000,1.000000
16.954884,7.563857,4.267067,0.000000,-0.000000,1.000000
24.874881,-20.882707,1.944597,-0.290284,0.956941,0.000000
-16.281323,27.277568,-4.267067,0.000000,0.000000,-1.000000
17.965596,20.393282,-4.267067,0.000000,0.000000,-1.000000
-15.895767,-19.673610,4.267067,0.000000,-0.000000,1.000000
15.109512,24.093519,4.267067,0.000000,-0.000000,1.000000
30.098096,14.068304,-4.267067,0.000000,0.000000,-1.000000
13.436017,-21.055044,-4.267067,0.000000,0.000000,-1.000000
-0.891422,22.183456,4.267067,-0.000000,0.000000,1.000000
-1.308392,37.606464,4.267067,-0.000000,0.000000,1.000000
14.731993,29.031424,-4.267067,0.000000,0.000000,-1.000000
0.506218,-13.485870,3.513917,-0.098017,0.995185,0.000000
17.811038,35.554280,-0.832768,0.427555,0.903989,0.000000
-5.809148,-28.365875,-0.696123,-0.995185,-0.098018,0.000000
39.180143,6.813942,1.621771,0.989177,0.146730,-0.000000
22.913974,-32.373465,-4.267067,0.000000,-0.000000,-1.000000
-27.068553,1.969877,1.711848,-0.773010,-0.634394,0.000000
-24.008082,24.513424,4.267067,-0.000000,-0.000000,1.000000
-26.649769,-5.092823,-4.267067,0.000000,0.000000,-1.000000
-23.145320,-20.796931,-3.334635,-0.290284,0.956941,0.000000
29.458683,-6.019769,-4.267067,0.000000,-0.000000,-1.000000
2.007626,35.144659,4.267067,0.000000,-0.000000,1.000000
33.163763,-3.272593,4.267067,-0.000000,-0.000000,1.000000
16.716488,-5.254250,-4.267067,0.000000,0.000000,-1.000000
-18.582586,13.228170,4.267067,-0.000000,-0.000000,1.000000
18.717217,-8.943841,4.267067,-0.000000,-0.000000,1.000000
-23.338984,14.238482,-1.132305,-0.290284,0.956941,0.000000
-11.960558,-30.421125,-1.168827,0.773010,0.634394,-0.000000
8.379028,-25.093342,3.971128,0.290284,-0.956941,0.000000
2.192334,-32.472580,4.267067,0.000000,-0.000000,1.000000
24.521782,-31.309817,-0.718813,0.595699,-0.803207,0.000000
26.146435,-6.186221,-4.267067,0.000000,-0.000000,-1.000000
3.453027,39.634197,2.724595,0.049067,0.998795,0.000000
-3.031234,-39.654919,0.290707,-0.049067,-0.998795,0.000000
11.845294,35.852213,4.267067,0.000000,-0.000000,1.000000
8.867729,25.008517,-2.047167,0.098018,0.995185,-0.000000
-1.177952,13.419710,-3.328101,0.098017,-0.995185,0.000000
-39.714342,-1.821631,3.461399,-0.998795,-0.049067,0.000000
22.461547,12.458296,-4.267067,0.000000,-0.000000,-1.000000
39.622568,3.689752,1.698243,0.998795,0.049067,-0.000000
20.228897,-21.065437,4.267067,-0.000000,0.000000,1.000000
-8.426591,19.273694,-4.267067,0.000000,0.000000,-1.000000
-4.585105,-27.549467,4.267067,-0.000000,0.000000,1.000000
-17.188161,21.083857,4.267067,-0.000000,0.000000,1.000000
-38.680013,9.198563,2.056511,-0.970031,0.242981,0.000000
-25.769940,30.298699,-3.513289,-0.671559,0.740951,0.000000
-9.850438,-18.999244,-4.267067,0.000000,-0.000000,-1.000000
-19.562880,2.227065,4.267067,-0.000000,0.000000,1.000000
-4.372583,-26.301346,4.267067,-0.000000,0.000000,1.000000
-20.016550,34.352737,1.958814,-0.514102,0.857729,0.000000
1.186001,22.086678,4.267067,0.000000,-0.000000,1.000000
31.233186,-14.971680,-4.267067,0.000000,-0.000000,-1.000000
-6.465567,39.231819,2.942696,-0.146730,0.989177,0.000000
-19.846847,17.824457,-4.267067,0.000000,0.000000,-1.000000
25.541257,-20.661704,-2.219689,-0.471397,0.881921,0.000000
-25.797072,-9.585714,4.267067,0.000000,-0.000000,1.000000
37.189389,14.071189,-0.288089,0.941544,0.336889,-0.000000
-16.196459,0.324705,-4.267067,-0.000000,-0.000000,-1.000000
-7.515649,11.256898,-0.627648,0.471397,-0.881921,0.000000
14.523680,2.980567,-4.267067,0.000000,0.000000,-1.000000
-17.243793,-20.127968,4.267067,0.000000,-0.000000,1.000000
-33.226726,0.452809,0.889665,0.995185,-0.098018,0.000000
16.636589,11.510376,-4.267067,0.000000,0.000000,-1.000000
23.566857,20.907947,-1.948271,0.098018,-0.995185,0.000000
-37.287057,-13.798225,3.872052,-0.941544,-0.336889,0.000000
-5.364099,12.406926,-1.201021,0.471397,-0.881921,0.000000
-36.310966,11.796310,-4.267067,0.000000,0.000000,-1.000000
-10.478598,-19.184516,-4.267067,0.000000,-0.000000,-1.000000
3.662670,35.776937,4.267067,-0.000000,0.000000,1.000000
-28.374695,22.011887,4.267067,0.000000,-0.000000,1.000000
37.930585,11.999680,-3.865616,0.941544,0.336889,0.000000
-5.813037,-38.735967,-4.267067,0.000000,-0.000000,-1.000000
6.357609,11.875884,-1.145341,-0.471397,-0.881921,0.000000
-1.394588,36.438203,4.267067,-0.000000,0.000000,1.000000
0.906584,13.446438,-3.484167,-0.098017,-0.995185,0.000000
39.206525,-6.636090,-4.172249,0.989177,-0.146730,0.000000
-21.963766,-1.314805,-4.267067,0.000000,0.000000,-1.000000
-16.149907,-20.424328,4.267067,0.000000,-0.000000,1.000000
-28.570872,-27.676303,0.476942,-0.740951,-0.671559,0.000000
-17.737286,-1.015397,4.267067,0.000000,-0.000000,1.000000
5.982697,-31.434977,4.267067,0.000000,0.000000,1.000000
19.775546,-33.395237,-4.267067,0.000000,0.000000,-1.000000
-5.698301,-16.791864,4.267067,0.000000,-0.000000,1.000000
5.115733,21.971194,4.267067,0.000000,-0.000000,1.000000
29.320953,24.603090,4.267067,0.000000,-0.000000,1.000000
-21.215171,-26.990943,4.267067,-0.000000,0.000000,1.000000
6.080763,-27.057488,2.244471,0.881921,-0.471397,0.000000
-25.256863,-20.766834,1.667176,0.290284,0.956941,0.000000
-4.099862,30.746699,-4.267067,0.000000,0.000000,-1.000000
4.825822,-15.761057,-4.267067,0.000000,0.000000,-1.000000
-26.944363,-5.816567,4.267067,0.000000,-0.000000,1.000000
15.529583,-23.516794,-4.267067,0.000000,0.000000,-1.000000
12.581034,29.025936,-1.149713,-0.995185,-0.098017,0.000000
9.213701,-24.974441,-0.295324,0.098018,-0.995185,0.000000
-12.613705,7.243650,4.267067,-0.000000,0.000000,1.000000
26.835744,-29.332711,2.672222,0.671559,-0.740951,0.000000
-19.216090,21.577779,4.267067,-0.000000,-0.000000,1.000000
-28.041548,13.900371,-4.267067,0.000000,0.000000,-1.000000
-32.071876,23.494265,1.467243,-0.803207,0.595699,0.000000
29.584040,21.463910,-4.267067,0.000000,0.000000,-1.000000
16.944676,3.781615,-4.267067,0.000000,0.000000,-1.000000
-8.505455,31.728554,0.787316,-0.290284,-0.956941,0.000000
-0.176855,16.109727,4.267067,-0.000000,0.000000,1.000000
28.273771,-21.891957,4.267067,0.000000,0.000000,1.000000
-9.839747,33.400841,4.267067,-0.000000,0.000000,1.000000
13.504887,-0.313142,0.896718,-0.995185,0.098017,0.000000
0.570705,18.296503,-4.267067,0.000000,0.000000,-1.000000
-7.404397,-24.445092,4.267067,-0.000000,0.000000,1.000000
-18.420573,-21.257945,4.267067,0.000000,-0.000000,1.000000
-38.329161,-8.919045,-4.267067,0.000000,0.000000,-1.000000
27.541890,17.831801,-1.085684,-0.995185,-0.098018,0.000000
-14.970606,17.509305,-4.267067,0.000000,-0.000000,-1.000000
0.874472,13.449601,-3.122049,-0.098017,-0.995185,0.000000
10.009904,-31.708755,-3.295093,-0.290284,0.956941,0.000000
-37.198182,-14.046613,2.597631,-0.941544,-0.336889,0.000000
11.464072,7.128055,4.070590,-0.881921,-0.471397,0.000000
-13.810722,21.167228,-4.267067,0.000000,0.000000,-1.000000
12.483415,29.369853,-2.555326,-0.956940,-0.290285,0.000000
-26.552364,-0.839157,-2.160751,-0.956941,0.290284,0.000000
11.988215,17.880680,-4.267067,0.000000,0.000000,-1.000000
-23.277009,14.257282,-4.050369,-0.290284,0.956941,0.000000
23.140015,-0.394191,4.267067,0.000000,0.000000,1.000000
39.042710,7.740444,1.026952,0.989177,0.146730,-0.000000
12.135891,5.871169,-1.894663,-0.881921,-0.471397,0.000000
38.271003,10.831417,3.524711,0.970031,0.242981,-0.000000
3.525441,31.974457,-4.267067,0.000000,0.000000,-1.000000
10.024388,-31.704362,-2.531503,-0.290284,0.956941,0.000000
-3.826318,17.460584,-4.267067,0.000000,0.000000,-1.000000
-20.090698,-26.987221,-4.267067,0.000000,-0.000000,-1.000000
15.374341,0.285399,4.267067,0.000000,0.000000,1.000000
-26.043470,-14.700894,2.950319,0.471397,-0.881921,0.000000
-28.121369,4.794867,-4.267067,0.000000,-0.000000,-1.000000
-27.293049,-19.671150,-4.267067,0.000000,0.000000,-1.000000
18.603659,35.179398,-2.543238,0.427555,0.903989,0.000000
-1.037494,15.440609,-4.267067,0.000000,0.000000,-1.000000
-21.017069,-29.900399,4.267067,-0.000000,0.000000,1.000000
26.905516,1.702703,-0.310304,0.881921,-0.471397,0.000000
-2.263888,-20.416235,-4.267067,0.000000,0.000000,-1.000000
36.677648,2.779144,-4.267067,0.000000,-0.000000,-1.000000
39.796267,0.154016,-1.779359,0.998795,0.049067,0.000000
-14.609371,-26.415187,4.267067,0.000000,-0.000000,1.000000
-26.370384,20.127035,-2.396185,0.634393,-0.773010,0.000000
27.392351,16.511302,2.631474,-0.956940,0.290286,0.000000
-19.305840,-15.772369,4.267067,0.000000,-0.000000,1.000000
1.299330,-19.260970,4.267067,0.000000,-0.000000,1.000000
-23.246410,20.827596,0.622552,-0.290284,-0.956941,0.000000
-39.030534,-7.799207,0.305441,-0.970031,-0.242981,-0.000000
-10.839956,-8.025229,-0.336254,0.773010,0.634393,-0.000000
-12.346717,27.015184,3.392917,0.881922,0.471396,0.000000
-1.341041,28.223317,4.267067,-0.000000,0.000000,1.000000
-36.447098,15.923335,4.209839,-0.903989,0.427555,0.000000
24.782366,-2.112233,-4.267067,0.000000,0.000000,-1.000000
25.476767,8.522227,-4.267067,0.000000,0.000000,-1.000000
13.352572,1.859616,-1.830810,-0.995185,-0.098017,0.000000
-39.772678,-0.634177,2.026214,-0.998795,-0.049067,-0.000000
-39.639744,-3.340126,2.008447,-0.998795,-0.049067,0.000000
20.657856,-32.910786,-4.267067,0.000000,0.000000,-1.000000
33.250760,-0.208792,1.108822,-0.995185,0.098018,0.000000
-1.977059,37.337030,-4.267067,0.000000,-0.000000,-1.000000
11.306689,38.151953,-3.790643,0.242981,0.970031,0.000000
-20.217574,-25.147758,4.267067,0.000000,-0.000000,1.000000
21.399207,19.556004,0.598591,0.773012,-0.634392,0.000000
-3.977596,-32.174211,4.267067,-0.000000,0.000000,1.000000
26.361093,-22.455622,-4.267067,0.000000,0.000000,-1.000000
19.546826,-8.605729,4.267067,-0.000000,0.000000,1.000000
-4.421278,23.539882,-4.267067,0.000000,0.000000,-1.000000
17.680264,-0.058348,-4.267067,0.000000,0.000000,-1.000000
-17.719804,19.373187,4.267067,-0.000000,-0.000000,1.000000
14.443680,16.986840,-4.267067,0.000000,0.000000,-1.000000
-15.877402,-16.298206,4.267067,0.000000,-0.000000,1.000000
-12.630024,-37.705045,-1.352464,-0.336889,-0.941544,0.000000
-10.095954,17.834320,-4.267067,0.000000,0.000000,-1.000000
-24.037761,14.139832,-1.151382,-0.098018,0.995185,0.000000
-12.890346,-4.801007,4.267067,0.000000,-0.000000,1.000000
27.028197,-20.545743,4.267067,0.000000,0.000000,1.000000
-30.542825,-10.839526,4.267067,0.000000,-0.000000,1.000000
-17.787444,-13.396851,-4.267067,0.000000,0.000000,-1.000000
5.660371,33.342961,-4.267067,0.000000,0.000000,-1.000000
-29.883202,26.228371,2.829662,-0.740951,0.671559,0.000000
-9.370051,-24.806495,-4.267067,0.000000,-0.000000,-1.000000
19.408885,-14.324857,4.267067,-0.000000,0.000000,1.000000
19.221101,0.058746,4.267067,0.000000,0.000000,1.000000
10.621750,-8.661244,4.267067,-0.000000,-0.000000,1.000000
-25.400350,-30.633676,1.030769,-0.671559,-0.740951,0.000000
13.248976,-33.027989,4.267067,-0.000000,-0.000000,1.000000
-18.311494,-11.210764,4.267067,0.000000,-0.000000,1.000000
-15.768613,11.753347,4.267067,-0.000000,0.000000,1.000000
-12.342387,27.007083,-1.191350,0.881922,0.471396,-0.000000
-20.923431,-5.362005,4.267067,0.000000,-0.000000,1.000000
26.209401,28.274180,-4.267067,0.000000,0.000000,-1.000000
-14.027047,-10.284116,-4.267067,0.000000,0.000000,-1.000000
6.606885,39.210857,1.836664,0.146730,0.989177,-0.000000
-10.147037,-25.116388,-0.557088,0.290284,-0.956941,0.000000
-5.608039,24.150955,4.267067,0.000000,0.000000,1.000000
18.300280,35.322886,-3.183667,0.427555,0.903989,0.000000
-35.673725,7.906776,-4.267067,0.000000,0.000000,-1.000000
-20.803998,33.880759,-0.761129,-0.514102,0.857729,0.000000
-3.856990,28.384153,4.267067,-0.000000,-0.000000,1.000000
14.092380,-14.681738,-4.267067,0.000000,-0.000000,-1.000000
5.831749,-28.136409,-3.544834,0.995185,-0.098018,0.000000
-11.472441,30.948341,-0.766522,0.634394,-0.773010,0.000000
-9.182410,-11.408644,4.267067,0.000000,-0.000000,1.000000
-12.614415,28.687010,1.133015,0.995185,-0.098017,0.000000
18.642336,24.107823,-4.267067,0.000000,0.000000,-1.000000
27.311371,-12.673640,4.267067,-0.000000,0.000000,1.000000
35.956316,16.961007,2.129809,0.903989,0.427555,-0.000000
37.706190,4.040149,4.267067,0.000000,-0.000000,1.000000
31.097179,-3.177612,0.818013,-0.290285,0.956940,0.000000
12.380671,37.794265,1.041949,0.336889,0.941544,-0.000000
-9.997614,23.667363,4.267067,0.000000,0.000000,1.000000
11.650241,13.466090,4.267067,0.000000,-0.000000,1.000000
5.195165,39.420265,-3.842919,0.146730,0.989177,0.000000
-3.759112,-33.250390,4.267067,-0.000000,0.000000,1.000000
-26.801775,-19.680276,3.752336,0.773010,0.634394,0.000000
-15.435823,-35.527480,4.267067,-0.000000,0.000000,1.000000
-22.662496,-11.416788,4.267067,0.000000,0.000000,1.000000
28.203849,2.976050,1.163200,0.471396,-0.881921,0.000000
-7.509670,33.612233,4.267067,-0.000000,-0.000000,1.000000
4.700152,-36.063415,-4.267067,0.000000,0.000000,-1.000000
11.268620,-35.430828,4.267067,0.000000,-0.000000,1.000000
23.113948,-13.676758,4.267067,-0.000000,0.000000,1.000000
2.481279,37.777507,-4.267067,0.000000,0.000000,-1.000000
-23.947518,27.240267,4.267067,-0.000000,-0.000000,1.000000
-11.104123,-19.237516,4.267067,0.000000,-0.000000,1.000000
20.000788,0.736392,-4.267067,0.000000,-0.000000,-1.000000
-32.292332,-23.197014,2.862118,-0.803207,-0.595699,0.000000
-7.384664,35.773594,4.267067,0.000000,0.000000,1.000000
-18.235353,23.516514,-4.267067,0.000000,0.000000,-1.000000
12.536296,-27.588016,0.399462,-0.956940,-0.290285,0.000000
7.416260,-17.221750,4.267067,-0.000000,-0.000000,1.000000
33.378195,-9.298002,-4.267067,0.000000,-0.000000,-1.000000
33.977877,-1.316910,4.267067,-0.000000,-0.000000,1.000000
-16.536685,-3.633568,4.267067,0.000000,-0.000000,1.000000
-4.374627,22.741433,-4.267067,0.000000,0.000000,-1.000000
6.859331,-13.310735,4.267067,-0.000000,-0.000000,1.000000
-28.285574,-19.630325,-4.267067,0.000000,0.000000,-1.000000
-5.183341,-12.503543,2.013429,0.471397,0.881921,0.000000
-24.923389,11.021658,4.267067,-0.000000,-0.000000,1.000000
23.700983,-31.918563,-2.572317,0.595699,-0.803207,0.000000
-29.040754,-14.079613,-4.267067,0.000000,0.000000,-1.000000
29.790336,-26.330832,0.846488,0.740951,-0.671559,0.000000
-5.489354,-23.589037,-4.267067,0.000000,-0.000000,-1.000000
17.680837,-35.615861,-2.713486,0.427555,-0.903989,0.000000
21.759883,-8.070700,4.267067,-0.000000,0.000000,1.000000
-10.637813,-31.494106,-0.042618,0.471397,0.881921,0.000000
29.439252,-3.377710,1.415397,0.098017,0.995185,0.000000
25.048022,20.830185,-3.335500,-0.290284,-0.956941,0.000000
-11.324322,25.713644,3.514787,0.634393,0.773011,0.000000
37.584045,7.988615,-4.267067,0.000000,0.000000,-1.000000
6.329820,24.638788,4.267067,0.000000,-0.000000,1.000000
-31.241133,-3.115433,-3.734075,0.471396,0.881921,-0.000000
-10.229888,25.141520,-3.256492,0.290284,0.956941,-0.000000
-22.651081,32.697224,2.462807,-0.595699,0.803207,0.000000
-13.001596,-16.553946,-4.267067,0.000000,0.000000,-1.000000
30.419973,-24.307391,4.267067,0.000000,-0.000000,1.000000
25.721535,30.342570,0.461206,0.671559,0.740951,-0.000000
-7.233382,11.407773,3.203895,0.471397,-0.881921,0.000000
-28.365476,-3.062441,-0.332570,-0.471396,0.881921,0.000000
23.539717,31.823721,-4.267067,0.000000,0.000000,-1.000000
20.639325,8.487938,-4.267067,0.000000,0.000000,-1.000000
-8.220156,-10.679983,0.865737,0.634393,0.773010,0.000000
-27.081580,-26.915293,4.267067,0.000000,-0.000000,1.000000
31.920642,-23.698180,-0.500828,0.803207,-0.595699,0.000000
-3.785942,22.367346,4.267067,0.000000,-0.000000,1.000000
39.735616,-1.388599,-2.564068,0.998795,-0.049067,0.000000
33.683709,10.585285,4.267067,0.000000,-0.000000,1.000000
-16.733774,-13.589374,4.267067,0.000000,-0.000000,1.000000
-7.467315,25.473826,0.549558,-0.471397,0.881921,0.000000
-13.269151,7.848073,4.267067,-0.000000,0.000000,1.000000
4.387321,38.839448,-4.267067,0.000000,0.000000,-1.000000
-25.423014,20.716433,3.473901,0.290284,-0.956941,0.000000
-0.813290,-17.539929,-4.267067,0.000000,-0.000000,-1.000000
-23.752065,30.700426,4.267067,-0.000000,-0.000000,1.000000
39.349376,-2.975069,-4.267067,0.000000,0.000000,-1.000000
18.184148,34.440519,4.267067,0.000000,-0.000000,1.000000
-20.412645,-9.264366,-4.267067,0.000000,0.000000,-1.000000
-6.415444,-14.453346,4.267067,0.000000,-0.000000,1.000000
-11.756532,-30.669731,3.356362,0.773010,0.634394,0.000000
5.529871,32.793787,4.267067,0.000000,-0.000000,1.000000
-9.371208,24.329520,-4.267067,0.000000,0.000000,-1.000000
19.166178,31.452591,-4.267067,0.000000,0.000000,-1.000000
23.297157,32.218061,-0.365495,0.595699,0.803207,-0.000000
-27.269044,-2.214175,2.692408,-0.773010,0.634394,0.000000
-13.910012,37.247059,-1.931295,-0.336889,0.941544,0.000000
14.086573,7.163539,4.267067,-0.000000,0.000000,1.000000
-39.692430,-2.267675,1.964850,-0.998795,-0.049067,0.000000
37.723621,-0.293982,-4.267067,0.000000,0.000000,-1.000000
10.014320,-31.707416,3.719602,-0.290284,0.956941,0.000000
28.208702,3.469390,-4.267067,0.000000,0.000000,-1.000000
-17.419470,-33.146352,4.267067,0.000000,0.000000,1.000000
11.872636,-30.528258,-0.522056,-0.773010,0.634394,0.000000
3.097773,-16.026277,4.267067,0.000000,0.000000,1.000000
34.101483,-3.485061,4.267067,-0.000000,-0.000000,1.000000
8.402969,-31.697465,-1.387298,0.290284,0.956941,0.000000
26.373582,-29.751589,4.122826,0.671559,-0.740951,0.000000
-13.326758,-2.121709,4.160254,0.995185,0.098017,0.000000
17.223543,-10.231767,-4.267067,0.000000,0.000000,-1.000000
25.105694,-23.461882,-4.267067,0.000000,0.000000,-1.000000
-15.210437,-12.160930,-4.267067,0.000000,0.000000,-1.000000
-9.347348,9.754920,0.468100,0.634393,-0.773010,0.000000
-3.450209,-19.983179,-4.267067,0.000000,0.000000,-1.000000
14.276771,37.115830,0.238928,0.336889,0.941544,0.000000
35.279886,-18.391196,0.054614,0.903989,-0.427555,0.000000
-4.250179,15.000712,-4.267067,0.000000,0.000000,-1.000000
6.696099,-26.011556,4.267067,0.000000,-0.000000,1.000000
-6.140383,26.945948,2.596385,-0.881921,0.471397,0.000000
-4.204675,16.959722,-4.267067,0.000000,0.000000,-1.000000
-2.902297,13.196286,2.615883,0.290285,-0.956940,0.000000
-22.738602,-3.881858,4.267067,0.000000,-0.000000,1.000000
-39.592277,-4.035551,-0.525889,-0.989177,-0.146730,-0.000000
-28.731143,23.019320,-4.267067,0.000000,-0.000000,-1.000000
-35.585156,-5.241763,-4.267067,0.000000,0.000000,-1.000000
-27.070722,-1.972520,2.184995,-0.773010,0.634394,0.000000
-8.477161,22.062310,4.267067,0.000000,0.000000,1.000000
-25.218693,-30.792952,3.415247,-0.595699,-0.803207,0.000000
20.746228,17.681025,3.357958,0.995185,-0.098016,0.000000
2.546422,36.235795,-4.267067,0.000000,0.000000,-1.000000
-12.352476,35.210459,-4.267067,0.000000,0.000000,-1.000000
39.631191,-3.514214,-3.220406,0.998795,-0.049067,0.000000
12.863440,16.365135,-4.267067,0.000000,0.000000,-1.000000
9.259926,-9.826666,3.859995,-0.634393,0.773010,0.000000
6.673331,26.138462,-3.082394,0.773011,0.634392,-0.000000
11.604815,-6.864742,-2.140761,-0.881921,0.471397,0.000000
-8.054896,25.191666,3.242928,-0.290284,0.956941,0.000000
12.396338,27.069915,-4.267067,0.000000,0.000000,-1.000000
27.741796,-28.439168,-4.267067,0.000000,-0.000000,-1.000000
17.128335,-30.484652,-4.267067,0.000000,0.000000,-1.000000
12.603289,20.874027,-4.267067,0.000000,-0.000000,-1.000000
13.826096,-37.260157,-4.267067,0.000000,0.000000,-1.000000
-22.279705,-20.404066,0.058793,-0.471398,0.881921,0.000000
36.745607,-4.429334,-4.267067,0.000000,-0.000000,-1.000000
-16.035429,25.853309,4.267067,-0.000000,-0.000000,1.000000
-39.611622,3.905132,3.246906,-0.989177,0.146730,0.000000
-8.690957,31.757617,3.463996,-0.098018,-0.995185,0.000000
-13.892778,4.992319,-4.267067,0.000000,-0.000000,-1.000000
28.671070,-8.460435,-4.267067,0.000000,-0.000000,-1.000000
-21.026115,-11.886506,-4.267067,0.000000,0.000000,-1.000000
-25.018646,-11.108884,4.267067,0.000000,-0.000000,1.000000
0.940939,33.335558,-4.267067,0.000000,0.000000,-1.000000
26.802561,7.157140,4.267067,0.000000,-0.000000,1.000000
-31.286828,24.552779,-2.440659,-0.803207,0.595699,0.000000
20.985410,32.169828,-4.267067,0.000000,0.000000,-1.000000
1.505172,32.917012,4.267067,0.000000,-0.000000,1.000000
0.569776,-28.695802,-4.267067,0.000000,0.000000,-1.000000
14.086376,-2.604480,4.267067,0.000000,-0.000000,1.000000
-0.086885,-13.527171,3.491187,0.098017,0.995185,0.000000
-7.139677,-39.131825,-1.220278,-0.146730,-0.989177,0.000000
1.334003,-39.738298,-2.466607,0.049067,-0.998795,0.000000
6.793319,19.594115,4.267067,0.000000,-0.000000,1.000000
-12.342228,5.485139,3.721149,0.881921,-0.471397,0.000000
-35.205769,-18.547903,2.952712,-0.903989,-0.427555,0.000000
20.524823,-8.644535,-4.267067,0.000000,-0.000000,-1.000000
-24.657125,14.178433,-2.810254,0.098018,0.995185,-0.000000
36.159247,12.458500,-4.267067,0.000000,0.000000,-1.000000
-12.633025,-4.759119,-2.231296,0.956940,0.290285,0.000000
7.474575,-22.852062,-4.267067,0.000000,0.000000,-1.000000
5.815079,28.305659,3.717809,0.995185,0.098018,0.000000
-14.132109,21.674005,-4.267067,0.000000,0.000000,-1.000000
11.560540,12.971475,4.267067,0.000000,-0.000000,1.000000
-7.106456,-16.142688,-4.267067,0.000000,-0.000000,-1.000000
25.489205,0.816423,-4.267067,0.000000,-0.000000,-1.000000
0.832413,-38.528221,4.267067,0.000000,-0.000000,1.000000
-13.305588,-9.844453,-4.267067,0.000000,0.000000,-1.000000
34.605870,5.110038,-4.267067,0.000000,0.000000,-1.000000
-27.856453,6.545271,-4.267067,0.000000,0.000000,-1.000000
6.428657,11.837907,-1.263743,-0.471397,-0.881921,0.000000
-26.741945,-28.677124,-4.267067,0.000000,0.000000,-1.000000
-15.376105,-10.907332,-4.267067,0.000000,-0.000000,-1.000000
10.763010,-12.170528,4.267067,-0.000000,-0.000000,1.000000
6.375059,-26.258098,4.267067,0.000000,-0.000000,1.000000
30.849196,-9.755806,-4.267067,0.000000,-0.000000,-1.000000
-24.606465,29.483187,-4.267067,0.000000,0.000000,-1.000000
-26.816443,23.961905,4.267067,-0.000000,-0.000000,1.000000
-10.470442,-8.475482,0.198183,0.773010,0.634393,-0.000000
26.108649,-1.733921,4.267067,0.000000,0.000000,1.000000
31.886964,23.743590,-4.224240,0.803207,0.595699,0.000000
-3.007290,-28.814247,4.267067,0.000000,-0.000000,1.000000
-35.088569,-4.532569,4.267067,0.000000,-0.000000,1.000000
37.604718,-12.910420,-1.527220,0.941544,-0.336889,0.000000
19.209704,-27.036792,4.267067,-0.000000,0.000000,1.000000
-22.157175,26.330055,-4.267067,0.000000,0.000000,-1.000000
-12.783358,33.181602,-4.267067,0.000000,-0.000000,-1.000000
22.147140,-33.070972,2.116701,0.595699,-0.803207,0.000000
1.373009,17.445273,-4.267067,0.000000,-0.000000,-1.000000
-4.843382,39.472447,-1.119025,-0.146730,0.989177,0.000000
25.089869,30.888494,2.577730,0.595699,0.803207,0.000000
-7.265038,-25.506045,4.267067,-0.000000,0.000000,1.000000
-16.804807,35.948772,-4.267067,0.000000,0.000000,-1.000000
9.489641,31.784160,-3.363257,-0.098018,-0.995185,0.000000
8.389293,31.693317,0.688775,0.290284,-0.956941,0.000000
1.351870,17.393137,4.267067,-0.000000,0.000000,1.000000
1.599036,-14.794925,-4.267067,0.000000,0.000000,-1.000000
0.333107,18.917921,4.267067,0.000000,-0.000000,1.000000
21.106879,-12.603069,-4.267067,0.000000,-0.000000,-1.000000
23.485011,-13.749675,4.267067,0.000000,0.000000,1.000000
18.849667,28.637951,-4.267067,0.000000,-0.000000,-1.000000
-10.437453,36.605355,4.267067,-0.000000,0.000000,1.000000
14.356106,-31.573846,-4.267067,0.000000,0.000000,-1.000000
16.035071,12.446929,4.267067,-0.000000,0.000000,1.000000
-16.563370,2.680064,-4.267067,0.000000,-0.000000,-1.000000
-0.539381,-19.614286,4.267067,-0.000000,0.000000,1.000000
0.836844,-24.602262,-4.267067,0.000000,0.000000,-1.000000
4.570107,39.512983,-2.212650,0.146730,0.989177,-0.000000
-8.074303,32.003879,4.267067,-0.000000,0.000000,1.000000
-5.831499,-28.644594,4.222288,-0.995185,0.098018,0.000000
13.196905,-10.638083,-4.267067,0.000000,0.000000,-1.000000
18.225595,-26.950254,4.267067,-0.000000,0.000000,1.000000
-33.867654,-15.251174,-4.267067,0.000000,0.000000,-1.000000
-17.409008,-26.608594,-4.267067,0.000000,0.000000,-1.000000
4.938750,38.145224,4.267067,0.000000,-0.000000,1.000000
-11.486970,38.106795,-2.380040,-0.242981,0.970031,0.000000
9.661301,-25.016292,2.237423,-0.098018,-0.995185,0.000000
-31.181958,3.147063,1.154942,0.471396,-0.881921,0.000000
-26.344093,9.246189,4.267067,-0.000000,-0.000000,1.000000
9.260776,-9.825968,-0.697570,-0.634393,0.773010,0.000000
-18.282422,-30.517298,4.267067,-0.000000,0.000000,1.000000
11.934881,16.268032,4.267067,0.000000,-0.000000,1.000000
-16.015895,13.615217,-4.267067,0.000000,-0.000000,-1.000000
12.646954,-33.163228,4.267067,-0.000000,-0.000000,1.000000
25.467988,-13.275755,4.267067,-0.000000,-0.000000,1.000000
-26.035502,-30.058007,3.032048,-0.671559,-0.740951,0.000000
28.187010,-28.099830,-2.323107,0.740951,-0.671559,0.000000
7.306841,31.218501,1.930899,0.634394,-0.773010,0.000000
-12.442328,-5.614591,-4.267067,0.000000,0.000000,-1.000000
-3.306994,-20.086032,4.267067,-0.000000,0.000000,1.000000
23.848128,-20.935650,0.179404,0.098018,0.995185,0.000000
-3.108415,37.005868,-4.267067,0.000000,-0.000000,-1.000000
-13.359786,1.786371,0.389689,0.995185,-0.098017,0.000000
-8.187823,-31.773275,-4.267067,0.000000,0.000000,-1.000000
17.307855,13.420455,-4.267067,0.000000,-0.000000,-1.000000
5.079501,-39.437422,-1.359993,0.146730,-0.989177,0.000000
31.349812,-3.057344,-4.221468,-0.471396,0.881921,0.000000
27.241452,-8.384013,-4.267067,0.000000,-0.000000,-1.000000
-11.919903,30.470663,-1.747545,0.773010,-0.634394,0.000000
21.418989,-14.102441,4.267067,-0.000000,0.000000,1.000000
-8.496984,18.606379,4.267067,0.000000,0.000000,1.000000
-3.809790,-19.322623,-4.267067,0.000000,0.000000,-1.000000
19.887271,-17.870498,-4.267067,0.000000,0.000000,-1.000000
-7.394289,-35.965229,-4.267067,0.000000,0.000000,-1.000000
4.120554,22.662152,4.267067,0.000000,-0.000000,1.000000
11.618480,-37.578401,-4.267067,0.000000,0.000000,-1.000000
-5.496052,-34.896708,-4.267067,0.000000,-0.000000,-1.000000
-17.801027,6.627106,-4.267067,0.000000,-0.000000,-1.000000
-7.933174,-21.890600,-4.267067,0.000000,0.000000,-1.000000
-39.683142,2.456730,-3.838030,-0.998795,0.049067,0.000000
-18.950432,9.039699,4.267067,-0.000000,-0.000000,1.000000
-20.908276,-21.357799,-4.267067,0.000000,0.000000,-1.000000
21.884258,20.087375,-1.486723,0.634392,-0.773012,0.000000
15.715902,11.900800,-4.267067,0.000000,-0.000000,-1.000000
-5.886051,-29.104068,3.161406,-0.956940,0.290284,0.000000
27.151105,5.974252,4.267067,0.000000,-0.000000,1.000000
-10.771070,-31.422878,0.161337,0.471397,0.881921,0.000000
-18.148889,12.867382,-4.267067,0.000000,0.000000,-1.000000
18.297013,-33.641354,-4.267067,0.000000,0.000000,-1.000000
-32.489469,9.321313,-4.267067,0.000000,0.000000,-1.000000
20.473771,0.265800,4.267067,0.000000,0.000000,1.000000
11.589705,36.598518,-4.267067,0.000000,0.000000,-1.000000
39.071595,7.545719,-3.228398,0.989177,0.146730,-0.000000
-32.020752,-12.104117,4.267067,0.000000,-0.000000,1.000000
-10.419400,8.537678,2.018152,0.773010,-0.634393,0.000000
19.319148,-15.064168,4.267067,-0.000000,-0.000000,1.000000
1.142341,38.397933,-4.267067,0.000000,0.000000,-1.000000
22.998098,28.043876,-4.267067,0.000000,0.000000,-1.000000
-27.541243,-28.693284,3.426113,-0.671559,-0.740951,0.000000
-37.821033,-12.305858,1.348419,-0.941544,-0.336889,-0.000000
-17.366334,-0.451859,-4.267067,0.000000,0.000000,-1.000000
-10.454104,38.365515,-0.890084,-0.242981,0.970031,0.000000
8.413511,-24.907521,4.267067,0.000000,-0.000000,1.000000
3.307256,32.659931,4.267067,-0.000000,0.000000,1.000000
-11.803595,-26.171159,-3.054233,0.773011,-0.634393,0.000000
4.460571,18.073394,4.267067,0.000000,-0.000000,1.000000
19.238695,31.906966,4.267067,0.000000,-0.000000,1.000000
-29.786116,-4.845381,-4.267067,0.000000,0.000000,-1.000000
14.951541,-6.761155,4.267067,-0.000000,-0.000000,1.000000
17.179553,1.178219,-4.267067,0.000000,0.000000,-1.000000
-26.735674,-29.423408,-0.278625,-0.671559,-0.740951,-0.000000
-29.263171,-3.360367,3.628029,-0.098017,0.995185,0.000000
-30.651988,-9.842400,-4.267067,0.000000,0.000000,-1.000000
37.243081,-12.163823,-4.267067,0.000000,-0.000000,-1.000000
-38.751381,8.913644,1.726955,-0.970031,0.242981,0.000000
13.325747,-27.081994,4.267067,0.000000,0.000000,1.000000
18.410692,17.439969,4.267067,0.000000,0.000000,1.000000
9.250530,36.753992,-4.267067,0.000000,0.000000,-1.000000
-11.310520,31.517831,4.267067,-0.000000,0.000000,1.000000
13.119193,3.156436,-0.268037,-0.956940,-0.290285,0.000000
-15.085721,12.487797,-4.267067,0.000000,-0.000000,-1.000000
14.615825,-4.087521,-4.267067,0.000000,0.000000,-1.000000
-28.368519,-6.318998,4.267067,0.000000,-0.000000,1.000000
32.130604,5.932192,4.267067,0.000000,-0.000000,1.000000
21.562606,22.173641,4.267067,0.000000,-0.000000,1.000000
-8.268122,-16.103633,-4.267067,0.000000,0.000000,-1.000000
-28.102191,-28.184870,1.029325,-0.671559,-0.740951,-0.000000
7.075888,-15.834427,-4.267067,0.000000,0.000000,-1.000000
-11.006440,-32.243405,-4.267067,0.000000,-0.000000,-1.000000
-7.978072,14.299015,-4.267067,0.000000,0.000000,-1.000000
-17.111127,31.196580,4.267067,-0.000000,-0.000000,1.000000
-0.162534,14.773144,4.267067,-0.000000,0.000000,1.000000
-11.250806,-24.371710,-4.267067,0.000000,-0.000000,-1.000000
23.201438,-12.967206,4.267067,-0.000000,-0.000000,1.000000
37.333585,13.668187,-0.716402,0.941544,0.336889,0.000000
11.838147,-15.734740,4.267067,-0.000000,-0.000000,1.000000
-30.984855,-21.337730,-4.267067,0.000000,0.000000,-1.000000
11.249228,9.585561,4.267067,-0.000000,0.000000,1.000000
-27.573287,-8.158848,-4.267067,0.000000,0.000000,-1.000000
-7.409086,-35.859609,-4.267067,0.000000,0.000000,-1.000000
0.523039,-39.389151,-4.267067,0.000000,0.000000,-1.000000
-11.474917,36.726537,-4.267067,0.000000,0.000000,-1.000000
-17.202484,-24.632368,4.267067,-0.000000,0.000000,1.000000
-34.985171,18.961396,1.500940,-0.857729,0.514102,0.000000
2.395722,30.630824,-4.267067,0.000000,0.000000,-1.000000
3.277701,39.341031,4.267067,0.000000,-0.000000,1.000000
10.686993,-8.211614,-1.669578,-0.773010,0.634393,0.000000
-15.839655,-0.782155,4.267067,0.000000,-0.000000,1.000000
35.139302,7.549934,4.267067,0.000000,-0.000000,1.000000
-13.783209,-29.988187,-4.267067,0.000000,0.000000,-1.000000
8.371769,-38.887114,1.688419,0.242981,-0.970031,0.000000
12.792249,4.234227,-0.751360,-0.956940,-0.290285,0.000000
-7.419192,38.737191,-4.267067,0.000000,0.000000,-1.000000
-17.355263,-18.541217,4.267067,0.000000,-0.000000,1.000000
28.651433,18.587265,-4.267067,0.000000,-0.000000,-1.000000
31.239031,-6.496180,-4.267067,0.000000,-0.000000,-1.000000
-5.841383,28.038592,2.325136,-0.995185,0.098018,0.000000
5.813265,28.324080,2.377035,0.995185,0.098018,-0.000000
-15.625202,-10.653065,4.267067,0.000000,-0.000000,1.000000
-8.504212,-18.936113,-4.267067,0.000000,-0.000000,-1.000000
-34.396336,-10.998516,4.267067,0.000000,-0.000000,1.000000
23.974832,31.715463,-2.419803,0.595699,0.803207,0.000000
-8.279253,-38.910289,3.566931,-0.242981,-0.970031,0.000000
10.535271,-19.978973,-4.267067,0.000000,0.000000,-1.000000
-30.687362,25.341116,3.868218,-0.740951,0.671559,0.000000
4.411331,16.640329,-4.267067,0.000000,0.000000,-1.000000
-8.453262,-10.488678,-0.504118,0.634393,0.773010,-0.000000
-2.004946,23.767848,-4.267067,0.000000,0.000000,-1.000000
15.711842,22.069890,4.267067,0.000000,-0.000000,1.000000
-15.562589,16.308590,4.267067,-0.000000,-0.000000,1.000000
6.791694,-25.994235,2.702398,0.773011,-0.634392,0.000000
12.488050,18.092974,-4.267067,0.000000,0.000000,-1.000000
-27.344252,18.741418,-0.334140,0.956940,-0.290286,0.000000
-22.606640,10.839318,4.267067,-0.000000,-0.000000,1.000000
26.437025,0.026372,4.121532,0.995185,-0.098018,0.000000
14.517733,-35.553866,-4.267067,0.000000,0.000000,-1.000000
39.778621,0.513209,2.967814,0.998795,0.049067,0.000000
-10.677854,25.310841,-1.915045,0.471397,0.881921,0.000000
-0.069697,15.290455,-4.267067,0.000000,-0.000000,-1.000000
21.682108,-33.354441,-1.106716,0.514102,-0.857729,0.000000
5.544865,19.565176,4.267067,-0.000000,0.000000,1.000000
19.140844,-11.898752,4.267067,-0.000000,0.000000,1.000000
-22.641383,23.299270,4.267067,-0.000000,-0.000000,1.000000
12.287485,5.587556,-3.776282,-0.881921,-0.471397,0.000000
-17.447446,35.726246,0.983048,-0.427555,0.903989,0.000000
30.308141,3.583004,4.267067,-0.000000,0.000000,1.000000
-32.846193,22.450220,3.552387,-0.803207,0.595699,0.000000
-39.720909,-1.687966,3.903411,-0.998795,-0.049067,0.000000
17.288325,-11.113317,4.267067,-0.000000,0.000000,1.000000
-13.089371,-31.046345,-4.267067,0.000000,-0.000000,-1.000000
-4.673839,12.658894,-2.424367,0.290285,-0.956940,0.000000
39.774870,-0.589557,-3.842755,0.998795,-0.049067,0.000000
1.918326,13.346790,-1.824478,-0.098017,-0.995185,0.000000
11.746433,12.957730,4.267067,0.000000,-0.000000,1.000000
19.429139,5.195516,4.267067,0.000000,-0.000000,1.000000
-18.177325,30.414484,4.267067,-0.000000,-0.000000,1.000000
-25.026600,7.448674,-4.267067,0.000000,0.000000,-1.000000
-5.194008,26.137366,4.267067,0.000000,-0.000000,1.000000
11.686925,31.437061,4.267067,-0.000000,0.000000,1.000000
1.111207,-39.749243,1.936582,0.049067,-0.998795,0.000000
-13.903639,-35.465458,4.267067,-0.000000,0.000000,1.000000
-3.248142,39.644263,-2.823000,-0.049067,0.998795,0.000000
1.457852,23.821844,4.267067,0.000000,-0.000000,1.000000
16.071609,2.051951,-4.267067,0.000000,0.000000,-1.000000
-8.029685,-38.972802,-2.724831,-0.242981,-0.970031,0.000000
12.520404,-27.452422,4.267067,0.000000,0.000000,1.000000
-3.486310,39.632562,-4.064772,-0.049067,0.998795,0.000000
23.161009,-11.627664,4.267067,-0.000000,-0.000000,1.000000
20.486928,30.642513,4.267067,0.000000,-0.000000,1.000000
-20.163078,-25.336912,-4.267067,0.000000,-0.000000,-1.000000
-35.855833,17.173459,-4.095163,-0.903989,0.427555,0.000000
-20.309150,-2.336918,-4.267067,0.000000,0.000000,-1.000000
30.681197,-3.433097,4.267067,-0.000000,-0.000000,1.000000
23.251601,25.984941,-4.267067,0.000000,0.000000,-1.000000
-18.742165,-24.536387,-4.267067,0.000000,-0.000000,-1.000000
-17.900106,8.912787,-4.267067,0.000000,0.000000,-1.000000
8.109381,12.083715,-4.267067,0.000000,0.000000,-1.000000
-17.986418,-25.956827,4.267067,-0.000000,0.000000,1.000000
6.148596,19.786986,4.267067,-0.000000,0.000000,1.000000
-0.663173,37.431278,4.267067,-0.000000,0.000000,1.000000
-11.436469,7.179695,2.602982,0.881921,-0.471397,0.000000
29.640949,-26.495655,-1.042655,0.740951,-0.671559,0.000000
14.702096,10.128813,-4.267067,0.000000,0.000000,-1.000000
20.030988,-34.344084,0.974708,0.514102,-0.857729,0.000000
-4.474812,-17.330664,-4.267067,0.000000,-0.000000,-1.000000
-24.963362,30.982318,3.021945,-0.595699,0.803207,0.000000
-10.459060,11.755826,-4.267067,0.000000,-0.000000,-1.000000
-7.359307,31.251987,1.082299,-0.471397,-0.881921,0.000000
3.908557,-30.281148,-4.267067,0.000000,0.000000,-1.000000
-21.524559,-5.013954,4.267067,0.000000,-0.000000,1.000000
-8.396578,-25.088018,2.477964,-0.290284,-0.956941,0.000000
-13.476433,0.602039,-2.622233,0.995185,-0.098017,0.000000
-20.104086,-12.966969,-4.267067,0.000000,-0.000000,-1.000000
21.783992,-1.146301,4.267067,0.000000,0.000000,1.000000
-21.550828,1.124764,-4.267067,-0.000000,-0.000000,-1.000000
-3.543919,-13.001652,-0.946755,0.290285,0.956940,0.000000
-4.936605,32.092578,-4.267067,0.000000,0.000000,-1.000000
-6.572676,12.938366,-4.267067,0.000000,0.000000,-1.000000
34.737126,16.856727,-4.267067,0.000000,0.000000,-1.000000
16.167478,23.445407,4.267067,0.000000,-0.000000,1.000000
24.592005,31.257736,1.558795,0.595699,0.803207,0.000000
-2.492833,36.879948,4.267067,-0.000000,0.000000,1.000000
21.706176,15.164113,-3.705491,0.773011,0.634393,-0.000000
20.072470,15.797794,-4.267067,0.000000,0.000000,-1.000000
12.475555,-32.230838,4.267067,-0.000000,-0.000000,1.000000
13.412769,33.183758,-4.267067,0.000000,-0.000000,-1.000000
9.206250,-9.870717,-3.120593,-0.634393,0.773010,0.000000
-0.022588,39.802723,2.669631,-0.049067,0.998795,0.000000
27.548455,-22.886908,-4.267067,0.000000,0.000000,-1.000000
6.036631,27.183080,2.260430,0.956940,0.290284,0.000000
-25.418904,-7.107177,-4.267067,0.000000,0.000000,-1.000000
11.383901,31.021005,2.626080,-0.634394,-0.773010,0.000000
0.199055,35.306673,-4.267067,0.000000,0.000000,-1.000000
4.364299,18.427256,-4.267067,0.000000,0.000000,-1.000000
19.386227,31.039103,-4.267067,0.000000,0.000000,-1.000000
31.981136,-10.409695,4.267067,-0.000000,0.000000,1.000000
-31.279046,22.150055,-4.267067,0.000000,0.000000,-1.000000
-17.826412,28.387220,-4.267067,0.000000,0.000000,-1.000000
-30.987120,23.163324,4.267067,0.000000,0.000000,1.000000
-16.816753,-21.672201,-4.267067,0.000000,-0.000000,-1.000000
19.104068,8.251680,4.267067,0.000000,-0.000000,1.000000
-7.495433,16.942032,-4.267067,0.000000,0.000000,-1.000000
-32.079156,22.403909,4.267067,0.000000,0.000000,1.000000
-32.215661,9.555667,-4.267067,0.000000,0.000000,-1.000000
13.206366,-19.894173,-4.267067,0.000000,0.000000,-1.000000
0.597574,30.478825,4.267067,0.000000,-0.000000,1.000000
-26.569297,-21.922532,-4.267067,0.000000,0.000000,-1.000000
-27.542476,17.825857,-2.934091,0.995185,-0.098018,0.000000
-23.751356,-28.793626,4.267067,0.000000,-0.000000,1.000000
-26.713844,12.419109,-4.267067,0.000000,0.000000,-1.000000
-3.488983,38.115795,4.267067,-0.000000,0.000000,1.000000
-6.836211,-18.480392,4.267067,-0.000000,0.000000,1.000000
27.393158,18.580198,-0.587524,-0.956940,-0.290286,0.000000
-12.432358,-29.797550,-4.267067,0.000000,0.000000,-1.000000
19.290429,10.226629,-4.267067,0.000000,-0.000000,-1.000000
14.526695,-34.756249,-4.267067,0.000000,0.000000,-1.000000
-21.789255,29.869159,4.267067,-0.000000,-0.000000,1.000000
38.434960,-3.645313,4.267067,-0.000000,-0.000000,1.000000
-5.653633,23.882886,4.267067,0.000000,0.000000,1.000000
39.126366,7.176478,-3.263128,0.989177,0.146730,0.000000
-18.709611,35.129287,3.488446,-0.427555,0.903989,0.000000
1.696656,17.720494,4.267067,-0.000000,0.000000,1.000000
5.995497,29.464862,-1.455763,0.956940,-0.290284,0.000000
-12.226634,-13.886504,4.267067,0.000000,-0.000000,1.000000
