x,y,z,nx,ny,nz
2.463519,6.062310,-29.609836,0.290285,0.956940,0.000000
5.540093,3.458796,-37.616492,0.881921,0.471397,-0.000000
-6.298075,-1.686308,-64.607471,-0.956940,-0.290285,0.000000
0.640963,-6.484792,-69.776008,0.098017,-0.995185,0.000000
-4.909936,4.289073,-58.139635,-0.773010,0.634393,0.000000
4.765998,-4.464462,-34.947824,0.773010,-0.634393,0.000000
-4.508708,-3.225289,-26.333092,-0.000000,0.000000,1.000000
6.400065,-1.350092,-39.991369,0.956940,-0.290285,0.000000
4.125064,1.824995,8.319302,-0.000000,0.000000,1.000000
-6.514293,-0.341430,-36.051613,-0.995185,-0.098017,0.000000
7.147396,7.639080,4.276719,0.866025,0.500000,0.000000
6.529862,-0.183355,-61.462395,0.995185,-0.098017,0.000000
-9.566002,0.310315,0.000000,0.000000,0.000000,-1.000000
-7.740359,-6.139272,0.000000,0.000000,0.000000,-1.000000
3.411851,5.565186,-42.201217,0.471397,0.881921,0.000000
1.755875,9.126076,8.319302,0.000000,0.000000,1.000000
-0.955360,10.009367,2.126872,-0.000000,1.000000,0.000000
6.548501,8.676398,4.582057,0.866025,0.500000,0.000000
-1.035015,-6.445981,-35.046965,-0.098017,-0.995185,0.000000
5.108286,-4.047383,-55.136170,0.773010,-0.634393,0.000000
3.679220,-10.009367,0.587980,-0.000000,-1.000000,-0.000000
-3.488845,-5.524032,-29.882458,-0.471397,-0.881921,0.000000
4.577184,1.078946,-70.679970,-0.000000,0.000000,-1.000000
-0.973050,8.830856,8.319302,0.000000,0.000000,1.000000
-1.857186,-6.246239,-27.841289,-0.290285,-0.956940,0.000000
-1.993465,6.204900,-43.455217,-0.290285,0.956940,0.000000
6.525772,8.715766,5.681974,0.866025,0.500000,0.000000
4.663166,4.589763,-39.827417,0.773010,0.634393,-0.000000
6.503170,-0.454366,-50.638088,0.995185,-0.098017,0.000000
-2.282172,6.117322,-63.899292,-0.290285,0.956940,0.000000
-3.235641,-10.009367,2.099354,-0.000000,-1.000000,-0.000000
6.543447,0.045427,-35.300945,0.995185,0.098017,0.000000
5.368164,-3.730721,-36.917728,0.773010,-0.634393,0.000000
6.074318,0.348933,-70.679970,0.000000,0.000000,-1.000000
-0.158545,4.072705,8.319302,0.000000,0.000000,1.000000
-3.314323,5.617316,-34.005312,-0.471397,0.881921,0.000000
-6.020171,9.591491,5.824673,-0.866025,0.500000,0.000000
-4.050134,-5.106028,-31.487691,-0.634393,-0.773010,0.000000
-5.793451,1.002148,-70.679970,-0.000000,-0.000000,-1.000000
2.702305,9.689074,8.319302,0.000000,0.000000,1.000000
-3.870132,8.385020,8.319302,0.000000,0.000000,1.000000
-0.372189,0.962235,8.319302,0.000000,0.000000,1.000000
-3.825151,8.472731,0.000000,0.000000,0.000000,-1.000000
4.548232,8.896854,8.319302,0.000000,0.000000,1.000000
-6.521936,-8.722409,4.915138,-0.866025,-0.500000,0.000000
-4.924268,-4.271609,-31.280064,-0.773010,-0.634393,0.000000
-4.150615,-7.359049,8.319302,-0.000000,0.000000,1.000000
10.519096,1.799126,3.923391,0.866025,0.500000,0.000000
10.205400,2.342463,7.777335,0.866025,0.500000,0.000000
-5.813193,-2.947862,-33.142824,-0.881921,-0.471397,0.000000
1.934752,6.575380,0.000000,0.000000,0.000000,-1.000000
2.623314,-1.038581,0.000000,0.000000,0.000000,-1.000000
5.248642,3.876359,-46.371551,0.773010,0.634393,0.000000
-9.095833,-4.264289,0.181686,-0.866025,-0.500000,-0.000000
10.377485,2.044403,0.306435,0.866025,0.500000,0.000000
0.302259,-5.806147,8.319302,-0.000000,0.000000,1.000000
0.461365,6.502481,-35.331670,0.098017,0.995185,-0.000000
-3.271107,5.640415,-39.143827,-0.471397,0.881921,0.000000
-1.330028,6.406151,-52.327605,-0.290285,0.956940,0.000000
-2.992989,-5.789072,-33.974905,-0.471397,-0.881921,0.000000
1.691216,1.743408,-70.679970,-0.000000,0.000000,-1.000000
2.690007,5.951019,-59.757799,0.471397,0.881921,-0.000000
6.236236,-1.890163,-34.314226,0.956940,-0.290285,0.000000
5.728692,-10.009367,2.698760,-0.000000,-1.000000,-0.000000
5.863635,-2.853492,-33.866902,0.881921,-0.471397,0.000000
1.961331,1.763242,-70.679970,-0.000000,0.000000,-1.000000
-7.259452,-4.744668,8.319302,0.000000,0.000000,1.000000
3.628446,10.009367,4.977804,-0.000000,1.000000,0.000000
3.913591,5.218087,-35.508070,0.634393,0.773010,-0.000000
-1.346557,6.401137,-54.426280,-0.290285,0.956940,0.000000
0.656728,-6.483239,-36.632226,0.098017,-0.995185,0.000000
-0.305113,-6.459791,-70.679970,0.000000,-0.000000,-1.000000
-3.586717,1.350836,0.000000,0.000000,0.000000,-1.000000
-0.815622,10.009367,3.620331,-0.000000,1.000000,0.000000
1.543522,1.955951,-26.333092,0.000000,0.000000,1.000000
-2.021972,-3.084734,0.000000,0.000000,0.000000,-1.000000
-4.547943,-6.699397,0.000000,0.000000,0.000000,-1.000000
-5.985314,2.625846,-59.584424,-0.881921,0.471397,0.000000
-8.124150,5.947294,2.223454,-0.866025,0.500000,0.000000
4.784081,4.442428,-60.600244,0.773010,0.634393,-0.000000
5.133356,0.386841,-70.679970,0.000000,0.000000,-1.000000
4.954769,4.234444,-59.642131,0.773010,0.634393,0.000000
-8.550332,5.209124,7.135865,-0.866025,0.500000,0.000000
2.380598,-6.087464,-40.122913,0.290285,-0.956940,0.000000
2.660981,5.966534,-63.241921,0.471397,0.881921,-0.000000
-5.688634,-3.180896,-55.144032,-0.881921,-0.471397,0.000000
-4.217575,-7.974585,0.000000,0.000000,0.000000,-1.000000
10.377864,2.043746,6.755969,0.866025,0.500000,0.000000
1.376739,-6.391982,-35.180050,0.290285,-0.956940,0.000000
-5.749364,3.067277,-65.261484,-0.881921,0.471397,0.000000
0.564962,5.356205,0.000000,0.000000,0.000000,-1.000000
5.698336,-3.162744,-29.638487,0.881921,-0.471397,0.000000
3.269051,5.221904,8.319302,-0.000000,0.000000,1.000000
-2.369146,0.965324,-70.679970,-0.000000,-0.000000,-1.000000
6.194974,9.288724,7.110347,0.866025,0.500000,0.000000
0.430922,6.505479,-42.529119,0.098017,0.995185,-0.000000
-4.063074,-5.095409,-42.460950,-0.634393,-0.773010,0.000000
2.388658,6.085019,-36.173803,0.290285,0.956940,0.000000
8.736702,1.314060,8.319302,0.000000,0.000000,1.000000
6.486369,-4.378770,8.319302,0.000000,0.000000,1.000000
-2.064368,-1.482582,-26.333092,-0.000000,0.000000,1.000000
-3.950374,-5.187899,-53.498312,-0.634393,-0.773010,0.000000
5.902818,2.780186,-50.086914,0.881921,0.471397,0.000000
-2.357484,-6.094476,-64.764819,-0.290285,-0.956940,0.000000
-1.897143,-6.234119,-29.697053,-0.290285,-0.956940,0.000000
-5.247263,-0.463706,-70.679970,0.000000,-0.000000,-1.000000
-5.671182,-3.213546,-45.502087,-0.881921,-0.471397,0.000000
4.448401,9.316464,8.319302,0.000000,0.000000,1.000000
9.686675,3.240920,1.824601,0.866025,0.500000,0.000000
0.465895,-6.502035,-59.206641,0.098017,-0.995185,0.000000
5.323303,-3.785383,-38.666358,0.773010,-0.634393,0.000000
10.494204,-1.842240,6.219014,0.866025,-0.500000,0.000000
-7.184313,7.575139,5.596525,-0.866025,0.500000,0.000000
-6.589733,-6.763310,8.319302,0.000000,0.000000,1.000000
6.496694,0.520120,-65.291411,0.995185,0.098017,0.000000
0.002058,6.547719,-34.785380,0.098017,0.995185,-0.000000
6.438549,1.110481,-29.427320,0.995185,0.098017,-0.000000
6.449010,1.004266,-31.335527,0.995185,0.098017,-0.000000
6.354934,1.498869,-53.227783,0.956940,0.290285,0.000000
-3.494981,10.009367,0.333626,-0.000000,1.000000,0.000000
-5.319188,-3.790398,-51.503119,-0.773010,-0.634393,0.000000
2.227220,-6.133991,-61.415982,0.290285,-0.956940,0.000000
-8.666042,-5.008709,1.396149,-0.866025,-0.500000,-0.000000
2.409107,-6.078816,-37.506390,0.290285,-0.956940,0.000000
-5.628412,5.592011,8.319302,0.000000,0.000000,1.000000
-10.963478,1.029432,4.132748,-0.866025,0.500000,0.000000
5.972011,2.650734,-40.166794,0.881921,0.471397,0.000000
-2.708330,2.568531,0.000000,0.000000,0.000000,-1.000000
5.474056,-7.245863,0.000000,0.000000,0.000000,-1.000000
5.448378,3.630383,-31.616882,0.881921,0.471397,-0.000000
1.130030,6.436623,-56.033067,0.098017,0.995185,0.000000
-6.380974,8.966563,5.780409,-0.866025,0.500000,0.000000
-5.553463,3.433782,-26.678282,-0.881921,0.471397,0.000000
-1.906201,6.231371,-54.888604,-0.290285,0.956940,0.000000
6.477607,0.713917,-50.330000,0.995185,0.098017,-0.000000
-5.941299,-2.708193,-43.397346,-0.881921,-0.471397,0.000000
1.043043,-2.347840,8.319302,-0.000000,0.000000,1.000000
-6.066513,2.449664,-55.262601,-0.956940,0.290285,0.000000
4.008824,4.920928,8.319302,-0.000000,0.000000,1.000000
10.650764,-0.729477,0.000000,0.000000,0.000000,-1.000000
5.703498,-10.009367,5.262944,-0.000000,-1.000000,-0.000000
-9.626665,-3.344861,5.815475,-0.866025,-0.500000,0.000000
-2.995483,5.787739,-42.634117,-0.471397,0.881921,0.000000
-5.705901,3.148591,-53.992408,-0.881921,0.471397,0.000000
-5.056672,-4.110274,-42.862703,-0.773010,-0.634393,0.000000
-1.339793,3.659010,-70.679970,-0.000000,-0.000000,-1.000000
10.210781,-2.333141,8.252162,0.866025,-0.500000,0.000000
2.112282,-5.000556,0.000000,0.000000,0.000000,-1.000000
10.245006,-2.273862,8.152141,0.866025,-0.500000,0.000000
4.222101,4.964899,-54.979772,0.634393,0.773010,0.000000
-4.595818,-4.658197,-32.241733,-0.634393,-0.773010,0.000000
-3.325058,-8.968514,0.000000,0.000000,0.000000,-1.000000
-8.676928,4.989854,5.942536,-0.866025,0.500000,0.000000
6.358487,9.005511,3.171939,0.866025,0.500000,0.000000
5.633543,3.283964,-49.395322,0.881921,0.471397,-0.000000
-3.344752,5.012655,8.319302,0.000000,0.000000,1.000000
4.278416,4.918682,-68.367344,0.634393,0.773010,0.000000
-6.165657,2.122832,-26.787884,-0.956940,0.290285,0.000000
-5.496773,3.539842,-43.655511,-0.881921,0.471397,0.000000
-2.335214,-6.101231,-51.304188,-0.290285,-0.956940,0.000000
-5.477305,3.576264,-63.041992,-0.881921,0.471397,0.000000
4.459012,-4.770471,-47.472575,0.634393,-0.773010,0.000000
0.884106,5.253660,-26.333092,0.000000,0.000000,1.000000
6.441111,-1.084461,-51.014285,0.995185,-0.098017,0.000000
-2.620445,5.988201,-35.744360,-0.471397,0.881921,0.000000
7.002802,7.889524,6.040297,0.866025,0.500000,0.000000
-2.316361,-10.009367,0.377531,-0.000000,-1.000000,-0.000000
-2.085968,-6.176839,-38.340376,-0.290285,-0.956940,0.000000
-5.888636,-2.806718,-34.203422,-0.881921,-0.471397,0.000000
3.265364,-5.643485,-57.005189,0.471397,-0.881921,0.000000
3.269658,8.339889,0.000000,0.000000,0.000000,-1.000000
-6.474006,0.750471,-33.596012,-0.995185,0.098017,0.000000
6.121159,2.269522,-27.436459,0.956940,0.290285,-0.000000
2.072460,-6.180937,-36.705067,0.290285,-0.956940,0.000000
-1.865179,-6.243815,-62.738191,-0.290285,-0.956940,0.000000
-5.627605,-3.295074,-52.958384,-0.881921,-0.471397,0.000000
-6.468856,-0.802766,-70.022346,-0.995185,-0.098017,0.000000
-3.793526,-5.316621,-62.857511,-0.634393,-0.773010,0.000000
-0.395344,6.508983,-27.089327,-0.098017,0.995185,0.000000
-1.390535,10.009367,7.141511,-0.000000,1.000000,0.000000
-4.633693,4.625676,-70.494454,-0.773010,0.634393,0.000000
-1.066184,6.442911,-40.444870,-0.098017,0.995185,0.000000
3.526392,-5.503963,-45.052835,0.471397,-0.881921,0.000000
-6.248145,-1.850906,-59.890982,-0.956940,-0.290285,0.000000
6.545620,0.023364,-67.745318,0.995185,0.098017,0.000000
-6.311065,1.643486,-41.087866,-0.956940,0.290285,0.000000
1.369523,-6.394170,-45.996580,0.290285,-0.956940,0.000000
3.396684,5.573293,-44.359315,0.471397,0.881921,0.000000
9.813761,3.020802,0.830748,0.866025,0.500000,0.000000
-6.024999,2.551602,-44.840730,-0.881921,0.471397,0.000000
-3.721673,-5.375589,-61.365367,-0.634393,-0.773010,0.000000
-3.157193,5.701303,-49.820224,-0.471397,0.881921,0.000000
-8.406343,5.458521,4.153599,-0.866025,0.500000,0.000000
1.066420,6.442888,-34.904935,0.098017,0.995185,0.000000
8.268135,-5.669163,8.319302,0.000000,0.000000,1.000000
0.547462,6.494001,-68.474229,0.098017,0.995185,0.000000
-5.874180,2.833763,-61.397130,-0.881921,0.471397,0.000000
-5.779998,1.721782,-26.333092,0.000000,0.000000,1.000000
1.445821,6.371026,-57.306892,0.290285,0.956940,-0.000000
3.990595,6.048123,0.000000,0.000000,0.000000,-1.000000
-11.519619,-0.066168,2.082084,-0.866025,-0.500000,-0.000000
-6.457340,-0.919691,-49.963673,-0.995185,-0.098017,0.000000
6.408264,1.323064,-32.395312,0.956940,0.290285,0.000000
-5.761744,-3.044117,-66.774331,-0.881921,-0.471397,0.000000
-1.430629,6.375634,-70.161870,-0.290285,0.956940,0.000000
-4.429601,-0.443312,0.000000,0.000000,0.000000,-1.000000
-2.695808,9.152497,8.319302,0.000000,0.000000,1.000000
2.607242,5.995259,-59.029402,0.471397,0.881921,-0.000000
-5.416285,3.672086,-28.064825,-0.773010,0.634393,0.000000
5.686843,8.453483,0.000000,0.000000,0.000000,-1.000000
-2.202064,-1.702185,-26.333092,-0.000000,0.000000,1.000000
6.473710,-0.753483,-32.841850,0.995185,-0.098017,0.000000
4.134555,-8.411899,8.319302,-0.000000,0.000000,1.000000
-9.815828,3.017221,1.142218,-0.866025,0.500000,0.000000
6.929160,-8.017077,5.754182,0.866025,-0.500000,0.000000
5.727949,-2.507972,8.319302,-0.000000,0.000000,1.000000
-4.231385,-2.038373,-70.679970,0.000000,-0.000000,-1.000000
-2.154010,-6.156199,-62.138048,-0.290285,-0.956940,0.000000
2.521470,-3.703546,-26.333092,0.000000,-0.000000,1.000000
-5.941696,-7.114230,8.319302,0.000000,0.000000,1.000000
-6.705730,-3.652151,8.319302,0.000000,0.000000,1.000000
-4.048805,-5.107119,-43.547720,-0.634393,-0.773010,0.000000
6.271341,-1.774438,-55.875363,0.956940,-0.290285,0.000000
3.355217,5.595457,-51.660087,0.471397,0.881921,0.000000
-6.196263,6.469687,0.000000,0.000000,0.000000,-1.000000
-10.603140,1.653556,5.772639,-0.866025,0.500000,0.000000
-1.984994,4.747040,-26.333092,0.000000,0.000000,1.000000
0.688895,6.480071,-62.596079,0.098017,0.995185,0.000000
-6.460116,-0.891502,-67.092980,-0.995185,-0.098017,0.000000
-0.775781,-0.117586,-70.679970,0.000000,-0.000000,-1.000000
0.647244,2.145665,0.000000,0.000000,0.000000,-1.000000
-10.457053,-1.906586,4.667844,-0.866025,-0.500000,-0.000000
4.535851,4.707411,-61.470206,0.634393,0.773010,0.000000
3.296356,-10.009367,1.442020,-0.000000,-1.000000,-0.000000
4.617638,-4.640290,-55.666335,0.634393,-0.773010,0.000000
1.354733,-6.398657,-47.676411,0.290285,-0.956940,0.000000
3.610375,5.698614,0.000000,0.000000,0.000000,-1.000000
-2.124461,2.225967,-26.333092,0.000000,0.000000,1.000000
-5.920282,-2.747513,-65.483149,-0.881921,-0.471397,0.000000
5.479231,2.720235,0.000000,0.000000,0.000000,-1.000000
-2.422277,9.456021,0.000000,0.000000,0.000000,-1.000000
1.189086,2.591091,-70.679970,-0.000000,0.000000,-1.000000
-0.603682,-3.709805,8.319302,-0.000000,0.000000,1.000000
0.531162,6.495606,-53.954279,0.098017,0.995185,0.000000
0.388191,10.009367,0.624085,-0.000000,1.000000,0.000000
1.694017,-9.191880,0.000000,0.000000,0.000000,-1.000000
4.445489,3.812157,8.319302,-0.000000,0.000000,1.000000
6.098606,2.343869,-41.945646,0.956940,0.290285,-0.000000
-3.838801,-5.279465,-50.913137,-0.634393,-0.773010,0.000000
-1.421524,6.378396,-47.935363,-0.290285,0.956940,0.000000
-4.788843,-4.436625,-32.197977,-0.773010,-0.634393,0.000000
-6.049855,-2.504581,-33.568924,-0.956940,-0.290285,0.000000
0.094792,-0.102253,8.319302,-0.000000,0.000000,1.000000
1.792379,-6.265898,-35.534460,0.290285,-0.956940,0.000000
-0.749891,-6.474063,-60.556209,-0.098017,-0.995185,0.000000
-4.178119,-5.000994,-67.093513,-0.634393,-0.773010,0.000000
1.454628,1.631733,-70.679970,-0.000000,0.000000,-1.000000
6.746925,-8.332717,4.649761,0.866025,-0.500000,0.000000
3.908827,-5.221996,-37.816115,0.634393,-0.773010,0.000000
11.068116,-0.848194,1.297852,0.866025,-0.500000,0.000000
6.218044,1.950133,-42.229936,0.956940,0.290285,-0.000000
-0.500668,-6.498610,-37.027242,-0.098017,-0.995185,0.000000
-0.753983,-6.473660,-29.454467,-0.098017,-0.995185,0.000000
-6.928049,1.750141,0.000000,0.000000,0.000000,-1.000000
-1.768307,-5.746624,-26.333092,-0.000000,0.000000,1.000000
-7.948193,-6.252060,4.087108,-0.866025,-0.500000,0.000000
1.543506,-6.341393,-51.950332,0.290285,-0.956940,0.000000
0.759404,6.473126,-37.197007,0.098017,0.995185,-0.000000
-4.106592,10.009367,0.851790,-0.000000,1.000000,0.000000
5.104837,4.051586,-50.619107,0.773010,0.634393,0.000000
-0.664399,-6.482484,-32.589951,-0.098017,-0.995185,0.000000
0.087900,-9.262808,8.319302,-0.000000,0.000000,1.000000
-0.642986,6.484593,-28.932220,-0.098017,0.995185,0.000000
5.398417,3.693857,-37.665072,0.773010,0.634393,0.000000
2.875002,5.852137,-43.151317,0.471397,0.881921,-0.000000
6.504967,-0.436126,-50.717135,0.995185,-0.098017,0.000000
-2.648622,1.761195,0.000000,0.000000,0.000000,-1.000000
10.075876,-1.154124,0.000000,0.000000,0.000000,-1.000000
0.380650,-6.510430,-29.983299,0.098017,-0.995185,0.000000
-6.431032,-1.186799,-34.463471,-0.995185,-0.098017,0.000000
3.205487,-10.009367,5.596463,-0.000000,-1.000000,-0.000000
-1.930850,10.009367,8.137627,-0.000000,1.000000,0.000000
1.648318,-6.309599,-42.401151,0.290285,-0.956940,0.000000
6.474453,-0.745938,-43.154183,0.995185,-0.098017,0.000000
6.507902,0.406325,-51.173594,0.995185,0.098017,0.000000
-9.525522,3.520045,1.870634,-0.866025,0.500000,0.000000
-4.738241,4.498283,-51.749661,-0.773010,0.634393,0.000000
8.769538,4.829449,1.161897,0.866025,0.500000,0.000000
-7.841083,-6.164623,0.000000,0.000000,0.000000,-1.000000
4.902727,-4.297858,-56.660234,0.773010,-0.634393,0.000000
5.302378,3.810881,-58.123249,0.773010,0.634393,0.000000
-0.722315,7.152478,0.000000,0.000000,0.000000,-1.000000
-0.837740,-0.425106,-70.679970,0.000000,-0.000000,-1.000000
6.502913,0.456980,-48.534178,0.995185,0.098017,0.000000
-4.003460,-5.144333,-41.537066,-0.634393,-0.773010,0.000000
5.123696,5.743999,0.000000,0.000000,0.000000,-1.000000
-2.244858,3.557162,0.000000,0.000000,0.000000,-1.000000
-5.522841,-9.153550,0.000000,0.000000,0.000000,-1.000000
4.536880,-4.340211,-26.333092,0.000000,-0.000000,1.000000
6.119366,-2.275434,-41.664676,0.956940,-0.290285,0.000000
9.353947,-3.817223,6.870650,0.866025,-0.500000,0.000000
-5.731726,3.100275,-37.980975,-0.881921,0.471397,0.000000
5.635353,3.280577,-60.561844,0.881921,0.471397,0.000000
4.590800,-4.662315,-61.424273,0.634393,-0.773010,0.000000
-4.872326,3.305944,-70.679970,-0.000000,-0.000000,-1.000000
3.529224,5.502449,-53.283968,0.471397,0.881921,0.000000
1.635669,6.313436,-65.266689,0.290285,0.956940,0.000000
3.793405,5.316720,-56.732921,0.634393,0.773010,-0.000000
-0.998228,6.449604,-39.144986,-0.098017,0.995185,0.000000
2.462763,-6.128335,8.319302,-0.000000,0.000000,1.000000
-6.858951,4.069270,8.319302,0.000000,0.000000,1.000000
3.838058,5.280075,-58.004163,0.634393,0.773010,-0.000000
-1.822247,6.087515,-70.679970,-0.000000,-0.000000,-1.000000
6.040883,2.521884,-42.753376,0.881921,0.471397,0.000000
3.511065,5.512155,-33.410532,0.471397,0.881921,0.000000
0.882280,6.461024,-29.151814,0.098017,0.995185,-0.000000
-4.832833,10.009367,2.700849,-0.000000,1.000000,0.000000
6.217519,1.951866,-27.548114,0.956940,0.290285,-0.000000
-1.692203,3.282467,8.319302,0.000000,0.000000,1.000000
5.224616,-3.905634,-46.260621,0.773010,-0.634393,0.000000
1.961947,6.214461,-29.605876,0.290285,0.956940,-0.000000
-11.081179,-0.825568,3.635397,-0.866025,-0.500000,-0.000000
-6.539082,0.089742,-41.317890,-0.995185,0.098017,0.000000
3.601700,-5.463709,-59.897858,0.471397,-0.881921,0.000000
5.140125,4.008586,-44.193964,0.773010,0.634393,0.000000
7.469000,3.758136,0.000000,0.000000,0.000000,-1.000000
5.948688,-2.694369,-57.522737,0.881921,-0.471397,0.000000
3.176085,5.691205,-69.551647,0.471397,0.881921,0.000000
2.493702,-6.053154,-28.580711,0.290285,-0.956940,0.000000
-10.279759,2.213669,2.705304,-0.866025,0.500000,0.000000
-0.226703,-4.433433,-70.679970,0.000000,-0.000000,-1.000000
1.746830,6.279716,-41.068113,0.290285,0.956940,-0.000000
-10.578612,-1.696040,4.783427,-0.866025,-0.500000,-0.000000
-5.978873,-9.663023,7.106382,-0.866025,-0.500000,0.000000
-1.906488,-4.771320,-70.679970,0.000000,-0.000000,-1.000000
-4.153768,5.020978,-66.886985,-0.634393,0.773010,0.000000
5.865825,-2.849394,-36.362034,0.881921,-0.471397,0.000000
-6.441570,1.079800,-43.539404,-0.995185,0.098017,0.000000
0.734373,-6.475592,-51.640132,0.098017,-0.995185,0.000000
2.395848,-3.573812,-26.333092,0.000000,-0.000000,1.000000
-10.073876,2.570268,4.655465,-0.866025,0.500000,0.000000
1.890414,-3.020694,0.000000,0.000000,0.000000,-1.000000
-9.012673,-3.463700,0.000000,0.000000,0.000000,-1.000000
6.350755,-1.512644,-65.239936,0.956940,-0.290285,0.000000
-11.075807,0.834873,8.164050,-0.866025,0.500000,0.000000
10.148170,1.938498,0.000000,0.000000,0.000000,-1.000000
5.098527,4.059274,-57.608526,0.773010,0.634393,0.000000
2.553602,-5.745992,8.319302,-0.000000,0.000000,1.000000
-5.263580,-3.858157,-41.545065,-0.773010,-0.634393,0.000000
-9.713083,-3.195180,7.596051,-0.866025,-0.500000,0.000000
-3.578648,5.476031,-35.542111,-0.471397,0.881921,0.000000
0.227644,6.525500,-45.387048,0.098017,0.995185,-0.000000
6.149440,-2.176292,-60.455443,0.956940,-0.290285,0.000000
-4.935768,3.920210,8.319302,0.000000,0.000000,1.000000
-5.858478,-2.863139,-42.725947,-0.881921,-0.471397,0.000000
6.034620,2.533601,-68.858888,0.881921,0.471397,0.000000
3.009004,1.845081,8.319302,-0.000000,0.000000,1.000000
-3.036308,5.765918,-50.978710,-0.471397,0.881921,0.000000
-6.515221,0.332015,-67.145170,-0.995185,0.098017,0.000000
4.816061,4.403460,-35.967320,0.773010,0.634393,-0.000000
-7.310249,7.117003,8.319302,0.000000,0.000000,1.000000
4.020257,-1.873209,-70.679970,0.000000,0.000000,-1.000000
2.121519,-6.166055,-53.665861,0.290285,-0.956940,0.000000
4.859445,-4.350597,-31.179601,0.773010,-0.634393,0.000000
3.824157,5.291482,-61.067690,0.634393,0.773010,-0.000000
9.868517,2.925962,1.763880,0.866025,0.500000,0.000000
5.777118,1.184140,0.000000,0.000000,0.000000,-1.000000
6.214780,-1.960894,-44.694710,0.956940,-0.290285,0.000000
-3.984526,5.159871,-28.224290,-0.634393,0.773010,0.000000
-5.167154,2.980406,8.319302,0.000000,0.000000,1.000000
-10.274738,-2.155698,8.319302,0.000000,0.000000,1.000000
4.248663,-4.943100,-38.238524,0.634393,-0.773010,0.000000
2.574906,-7.105684,8.319302,-0.000000,0.000000,1.000000
-1.683151,0.733364,-26.333092,0.000000,0.000000,1.000000
4.840498,-4.373684,-68.472538,0.773010,-0.634393,0.000000
-4.031218,-2.327074,-70.679970,0.000000,-0.000000,-1.000000
3.523393,10.009367,7.847313,-0.000000,1.000000,0.000000
-2.123487,-6.165458,-29.456993,-0.290285,-0.956940,0.000000
-1.666680,-6.596057,0.000000,0.000000,0.000000,-1.000000
5.671815,0.246402,-26.333092,0.000000,0.000000,1.000000
-2.015189,1.294911,8.319302,0.000000,0.000000,1.000000
-2.609870,-5.993854,-41.475521,-0.471397,-0.881921,0.000000
-5.460026,3.608590,-29.570900,-0.881921,0.471397,0.000000
2.599758,5.999259,-63.636576,0.471397,0.881921,-0.000000
-6.426939,1.228353,-38.131425,-0.995185,0.098017,0.000000
6.516796,0.316017,-28.059293,0.995185,0.098017,-0.000000
5.443818,-5.687532,0.000000,0.000000,0.000000,-1.000000
8.307010,5.630571,7.030148,0.866025,0.500000,0.000000
2.635927,5.979926,-59.602400,0.471397,0.881921,-0.000000
-1.363514,-6.395993,-30.861390,-0.290285,-0.956940,0.000000
3.874791,5.249929,-57.063992,0.634393,0.773010,-0.000000
-8.082345,3.656137,8.319302,0.000000,0.000000,1.000000
-3.251026,10.009367,6.244981,-0.000000,1.000000,0.000000
-2.058257,-0.584687,8.319302,0.000000,0.000000,1.000000
-8.536628,3.877795,0.000000,0.000000,0.000000,-1.000000
6.436842,1.127806,-54.124770,0.995185,0.098017,-0.000000
-5.322443,3.786432,-59.910346,-0.773010,0.634393,0.000000
5.920032,-2.747981,-32.517646,0.881921,-0.471397,0.000000
3.820017,-5.294880,-47.569606,0.634393,-0.773010,0.000000
-1.504206,-6.353315,-42.112809,-0.290285,-0.956940,0.000000
4.069256,1.030755,0.000000,0.000000,0.000000,-1.000000
4.209269,4.813720,0.000000,0.000000,0.000000,-1.000000
9.537046,3.500086,4.938302,0.866025,0.500000,0.000000
5.598054,3.350360,-31.679376,0.881921,0.471397,-0.000000
-7.854344,6.414611,7.856912,-0.866025,0.500000,0.000000
-6.192064,-2.035777,-47.544616,-0.956940,-0.290285,0.000000
2.459049,9.686785,0.000000,0.000000,0.000000,-1.000000
4.777866,4.450000,-45.943930,0.773010,0.634393,-0.000000
-6.063608,2.459242,-26.653260,-0.956940,0.290285,0.000000
2.085647,-6.176937,-63.552499,0.290285,-0.956940,0.000000
6.363230,-1.471521,-31.958378,0.956940,-0.290285,0.000000
-6.153714,2.181625,0.000000,0.000000,0.000000,-1.000000
11.491408,0.115031,4.310917,0.866025,0.500000,0.000000
0.788010,10.009367,3.440042,-0.000000,1.000000,0.000000
-5.024599,-5.476412,8.319302,0.000000,0.000000,1.000000
-6.004115,-2.590672,-36.766911,-0.881921,-0.471397,0.000000
2.733155,5.927956,-59.135783,0.471397,0.881921,-0.000000
0.554452,-6.493312,-48.257997,0.098017,-0.995185,0.000000
10.502013,-1.828713,5.390028,0.866025,-0.500000,0.000000
1.651011,-6.308782,-43.189051,0.290285,-0.956940,0.000000
-6.173286,0.021687,8.319302,0.000000,0.000000,1.000000
-2.191186,3.022797,0.000000,0.000000,0.000000,-1.000000
0.728280,-2.917663,-26.333092,0.000000,-0.000000,1.000000
1.849984,-6.248424,-43.769383,0.290285,-0.956940,0.000000
-5.264709,10.009367,5.927092,-0.000000,1.000000,0.000000
5.392545,3.701012,-37.950577,0.773010,0.634393,0.000000
2.740857,5.923840,-69.006310,0.471397,0.881921,0.000000
6.042210,2.519402,-31.946275,0.881921,0.471397,0.000000
11.417026,-0.243864,2.527820,0.866025,-0.500000,0.000000
-5.702753,-3.154481,-43.112367,-0.881921,-0.471397,0.000000
9.506056,3.553762,2.761877,0.866025,0.500000,0.000000
3.130334,5.715660,-45.033814,0.471397,0.881921,-0.000000
-1.670934,4.258525,-70.679970,-0.000000,-0.000000,-1.000000
-1.965649,4.981730,8.319302,0.000000,0.000000,1.000000
-1.617081,-6.319075,-49.981293,-0.290285,-0.956940,0.000000
5.867618,-2.846041,-32.346748,0.881921,-0.471397,0.000000
-0.896354,6.459638,-35.453496,-0.098017,0.995185,0.000000
-5.222570,-3.908127,-46.584161,-0.773010,-0.634393,0.000000
3.347976,5.599328,-67.611288,0.471397,0.881921,0.000000
10.773476,-1.358526,4.181461,0.866025,-0.500000,0.000000
-0.026476,-6.545314,-64.750337,-0.098017,-0.995185,0.000000
-0.109992,6.537088,-38.860189,-0.098017,0.995185,0.000000
-6.293273,-8.769229,0.000000,0.000000,0.000000,-1.000000
1.822004,-2.805814,8.319302,-0.000000,0.000000,1.000000
4.895188,-4.307044,-40.398903,0.773010,-0.634393,0.000000
1.008231,4.709748,0.000000,0.000000,0.000000,-1.000000
-2.558959,-6.021066,-27.119376,-0.471397,-0.881921,0.000000
1.410843,-6.381636,-46.454842,0.290285,-0.956940,0.000000
-3.602500,-6.914597,0.000000,0.000000,0.000000,-1.000000
-6.157479,-2.149789,-28.887855,-0.956940,-0.290285,0.000000
0.141697,6.533965,-66.611022,0.098017,0.995185,0.000000
6.667736,-8.469877,7.820462,0.866025,-0.500000,0.000000
-7.292275,-7.388143,3.668217,-0.866025,-0.500000,0.000000
-6.078933,-2.408722,-28.726327,-0.956940,-0.290285,0.000000
-3.204313,5.676117,-57.928108,-0.471397,0.881921,0.000000
-3.083016,5.740952,-48.964394,-0.471397,0.881921,0.000000
-6.480900,8.793485,4.731710,-0.866025,0.500000,0.000000
-1.031612,-6.446316,-57.697789,-0.098017,-0.995185,0.000000
-1.418332,6.379364,-56.878024,-0.290285,0.956940,0.000000
-4.552622,4.693647,-34.276472,-0.634393,0.773010,0.000000
-6.419205,1.286995,-29.029952,-0.956940,0.290285,0.000000
10.903328,0.412074,0.000000,0.000000,0.000000,-1.000000
1.390947,1.541660,-26.333092,0.000000,0.000000,1.000000
0.137120,-9.903411,0.000000,0.000000,0.000000,-1.000000
-4.643894,-4.613246,-54.185534,-0.773010,-0.634393,0.000000
-8.493066,2.523301,8.319302,0.000000,0.000000,1.000000
-3.976370,5.166565,-65.365744,-0.634393,0.773010,0.000000
1.839021,-6.251750,-67.591636,0.290285,-0.956940,0.000000
2.280155,6.117933,-43.877072,0.290285,0.956940,0.000000
4.681592,-1.986037,-70.679970,0.000000,0.000000,-1.000000
-6.529381,0.188244,-55.648310,-0.995185,0.098017,0.000000
8.447166,5.241346,8.319302,0.000000,0.000000,1.000000
-4.801234,-10.009367,3.717423,-0.000000,-1.000000,-0.000000
1.722192,6.287190,-58.721600,0.290285,0.956940,0.000000
-2.411513,-6.078086,-27.749284,-0.290285,-0.956940,0.000000
1.305843,-8.944347,8.319302,-0.000000,0.000000,1.000000
-1.737587,-6.282520,-44.904451,-0.290285,-0.956940,0.000000
1.073156,6.442225,-44.779876,0.098017,0.995185,0.000000
0.238665,-6.524415,-49.701188,0.098017,-0.995185,0.000000
-10.314134,2.154130,0.495784,-0.866025,0.500000,0.000000
-2.775481,5.905333,-35.899538,-0.471397,0.881921,0.000000
-1.333799,6.405007,-42.418777,-0.290285,0.956940,0.000000
-7.421566,-7.164205,7.120535,-0.866025,-0.500000,0.000000
1.252284,-6.424582,-31.708447,0.098017,-0.995185,0.000000
-1.812207,4.052543,-70.679970,-0.000000,-0.000000,-1.000000
5.495695,-3.541860,-39.504499,0.881921,-0.471397,0.000000
4.275540,-4.921042,-42.192925,0.634393,-0.773010,0.000000
5.391677,3.702071,-42.933933,0.773010,0.634393,0.000000
-10.359754,0.958998,0.000000,0.000000,0.000000,-1.000000
4.907065,3.344848,0.000000,0.000000,0.000000,-1.000000
0.200607,10.009367,7.531169,-0.000000,1.000000,0.000000
-5.537102,3.261886,-70.679970,-0.000000,-0.000000,-1.000000
0.800839,0.566409,0.000000,0.000000,0.000000,-1.000000
8.753559,-4.857126,2.978016,0.866025,-0.500000,0.000000
-8.325353,5.598799,4.513232,-0.866025,0.500000,0.000000
0.845710,-6.464626,-26.737857,0.098017,-0.995185,0.000000
-0.164391,-3.422150,8.319302,-0.000000,0.000000,1.000000
-1.862265,-6.244699,-61.583319,-0.290285,-0.956940,0.000000
2.699006,-9.983030,0.000000,0.000000,0.000000,-1.000000
-7.247643,-4.720579,0.000000,0.000000,0.000000,-1.000000
8.932958,4.546396,2.155063,0.866025,0.500000,0.000000
4.621221,4.637349,-43.529283,0.634393,0.773010,0.000000
-4.215246,4.970524,-43.498346,-0.634393,0.773010,0.000000
5.671139,-3.213626,-39.920088,0.881921,-0.471397,0.000000
-5.565797,3.410707,-42.803223,-0.881921,0.471397,0.000000
-6.385156,-1.399239,-61.082846,-0.956940,-0.290285,0.000000
4.314464,3.228041,-70.679970,-0.000000,0.000000,-1.000000
2.181458,6.147873,-50.966996,0.290285,0.956940,0.000000
-5.309206,3.802561,-48.955840,-0.773010,0.634393,0.000000
-8.796489,1.292621,8.319302,0.000000,0.000000,1.000000
-6.327864,1.588108,-46.426285,-0.956940,0.290285,0.000000
-1.428284,-6.376345,-45.020599,-0.290285,-0.956940,0.000000
-1.916255,1.758124,-26.333092,0.000000,0.000000,1.000000
4.116808,-5.051311,-37.671278,0.634393,-0.773010,0.000000
2.759216,-5.866221,0.000000,0.000000,0.000000,-1.000000
5.101594,-4.537470,0.000000,0.000000,0.000000,-1.000000
4.685817,4.562163,-50.764563,0.773010,0.634393,-0.000000
6.498550,-0.501278,-51.659652,0.995185,-0.098017,0.000000
-1.452079,9.131578,8.319302,0.000000,0.000000,1.000000
6.606687,2.630490,0.000000,0.000000,0.000000,-1.000000
-8.526150,-5.251009,3.146118,-0.866025,-0.500000,-0.000000
1.917067,-10.009367,3.979912,-0.000000,-1.000000,-0.000000
-8.352188,3.806309,0.000000,0.000000,0.000000,-1.000000
6.191770,-2.036748,-54.078689,0.956940,-0.290285,0.000000
1.177076,-6.431989,-70.564409,0.098017,-0.995185,0.000000
-6.424955,-1.248501,-38.928094,-0.995185,-0.098017,0.000000
3.268042,4.203459,-70.679970,-0.000000,0.000000,-1.000000
-5.329208,1.424623,8.319302,0.000000,0.000000,1.000000
-5.942164,2.706575,-52.632427,-0.881921,0.471397,0.000000
-6.545353,0.026077,-34.116088,-0.995185,0.098017,0.000000
-9.441938,-3.664817,7.093570,-0.866025,-0.500000,0.000000
4.643431,-4.613810,-66.667054,0.773010,-0.634393,0.000000
6.422407,1.274369,-52.292962,0.995185,0.098017,-0.000000
5.582258,-9.498363,8.319302,-0.000000,0.000000,1.000000
-11.046817,-0.885085,1.325066,-0.866025,-0.500000,-0.000000
-1.444432,-10.009367,5.375579,-0.000000,-1.000000,-0.000000
3.394754,5.574324,-52.496942,0.471397,0.881921,0.000000
7.243334,6.581453,0.000000,0.000000,0.000000,-1.000000
9.453051,3.645570,3.825795,0.866025,0.500000,0.000000
5.750330,-9.573905,0.000000,0.000000,0.000000,-1.000000
4.140698,-5.031705,-64.968275,0.634393,-0.773010,0.000000
7.598865,5.017544,8.319302,0.000000,0.000000,1.000000
7.472049,-7.076765,3.263866,0.866025,-0.500000,0.000000
-8.097321,-0.713421,0.000000,0.000000,0.000000,-1.000000
1.154294,-6.434233,-60.866870,0.098017,-0.995185,0.000000
-1.117620,6.437845,-43.667298,-0.098017,0.995185,0.000000
3.144451,2.051238,0.000000,0.000000,0.000000,-1.000000
-5.782087,-3.006058,-59.058678,-0.881921,-0.471397,0.000000
-0.971971,10.009367,5.500868,-0.000000,1.000000,0.000000
-6.485165,-0.637179,-63.853406,-0.995185,-0.098017,0.000000
-6.347927,-1.521968,-55.314164,-0.956940,-0.290285,0.000000
-3.845689,-9.744250,0.000000,0.000000,0.000000,-1.000000
3.630165,-3.347270,-70.679970,0.000000,0.000000,-1.000000
-0.248394,-6.523457,-51.554841,-0.098017,-0.995185,0.000000
-5.761432,6.322984,0.000000,0.000000,0.000000,-1.000000
-2.473963,-10.009367,5.086418,-0.000000,-1.000000,-0.000000
-2.739256,5.924696,-30.246883,-0.471397,0.881921,0.000000
5.390179,-2.332024,0.000000,0.000000,0.000000,-1.000000
3.249242,10.009367,5.474999,-0.000000,1.000000,0.000000
-5.039189,4.131578,-65.885348,-0.773010,0.634393,0.000000
-6.298259,-1.685702,-70.205078,-0.956940,-0.290285,0.000000
-1.384833,-6.389526,-42.594767,-0.290285,-0.956940,0.000000
-6.292819,1.703636,-56.070315,-0.956940,0.290285,0.000000
1.120474,5.455301,-70.679970,-0.000000,0.000000,-1.000000
-6.528492,0.197267,-49.560792,-0.995185,0.098017,0.000000
3.697070,-5.395781,-33.272493,0.634393,-0.773010,0.000000
1.365792,6.395302,-55.409650,0.290285,0.956940,-0.000000
-3.793641,5.316527,-55.709007,-0.634393,0.773010,0.000000
8.880236,-4.637713,5.080718,0.866025,-0.500000,0.000000
-2.949933,-5.812086,-45.555364,-0.471397,-0.881921,0.000000
5.817617,-2.939586,-50.706079,0.881921,-0.471397,0.000000
2.800257,-10.009367,1.987936,-0.000000,-1.000000,-0.000000
11.095234,0.153130,8.319302,0.000000,0.000000,1.000000
-4.865879,0.709440,-70.679970,-0.000000,-0.000000,-1.000000
-6.109196,-2.308959,-47.743129,-0.956940,-0.290285,0.000000
-5.927839,-9.751415,4.880390,-0.866025,-0.500000,0.000000
7.162707,-7.612561,7.519767,0.866025,-0.500000,0.000000
-7.414388,-7.176637,4.761851,-0.866025,-0.500000,0.000000
1.356917,-6.397994,-27.925944,0.290285,-0.956940,0.000000
5.374148,-0.515101,8.319302,-0.000000,0.000000,1.000000
0.610786,-1.019178,-70.679970,0.000000,0.000000,-1.000000
5.899973,2.785508,-58.833669,0.881921,0.471397,0.000000
-2.685358,5.953504,-28.510697,-0.471397,0.881921,0.000000
4.295828,4.904392,-69.720263,0.634393,0.773010,0.000000
-3.460846,10.009367,1.963519,-0.000000,1.000000,0.000000
1.775371,-10.009367,3.032085,-0.000000,-1.000000,-0.000000
6.073464,-2.426752,-50.794283,0.956940,-0.290285,0.000000
6.454913,0.944332,-58.978574,0.995185,0.098017,-0.000000
11.311048,-0.427424,1.167409,0.866025,-0.500000,0.000000
-2.964021,7.923395,8.319302,0.000000,0.000000,1.000000
8.637231,5.058611,2.117574,0.866025,0.500000,0.000000
-0.003377,-6.547589,-49.096278,-0.098017,-0.995185,0.000000
4.528131,-4.713746,-29.395977,0.634393,-0.773010,0.000000
-6.748784,-8.329497,8.031301,-0.866025,-0.500000,0.000000
3.874513,-5.250156,-67.750857,0.634393,-0.773010,0.000000
6.188256,2.048333,-35.186653,0.956940,0.290285,-0.000000
-1.021927,6.447270,-36.387230,-0.098017,0.995185,0.000000
-6.001089,9.624543,4.285915,-0.866025,0.500000,0.000000
-5.943177,9.724850,8.039400,-0.866025,0.500000,0.000000
1.484328,2.313467,-70.679970,-0.000000,0.000000,-1.000000
8.936942,-4.539497,7.964580,0.866025,-0.500000,0.000000
0.681044,6.480844,-51.487147,0.098017,0.995185,0.000000
1.361859,6.396495,-67.282592,0.290285,0.956940,-0.000000
-7.463810,-7.091035,7.262284,-0.866025,-0.500000,0.000000
6.545212,0.027505,-69.074462,0.995185,0.098017,0.000000
-6.328987,1.584404,-65.964400,-0.956940,0.290285,0.000000
2.938373,5.818265,-43.727022,0.471397,0.881921,-0.000000
-4.197408,4.985163,-51.635261,-0.634393,0.773010,0.000000
-3.223129,-3.629426,0.000000,0.000000,0.000000,-1.000000
-0.011889,2.784144,8.319302,0.000000,0.000000,1.000000
-4.858464,-10.009367,7.002588,-0.000000,-1.000000,-0.000000
5.203404,-2.139842,-26.333092,0.000000,-0.000000,1.000000
10.398640,-2.007760,5.335844,0.866025,-0.500000,0.000000
2.821451,2.787154,8.319302,-0.000000,0.000000,1.000000
-2.303172,4.735251,8.319302,0.000000,0.000000,1.000000
1.047432,6.444758,-45.426622,0.098017,0.995185,0.000000
5.852060,2.252471,-70.679970,-0.000000,0.000000,-1.000000
-6.014508,-2.571229,-38.387637,-0.881921,-0.471397,0.000000
6.265753,1.792860,-57.920811,0.956940,0.290285,0.000000
0.380091,6.510486,-44.629791,0.098017,0.995185,-0.000000
-1.733287,-6.283824,-70.306333,-0.290285,-0.956940,0.000000
-1.950663,-1.743811,-26.333092,-0.000000,0.000000,1.000000
5.167983,3.974641,-46.909756,0.773010,0.634393,0.000000
0.516826,0.050330,-70.679970,0.000000,0.000000,-1.000000
4.747422,4.487097,-40.513259,0.773010,0.634393,-0.000000
-3.371308,-7.945730,8.319302,-0.000000,0.000000,1.000000
5.716894,-3.128025,-40.830500,0.881921,-0.471397,0.000000
2.514693,6.044727,-35.515927,0.471397,0.881921,-0.000000
-4.830335,4.386067,-61.951057,-0.773010,0.634393,0.000000
-1.872504,-4.368928,0.000000,0.000000,0.000000,-1.000000
-6.926549,0.022159,0.000000,0.000000,0.000000,-1.000000
5.061082,2.453223,-70.679970,-0.000000,0.000000,-1.000000
0.871915,4.022091,-26.333092,0.000000,0.000000,1.000000
10.370249,-2.056935,6.619221,0.866025,-0.500000,0.000000
-4.529755,4.712413,-53.828909,-0.634393,0.773010,0.000000
3.749409,4.763115,-26.333092,0.000000,0.000000,1.000000
5.306685,3.805633,-43.618988,0.773010,0.634393,0.000000
5.066633,4.098138,-67.861054,0.773010,0.634393,0.000000
-4.035983,-5.117641,-28.004696,-0.634393,-0.773010,0.000000
4.980148,-4.203519,-39.174760,0.773010,-0.634393,0.000000
6.264971,-1.795437,-57.851452,0.956940,-0.290285,0.000000
3.200290,5.678267,-36.475668,0.471397,0.881921,-0.000000
-6.607249,-7.537472,8.319302,0.000000,0.000000,1.000000
-5.763272,3.041259,-48.731602,-0.881921,0.471397,0.000000
-6.376949,1.426296,-48.560011,-0.956940,0.290285,0.000000
5.808518,9.958086,6.392474,0.866025,0.500000,0.000000
-3.213510,-5.671201,-44.250050,-0.471397,-0.881921,0.000000
3.313071,5.617985,-50.016403,0.471397,0.881921,0.000000
-6.703431,-7.236745,8.319302,0.000000,0.000000,1.000000
-5.884729,-9.826085,4.284189,-0.866025,-0.500000,0.000000
1.734564,6.283437,-49.834252,0.290285,0.956940,-0.000000
6.430111,1.196144,-68.370235,0.995185,0.098017,0.000000
-1.919293,-10.009367,6.624091,-0.000000,-1.000000,-0.000000
-2.951861,-5.811056,-48.524631,-0.471397,-0.881921,0.000000
-0.150482,3.066919,8.319302,0.000000,0.000000,1.000000
4.364509,7.407494,8.319302,-0.000000,0.000000,1.000000
1.170463,-2.377766,8.319302,-0.000000,0.000000,1.000000
6.190946,2.039466,-41.260139,0.956940,0.290285,-0.000000
-5.103098,-10.009367,7.539411,-0.000000,-1.000000,-0.000000
-1.139812,1.720791,0.000000,0.000000,0.000000,-1.000000
5.802047,-2.968714,-37.964414,0.881921,-0.471397,0.000000
-0.532748,6.495450,-32.592963,-0.098017,0.995185,0.000000
-2.863139,-10.009367,1.451890,-0.000000,-1.000000,-0.000000
-3.997426,5.149285,-49.791914,-0.634393,0.773010,0.000000
6.081832,2.399164,-45.144761,0.956940,0.290285,-0.000000
0.230359,-8.307509,8.319302,-0.000000,0.000000,1.000000
4.587694,2.782155,8.319302,-0.000000,0.000000,1.000000
-0.084684,6.539581,-65.498999,-0.098017,0.995185,0.000000
-2.532732,-6.035085,-39.820071,-0.471397,-0.881921,0.000000
2.112488,-2.356174,8.319302,-0.000000,0.000000,1.000000
3.346314,7.841485,0.000000,0.000000,0.000000,-1.000000
2.327919,-6.103444,-44.921488,0.290285,-0.956940,0.000000
2.850774,3.440250,-70.679970,-0.000000,0.000000,-1.000000
0.905459,-8.211385,0.000000,0.000000,0.000000,-1.000000
2.876408,-5.851386,-42.780485,0.471397,-0.881921,0.000000
0.155962,-6.532560,-67.968793,0.098017,-0.995185,0.000000
-2.993477,-9.535198,0.000000,0.000000,0.000000,-1.000000
3.683373,8.570114,0.000000,0.000000,0.000000,-1.000000
-5.969251,2.655899,-46.558905,-0.881921,0.471397,0.000000
-5.064158,-1.389423,-26.333092,-0.000000,0.000000,1.000000
6.145815,2.188242,-70.114316,0.956940,0.290285,0.000000
-4.978606,4.205398,-69.440822,-0.773010,0.634393,0.000000
-8.427850,5.421269,0.005042,-0.866025,0.500000,0.000000
3.542369,10.009367,7.955740,-0.000000,1.000000,0.000000
2.926205,-5.824769,-50.285621,0.471397,-0.881921,0.000000
-4.446214,-2.418963,-70.679970,0.000000,-0.000000,-1.000000
6.380197,-1.415586,-62.097123,0.956940,-0.290285,0.000000
4.273740,4.922520,-26.574071,0.634393,0.773010,-0.000000
0.220510,3.593850,-70.679970,-0.000000,0.000000,-1.000000
-2.827525,5.877515,-27.377497,-0.471397,0.881921,0.000000
-2.342688,10.009367,3.883555,-0.000000,1.000000,0.000000
4.942264,-4.249681,-66.588682,0.773010,-0.634393,0.000000
0.556850,-3.444656,8.319302,-0.000000,0.000000,1.000000
2.678662,5.957084,-52.026007,0.471397,0.881921,-0.000000
-9.105589,4.247392,1.053042,-0.866025,0.500000,0.000000
-8.356797,-5.544337,4.084950,-0.866025,-0.500000,0.000000
6.001204,-2.596118,-48.838672,0.881921,-0.471397,0.000000
9.538919,-3.496841,6.541109,0.866025,-0.500000,0.000000
-5.223772,3.237007,0.000000,0.000000,0.000000,-1.000000
-1.343471,6.402073,-64.257522,-0.290285,0.956940,0.000000
2.667461,5.963071,-34.130250,0.471397,0.881921,-0.000000
6.522495,-0.258153,-55.960858,0.995185,-0.098017,0.000000
4.855826,4.355006,-70.489885,0.773010,0.634393,0.000000
-5.501420,-3.531148,-69.941340,-0.881921,-0.471397,0.000000
-1.527357,-1.008462,8.319302,0.000000,0.000000,1.000000
-6.069901,1.624144,8.319302,0.000000,0.000000,1.000000
9.177015,2.040497,8.319302,0.000000,0.000000,1.000000
-1.566982,6.334272,-60.478402,-0.290285,0.956940,0.000000
-0.924928,-7.436860,0.000000,0.000000,0.000000,-1.000000
-5.443972,-9.854821,0.000000,0.000000,0.000000,-1.000000
-0.905897,7.995086,8.319302,0.000000,0.000000,1.000000
1.057295,-6.443787,-43.246177,0.098017,-0.995185,0.000000
2.484208,0.950790,-26.333092,0.000000,0.000000,1.000000
-6.480584,0.683681,-68.788080,-0.995185,0.098017,0.000000
3.103539,1.643677,8.319302,-0.000000,0.000000,1.000000
-1.599116,-2.415274,8.319302,0.000000,0.000000,1.000000
3.908556,-10.009367,3.078417,-0.000000,-1.000000,-0.000000
-6.415019,-1.300794,-32.855456,-0.956940,-0.290285,0.000000
-6.542003,0.060092,-37.983311,-0.995185,0.098017,0.000000
-3.836149,5.281641,-34.880359,-0.634393,0.773010,0.000000
3.762463,5.018288,-70.679970,-0.000000,0.000000,-1.000000
1.316307,6.410313,-33.247727,0.290285,0.956940,-0.000000
-3.071156,-7.709420,0.000000,0.000000,0.000000,-1.000000
0.606389,-10.009367,0.403210,-0.000000,-1.000000,-0.000000
5.714285,-3.132907,-27.308454,0.881921,-0.471397,0.000000
4.006236,-5.142054,-63.644796,0.634393,-0.773010,0.000000
4.893692,-3.102328,8.319302,-0.000000,0.000000,1.000000
-1.727947,6.285444,-59.879403,-0.290285,0.956940,0.000000
1.013719,-6.448079,-44.098894,0.098017,-0.995185,0.000000
1.198902,-6.429840,-67.688954,0.098017,-0.995185,0.000000
3.162032,7.594849,8.319302,0.000000,0.000000,1.000000
-4.601209,-4.653772,-42.137697,-0.634393,-0.773010,0.000000
4.654835,4.599914,-40.593820,0.773010,0.634393,-0.000000
-6.532947,-0.152034,-63.013079,-0.995185,-0.098017,0.000000
-1.951423,-4.038557,-26.333092,-0.000000,0.000000,1.000000
-4.100408,5.064769,-41.507826,-0.634393,0.773010,0.000000
3.545429,5.493787,-61.152555,0.471397,0.881921,0.000000
11.181356,-0.652057,6.329746,0.866025,-0.500000,0.000000
3.918584,0.216918,8.319302,-0.000000,0.000000,1.000000
-5.905147,2.351372,-70.679970,-0.000000,-0.000000,-1.000000
5.323693,3.784909,-29.971775,0.773010,0.634393,-0.000000
1.693112,7.310717,0.000000,0.000000,0.000000,-1.000000
1.451006,-6.369453,-45.789298,0.290285,-0.956940,0.000000
6.547276,0.006552,-57.700449,0.995185,0.098017,0.000000
-7.055822,-0.427138,0.000000,0.000000,0.000000,-1.000000
0.150176,-6.533130,-63.172665,0.098017,-0.995185,0.000000
6.130447,2.238903,-50.759920,0.956940,0.290285,-0.000000
-0.594548,-6.489363,-43.673608,-0.098017,-0.995185,0.000000
2.523544,-6.039996,-43.184669,0.471397,-0.881921,0.000000
-1.846784,-5.567704,-26.333092,-0.000000,0.000000,1.000000
2.297170,6.112772,-59.470437,0.290285,0.956940,0.000000
-6.053825,-2.491493,-39.096632,-0.956940,-0.290285,0.000000
0.150072,8.393561,0.000000,0.000000,0.000000,-1.000000
2.565744,-10.009367,1.361416,-0.000000,-1.000000,-0.000000
4.452561,-4.775765,-40.547747,0.634393,-0.773010,0.000000
0.279409,6.520402,-54.663386,0.098017,0.995185,-0.000000
-5.290189,-3.825734,-29.138907,-0.773010,-0.634393,0.000000
-6.162779,-2.132320,-49.874585,-0.956940,-0.290285,0.000000
-6.463032,0.861899,-64.877055,-0.995185,0.098017,0.000000
-6.463442,0.857729,-39.474651,-0.995185,0.098017,0.000000
-4.630369,4.629727,-48.012860,-0.773010,0.634393,0.000000
3.938920,0.414443,-70.679970,0.000000,0.000000,-1.000000
-9.195132,4.092298,7.217004,-0.866025,0.500000,0.000000
2.762753,5.912136,-54.060564,0.471397,0.881921,-0.000000
-6.020172,9.591489,1.726211,-0.866025,0.500000,0.000000
-6.067800,2.445423,-26.457646,-0.956940,0.290285,0.000000
2.146306,-6.158536,-42.599371,0.290285,-0.956940,0.000000
-11.305853,0.436421,2.275335,-0.866025,0.500000,0.000000
-1.033938,-6.446087,-57.316663,-0.098017,-0.995185,0.000000
-6.461317,0.879304,-46.028850,-0.995185,0.098017,0.000000
1.905696,5.488154,-70.679970,-0.000000,0.000000,-1.000000
-6.476125,-0.728958,-32.192804,-0.995185,-0.098017,0.000000
-10.563241,1.559556,8.319302,0.000000,0.000000,1.000000
0.823061,3.551564,-26.333092,0.000000,0.000000,1.000000
-0.144707,-6.533669,-57.063694,-0.098017,-0.995185,0.000000
-6.347178,-1.524436,-34.618176,-0.956940,-0.290285,0.000000
-6.140995,-2.204131,-36.597925,-0.956940,-0.290285,0.000000
-1.490122,-6.357587,-33.783478,-0.290285,-0.956940,0.000000
-2.318086,10.009367,2.317125,-0.000000,1.000000,0.000000
5.184078,-10.009367,1.193069,-0.000000,-1.000000,-0.000000
2.589886,6.004535,-26.891762,0.471397,0.881921,-0.000000
3.716258,-5.380033,-30.105229,0.634393,-0.773010,0.000000
1.533709,-3.301326,8.319302,-0.000000,0.000000,1.000000
1.028705,-4.293609,8.319302,-0.000000,0.000000,1.000000
3.322891,-5.612736,-33.193509,0.471397,-0.881921,0.000000
-4.487054,1.796888,-70.679970,-0.000000,-0.000000,-1.000000
4.476260,0.982675,-26.333092,0.000000,0.000000,1.000000
0.269470,6.521381,-39.308181,0.098017,0.995185,-0.000000
-6.475694,0.733338,-67.226822,-0.995185,0.098017,0.000000
-6.059692,-2.472150,-52.054459,-0.956940,-0.290285,0.000000
-1.909540,-6.230358,-67.734190,-0.290285,-0.956940,0.000000
-3.330547,-5.608644,-61.810044,-0.471397,-0.881921,0.000000
-5.547320,3.445275,-36.929352,-0.881921,0.471397,0.000000
4.744739,4.490366,-28.882211,0.773010,0.634393,-0.000000
7.830318,-5.892653,0.000000,0.000000,0.000000,-1.000000
7.845923,6.429197,2.737856,0.866025,0.500000,0.000000
0.434576,-6.505119,-45.311294,0.098017,-0.995185,0.000000
5.133464,5.537155,8.319302,-0.000000,0.000000,1.000000
5.217928,-3.913783,-54.836505,0.773010,-0.634393,0.000000
0.176355,-6.530552,-41.035408,0.098017,-0.995185,0.000000
6.528440,0.197792,-67.938825,0.995185,0.098017,0.000000
-7.942658,5.387923,8.319302,0.000000,0.000000,1.000000
1.555530,-6.337746,-30.328360,0.290285,-0.956940,0.000000
-1.185843,-7.169716,0.000000,0.000000,0.000000,-1.000000
5.787744,2.995474,-51.686858,0.881921,0.471397,0.000000
-7.150770,-6.147699,8.319302,0.000000,0.000000,1.000000
-9.425069,3.694035,8.179851,-0.866025,0.500000,0.000000
-7.947713,-5.112086,8.319302,0.000000,0.000000,1.000000
-6.483589,0.653171,-67.536827,-0.995185,0.098017,0.000000
7.060812,6.369429,0.000000,0.000000,0.000000,-1.000000
5.042028,-4.128119,-69.114998,0.773010,-0.634393,0.000000
4.131329,-5.039393,-31.566467,0.634393,-0.773010,0.000000
-3.473203,5.532392,-63.233548,-0.471397,0.881921,0.000000
5.638471,-2.809278,-70.679970,0.000000,0.000000,-1.000000
8.499574,5.297039,1.616377,0.866025,0.500000,0.000000
8.248274,-5.732304,0.406025,0.866025,-0.500000,0.000000
6.893102,8.079531,2.059546,0.866025,0.500000,0.000000
-11.349409,0.360981,2.638678,-0.866025,0.500000,0.000000
6.309010,-1.650261,-65.032003,0.956940,-0.290285,0.000000
4.685346,-4.562737,-69.571815,0.773010,-0.634393,0.000000
6.036830,2.529466,-52.335380,0.881921,0.471397,0.000000
-10.256341,2.086160,0.000000,0.000000,0.000000,-1.000000
4.482143,-0.162734,-70.679970,0.000000,0.000000,-1.000000
-3.574705,-10.009367,0.615033,-0.000000,-1.000000,-0.000000
-5.498038,3.537475,-41.172066,-0.881921,0.471397,0.000000
-0.286889,6.519665,-29.132723,-0.098017,0.995185,0.000000
-3.717912,-0.719997,-26.333092,-0.000000,0.000000,1.000000
0.104456,-6.537633,-67.917196,0.098017,-0.995185,0.000000
11.360795,0.341260,0.220984,0.866025,0.500000,0.000000
-4.233048,-4.955914,-38.093241,-0.634393,-0.773010,0.000000
11.364541,-0.334771,6.155964,0.866025,-0.500000,0.000000
-6.088985,2.375585,-68.183124,-0.956940,0.290285,0.000000
-5.704706,-3.150827,-48.317128,-0.881921,-0.471397,0.000000
-2.380174,6.087593,-58.347772,-0.290285,0.956940,0.000000
-0.753190,-10.009367,6.495115,-0.000000,-1.000000,-0.000000
4.665698,-4.586678,-44.295023,0.773010,-0.634393,0.000000
