x,y,z,nx,ny,nz
-30.142826,19.219342,-2.885771,0.000000,0.000000,-1.000000
2.925641,19.498968,-2.885771,0.000000,-0.000000,-1.000000
39.449046,7.174793,-2.885771,0.000000,0.000000,-1.000000
-58.750778,12.346556,2.885771,-0.000000,-0.000000,1.000000
43.689925,-2.882110,2.885771,0.000000,0.000000,1.000000
-16.972556,-24.946367,2.885771,0.000000,0.000000,1.000000
-45.748411,-28.226112,2.885771,0.000000,-0.000000,1.000000
32.077420,-12.857619,-2.885771,0.000000,-0.000000,-1.000000
54.345448,8.721827,-2.885771,0.000000,0.000000,-1.000000
-32.352985,-37.253748,2.885771,0.000000,-0.000000,1.000000
-12.888112,-48.848534,-2.885771,0.000000,-0.000000,-1.000000
57.260228,-25.156795,-2.885771,0.000000,-0.000000,-1.000000
29.802031,-39.301071,-2.885771,0.000000,-0.000000,-1.000000
-51.927868,1.388892,-2.885771,-0.000000,-0.000000,-1.000000
-46.913166,12.263526,2.885771,-0.000000,0.000000,1.000000
50.783568,-14.660751,2.885771,-0.000000,0.000000,1.000000
57.269942,22.080058,2.885771,0.000000,-0.000000,1.000000
-54.587586,30.181371,-2.885771,0.000000,0.000000,-1.000000
-41.377709,2.424245,2.885771,0.000000,0.000000,1.000000
31.519293,-34.491656,-2.885771,0.000000,-0.000000,-1.000000
-16.527223,52.235377,-2.885771,0.000000,0.000000,-1.000000
-32.917219,27.064424,2.885771,-0.000000,-0.000000,1.000000
-59.329622,-25.672895,-2.308729,-0.923879,-0.382684,-0.000000
-30.817228,-18.921426,2.885771,0.000000,-0.000000,1.000000
-64.174317,1.776062,2.885771,0.000000,-0.000000,1.000000
32.181392,-31.259363,2.885771,-0.000000,0.000000,1.000000
-18.981270,-53.492530,2.885771,-0.000000,0.000000,1.000000
-13.395632,28.635057,-2.885771,0.000000,0.000000,-1.000000
-39.155616,-7.802335,2.885771,0.000000,-0.000000,1.000000
30.913321,-38.833996,2.885771,-0.000000,0.000000,1.000000
-33.172548,6.824301,2.885771,-0.000000,-0.000000,1.000000
36.062595,14.870903,-2.885771,0.000000,0.000000,-1.000000
-29.914518,-0.728190,2.885771,0.000000,-0.000000,1.000000
-13.018003,32.237562,-2.885771,0.000000,0.000000,-1.000000
-30.721405,-43.773299,2.885771,0.000000,-0.000000,1.000000
-4.072812,-34.194549,2.885771,0.000000,-0.000000,1.000000
10.381576,56.388794,-2.885771,0.000000,0.000000,-1.000000
37.981505,-5.141188,-2.885771,0.000000,0.000000,-1.000000
-51.458757,18.586398,2.885771,-0.000000,-0.000000,1.000000
12.726125,28.520147,2.885771,-0.000000,0.000000,1.000000
-46.424730,44.974326,-2.885771,0.000000,0.000000,-1.000000
-32.905990,42.544882,-2.885771,0.000000,0.000000,-1.000000
-16.509702,-9.854979,-2.885771,0.000000,0.000000,-1.000000
-7.780422,-44.038829,2.885771,-0.000000,0.000000,1.000000
-19.977684,-8.292304,2.885771,0.000000,-0.000000,1.000000
-26.456362,-41.049256,2.885771,0.000000,0.000000,1.000000
-40.329490,40.114510,2.885771,-0.000000,-0.000000,1.000000
3.009031,38.769860,2.885771,-0.000000,0.000000,1.000000
-11.483638,-19.056959,-2.885771,0.000000,0.000000,-1.000000
14.921043,-60.255055,-2.885771,0.000000,0.000000,-1.000000
51.475690,0.519819,2.885771,0.000000,0.000000,1.000000
28.879967,-13.479888,-2.885771,0.000000,-0.000000,-1.000000
-44.273698,-15.725803,-2.885771,0.000000,0.000000,-1.000000
64.506522,4.422053,-2.841967,0.999048,0.043619,0.000000
-23.352737,18.211454,2.885771,-0.000000,0.000000,1.000000
-28.383899,15.051365,2.885771,-0.000000,0.000000,1.000000
-23.395091,20.427781,-2.885771,0.000000,-0.000000,-1.000000
-29.370103,-2.154165,-2.885771,0.000000,0.000000,-1.000000
52.555128,-33.946475,-2.885771,0.000000,-0.000000,-1.000000
-52.183492,-7.467320,2.885771,0.000000,-0.000000,1.000000
-3.753144,-16.869242,0.387412,0.290285,0.956940,0.000000
24.715886,-34.846142,-2.885771,0.000000,0.000000,-1.000000
47.333714,-18.240582,-2.885771,0.000000,-0.000000,-1.000000
-18.556333,61.924053,-0.838359,-0.300706,0.953717,0.000000
-47.347699,-12.860021,-2.885771,0.000000,0.000000,-1.000000
-9.227293,-21.977301,-2.885771,0.000000,-0.000000,-1.000000
-11.038203,-37.005330,-2.885771,0.000000,-0.000000,-1.000000
-20.634584,-25.918635,-2.885771,0.000000,0.000000,-1.000000
-6.589286,-49.768607,2.885771,-0.000000,0.000000,1.000000
-19.990604,-58.660283,-2.885771,0.000000,-0.000000,-1.000000
54.372321,5.667530,2.885771,0.000000,-0.000000,1.000000
-19.152431,29.905572,-2.885771,0.000000,0.000000,-1.000000
5.525245,59.430486,-2.885771,0.000000,0.000000,-1.000000
-33.268647,-55.446122,2.645329,-0.537299,-0.843392,0.000000
29.975320,5.782114,-2.885771,0.000000,0.000000,-1.000000
31.639028,15.759745,2.885771,0.000000,-0.000000,1.000000
30.400240,-29.681898,2.885771,-0.000000,0.000000,1.000000
-28.632543,11.951473,-2.885771,0.000000,0.000000,-1.000000
46.736745,0.350770,2.885771,0.000000,0.000000,1.000000
-25.646344,-33.647997,2.885771,-0.000000,0.000000,1.000000
11.673424,-17.682836,-2.885771,-0.000000,-0.000000,-1.000000
-47.690392,-13.745465,-2.885771,0.000000,0.000000,-1.000000
-15.161621,36.769844,-2.885771,0.000000,0.000000,-1.000000
50.957704,10.910284,-2.885771,0.000000,0.000000,-1.000000
-33.136486,-38.527813,-2.885771,0.000000,0.000000,-1.000000
41.707791,-29.461967,-2.885771,0.000000,-0.000000,-1.000000
-36.007647,-6.262513,-2.885771,0.000000,0.000000,-1.000000
20.321030,57.711323,2.885771,0.000000,-0.000000,1.000000
-54.641997,-14.624235,2.885771,0.000000,-0.000000,1.000000
-28.753087,20.388844,2.885771,-0.000000,0.000000,1.000000
55.223851,33.617543,2.772129,0.843392,0.537299,-0.000000
33.079817,-52.929909,-2.885771,0.000000,0.000000,-1.000000
32.037366,42.096918,2.885771,0.000000,-0.000000,1.000000
21.405395,-6.499813,-2.885771,0.000000,0.000000,-1.000000
-9.361919,63.963254,0.068987,-0.130526,0.991445,0.000000
-23.925260,35.713977,-2.885771,0.000000,0.000000,-1.000000
-13.125611,30.433442,-2.885771,0.000000,0.000000,-1.000000
21.139786,-30.082392,2.885771,-0.000000,0.000000,1.000000
47.310577,-42.128928,2.885771,-0.000000,0.000000,1.000000
-4.879489,-58.266121,-2.885771,0.000000,-0.000000,-1.000000
55.410953,29.681846,-2.885771,0.000000,0.000000,-1.000000
-50.675413,14.462240,-2.885771,0.000000,0.000000,-1.000000
-18.274511,17.901580,2.885771,-0.000000,-0.000000,1.000000
-45.407851,-14.596866,-2.885771,0.000000,0.000000,-1.000000
44.682845,-18.807756,-2.885771,0.000000,-0.000000,-1.000000
20.240125,53.310609,2.885771,0.000000,-0.000000,1.000000
42.471804,-22.565605,-2.885771,0.000000,-0.000000,-1.000000
7.677111,-64.185063,-1.070159,0.130526,-0.991445,0.000000
47.899233,-21.243596,2.885771,-0.000000,0.000000,1.000000
38.467703,-32.781262,2.885771,-0.000000,0.000000,1.000000
44.987324,-7.191420,2.885771,-0.000000,0.000000,1.000000
-18.290360,58.892131,2.885771,0.000000,0.000000,1.000000
-46.141573,25.576153,2.885771,-0.000000,-0.000000,1.000000
23.575224,36.351741,2.885771,0.000000,-0.000000,1.000000
-6.868016,-57.369822,-2.885771,0.000000,-0.000000,-1.000000
-44.534401,0.911868,2.885771,-0.000000,-0.000000,1.000000
34.403680,18.914356,2.885771,0.000000,-0.000000,1.000000
5.542975,-39.934460,-2.885771,0.000000,0.000000,-1.000000
-51.069356,-1.285645,2.885771,0.000000,-0.000000,1.000000
51.831470,38.631465,-0.926009,0.793353,0.608762,0.000000
-23.879463,-29.502354,-2.885771,0.000000,0.000000,-1.000000
4.919188,-25.313841,2.885771,0.000000,-0.000000,1.000000
16.448622,49.441813,2.885771,0.000000,-0.000000,1.000000
-52.157232,-14.115804,-2.885771,0.000000,0.000000,-1.000000
48.128928,32.570156,2.885771,0.000000,-0.000000,1.000000
-29.816856,46.702239,0.868439,0.956940,0.290287,0.000000
63.879525,9.997902,1.960762,0.991445,0.130526,-0.000000
-49.630287,41.500097,-2.638154,-0.793353,0.608762,0.000000
15.905175,60.314024,-2.885771,0.000000,0.000000,-1.000000
-5.646610,37.712302,-2.885771,0.000000,0.000000,-1.000000
-12.629300,57.242659,2.885771,0.000000,0.000000,1.000000
9.023041,36.031312,2.885771,0.000000,-0.000000,1.000000
53.102465,-34.842948,-2.885771,0.000000,-0.000000,-1.000000
56.937126,30.480768,-2.885771,0.000000,0.000000,-1.000000
-59.736714,6.587596,-2.885771,0.000000,0.000000,-1.000000
64.604712,2.173141,-0.349529,0.999048,0.043619,0.000000
24.364899,52.913272,2.885771,0.000000,-0.000000,1.000000
-1.339205,-41.748975,-2.885771,0.000000,-0.000000,-1.000000
-57.660426,-29.220645,1.450882,-0.887011,-0.461748,0.000000
43.500051,-8.049768,-2.885771,0.000000,-0.000000,-1.000000
2.210102,35.255021,-2.885771,0.000000,0.000000,-1.000000
-16.815018,-54.728606,-2.885771,0.000000,-0.000000,-1.000000
32.118577,35.453149,-2.885771,0.000000,0.000000,-1.000000
-30.997634,1.513233,2.885771,0.000000,0.000000,1.000000
-60.033093,-12.899557,-2.885771,0.000000,0.000000,-1.000000
-49.291637,-41.883980,0.090997,-0.737278,-0.675590,0.000000
19.796625,-49.118994,-2.885771,0.000000,0.000000,-1.000000
33.027939,-11.439190,-2.885771,0.000000,0.000000,-1.000000
-14.598665,39.537047,2.885771,0.000000,-0.000000,1.000000
-43.995346,-18.214573,2.885771,0.000000,-0.000000,1.000000
-2.131448,-18.606215,2.885771,0.000000,-0.000000,1.000000
-19.820115,39.653356,-2.885771,0.000000,0.000000,-1.000000
45.290702,33.837059,-2.885771,0.000000,0.000000,-1.000000
26.686613,-57.694104,2.885771,0.000000,-0.000000,1.000000
-12.042009,35.041509,2.885771,0.000000,-0.000000,1.000000
-19.957473,7.997656,2.885771,-0.000000,-0.000000,1.000000
38.197006,-1.063244,2.885771,0.000000,0.000000,1.000000
40.280040,-32.213207,-2.885771,0.000000,-0.000000,-1.000000
-29.785249,48.624359,0.502662,0.881922,-0.471395,0.000000
11.270110,-26.911553,-2.885771,0.000000,0.000000,-1.000000
60.099715,-23.813727,0.973431,0.923879,-0.382684,0.000000
24.155685,16.454589,-2.885771,0.000000,0.000000,-1.000000
-37.570181,15.265871,2.885771,-0.000000,-0.000000,1.000000
-54.769841,34.330196,1.599171,-0.843392,0.537299,0.000000
19.198406,18.760876,2.885771,0.000000,-0.000000,1.000000
-1.335813,41.394810,2.885771,-0.000000,0.000000,1.000000
-22.675302,-16.842231,2.885771,0.000000,-0.000000,1.000000
36.666651,17.153174,-2.885771,0.000000,0.000000,-1.000000
-51.325582,-30.991154,2.885771,0.000000,-0.000000,1.000000
-59.264421,14.348345,2.885771,-0.000000,-0.000000,1.000000
36.692466,30.197871,2.885771,0.000000,-0.000000,1.000000
51.682814,31.624926,-2.885771,0.000000,0.000000,-1.000000
56.034240,-24.561433,-2.885771,0.000000,-0.000000,-1.000000
24.006633,-53.308604,-2.885771,0.000000,0.000000,-1.000000
-29.975442,47.849650,-1.086117,0.995185,-0.098019,0.000000
-22.635924,-2.949568,-2.885771,0.000000,0.000000,-1.000000
11.713326,28.511062,-2.885771,0.000000,0.000000,-1.000000
-23.012589,-27.632633,2.885771,-0.000000,0.000000,1.000000
-6.770962,-24.941030,-2.885771,0.000000,-0.000000,-1.000000
-22.912722,12.737297,2.885771,-0.000000,0.000000,1.000000
3.432623,-48.813181,2.885771,0.000000,-0.000000,1.000000
-17.823719,7.988743,-2.885771,0.000000,-0.000000,-1.000000
57.455291,29.614706,1.335470,0.887011,0.461748,-0.000000
0.388255,43.419108,2.885771,0.000000,-0.000000,1.000000
32.141117,-25.007663,2.885771,-0.000000,0.000000,1.000000
7.144651,-36.306371,2.885771,0.000000,-0.000000,1.000000
17.260123,-0.564461,-0.061469,-0.995185,0.098017,0.000000
-56.868732,-9.199334,2.885771,0.000000,-0.000000,1.000000
24.999968,47.654258,1.821123,0.995185,-0.098019,0.000000
-12.451783,-52.476833,2.885771,-0.000000,0.000000,1.000000
52.987693,-34.911997,-2.885771,0.000000,-0.000000,-1.000000
-5.849792,53.631419,-2.885771,0.000000,0.000000,-1.000000
6.176963,30.567027,2.885771,0.000000,-0.000000,1.000000
-16.676669,-4.387973,-1.057270,0.956940,0.290285,-0.000000
-18.444314,-26.783525,-2.885771,0.000000,-0.000000,-1.000000
1.547792,44.593689,2.885771,0.000000,-0.000000,1.000000
5.401958,-35.861844,-2.885771,0.000000,0.000000,-1.000000
-44.968992,37.801778,2.885771,-0.000000,-0.000000,1.000000
-21.232662,-42.487245,-2.885771,0.000000,0.000000,-1.000000
-44.125559,41.855671,-2.885771,0.000000,0.000000,-1.000000
54.366873,10.583525,-2.885771,0.000000,0.000000,-1.000000
52.159687,-23.978767,-2.885771,0.000000,-0.000000,-1.000000
-57.247800,30.013292,2.557198,-0.887011,0.461748,0.000000
63.967845,-9.327048,0.910974,0.991445,-0.130526,0.000000
-20.749904,27.004434,-2.885771,0.000000,-0.000000,-1.000000
20.110927,10.947152,-2.885771,0.000000,0.000000,-1.000000
54.368913,10.154911,-2.885771,0.000000,0.000000,-1.000000
-54.105587,4.767150,-2.885771,0.000000,0.000000,-1.000000
-37.641195,-29.737598,-2.885771,0.000000,0.000000,-1.000000
-41.972109,-47.097330,-2.885771,0.000000,0.000000,-1.000000
-26.531270,-45.321993,1.151542,-0.471395,-0.881922,0.000000
-50.024265,-16.284624,2.885771,0.000000,-0.000000,1.000000
5.973214,44.151316,-2.885771,0.000000,0.000000,-1.000000
-9.664391,59.854151,2.885771,-0.000000,-0.000000,1.000000
9.717492,27.307372,-2.885771,0.000000,0.000000,-1.000000
48.983717,30.565429,2.885771,0.000000,-0.000000,1.000000
-16.528071,14.279518,-2.885771,0.000000,-0.000000,-1.000000
-1.438103,41.174577,-2.885771,0.000000,-0.000000,-1.000000
-25.269508,-1.733653,-2.885771,0.000000,0.000000,-1.000000
15.567025,-40.333644,-2.885771,0.000000,0.000000,-1.000000
44.997146,-34.076698,-2.885771,0.000000,-0.000000,-1.000000
46.496270,-19.369838,-2.885771,0.000000,-0.000000,-1.000000
48.542104,-25.717612,2.885771,-0.000000,0.000000,1.000000
23.946482,60.044726,0.614398,0.382684,0.923879,-0.000000
-36.083630,-7.208345,2.885771,0.000000,-0.000000,1.000000
-22.443392,-9.186736,-2.885771,0.000000,0.000000,-1.000000
56.704259,31.057425,-0.076985,0.887011,0.461748,-0.000000
61.443932,-12.342928,-2.885771,0.000000,-0.000000,-1.000000
5.197036,-27.107243,-2.885771,0.000000,0.000000,-1.000000
-47.172778,16.785403,-2.885771,0.000000,-0.000000,-1.000000
19.278690,17.264717,-2.885771,0.000000,0.000000,-1.000000
11.380653,-28.335933,-2.885771,0.000000,0.000000,-1.000000
-18.128975,49.138578,-2.885771,0.000000,0.000000,-1.000000
-17.009804,-3.106003,0.958820,0.995185,0.098017,0.000000
38.025623,-43.634903,-2.885771,0.000000,-0.000000,-1.000000
-5.145039,57.864421,2.885771,-0.000000,-0.000000,1.000000
0.822480,40.707029,2.885771,0.000000,-0.000000,1.000000
-60.135558,-23.727196,1.656574,-0.923879,-0.382684,0.000000
-59.491576,-25.281903,-0.320555,-0.923879,-0.382684,0.000000
36.384733,-38.591585,-2.885771,0.000000,-0.000000,-1.000000
-16.575168,-5.578977,2.885771,0.000000,-0.000000,1.000000
58.066276,-11.264431,-2.885771,0.000000,-0.000000,-1.000000
-15.113901,62.856724,2.844282,-0.216440,0.976296,0.000000
-35.812014,35.417601,2.885771,-0.000000,-0.000000,1.000000
35.522434,9.173899,-2.885771,0.000000,-0.000000,-1.000000
-20.856946,53.305865,-2.885771,0.000000,0.000000,-1.000000
-32.907078,54.765914,-2.885771,0.000000,0.000000,-1.000000
-11.142200,59.680123,-2.885771,0.000000,0.000000,-1.000000
48.717496,15.575487,-2.885771,0.000000,0.000000,-1.000000
-30.425945,25.669727,-2.885771,0.000000,-0.000000,-1.000000
16.987487,-3.332587,-0.360949,-0.995185,0.098017,0.000000
40.896538,-23.502240,-2.885771,0.000000,0.000000,-1.000000
31.028921,15.602932,2.885771,0.000000,-0.000000,1.000000
-32.743254,42.639031,-2.885771,0.000000,0.000000,-1.000000
43.854853,37.567463,-2.885771,0.000000,0.000000,-1.000000
-48.241606,-29.872704,2.885771,0.000000,-0.000000,1.000000
-30.284606,55.102820,-2.885771,0.000000,0.000000,-1.000000
-4.147833,-18.663972,2.885771,0.000000,-0.000000,1.000000
-31.287117,-6.483247,-2.885771,0.000000,0.000000,-1.000000
46.180730,-2.031878,-2.885771,-0.000000,-0.000000,-1.000000
61.208550,-19.805716,2.885771,-0.000000,0.000000,1.000000
-27.755495,-45.152129,0.605694,0.098018,-0.995185,0.000000
7.618697,-57.984681,2.885771,0.000000,-0.000000,1.000000
2.970114,-53.195869,2.885771,0.000000,-0.000000,1.000000
52.190565,-4.391732,-2.885771,0.000000,0.000000,-1.000000
8.474007,35.597791,2.885771,0.000000,-0.000000,1.000000
-53.141436,-20.313513,-2.885771,0.000000,0.000000,-1.000000
8.065906,-51.283733,-2.885771,0.000000,0.000000,-1.000000
-11.281140,-29.564679,2.885771,-0.000000,0.000000,1.000000
-16.824979,-50.206500,-2.885771,0.000000,-0.000000,-1.000000
17.809423,1.986120,2.885771,0.000000,-0.000000,1.000000
-24.237510,-25.789865,2.885771,0.000000,-0.000000,1.000000
-56.006796,-12.738443,-2.885771,0.000000,0.000000,-1.000000
8.012385,54.230077,2.885771,0.000000,-0.000000,1.000000
49.210745,-9.869964,2.885771,-0.000000,0.000000,1.000000
-22.484185,-52.655399,-2.885771,0.000000,-0.000000,-1.000000
-60.849060,9.505667,-2.885771,0.000000,0.000000,-1.000000
-21.803835,-19.749773,2.885771,0.000000,-0.000000,1.000000
-13.494078,45.781977,2.885771,0.000000,0.000000,1.000000
-36.431075,17.890334,-2.885771,0.000000,0.000000,-1.000000
53.005817,-12.136536,-2.885771,0.000000,-0.000000,-1.000000
29.887956,26.757315,-2.885771,0.000000,0.000000,-1.000000
28.564337,28.107843,2.885771,0.000000,-0.000000,1.000000
-13.849996,-27.711570,-2.885771,0.000000,0.000000,-1.000000
9.960514,17.442212,-2.885771,0.000000,-0.000000,-1.000000
-5.281087,38.106060,2.885771,0.000000,-0.000000,1.000000
27.192402,45.156734,-1.792504,0.098018,0.995185,-0.000000
-31.522354,-15.005947,-2.885771,0.000000,0.000000,-1.000000
-32.575455,-18.787447,-2.885771,0.000000,-0.000000,-1.000000
-49.520995,37.734089,2.885771,-0.000000,-0.000000,1.000000
-3.669983,-55.433944,2.885771,-0.000000,0.000000,1.000000
25.895207,-44.738308,2.885771,-0.000000,0.000000,1.000000
-35.456059,28.942759,-2.885771,0.000000,-0.000000,-1.000000
-27.586809,36.451746,2.885771,-0.000000,-0.000000,1.000000
-14.690513,-45.248207,-2.885771,0.000000,-0.000000,-1.000000
58.706270,7.653873,2.885771,0.000000,-0.000000,1.000000
49.249838,-29.605982,2.885771,-0.000000,0.000000,1.000000
-62.227026,-9.377337,2.885771,0.000000,-0.000000,1.000000
24.825986,-16.064868,2.885771,-0.000000,0.000000,1.000000
43.192853,39.487706,2.885771,0.000000,-0.000000,1.000000
-49.443602,35.321484,-2.885771,0.000000,0.000000,-1.000000
35.007882,-54.338107,2.280365,0.537299,-0.843392,0.000000
-17.868120,23.334892,2.885771,-0.000000,0.000000,1.000000
-5.501040,-21.723965,-2.885771,0.000000,0.000000,-1.000000
35.810550,-32.191515,-2.885771,0.000000,-0.000000,-1.000000
-50.178495,-37.510299,-2.885771,0.000000,0.000000,-1.000000
19.674426,33.048514,-2.885771,0.000000,0.000000,-1.000000
-52.383976,-9.282843,2.885771,0.000000,-0.000000,1.000000
-17.648558,-20.917824,2.885771,-0.000000,0.000000,1.000000
-7.561461,36.585969,-2.885771,0.000000,0.000000,-1.000000
-0.749677,-53.215019,-2.885771,0.000000,-0.000000,-1.000000
-28.998737,-29.530915,2.885771,0.000000,-0.000000,1.000000
27.914715,14.791053,2.885771,0.000000,-0.000000,1.000000
42.657078,43.913846,-2.885771,0.000000,0.000000,-1.000000
-49.354889,33.146819,-2.885771,0.000000,0.000000,-1.000000
-15.779977,-13.297591,2.885771,0.000000,-0.000000,1.000000
-16.915983,23.107642,2.885771,-0.000000,-0.000000,1.000000
-27.606854,-16.714713,2.885771,0.000000,-0.000000,1.000000
22.646569,-23.346948,2.885771,-0.000000,0.000000,1.000000
-51.369703,13.706328,2.885771,-0.000000,0.000000,1.000000
36.604354,-53.321043,1.185989,0.537299,-0.843392,0.000000
12.100753,-18.750219,2.885771,-0.000000,0.000000,1.000000
-3.577003,-40.914088,2.885771,0.000000,-0.000000,1.000000
18.853999,61.031443,-2.885771,0.000000,0.000000,-1.000000
11.461894,63.666355,0.999078,0.216440,0.976296,-0.000000
10.819021,-31.617964,-2.885771,0.000000,0.000000,-1.000000
-36.393003,-40.886224,-2.885771,0.000000,0.000000,-1.000000
61.483173,19.954628,2.275728,0.953717,0.300706,-0.000000
-64.111526,2.969926,2.885771,0.000000,-0.000000,1.000000
-35.332027,-5.933476,-2.885771,0.000000,0.000000,-1.000000
26.899099,15.025775,-2.885771,0.000000,0.000000,-1.000000
-10.410547,24.530517,2.885771,0.000000,0.000000,1.000000
31.275375,-52.163680,-2.885771,0.000000,0.000000,-1.000000
-11.782837,-63.595203,2.815713,-0.216440,-0.976296,0.000000
37.316699,-12.882807,-2.885771,0.000000,0.000000,-1.000000
-48.191426,38.479567,2.885771,-0.000000,-0.000000,1.000000
-3.528291,52.201054,2.885771,-0.000000,0.000000,1.000000
-5.149966,32.204705,-2.885771,0.000000,0.000000,-1.000000
25.842343,-17.257723,2.885771,-0.000000,0.000000,1.000000
29.949114,25.912578,-2.885771,0.000000,0.000000,-1.000000
11.431460,-44.832263,2.885771,0.000000,-0.000000,1.000000
-36.027184,-4.719495,2.885771,0.000000,-0.000000,1.000000
54.609624,34.581685,-0.028701,0.843392,0.537299,0.000000
-39.536365,-51.137114,-0.817330,-0.608762,-0.793353,0.000000
-44.674870,37.923769,2.885771,-0.000000,-0.000000,1.000000
-15.636573,-51.763679,2.885771,-0.000000,0.000000,1.000000
46.089211,-6.027932,-2.885771,0.000000,0.000000,-1.000000
-1.754749,-45.083900,2.885771,-0.000000,0.000000,1.000000
44.907108,1.739471,2.885771,0.000000,0.000000,1.000000
-3.272564,-60.172321,-2.885771,0.000000,-0.000000,-1.000000
35.609966,48.440270,2.885771,0.000000,-0.000000,1.000000
17.178748,1.390678,0.924829,-0.995185,-0.098017,0.000000
41.568703,16.674241,2.885771,0.000000,-0.000000,1.000000
-41.592055,-38.565947,2.885771,-0.000000,0.000000,1.000000
15.889947,56.897484,-2.885771,0.000000,0.000000,-1.000000
-21.609537,37.375596,2.885771,0.000000,-0.000000,1.000000
-15.862675,46.813415,2.885771,0.000000,0.000000,1.000000
9.639429,29.736992,-2.885771,0.000000,0.000000,-1.000000
59.656749,-14.700829,-2.885771,0.000000,-0.000000,-1.000000
61.371546,-19.990726,2.885771,-0.000000,0.000000,1.000000
28.786705,6.216770,2.885771,0.000000,-0.000000,1.000000
-22.358004,-18.723403,-2.885771,0.000000,0.000000,-1.000000
-31.169373,11.152173,2.885771,-0.000000,-0.000000,1.000000
3.578041,-57.839189,2.885771,0.000000,-0.000000,1.000000
-53.192822,21.125006,-2.885771,0.000000,0.000000,-1.000000
-6.613847,53.488598,-2.885771,0.000000,0.000000,-1.000000
-57.355371,23.957374,-2.885771,0.000000,0.000000,-1.000000
49.611205,-17.171430,2.885771,-0.000000,0.000000,1.000000
21.898604,-1.047009,-2.885771,0.000000,0.000000,-1.000000
33.531475,52.535845,-2.885771,0.000000,0.000000,-1.000000
34.624447,-22.415958,2.885771,-0.000000,0.000000,1.000000
-15.063003,-27.138322,2.885771,0.000000,-0.000000,1.000000
31.428359,40.655442,2.885771,0.000000,-0.000000,1.000000
-4.328584,64.510603,-1.359275,-0.043619,0.999048,0.000000
21.897604,1.851280,2.885771,0.000000,-0.000000,1.000000
38.994955,-19.956086,-2.885771,0.000000,-0.000000,-1.000000
-32.383149,38.578045,-2.885771,0.000000,0.000000,-1.000000
-24.715449,-9.343716,2.885771,0.000000,-0.000000,1.000000
32.679909,-17.895561,2.885771,-0.000000,0.000000,1.000000
48.736128,42.490212,1.470055,0.737278,0.675590,0.000000
-51.210000,-24.576699,-2.885771,0.000000,-0.000000,-1.000000
37.820337,-30.472280,2.885771,-0.000000,0.000000,1.000000
-18.196216,62.037598,-0.011378,-0.300706,0.953717,0.000000
15.734126,-23.102569,2.885771,0.000000,0.000000,1.000000
-44.751314,9.158927,-2.885771,0.000000,0.000000,-1.000000
56.396706,16.540805,-2.885771,0.000000,0.000000,-1.000000
-46.579889,-8.257816,2.885771,0.000000,-0.000000,1.000000
47.475096,5.219402,2.885771,0.000000,-0.000000,1.000000
25.800010,49.452437,0.106725,0.634394,-0.773010,0.000000
-39.982428,-31.243790,-2.885771,0.000000,0.000000,-1.000000
-33.732091,-29.856515,-2.885771,0.000000,-0.000000,-1.000000
-9.761217,34.422996,2.885771,0.000000,0.000000,1.000000
-38.610277,17.139484,2.885771,-0.000000,-0.000000,1.000000
-64.606356,-2.135475,-2.694142,-0.999048,-0.043619,-0.000000
40.957423,40.860519,2.885771,0.000000,-0.000000,1.000000
-43.894969,13.799320,-2.885771,0.000000,0.000000,-1.000000
29.697943,9.363476,2.885771,-0.000000,0.000000,1.000000
-50.093703,40.896163,1.968365,-0.793353,0.608762,0.000000
-15.554531,-58.643755,-2.885771,0.000000,-0.000000,-1.000000
-22.903414,54.161561,2.885771,0.000000,0.000000,1.000000
18.429513,11.001481,2.885771,0.000000,-0.000000,1.000000
14.621148,46.640147,-2.885771,0.000000,0.000000,-1.000000
20.840098,50.645821,-2.885771,0.000000,0.000000,-1.000000
17.973000,-47.149581,2.885771,0.000000,-0.000000,1.000000
20.929581,-13.483106,2.885771,-0.000000,0.000000,1.000000
63.830916,-10.367133,2.373030,0.991445,-0.130526,0.000000
7.570908,-22.344319,-2.885771,0.000000,0.000000,-1.000000
25.280917,29.106858,2.885771,0.000000,-0.000000,1.000000
11.440557,35.772831,2.885771,0.000000,-0.000000,1.000000
-10.386780,-63.418223,2.885771,-0.000000,0.000000,1.000000
47.743867,-43.573076,-1.149803,0.737278,-0.675590,0.000000
-18.775302,24.604882,-2.885771,0.000000,-0.000000,-1.000000
1.778304,-35.222034,2.885771,0.000000,-0.000000,1.000000
17.123585,-1.950762,-0.657123,-0.995185,0.098017,0.000000
-0.833313,-43.416139,-2.885771,0.000000,-0.000000,-1.000000
18.605246,29.040085,-2.885771,0.000000,0.000000,-1.000000
-24.505249,-15.910422,2.885771,0.000000,-0.000000,1.000000
-21.226202,-23.838118,2.885771,-0.000000,0.000000,1.000000
18.275314,25.100593,2.885771,-0.000000,0.000000,1.000000
58.492970,-8.311131,-2.885771,0.000000,0.000000,-1.000000
-54.092805,-7.963444,-2.885771,0.000000,0.000000,-1.000000
-11.611042,38.688659,2.885771,0.000000,0.000000,1.000000
23.853162,-29.412709,2.885771,-0.000000,-0.000000,1.000000
-11.712417,12.680371,1.067577,0.634393,-0.773010,0.000000
3.218294,-45.430948,-2.885771,0.000000,0.000000,-1.000000
-15.855395,49.305500,2.885771,0.000000,0.000000,1.000000
-52.213287,-20.813495,2.885771,0.000000,-0.000000,1.000000
40.220817,11.383826,2.885771,0.000000,-0.000000,1.000000
27.250815,16.195168,2.885771,0.000000,-0.000000,1.000000
50.639363,30.925418,-2.885771,0.000000,0.000000,-1.000000
-5.428209,32.430249,-2.885771,0.000000,0.000000,-1.000000
20.326130,1.782402,2.885771,0.000000,-0.000000,1.000000
-5.297571,-19.573799,-2.885771,0.000000,0.000000,-1.000000
58.389528,25.181762,2.885771,0.000000,-0.000000,1.000000
-19.291979,-49.249424,-2.885771,0.000000,-0.000000,-1.000000
-53.178241,-30.573266,-2.885771,0.000000,-0.000000,-1.000000
-53.059290,32.025574,-2.885771,0.000000,0.000000,-1.000000
-62.437583,13.649335,-2.885771,0.000000,0.000000,-1.000000
9.335028,-32.091626,2.885771,0.000000,-0.000000,1.000000
10.706288,-43.712455,2.885771,0.000000,-0.000000,1.000000
51.428042,11.851574,2.885771,0.000000,-0.000000,1.000000
15.458227,-11.172190,-2.885771,0.000000,0.000000,-1.000000
55.248304,33.579159,2.729186,0.843392,0.537299,-0.000000
54.038193,-28.182788,2.885771,-0.000000,0.000000,1.000000
-6.202088,61.587530,-2.885771,0.000000,0.000000,-1.000000
39.634601,-3.351971,-2.885771,0.000000,0.000000,-1.000000
21.143839,-23.808505,-2.885771,0.000000,-0.000000,-1.000000
40.972758,46.679440,-2.885771,0.000000,0.000000,-1.000000
52.997126,37.112354,-1.233307,0.793353,0.608762,0.000000
-29.900001,-6.517549,-2.885771,0.000000,0.000000,-1.000000
-11.433234,-46.921636,-2.885771,0.000000,-0.000000,-1.000000
35.840294,52.004900,-2.885771,0.000000,0.000000,-1.000000
3.091706,-43.443508,2.885771,0.000000,-0.000000,1.000000
27.648771,50.441824,2.885771,-0.000000,-0.000000,1.000000
48.721608,10.147246,2.885771,0.000000,-0.000000,1.000000
-55.578943,-3.891250,2.885771,0.000000,-0.000000,1.000000
-34.499705,29.441292,2.885771,-0.000000,-0.000000,1.000000
1.337244,18.167273,2.885771,-0.000000,0.000000,1.000000
-26.134169,59.138555,0.627671,-0.382684,0.923879,0.000000
-29.969086,32.674230,-2.885771,0.000000,0.000000,-1.000000
3.923375,44.391815,2.885771,-0.000000,0.000000,1.000000
27.025244,-1.985439,-2.885771,0.000000,0.000000,-1.000000
-20.174326,52.048386,-2.885771,0.000000,0.000000,-1.000000
-33.292147,-4.397845,2.885771,0.000000,-0.000000,1.000000
17.998879,-23.625483,2.885771,-0.000000,0.000000,1.000000
-45.392873,-9.320027,2.885771,0.000000,-0.000000,1.000000
-36.629600,3.111959,2.885771,-0.000000,0.000000,1.000000
53.372490,-12.382344,-2.885771,0.000000,-0.000000,-1.000000
-61.182530,-13.462891,2.885771,0.000000,-0.000000,1.000000
-19.392218,61.660500,-0.240793,-0.300706,0.953717,0.000000
-10.394629,-21.957965,2.885771,0.000000,-0.000000,1.000000
-24.061737,31.358685,2.885771,-0.000000,-0.000000,1.000000
9.885010,-32.131577,-2.885771,0.000000,0.000000,-1.000000
-34.728441,27.496373,2.885771,-0.000000,-0.000000,1.000000
5.742386,-16.265812,2.207917,-0.290285,0.956940,0.000000
-40.288147,-20.019110,2.885771,-0.000000,0.000000,1.000000
37.754765,0.949217,-2.885771,0.000000,-0.000000,-1.000000
49.783053,18.776699,-2.885771,0.000000,0.000000,-1.000000
-33.038270,-46.006445,2.885771,-0.000000,0.000000,1.000000
-60.468558,-9.198992,2.885771,0.000000,-0.000000,1.000000
33.100651,-40.065053,-2.885771,0.000000,-0.000000,-1.000000
40.355743,40.171410,2.885771,0.000000,-0.000000,1.000000
-21.440765,43.116433,2.885771,0.000000,0.000000,1.000000
15.343425,22.394838,2.885771,-0.000000,0.000000,1.000000
24.904750,59.647798,0.383487,0.382684,0.923879,-0.000000
-8.205786,-20.657618,2.885771,-0.000000,0.000000,1.000000
-25.780813,45.816854,0.597721,-0.634394,0.773010,0.000000
46.326341,-18.979094,-2.885771,0.000000,-0.000000,-1.000000
3.265757,-36.221985,-2.885771,0.000000,0.000000,-1.000000
-32.249753,0.389722,2.885771,0.000000,0.000000,1.000000
37.756762,24.561331,-2.885771,0.000000,0.000000,-1.000000
23.305256,23.031582,-2.885771,0.000000,0.000000,-1.000000
-38.534936,-48.244182,-2.885771,0.000000,-0.000000,-1.000000
-0.580737,-52.896862,2.885771,-0.000000,0.000000,1.000000
-35.738316,14.279121,-2.885771,0.000000,0.000000,-1.000000
-40.425814,38.239360,-2.885771,0.000000,0.000000,-1.000000
45.930650,32.266713,-2.885771,0.000000,0.000000,-1.000000
-15.530382,32.414343,-2.885771,0.000000,0.000000,-1.000000
38.542894,43.578254,-2.885771,0.000000,0.000000,-1.000000
-14.911266,-32.539173,-2.885771,0.000000,0.000000,-1.000000
-50.126255,15.136190,2.885771,-0.000000,-0.000000,1.000000
-57.107621,4.064089,2.885771,0.000000,0.000000,1.000000
-23.943284,-59.711371,2.885771,-0.000000,0.000000,1.000000
-29.969606,6.320737,2.885771,-0.000000,-0.000000,1.000000
-55.627430,28.890809,2.885771,-0.000000,-0.000000,1.000000
24.057021,53.856199,-2.885771,0.000000,0.000000,-1.000000
-45.309464,-15.481451,2.885771,0.000000,-0.000000,1.000000
4.305419,64.511615,-1.931218,0.043619,0.999048,0.000000
-60.391102,-15.319216,-2.885771,0.000000,0.000000,-1.000000
34.664453,47.191585,-2.885771,0.000000,0.000000,-1.000000
-25.585093,25.251205,-2.885771,0.000000,0.000000,-1.000000
14.317971,-52.741314,-2.885771,0.000000,0.000000,-1.000000
20.151351,8.635275,-2.885771,0.000000,0.000000,-1.000000
12.401040,22.814090,2.885771,-0.000000,0.000000,1.000000
17.446299,-5.417873,-2.885771,0.000000,0.000000,-1.000000
0.784291,-48.698082,-2.885771,0.000000,0.000000,-1.000000
-14.150495,-48.375843,-2.885771,0.000000,-0.000000,-1.000000
-7.325399,-18.585848,-2.885771,0.000000,0.000000,-1.000000
39.494931,51.168908,-2.537972,0.608762,0.793353,0.000000
41.605604,0.487098,-2.885771,0.000000,-0.000000,-1.000000
-55.291817,-18.736342,-2.885771,0.000000,0.000000,-1.000000
30.022188,20.501383,-2.885771,0.000000,0.000000,-1.000000
-37.461797,-12.438864,-2.885771,0.000000,0.000000,-1.000000
-16.299814,-13.098070,-2.885771,0.000000,0.000000,-1.000000
16.217386,-57.004008,2.885771,0.000000,-0.000000,1.000000
17.794728,-47.442198,-2.885771,0.000000,0.000000,-1.000000
12.574875,-11.840964,-1.663879,-0.773010,0.634393,0.000000
52.137559,-23.390952,-2.885771,0.000000,-0.000000,-1.000000
-44.929318,-33.475959,2.885771,0.000000,-0.000000,1.000000
-1.371341,-64.639719,1.092311,-0.043619,-0.999048,0.000000
38.614523,15.187535,2.885771,0.000000,-0.000000,1.000000
47.892388,18.084968,2.885771,0.000000,-0.000000,1.000000
-9.362073,-45.328703,2.885771,-0.000000,0.000000,1.000000
53.055522,21.110787,-2.885771,0.000000,0.000000,-1.000000
39.783240,19.642764,2.885771,0.000000,-0.000000,1.000000
59.775511,8.398355,-2.885771,0.000000,0.000000,-1.000000
55.908206,13.193785,2.885771,0.000000,-0.000000,1.000000
0.016095,25.870859,2.885771,0.000000,-0.000000,1.000000
-45.457936,5.575477,2.885771,-0.000000,-0.000000,1.000000
-30.309047,-57.093840,-0.032253,-0.461748,-0.887011,-0.000000
32.821883,-14.903676,2.885771,-0.000000,-0.000000,1.000000
15.439849,-35.536779,2.885771,0.000000,-0.000000,1.000000
22.098832,-2.781520,-2.885771,0.000000,0.000000,-1.000000
-26.639564,-33.624449,-2.885771,0.000000,-0.000000,-1.000000
-61.601659,-8.655857,-2.885771,0.000000,0.000000,-1.000000
-60.422659,17.670078,2.885771,-0.000000,-0.000000,1.000000
39.189292,-27.772119,-2.885771,0.000000,-0.000000,-1.000000
17.760918,53.306436,-2.885771,0.000000,0.000000,-1.000000
-53.479733,33.734451,-2.885771,0.000000,0.000000,-1.000000
-44.161372,-36.574547,-2.885771,0.000000,0.000000,-1.000000
25.641194,-32.422442,2.885771,-0.000000,0.000000,1.000000
15.804116,24.326060,2.885771,0.000000,-0.000000,1.000000
42.405003,-30.618941,2.885771,-0.000000,-0.000000,1.000000
-5.975010,-32.457072,2.885771,-0.000000,0.000000,1.000000
50.714560,30.276031,2.885771,0.000000,-0.000000,1.000000
-59.484810,-22.283710,-2.885771,0.000000,0.000000,-1.000000
-64.026131,-8.884322,-1.048362,-0.991445,-0.130526,-0.000000
-13.410827,31.674919,-2.885771,0.000000,0.000000,-1.000000
23.892185,56.623096,2.885771,0.000000,-0.000000,1.000000
-32.145777,38.914737,-2.885771,0.000000,0.000000,-1.000000
44.084999,46.207651,-2.885771,0.000000,0.000000,-1.000000
-54.696460,-12.941454,-2.885771,0.000000,0.000000,-1.000000
-46.122791,-44.532349,-2.885771,0.000000,-0.000000,-1.000000
-12.740050,-29.199905,2.885771,-0.000000,0.000000,1.000000
18.179096,50.653889,-2.885771,0.000000,0.000000,-1.000000
-29.086883,33.930068,-2.885771,0.000000,0.000000,-1.000000
-63.604404,11.741334,1.098287,-0.976296,0.216440,0.000000
-42.117548,34.181878,-2.885771,0.000000,0.000000,-1.000000
22.736604,-31.390256,2.885771,-0.000000,0.000000,1.000000
27.379171,50.115197,1.740973,0.098018,-0.995185,0.000000
3.264605,53.712146,2.885771,0.000000,-0.000000,1.000000
-52.162140,34.358837,-2.885771,0.000000,0.000000,-1.000000
-18.803781,-42.782993,-2.885771,0.000000,-0.000000,-1.000000
37.626066,2.125799,2.885771,0.000000,0.000000,1.000000
13.780287,10.372166,-2.689352,-0.773010,-0.634393,0.000000
3.666556,44.525907,2.885771,-0.000000,0.000000,1.000000
-24.429949,47.159521,-2.885771,0.000000,0.000000,-1.000000
19.556810,49.750984,-2.885771,0.000000,0.000000,-1.000000
-55.141457,31.835066,2.885771,-0.000000,-0.000000,1.000000
2.965284,-20.164325,-2.885771,0.000000,0.000000,-1.000000
12.396415,51.449170,2.885771,0.000000,-0.000000,1.000000
-59.367297,-7.212558,2.885771,0.000000,-0.000000,1.000000
-17.148853,48.131144,2.885771,0.000000,-0.000000,1.000000
17.429717,-48.317514,2.885771,0.000000,0.000000,1.000000
-42.392816,48.825375,2.128261,-0.675590,0.737278,0.000000
31.291495,6.087567,2.885771,0.000000,-0.000000,1.000000
10.419784,13.741207,0.330682,-0.634393,-0.773010,0.000000
50.301123,-16.272871,-2.885771,0.000000,-0.000000,-1.000000
-27.435209,-22.581138,2.885771,0.000000,-0.000000,1.000000
25.497900,-3.710166,2.885771,-0.000000,-0.000000,1.000000
28.418245,-50.982545,-2.885771,0.000000,0.000000,-1.000000
56.320688,31.794260,-1.925477,0.887011,0.461748,-0.000000
29.946559,54.308877,-2.885771,0.000000,0.000000,-1.000000
10.469922,-15.467164,-2.885771,0.000000,0.000000,-1.000000
-28.278444,-39.622884,-2.885771,0.000000,-0.000000,-1.000000
-19.271072,43.977279,2.885771,0.000000,0.000000,1.000000
2.551254,42.752001,-2.885771,0.000000,0.000000,-1.000000
-30.985464,48.284114,2.885771,-0.000000,-0.000000,1.000000
-8.638104,52.500000,-2.885771,0.000000,0.000000,-1.000000
32.568168,-52.349303,-2.885771,0.000000,0.000000,-1.000000
-10.552033,17.305942,2.885771,0.000000,-0.000000,1.000000
53.656689,2.105987,-1.432549,0.471397,-0.881921,0.000000
-22.535891,-20.125896,-2.885771,0.000000,0.000000,-1.000000
19.440169,14.410605,-2.885771,0.000000,0.000000,-1.000000
-50.986283,-11.993860,-2.885771,0.000000,0.000000,-1.000000
-31.736212,22.612494,2.885771,-0.000000,0.000000,1.000000
15.866492,53.076700,-2.885771,0.000000,0.000000,-1.000000
-3.552243,-49.461165,-2.885771,0.000000,-0.000000,-1.000000
46.898818,20.906824,2.885771,0.000000,-0.000000,1.000000
4.296174,26.785244,-2.885771,0.000000,-0.000000,-1.000000
-54.935127,27.709825,2.885771,-0.000000,-0.000000,1.000000
12.365035,-54.557288,2.885771,0.000000,-0.000000,1.000000
31.876026,5.866595,2.885771,0.000000,-0.000000,1.000000
43.867372,-7.888502,-2.885771,0.000000,0.000000,-1.000000
37.662507,-51.473425,-2.885771,0.000000,-0.000000,-1.000000
39.691798,-23.474749,2.885771,-0.000000,0.000000,1.000000
4.929128,-41.332591,2.885771,0.000000,-0.000000,1.000000
37.392250,-4.127098,2.885771,-0.000000,-0.000000,1.000000
-53.799880,35.852730,-2.361057,-0.843392,0.537299,0.000000
-52.555200,-35.289600,2.885771,0.000000,-0.000000,1.000000
15.983336,39.626590,-2.885771,0.000000,0.000000,-1.000000
15.746452,-24.353816,-2.885771,-0.000000,-0.000000,-1.000000
52.562683,28.492690,2.885771,0.000000,-0.000000,1.000000
-35.377029,6.996993,2.885771,-0.000000,-0.000000,1.000000
-55.227196,2.477163,2.331496,0.098017,-0.995185,0.000000
-26.543686,-28.108582,2.885771,0.000000,-0.000000,1.000000
43.322927,-6.060488,2.885771,-0.000000,0.000000,1.000000
58.667242,-17.898518,2.885771,-0.000000,0.000000,1.000000
33.564915,-24.008646,-2.885771,0.000000,-0.000000,-1.000000
-37.753635,-12.639762,2.885771,0.000000,-0.000000,1.000000
-23.969256,42.942771,2.885771,0.000000,0.000000,1.000000
-6.666937,-55.767091,-2.885771,0.000000,-0.000000,-1.000000
-37.692783,37.022806,2.885771,-0.000000,-0.000000,1.000000
6.976392,19.174338,-2.885771,0.000000,0.000000,-1.000000
48.138334,24.760686,2.885771,0.000000,-0.000000,1.000000
50.833805,-36.838461,2.885771,-0.000000,0.000000,1.000000
32.134218,-38.636710,2.885771,-0.000000,-0.000000,1.000000
25.471090,-46.173847,-2.041490,0.773012,-0.634391,0.000000
-12.991073,20.155069,2.885771,0.000000,0.000000,1.000000
-24.078179,-51.010748,-2.885771,0.000000,0.000000,-1.000000
-7.612585,-64.193558,2.484263,-0.130526,-0.991445,0.000000
-23.025712,-1.739854,-2.885771,0.000000,0.000000,-1.000000
-43.377315,-47.923249,-1.890260,-0.675590,-0.737278,-0.000000
4.239094,50.787227,2.885771,-0.000000,0.000000,1.000000
55.784408,28.567293,2.885771,0.000000,-0.000000,1.000000
42.523181,9.999952,-2.885771,0.000000,0.000000,-1.000000
18.603547,-6.320510,2.885771,-0.000000,-0.000000,1.000000
41.869456,37.438628,-2.885771,0.000000,0.000000,-1.000000
-51.053736,39.645025,2.763681,-0.793353,0.608762,0.000000
-59.529720,-7.482957,-2.885771,0.000000,0.000000,-1.000000
44.119088,-14.864011,-2.885771,0.000000,-0.000000,-1.000000
15.564884,-19.051672,2.885771,-0.000000,-0.000000,1.000000
58.652243,20.945899,-2.885771,0.000000,0.000000,-1.000000
-7.841926,-63.290323,2.885771,-0.000000,0.000000,1.000000
33.530452,-43.138220,-2.885771,0.000000,-0.000000,-1.000000
30.409205,-32.610983,2.885771,-0.000000,0.000000,1.000000
4.238114,30.229689,-2.885771,0.000000,-0.000000,-1.000000
-44.388624,-13.360753,-2.885771,0.000000,0.000000,-1.000000
26.670097,23.185407,2.885771,0.000000,-0.000000,1.000000
57.640729,4.129912,-2.885771,0.000000,-0.000000,-1.000000
61.260478,2.042204,2.885771,-0.000000,-0.000000,1.000000
49.398278,26.757779,2.885771,0.000000,-0.000000,1.000000
-52.297406,11.729513,2.885771,-0.000000,-0.000000,1.000000
22.816285,-39.937603,-2.885771,0.000000,-0.000000,-1.000000
-17.423199,-59.549193,-2.885771,0.000000,-0.000000,-1.000000
-28.234246,22.380059,-2.885771,0.000000,-0.000000,-1.000000
33.455078,21.425877,-2.885771,0.000000,0.000000,-1.000000
22.958158,60.454104,0.623870,0.382684,0.923879,-0.000000
-14.358176,24.536611,-2.885771,0.000000,0.000000,-1.000000
-11.128455,37.719921,2.885771,0.000000,0.000000,1.000000
-42.539999,-36.854390,2.885771,-0.000000,0.000000,1.000000
-17.885885,13.589918,2.885771,-0.000000,0.000000,1.000000
24.152210,-8.692507,2.885771,-0.000000,0.000000,1.000000
64.601468,2.247426,1.781939,0.999048,0.043619,-0.000000
-13.510667,-17.823216,-2.885771,0.000000,0.000000,-1.000000
33.886210,-48.902107,2.885771,0.000000,0.000000,1.000000
-43.861075,-9.673279,2.885771,0.000000,-0.000000,1.000000
-52.566673,37.673331,-0.646524,-0.793353,0.608762,0.000000
-47.097968,-41.893646,-2.885771,0.000000,-0.000000,-1.000000
8.998178,-55.780806,2.885771,0.000000,-0.000000,1.000000
-10.282166,33.109550,-2.885771,0.000000,0.000000,-1.000000
-9.909674,-60.256616,-2.885771,0.000000,-0.000000,-1.000000
-58.595085,-24.750993,2.885771,0.000000,-0.000000,1.000000
36.456029,-25.030208,-2.885771,0.000000,-0.000000,-1.000000
-26.828950,-35.104000,-2.885771,0.000000,-0.000000,-1.000000
-18.062003,37.457164,2.885771,0.000000,0.000000,1.000000
-48.719859,-18.341949,2.885771,0.000000,-0.000000,1.000000
-15.905323,-6.799148,-2.599717,0.881921,0.471397,-0.000000
49.098556,-36.456884,-2.885771,0.000000,-0.000000,-1.000000
22.239868,-19.624922,-2.885771,0.000000,0.000000,-1.000000
20.111618,8.212585,-2.885771,0.000000,0.000000,-1.000000
-61.271293,-18.426557,2.885771,0.000000,-0.000000,1.000000
17.324702,1.748163,-2.885771,0.000000,0.000000,-1.000000
48.374734,25.185876,2.885771,0.000000,-0.000000,1.000000
23.677966,-34.953226,2.885771,0.000000,0.000000,1.000000
-48.432824,-41.395410,2.885771,-0.000000,0.000000,1.000000
30.019169,-40.858572,-2.885771,0.000000,-0.000000,-1.000000
33.567349,52.247074,2.885771,0.000000,-0.000000,1.000000
-3.867322,35.244835,2.885771,-0.000000,-0.000000,1.000000
-56.846919,23.161026,2.885771,-0.000000,-0.000000,1.000000
-42.116979,-13.301753,-2.885771,0.000000,0.000000,-1.000000
-32.557840,-30.268400,-2.885771,0.000000,-0.000000,-1.000000
32.045882,0.082421,-2.885771,0.000000,-0.000000,-1.000000
-0.050014,25.308435,-2.885771,0.000000,-0.000000,-1.000000
-64.232893,-7.313803,2.262559,-0.991445,-0.130526,0.000000
-15.945707,52.788910,-2.885771,0.000000,0.000000,-1.000000
35.533828,15.928860,-2.885771,0.000000,0.000000,-1.000000
22.321076,-53.501456,-2.885771,0.000000,0.000000,-1.000000
-29.549853,49.047662,-0.262462,0.773009,-0.634395,0.000000
42.089350,-21.769853,-2.885771,0.000000,-0.000000,-1.000000
40.528001,48.424284,2.885771,0.000000,-0.000000,1.000000
4.536150,-39.972652,2.885771,0.000000,-0.000000,1.000000
-6.366162,-16.483792,2.885771,0.000000,-0.000000,1.000000
40.087644,24.384367,-2.885771,0.000000,0.000000,-1.000000
0.058484,-32.889123,2.885771,0.000000,-0.000000,1.000000
48.891519,41.560148,2.885771,0.000000,-0.000000,1.000000
35.651688,-22.715221,-2.885771,0.000000,-0.000000,-1.000000
-20.299174,-61.143610,2.885771,-0.000000,0.000000,1.000000
52.441993,-19.691748,2.885771,-0.000000,0.000000,1.000000
-23.984501,60.028978,2.359237,-0.382684,0.923879,0.000000
-49.973646,41.052624,2.295187,-0.793353,0.608762,0.000000
13.471457,-59.619109,-2.885771,0.000000,0.000000,-1.000000
45.127157,-3.407353,2.885771,-0.000000,-0.000000,1.000000
1.571379,17.160951,0.180851,-0.098017,-0.995185,0.000000
18.809084,-20.827523,-2.885771,0.000000,-0.000000,-1.000000
-48.227474,-23.425864,2.885771,-0.000000,0.000000,1.000000
-13.876945,-12.004525,-2.885771,0.000000,0.000000,-1.000000
25.413328,26.755108,-2.885771,0.000000,0.000000,-1.000000
31.837774,24.017905,-2.885771,0.000000,0.000000,-1.000000
-8.028442,-15.248251,-1.452450,0.471397,0.881921,-0.000000
55.289788,-23.425714,2.885771,-0.000000,0.000000,1.000000
-10.651001,-55.646094,2.885771,-0.000000,0.000000,1.000000
0.974880,-57.180832,2.885771,0.000000,-0.000000,1.000000
37.566253,-9.043155,-2.885771,0.000000,-0.000000,-1.000000
33.140004,-4.145209,-2.885771,0.000000,0.000000,-1.000000
5.777461,-23.376007,2.885771,0.000000,-0.000000,1.000000
-4.032962,35.061740,2.885771,-0.000000,-0.000000,1.000000
47.219598,-35.507440,-2.885771,0.000000,-0.000000,-1.000000
49.300965,8.613081,2.885771,0.000000,-0.000000,1.000000
-38.796617,-38.310663,-2.885771,0.000000,-0.000000,-1.000000
-49.692847,-19.963735,2.885771,0.000000,-0.000000,1.000000
25.449941,46.199617,-1.734307,0.773012,0.634391,-0.000000
24.732044,-7.526351,-2.885771,0.000000,0.000000,-1.000000
-19.561768,-31.389192,2.885771,0.000000,0.000000,1.000000
-16.999274,40.743877,-2.885771,0.000000,0.000000,-1.000000
1.194012,64.647461,-1.794669,0.043619,0.999048,0.000000
-29.004838,35.674581,-2.885771,0.000000,0.000000,-1.000000
31.338996,5.046173,2.885771,0.000000,-0.000000,1.000000
-25.020651,47.864250,-1.495450,-0.995185,-0.098019,0.000000
-17.938067,-27.088067,-2.885771,0.000000,-0.000000,-1.000000
20.783912,-30.721824,-2.885771,-0.000000,-0.000000,-1.000000
-45.779505,37.348091,-2.885771,0.000000,0.000000,-1.000000
18.816229,-7.935405,-2.885771,0.000000,-0.000000,-1.000000
33.400361,16.037888,2.885771,0.000000,-0.000000,1.000000
-54.353570,10.584646,2.885771,-0.000000,-0.000000,1.000000
-23.519387,-51.684480,-2.885771,0.000000,-0.000000,-1.000000
-37.304473,37.759362,-2.885771,0.000000,0.000000,-1.000000
-50.782301,31.416839,2.885771,-0.000000,-0.000000,1.000000
60.546529,-20.095359,2.885771,-0.000000,0.000000,1.000000
-0.742338,55.874579,2.885771,-0.000000,0.000000,1.000000
28.892601,-43.675949,2.885771,0.000000,0.000000,1.000000
-21.192685,-52.739991,2.885771,-0.000000,0.000000,1.000000
-28.769476,-25.065349,-2.885771,0.000000,0.000000,-1.000000
-52.814842,-11.393764,2.885771,0.000000,-0.000000,1.000000
-32.710252,-27.612732,-2.885771,0.000000,0.000000,-1.000000
-55.792507,11.614840,2.885771,-0.000000,-0.000000,1.000000
-52.139912,-11.711144,-2.885771,0.000000,0.000000,-1.000000
-37.723782,-14.668320,2.885771,0.000000,-0.000000,1.000000
33.391747,33.806655,-2.885771,0.000000,0.000000,-1.000000
47.162977,14.055339,-2.885771,0.000000,0.000000,-1.000000
32.082076,25.295579,2.885771,0.000000,-0.000000,1.000000
-38.249999,27.159265,-2.885771,0.000000,0.000000,-1.000000
-51.991179,-35.805723,2.885771,0.000000,-0.000000,1.000000
2.579332,-28.308077,2.885771,0.000000,-0.000000,1.000000
53.207735,-26.696538,2.885771,-0.000000,0.000000,1.000000
-58.252812,-28.082681,-0.425064,-0.887011,-0.461748,0.000000
15.661369,-43.714367,2.885771,0.000000,0.000000,1.000000
-36.301417,16.679200,2.885771,-0.000000,0.000000,1.000000
16.962519,-3.445650,2.840052,-0.956940,0.290285,0.000000
-3.647808,-28.944740,2.885771,0.000000,-0.000000,1.000000
-37.922019,19.116769,2.885771,-0.000000,-0.000000,1.000000
-37.231758,-13.949912,2.885771,0.000000,-0.000000,1.000000
52.412092,-12.796652,2.885771,-0.000000,0.000000,1.000000
37.964928,2.679989,2.885771,0.000000,-0.000000,1.000000
-52.691313,-27.308442,2.885771,-0.000000,0.000000,1.000000
-1.744689,-64.623418,1.333403,-0.043619,-0.999048,0.000000
-24.131834,-57.662283,2.885771,-0.000000,0.000000,1.000000
-36.923118,-7.852070,2.885771,0.000000,-0.000000,1.000000
-19.285420,-16.914685,-2.885771,0.000000,0.000000,-1.000000
-6.437628,-33.085997,2.885771,-0.000000,0.000000,1.000000
-34.533501,-27.257077,-2.885771,0.000000,0.000000,-1.000000
-16.556918,23.727746,-2.885771,0.000000,-0.000000,-1.000000
-31.288903,-41.840209,2.885771,-0.000000,0.000000,1.000000
12.658216,-41.318483,2.885771,0.000000,-0.000000,1.000000
14.553975,-42.241088,-2.885771,0.000000,0.000000,-1.000000
-44.537349,0.146134,-2.885771,0.000000,0.000000,-1.000000
-15.274556,-33.797802,-2.885771,0.000000,-0.000000,-1.000000
-4.008699,-41.688038,2.885771,0.000000,-0.000000,1.000000
46.479216,12.274866,2.885771,0.000000,-0.000000,1.000000
-52.679833,2.776091,-2.885771,-0.000000,-0.000000,-1.000000
-47.138970,16.444783,2.885771,-0.000000,-0.000000,1.000000
-61.842637,18.814552,0.879222,-0.953717,0.300706,0.000000
-18.776692,-11.379191,-2.885771,0.000000,-0.000000,-1.000000
-30.542696,-39.285028,-2.885771,0.000000,-0.000000,-1.000000
23.676408,-12.270745,2.885771,-0.000000,-0.000000,1.000000
28.364155,-26.966626,2.885771,-0.000000,0.000000,1.000000
-2.014673,-46.250641,-2.885771,0.000000,-0.000000,-1.000000
-15.327931,-7.879372,-1.051604,0.881921,0.471397,-0.000000
-12.167773,35.264610,2.885771,0.000000,-0.000000,1.000000
-23.201894,49.952844,2.885771,0.000000,0.000000,1.000000
-25.292942,46.472896,-0.034642,-0.881922,0.471395,0.000000
-18.252363,55.261968,-2.885771,0.000000,0.000000,-1.000000
48.219503,-4.493356,2.885771,-0.000000,-0.000000,1.000000
52.263311,-34.639770,-2.885771,0.000000,-0.000000,-1.000000
-41.057913,14.967346,2.885771,-0.000000,-0.000000,1.000000
14.986450,-11.423021,-2.885771,0.000000,0.000000,-1.000000
-18.079118,62.074518,-1.939658,-0.300706,0.953717,0.000000
-43.835910,-32.745575,2.885771,0.000000,-0.000000,1.000000
-57.460411,0.348347,-1.182676,0.995185,-0.098018,0.000000
-47.122242,32.256926,2.885771,-0.000000,-0.000000,1.000000
18.699265,31.790943,-2.885771,0.000000,-0.000000,-1.000000
