x,y,z,nx,ny,nz
59.602394,1.694566,-4.833063,-0.290284,0.956940,0.000000
60.807708,0.000000,7.075139,0.000000,-1.000000,0.000000
62.042993,0.000000,-12.237232,0.000000,-1.000000,0.000000
58.919156,0.000000,-0.130368,0.000000,-1.000000,0.000000
53.748451,0.000000,1.526729,0.000000,-1.000000,0.000000
54.964390,3.585096,-0.220354,-0.831181,0.555377,0.026362
63.664639,0.144663,-6.107854,0.980311,0.194995,-0.031092
55.427493,3.175709,-11.805927,0.881922,0.471395,-0.000000
53.605298,1.047542,-3.497311,-0.980311,0.194996,0.031092
61.099389,0.000000,-4.807625,0.000000,-1.000000,0.000000
56.648631,2.007924,-3.579313,0.471395,0.881922,-0.000000
54.142056,3.112145,10.909839,-0.826373,0.557535,-0.079138
57.797473,0.000000,0.928814,0.000000,-1.000000,0.000000
57.903084,1.553184,6.175176,0.098017,0.995185,-0.000000
58.253266,1.518694,11.570091,0.098017,0.995185,0.000000
54.351853,0.000000,2.211025,0.000000,-1.000000,0.000000
61.940692,0.980450,12.451302,-0.000000,-0.000000,1.000000
57.876955,1.555757,5.727303,0.098017,0.995185,-0.000000
57.497414,0.000000,6.953455,0.000000,-1.000000,0.000000
61.551659,0.000000,12.248682,0.000000,-1.000000,0.000000
57.595009,1.618989,0.099898,0.290286,0.956940,0.000000
61.614519,3.351108,9.888384,-0.881920,0.471399,-0.000000
60.852360,2.408585,11.181933,-0.634393,0.773010,0.000000
62.368987,2.929987,11.524274,0.826373,0.557534,0.079138
56.455555,0.000000,4.952852,0.000000,-1.000000,0.000000
59.934486,1.812751,5.120023,-0.471397,0.881921,0.000000
62.401659,0.000000,10.004009,0.000000,-1.000000,0.000000
59.379573,1.089779,-12.451302,0.000000,0.000000,-1.000000
59.580586,1.687951,-12.125238,-0.290284,0.956940,0.000000
55.100820,0.000000,10.447755,0.000000,-1.000000,0.000000
53.515891,0.484967,-2.788025,-0.980311,0.194996,0.031092
55.834497,2.655214,12.101177,0.773011,0.634393,0.000000
53.041392,1.018353,12.439925,-0.976128,0.196052,-0.093479
58.909854,1.539856,-6.673958,-0.098017,0.995185,0.000000
55.746713,0.000000,3.636338,0.000000,-1.000000,0.000000
63.704659,0.686877,1.445451,0.980311,0.194995,0.031092
54.825317,3.558029,-4.035007,-0.831181,0.555377,0.026362
57.391557,0.000000,10.413974,0.000000,-1.000000,0.000000
61.629895,3.379874,-8.420582,-0.881919,0.471401,0.000000
53.773431,2.707961,11.911585,-0.826374,0.557534,-0.079137
54.624341,0.000000,-4.578902,0.000000,-1.000000,0.000000
58.740508,0.000000,5.938777,0.000000,-1.000000,0.000000
55.000689,0.000000,-6.620348,0.000000,-1.000000,0.000000
57.309352,0.000000,1.807200,0.000000,-1.000000,0.000000
56.276038,2.260748,-2.577999,0.634393,0.773010,0.000000
55.596666,2.945012,-0.423087,0.773011,0.634393,-0.000000
57.107662,0.000000,3.140897,0.000000,-1.000000,0.000000
63.011222,1.525132,-12.435044,0.976128,0.196052,-0.093479
63.367025,0.348414,11.187586,0.976128,0.196052,0.093479
56.448624,2.119110,11.488288,0.634393,0.773010,0.000000
60.576199,2.181946,-8.493715,-0.634393,0.773010,0.000000
57.451806,0.000000,-6.307279,0.000000,-1.000000,0.000000
57.422170,1.671419,1.649046,0.290286,0.956940,0.000000
54.923297,3.578088,1.368327,-0.831180,0.555377,-0.026362
62.593253,2.932762,-8.394124,0.831180,0.555377,-0.026362
53.701201,1.457326,3.043549,-0.980311,0.194996,-0.031092
58.707088,0.000000,0.204963,0.000000,-1.000000,0.000000
54.519482,0.000000,-10.782680,0.000000,-1.000000,0.000000
55.052633,0.000000,-7.356641,0.000000,-1.000000,0.000000
53.836914,2.549842,-10.134719,-0.826373,0.557535,0.079137
53.649099,1.131166,2.640771,-0.980311,0.194996,-0.031092
53.902191,2.682451,10.387323,-0.826374,0.557534,-0.079137
55.318780,1.568975,-12.451302,0.000000,0.000000,-1.000000
53.726052,2.616422,11.761423,-0.826374,0.557534,-0.079137
53.407534,0.291123,-4.988743,-0.980311,0.194996,0.031092
62.786519,2.813790,4.806967,0.831180,0.555377,0.026362
61.852312,3.845555,2.504916,-0.956939,0.290290,-0.000000
62.213342,0.000000,8.619106,0.000000,-1.000000,0.000000
63.471550,1.998767,0.378613,0.831180,0.555377,0.026362
61.930280,0.000000,-8.657584,0.000000,-1.000000,0.000000
59.506017,1.665331,5.989241,-0.290284,0.956940,0.000000
62.445161,0.000000,-3.781118,0.000000,-1.000000,0.000000
62.746538,2.822764,-5.878456,0.831180,0.555377,-0.026362
58.360540,1.508128,5.155147,0.098017,0.995185,0.000000
53.741571,0.000000,-0.867256,0.000000,-1.000000,0.000000
60.014705,0.000000,-6.110342,0.000000,-1.000000,0.000000
56.301165,0.000000,-1.478873,0.000000,-1.000000,0.000000
60.124513,1.914323,-8.380855,-0.471397,0.881921,0.000000
53.666714,1.157054,-2.247723,-0.980311,0.194996,0.031092
63.508282,0.640226,-7.929779,0.980311,0.194996,-0.031092
62.188788,0.000000,10.133854,0.000000,-1.000000,0.000000
56.270064,2.265650,9.555731,0.634393,0.773010,0.000000
55.348026,3.324382,2.033657,0.881922,0.471395,0.000000
63.301118,2.009920,5.517318,0.831180,0.555377,0.026362
53.088928,0.694202,11.263708,-0.976128,0.196052,-0.093479
54.493056,1.954766,-12.451302,0.000000,0.000000,-1.000000
60.423627,2.074203,-9.728985,-0.471397,0.881921,0.000000
62.904144,0.000000,2.203099,0.000000,-1.000000,0.000000
56.446088,0.000000,6.324516,0.000000,-1.000000,0.000000
53.353244,0.000000,-6.720502,0.000000,-1.000000,0.000000
60.817816,2.380236,-5.475718,-0.634393,0.773010,0.000000
60.867524,0.000000,4.049403,0.000000,-1.000000,0.000000
57.377289,0.000000,-0.061790,0.000000,-1.000000,0.000000
53.784834,2.469873,10.115146,-0.826374,0.557534,-0.079137
53.934922,2.394300,-7.592020,-0.831180,0.555377,0.026362
52.990835,0.734496,-12.372529,-0.976128,0.196052,0.093479
53.720465,0.000000,2.101907,0.000000,-1.000000,0.000000
53.832720,1.736423,0.647222,-0.980311,0.194996,-0.031092
54.028416,2.202525,-0.604015,-0.831181,0.555377,0.026362
62.007886,3.820320,4.215953,0.555485,0.831340,0.017618
61.467058,3.085709,-7.747162,-0.773011,0.634393,0.000000
53.609468,0.549737,-0.243790,-0.980311,0.194996,0.031092
63.464841,1.680294,2.776532,0.980311,0.194995,0.031092
60.675632,2.263548,12.334784,-0.634393,0.773010,0.000000
63.060031,2.220844,-8.675062,0.831180,0.555377,-0.026362
53.400911,2.141775,11.812682,-0.826374,0.557534,-0.079137
60.514026,1.494822,-12.451302,0.000000,0.000000,-1.000000
60.199160,0.000000,4.749572,0.000000,-1.000000,0.000000
60.112071,1.907672,3.591190,-0.471397,0.881921,0.000000
62.310231,3.353328,8.457450,0.831180,0.555377,0.026362
58.523644,1.501817,11.945658,-0.098017,0.995185,0.000000
62.770388,2.672068,8.301254,0.831180,0.555377,0.026362
59.906260,0.000000,-1.721020,0.000000,-1.000000,0.000000
53.720075,1.744518,-4.249617,-0.980311,0.194996,0.031092
60.283005,0.000000,-10.539916,0.000000,-1.000000,0.000000
61.552372,0.000000,-7.081231,0.000000,-1.000000,0.000000
60.329572,2.023929,-10.294166,-0.471397,0.881921,0.000000
63.146037,1.708375,10.642962,0.976128,0.196052,0.093479
54.524045,3.530679,-9.869654,-0.826374,0.557534,0.079138
57.485944,0.000000,1.831183,0.000000,-1.000000,0.000000
62.609063,3.278895,0.603483,0.831181,0.555377,0.026362
53.590590,0.000000,-3.723507,0.000000,-1.000000,0.000000
62.584563,2.783020,10.308584,0.826373,0.557535,0.079138
60.851643,0.000000,8.675857,0.000000,-1.000000,0.000000
59.881053,0.000000,5.443513,0.000000,-1.000000,0.000000
54.380491,0.000000,7.931536,0.000000,-1.000000,0.000000
55.340080,3.339247,-5.435603,0.881922,0.471395,-0.000000
56.109421,2.397487,11.812621,0.634393,0.773010,0.000000
61.663753,3.443218,7.711621,-0.881920,0.471399,-0.000000
57.097128,1.770020,8.078073,0.290286,0.956940,-0.000000
57.866268,1.556810,-10.007105,0.098017,0.995185,-0.000000
53.915048,2.097438,1.964573,-0.831181,0.555377,-0.026362
57.179923,0.000000,5.334132,0.000000,-1.000000,0.000000
62.500774,0.128459,-12.451302,0.000000,0.000000,-1.000000
55.803668,2.692779,10.862764,0.773011,0.634393,0.000000
63.453324,1.592526,3.690091,0.980311,0.194995,0.031092
63.082284,0.000000,3.137111,0.000000,-1.000000,0.000000
61.109315,2.649797,-1.639299,-0.773011,0.634393,0.000000
56.900854,1.873108,-1.639905,0.471395,0.881922,0.000000
55.131343,3.729768,-4.894240,0.881922,0.471395,-0.000000
54.381007,1.621830,12.451302,0.000000,-0.000000,1.000000
58.800534,1.529089,-11.719236,-0.098017,0.995185,0.000000
55.333462,2.367596,-12.451302,0.000000,0.000000,-1.000000
62.505159,1.522913,12.451302,0.000000,0.000000,1.000000
58.658628,1.515112,8.714480,-0.098017,0.995185,0.000000
61.725713,0.000000,9.533719,0.000000,-1.000000,0.000000
53.769246,1.420370,-0.666346,-0.980311,0.194996,0.031092
58.598675,0.000000,-4.562290,0.000000,-1.000000,0.000000
54.976867,3.738170,4.842052,-0.555487,0.831339,-0.017618
55.632229,2.901678,5.284045,0.773011,0.634393,0.000000
63.095600,2.237062,-7.211900,0.831181,0.555377,-0.026362
60.718879,2.299040,5.603995,-0.634393,0.773010,0.000000
63.261021,2.270079,-1.300664,0.831181,0.555377,-0.026362
62.342460,3.500701,-4.336495,0.831180,0.555377,-0.026362
54.177673,0.000000,-11.135345,0.000000,-1.000000,0.000000
55.915076,0.000000,-8.144231,0.000000,-1.000000,0.000000
62.156508,3.790551,0.934695,0.555483,0.831342,0.017617
57.843374,1.559064,7.754176,0.098017,0.995185,-0.000000
63.035872,1.658658,11.897595,0.976128,0.196052,0.093479
59.216201,1.577416,3.221215,-0.290284,0.956940,0.000000
53.335795,0.915233,-9.149425,-0.976128,0.196052,0.093479
56.028493,2.463903,-10.937168,0.634393,0.773010,-0.000000
57.271814,1.717030,-6.281975,0.290286,0.956940,-0.000000
55.414660,2.433392,12.451302,0.000000,-0.000000,1.000000
53.421252,1.385868,9.244114,-0.976128,0.196052,-0.093479
54.978399,3.828186,-8.606108,-0.551087,0.832777,0.052775
54.178478,2.710327,-6.570688,-0.831180,0.555377,0.026362
55.794386,2.704089,-6.646377,0.773011,0.634393,-0.000000
54.548522,2.962386,0.213594,-0.831181,0.555377,-0.026362
62.605812,0.500823,12.451302,-0.000000,-0.000000,1.000000
53.515208,0.000000,-11.694095,0.000000,-1.000000,0.000000
53.537496,0.914219,-4.798912,-0.980311,0.194996,0.031092
53.370431,0.000000,5.852233,0.000000,-1.000000,0.000000
53.530906,1.036341,-12.451302,0.000000,0.000000,-1.000000
54.195324,2.509611,1.810974,-0.831181,0.555377,-0.026362
62.711555,3.108277,-0.966444,0.831181,0.555377,-0.026362
63.686246,0.089404,-5.773151,0.980311,0.194995,-0.031092
53.888403,2.311655,-7.317647,-0.831180,0.555377,0.026362
56.610136,2.028499,-5.778417,0.471395,0.881922,-0.000000
61.690441,3.493147,0.854769,-0.881920,0.471399,-0.000000
55.960562,2.519652,2.415350,0.634393,0.773010,-0.000000
63.034060,0.000000,10.730753,0.000000,-1.000000,0.000000
55.977545,0.000000,6.330543,0.000000,-1.000000,0.000000
58.337246,0.000000,-8.828145,0.000000,-1.000000,0.000000
62.638492,2.947397,6.659428,0.831180,0.555377,0.026362
54.055561,2.315660,-2.131604,-0.831180,0.555377,0.026362
62.703591,0.000000,8.437840,0.000000,-1.000000,0.000000
60.484877,0.000000,-11.137192,0.000000,-1.000000,0.000000
63.187240,2.257622,-3.889396,0.831181,0.555377,-0.026362
58.230054,1.520980,6.124980,0.098017,0.995185,0.000000
61.624730,3.370211,-7.597706,-0.881919,0.471401,0.000000
55.758705,2.747567,-0.852279,0.773011,0.634393,0.000000
53.530073,0.000000,-2.067881,0.000000,-1.000000,0.000000
59.781793,0.000000,-11.938324,0.000000,-1.000000,0.000000
56.290433,2.248934,6.623563,0.634393,0.773010,0.000000
61.549302,0.000000,-4.928094,0.000000,-1.000000,0.000000
62.725766,2.370235,-11.742230,0.826373,0.557535,-0.079138
54.772859,0.000000,5.290931,0.000000,-1.000000,0.000000
59.104915,1.559068,7.456902,-0.098017,0.995185,0.000000
61.236009,2.563109,-12.451302,0.000000,0.000000,-1.000000
56.512931,0.000000,11.637204,0.000000,-1.000000,0.000000
55.578154,2.967569,1.913495,0.773011,0.634393,-0.000000
57.955945,1.547977,2.972702,0.098017,0.995185,-0.000000
61.294739,2.875737,-3.810866,-0.773011,0.634393,0.000000
62.455997,0.000000,7.667977,0.000000,-1.000000,0.000000
60.096924,0.000000,3.983903,0.000000,-1.000000,0.000000
58.061032,1.537627,-4.990446,0.098017,0.995185,-0.000000
53.105302,0.688191,11.080110,-0.976128,0.196052,-0.093479
55.727056,2.786131,-9.619470,0.773011,0.634393,-0.000000
61.013751,0.000000,-8.096634,0.000000,-1.000000,0.000000
56.837353,0.000000,0.881032,0.000000,-1.000000,0.000000
61.661161,3.438368,-0.941097,-0.881920,0.471399,-0.000000
54.333273,2.709251,-1.667407,-0.831181,0.555377,0.026362
62.714047,0.000000,-9.805950,0.000000,-1.000000,0.000000
55.523673,0.000000,-6.300518,0.000000,-1.000000,0.000000
60.579068,0.000000,9.220687,0.000000,-1.000000,0.000000
60.675966,0.000000,3.753898,0.000000,-1.000000,0.000000
57.514888,0.000000,0.224821,0.000000,-1.000000,0.000000
55.363447,0.000000,10.715541,0.000000,-1.000000,0.000000
55.165781,0.000000,8.152718,0.000000,-1.000000,0.000000
60.484774,1.130758,12.451302,-0.000000,-0.000000,1.000000
62.966182,2.048812,11.496220,0.826373,0.557535,0.079138
55.194870,3.610917,6.079500,0.881922,0.471395,-0.000000
61.607116,3.337258,7.465030,-0.881920,0.471399,-0.000000
60.628205,2.224626,-10.941132,-0.634393,0.773010,0.000000
53.345172,0.175533,-6.230044,-0.980311,0.194996,0.031092
59.856187,0.000000,6.098241,0.000000,-1.000000,0.000000
58.367018,0.000000,-6.079707,0.000000,-1.000000,0.000000
60.394606,0.000000,-7.100822,0.000000,-1.000000,0.000000
62.633831,0.000000,8.435279,0.000000,-1.000000,0.000000
54.497211,3.231015,-7.490695,-0.831180,0.555377,0.026362
53.442827,0.035666,2.273864,-0.980311,0.194996,-0.031092
54.208512,0.000000,-4.220611,0.000000,-1.000000,0.000000
60.248840,0.000000,6.222410,0.000000,-1.000000,0.000000
61.700720,0.000000,-2.592905,0.000000,-1.000000,0.000000
58.943788,1.543198,-9.601421,-0.098017,0.995185,0.000000
55.718401,2.241519,12.451302,0.000000,-0.000000,1.000000
56.744349,1.956762,12.116983,0.471395,0.881922,0.000000
53.726524,2.151774,-8.483001,-0.826373,0.557535,0.079137
56.985758,1.827726,-10.465558,0.471395,0.881922,-0.000000
53.727195,2.628181,11.832332,-0.826374,0.557534,-0.079137
60.411992,2.067984,-6.235186,-0.471397,0.881921,0.000000
61.884966,0.334269,12.451302,-0.000000,-0.000000,1.000000
61.913536,3.721838,-10.245493,0.551087,0.832777,-0.052775
60.474605,0.396022,12.451302,0.000000,-0.000000,1.000000
63.676272,0.583422,2.989334,0.980311,0.194996,0.031092
60.344876,2.032109,10.525748,-0.471397,0.881921,0.000000
63.316090,1.900627,6.084745,0.980311,0.194995,0.031092
63.449887,1.544180,4.101664,0.980311,0.194995,0.031092
57.296612,0.000000,5.102468,0.000000,-1.000000,0.000000
63.442397,1.404555,5.213490,0.980311,0.194995,0.031092
61.503176,3.142801,7.618802,-0.881919,0.471401,0.000000
63.570611,0.268638,8.295012,0.980311,0.194996,0.031092
62.128600,0.000000,6.980740,0.000000,-1.000000,0.000000
63.375135,1.446722,7.069777,0.980311,0.194996,0.031092
60.045226,1.871943,1.747065,-0.471397,0.881921,0.000000
59.203383,1.573528,10.922046,-0.290284,0.956940,0.000000
63.015217,1.661218,12.107916,0.976128,0.196052,0.093479
53.393256,0.835619,-8.382433,-0.976128,0.196052,0.093479
60.827907,2.388518,-7.043136,-0.634393,0.773010,0.000000
59.496091,1.662320,-1.866937,-0.290284,0.956940,0.000000
55.743275,2.766368,-6.586228,0.773011,0.634393,-0.000000
56.213713,0.000000,-0.961743,0.000000,-1.000000,0.000000
59.897355,1.792904,10.715089,-0.471397,0.881921,0.000000
53.343912,0.159204,6.167388,-0.980311,0.194996,-0.031092
55.875311,2.605481,10.436966,0.773011,0.634393,0.000000
56.908269,1.869145,1.338118,0.471395,0.881922,0.000000
56.776041,1.939822,3.778283,0.471395,0.881922,0.000000
58.812501,1.530267,-11.754620,-0.098017,0.995185,0.000000
53.630370,2.382299,-11.111141,-0.826373,0.557535,0.079137
55.471293,3.097779,-8.344103,0.773011,0.634393,-0.000000
60.790976,0.000000,4.178972,0.000000,-1.000000,0.000000
55.199628,1.676672,12.451302,-0.000000,-0.000000,1.000000
58.747200,1.523836,5.802041,-0.098017,0.995185,0.000000
59.220567,1.578740,-10.143307,-0.290284,0.956940,0.000000
60.944300,2.484039,-6.435784,-0.634393,0.773010,0.000000
57.927457,1.550783,-12.219298,0.098017,0.995185,-0.000000
55.172186,3.653356,5.793633,0.881922,0.471395,-0.000000
53.431295,0.006356,2.453625,-0.980311,0.194996,-0.031092
53.912025,0.000000,-2.506939,0.000000,-1.000000,0.000000
58.803861,0.000000,9.100934,0.000000,-1.000000,0.000000
59.341389,1.615391,-9.006753,-0.290284,0.956940,0.000000
55.257586,3.493583,-4.240155,0.881922,0.471395,-0.000000
59.723904,1.731426,-4.016047,-0.290284,0.956940,0.000000
59.461149,1.651720,2.874327,-0.290284,0.956940,0.000000
60.355148,0.000000,-0.524045,0.000000,-1.000000,0.000000
54.631203,0.000000,10.309279,0.000000,-1.000000,0.000000
62.424137,2.855067,-11.476203,0.826373,0.557535,-0.079138
53.092445,0.000000,10.827264,0.000000,-1.000000,0.000000
60.552292,2.162326,-6.797085,-0.634393,0.773010,0.000000
61.035564,0.000000,5.957904,0.000000,-1.000000,0.000000
61.526678,2.050000,-12.451302,0.000000,0.000000,-1.000000
56.295681,2.244627,-0.795967,0.634393,0.773010,0.000000
60.739844,2.316246,7.921212,-0.634393,0.773010,0.000000
63.457770,2.031307,0.127583,0.831181,0.555377,0.026362
61.487560,0.000000,6.531433,0.000000,-1.000000,0.000000
52.959814,0.456934,12.114320,-0.976128,0.196052,-0.093479
61.104949,2.644477,9.502879,-0.773011,0.634393,0.000000
54.603446,1.552163,12.451302,0.000000,-0.000000,1.000000
54.511183,0.000000,8.424886,0.000000,-1.000000,0.000000
62.092984,3.852666,-0.006451,0.555483,0.831342,-0.017618
54.880843,3.726877,7.336743,-0.555487,0.831339,-0.017618
55.665342,0.000000,1.825262,0.000000,-1.000000,0.000000
53.605969,1.811665,8.208274,-0.976128,0.196052,-0.093479
53.931166,2.773099,-10.723391,-0.826374,0.557534,0.079138
55.806897,2.688845,12.145514,0.773011,0.634393,0.000000
55.475837,3.092242,9.817165,0.773011,0.634393,-0.000000
59.721862,1.730806,8.088771,-0.290284,0.956940,0.000000
56.722409,0.000000,-9.908269,0.000000,-1.000000,0.000000
55.924023,0.000000,10.076447,0.000000,-1.000000,0.000000
58.200676,1.523873,8.178197,0.098017,0.995185,0.000000
59.338359,1.614472,-1.431016,-0.290284,0.956940,0.000000
61.214849,0.000000,9.931533,0.000000,-1.000000,0.000000
61.013296,0.000000,-10.117800,0.000000,-1.000000,0.000000
54.491552,0.000000,-4.531478,0.000000,-1.000000,0.000000
54.716280,0.000000,8.278467,0.000000,-1.000000,0.000000
59.291176,0.000000,7.178484,0.000000,-1.000000,0.000000
62.391749,3.600074,0.688931,0.831181,0.555377,0.026362
56.456088,2.112984,5.149171,0.634393,0.773010,0.000000
62.789377,2.787712,-5.266231,0.831180,0.555377,-0.026362
53.919552,2.594625,-9.587292,-0.826373,0.557535,0.079137
58.022243,1.541447,8.075453,0.098017,0.995185,0.000000
63.193376,1.574062,-10.430324,0.976128,0.196052,-0.093479
61.958079,0.000000,6.900953,0.000000,-1.000000,0.000000
60.123439,1.913749,-11.434375,-0.471397,0.881921,0.000000
56.363525,1.684751,12.451302,-0.000000,-0.000000,1.000000
62.149166,0.000000,-8.645103,0.000000,-1.000000,0.000000
62.085987,3.734022,5.825624,0.555485,0.831340,0.017618
53.627753,1.740511,7.135352,-0.980311,0.194996,-0.031092
56.245459,2.285844,4.964991,0.634393,0.773010,0.000000
58.686806,0.000000,-2.777713,0.000000,-1.000000,0.000000
53.681939,1.152752,1.740717,-0.980311,0.194996,-0.031092
58.324232,0.000000,9.300085,0.000000,-1.000000,0.000000
60.136208,0.000000,-0.720790,0.000000,-1.000000,0.000000
54.219780,3.406484,12.171887,-0.826374,0.557534,-0.079137
61.661615,3.439218,-8.323427,-0.881919,0.471401,0.000000
55.599032,2.942129,0.155655,0.773011,0.634393,-0.000000
63.110275,0.000000,-2.877071,0.000000,-1.000000,0.000000
54.825111,0.000000,-10.859217,0.000000,-1.000000,0.000000
57.948547,1.128668,12.451302,-0.000000,-0.000000,1.000000
58.366390,0.000000,0.588704,0.000000,-1.000000,0.000000
54.036205,0.000000,0.466779,0.000000,-1.000000,0.000000
62.174695,2.836585,-12.451302,0.000000,0.000000,-1.000000
54.682963,3.735330,10.225853,-0.551084,0.832779,-0.052775
61.520054,1.680758,-12.451302,0.000000,0.000000,-1.000000
62.911119,2.426412,9.039387,0.831180,0.555377,0.026362
53.724717,1.652645,3.527065,-0.980311,0.194996,-0.031092
53.712111,2.516769,11.204936,-0.826374,0.557534,-0.079137
58.998149,0.000000,-4.149316,0.000000,-1.000000,0.000000
60.707520,2.289718,4.503319,-0.634393,0.773010,0.000000
62.301002,0.000000,-6.851860,0.000000,-1.000000,0.000000
55.688620,0.000000,11.409639,0.000000,-1.000000,0.000000
58.190025,0.000000,9.261093,0.000000,-1.000000,0.000000
55.712870,2.803416,1.175422,0.773011,0.634393,0.000000
59.110773,0.000000,2.580185,0.000000,-1.000000,0.000000
55.421690,3.186566,-5.959382,0.881922,0.471395,0.000000
53.531385,1.267149,7.205027,-0.980311,0.194996,-0.031092
53.050862,0.506771,11.268096,-0.976128,0.196052,-0.093479
55.370079,3.283122,5.332133,0.881922,0.471395,0.000000
53.281708,0.009675,-7.190870,-0.980311,0.194996,0.031092
59.275685,1.595460,9.688605,-0.290284,0.956940,0.000000
58.013684,0.000000,-3.419311,0.000000,-1.000000,0.000000
58.674219,1.516648,-2.622668,-0.098017,0.995185,0.000000
62.808008,2.565221,-9.366132,0.831180,0.555377,-0.026362
58.253891,0.000000,-9.236483,0.000000,-1.000000,0.000000
56.415099,2.146623,-0.061499,0.634393,0.773010,0.000000
62.571957,2.930605,-9.110993,0.831180,0.555377,-0.026362
54.279125,0.000000,11.006947,0.000000,-1.000000,0.000000
55.552410,2.998938,6.273814,0.773011,0.634393,-0.000000
59.144958,1.563012,4.142922,-0.098017,0.995185,0.000000
58.688316,0.000000,-9.498390,0.000000,-1.000000,0.000000
56.019514,0.000000,-4.774093,0.000000,-1.000000,0.000000
62.615132,0.000000,11.585195,0.000000,-1.000000,0.000000
61.246374,2.816804,-0.232943,-0.773011,0.634393,0.000000
60.973203,2.507759,-5.319256,-0.634393,0.773010,0.000000
57.467972,1.657525,5.279253,0.290286,0.956940,0.000000
53.631189,0.000000,-2.200429,0.000000,-1.000000,0.000000
53.486599,0.648090,4.734633,-0.980311,0.194996,-0.031092
58.996336,1.229197,-12.451302,0.000000,0.000000,-1.000000
55.679083,0.000000,-1.846450,0.000000,-1.000000,0.000000
60.492534,2.113284,1.251981,-0.634393,0.773010,0.000000
62.609689,3.149635,-3.306946,0.831180,0.555377,-0.026362
59.913296,1.801425,-7.706090,-0.471397,0.881921,0.000000
60.970500,2.505540,9.807449,-0.634393,0.773010,0.000000
55.672449,0.000000,11.756525,0.000000,-1.000000,0.000000
59.700238,0.000000,6.052939,0.000000,-1.000000,0.000000
61.854716,3.853479,-1.021776,-0.956939,0.290290,-0.000000
63.256944,1.766613,8.790085,0.980311,0.194996,0.031092
55.003692,3.830745,8.364587,-0.555486,0.831340,-0.017618
63.629844,0.000000,7.326352,0.000000,-1.000000,0.000000
62.501077,3.439497,-0.624775,0.831181,0.555377,-0.026362
63.230676,0.913580,11.426055,0.976128,0.196052,0.093479
53.789774,1.730807,1.966058,-0.980311,0.194996,-0.031092
60.823354,0.000000,-7.106715,0.000000,-1.000000,0.000000
62.542554,3.277759,-2.724420,0.831180,0.555377,-0.026362
63.010547,2.262075,-9.366633,0.831180,0.555377,-0.026362
53.898609,0.000000,1.968108,0.000000,-1.000000,0.000000
59.631123,1.703281,3.851165,-0.290284,0.956940,0.000000
56.939778,0.000000,0.444478,0.000000,-1.000000,0.000000
54.438347,3.265424,-8.895778,-0.826373,0.557535,0.079137
56.156946,2.358485,-12.038528,0.634393,0.773010,-0.000000
59.977082,1.835519,-4.428366,-0.471397,0.881921,0.000000
58.244363,0.802799,-12.451302,0.000000,0.000000,-1.000000
56.671426,0.000000,-9.077108,0.000000,-1.000000,0.000000
53.503540,0.882979,5.673642,-0.980311,0.194996,-0.031092
60.712663,2.293939,-8.663019,-0.634393,0.773010,0.000000
60.527359,0.000000,8.776853,0.000000,-1.000000,0.000000
60.920195,0.000000,4.699020,0.000000,-1.000000,0.000000
54.106213,0.000000,4.728719,0.000000,-1.000000,0.000000
63.002077,0.000000,-9.824065,0.000000,-1.000000,0.000000
54.230923,3.119472,10.033495,-0.826373,0.557535,-0.079138
58.626083,1.511907,9.653468,-0.098017,0.995185,0.000000
57.635307,0.000000,3.764328,0.000000,-1.000000,0.000000
57.409744,1.675189,-4.385494,0.290286,0.956940,-0.000000
53.631749,1.428819,5.054560,-0.980311,0.194996,-0.031092
55.484039,3.082248,4.506133,0.773011,0.634393,-0.000000
55.243889,3.519208,-11.798002,0.881922,0.471395,-0.000000
56.134804,0.000000,-7.523374,0.000000,-1.000000,0.000000
55.311204,0.378074,-12.451302,0.000000,0.000000,-1.000000
61.437345,3.049503,-3.599428,-0.773011,0.634393,0.000000
54.505728,3.190258,6.363518,-0.831180,0.555377,-0.026362
63.879478,0.010600,0.174811,0.980311,0.194996,0.031092
56.462448,0.000000,9.700125,0.000000,-1.000000,0.000000
59.713173,0.000000,-5.758551,0.000000,-1.000000,0.000000
61.336349,2.926439,-8.427820,-0.773011,0.634393,0.000000
57.075714,0.000000,-8.579439,0.000000,-1.000000,0.000000
58.956894,1.544489,6.478844,-0.098017,0.995185,0.000000
54.432188,3.001213,-4.699535,-0.831181,0.555377,0.026362
54.212640,2.961166,9.109133,-0.826373,0.557535,-0.079138
60.474107,0.000000,8.450863,0.000000,-1.000000,0.000000
56.594675,2.036763,-10.276614,0.471395,0.881922,-0.000000
57.822313,0.000000,-11.510624,0.000000,-1.000000,0.000000
61.631771,3.383383,-8.736308,-0.881919,0.471401,0.000000
54.025229,2.448164,5.879448,-0.831181,0.555377,-0.026362
55.376658,0.000000,-10.351606,0.000000,-1.000000,0.000000
57.796726,0.000000,7.904527,0.000000,-1.000000,0.000000
53.682003,2.060958,8.308080,-0.826373,0.557535,-0.079138
56.314674,2.229040,5.587862,0.634393,0.773010,0.000000
59.157413,1.564238,9.108627,-0.098017,0.995185,0.000000
60.594556,0.000000,7.290171,0.000000,-1.000000,0.000000
61.014271,0.000000,-11.844053,0.000000,-1.000000,0.000000
58.613086,1.510627,-0.855989,-0.098017,0.995185,0.000000
61.651910,3.421060,0.741149,-0.881920,0.471399,-0.000000
61.476711,3.097470,2.581286,-0.773011,0.634393,0.000000
55.287981,0.000000,-11.503900,0.000000,-1.000000,0.000000
56.376171,0.000000,-9.754976,0.000000,-1.000000,0.000000
62.398005,0.000000,-10.965218,0.000000,-1.000000,0.000000
57.462382,0.000000,1.726114,0.000000,-1.000000,0.000000
63.239545,0.452887,12.299649,0.976128,0.196052,0.093479
54.439449,3.066171,5.839085,-0.831180,0.555377,-0.026362
60.442339,0.000000,-7.080153,0.000000,-1.000000,0.000000
59.622695,1.700724,-7.931810,-0.290284,0.956940,0.000000
58.513474,0.000000,0.585148,0.000000,-1.000000,0.000000
58.582297,1.507594,2.071254,-0.098017,0.995185,0.000000
56.311434,0.000000,11.496812,0.000000,-1.000000,0.000000
59.435857,1.644048,2.625481,-0.290284,0.956940,0.000000
61.137063,0.977714,12.451302,-0.000000,-0.000000,1.000000
53.373278,0.863014,-8.648500,-0.976128,0.196052,0.093479
62.531013,3.165074,-5.462314,0.831180,0.555377,-0.026362
59.819190,0.000000,8.524219,0.000000,-1.000000,0.000000
63.321019,1.991584,5.276139,0.831180,0.555377,0.026362
60.922674,0.000000,-8.503132,0.000000,-1.000000,0.000000
57.154017,0.000000,9.830151,0.000000,-1.000000,0.000000
53.317719,0.295544,7.848306,-0.980311,0.194996,-0.031092
55.360789,3.300504,6.971809,0.881922,0.471395,0.000000
63.397105,1.429833,6.483012,0.980311,0.194995,0.031092
53.691551,0.000000,5.684377,0.000000,-1.000000,0.000000
61.360667,2.956070,-10.797831,-0.773011,0.634393,0.000000
61.887011,2.441752,12.451302,0.000000,0.000000,1.000000
59.614435,0.000000,-11.156170,0.000000,-1.000000,0.000000
62.933743,0.000000,-11.828652,0.000000,-1.000000,0.000000
56.699505,1.980731,-2.506211,0.471395,0.881922,-0.000000
62.381216,3.364782,5.978022,0.831181,0.555377,0.026362
62.302631,3.667425,-2.079864,0.831180,0.555377,-0.026362
56.489453,1.959751,-12.451302,0.000000,0.000000,-1.000000
60.342433,0.000000,-5.087701,0.000000,-1.000000,0.000000
61.857542,0.000000,0.923303,0.000000,-1.000000,0.000000
55.684689,0.000000,8.757897,0.000000,-1.000000,0.000000
63.704848,0.718282,1.242527,0.980311,0.194995,0.031092
58.148299,1.529032,3.228743,0.098017,0.995185,0.000000
58.143062,1.529548,2.363205,0.098017,0.995185,0.000000
54.900786,0.000000,9.238928,0.000000,-1.000000,0.000000
61.486217,0.000000,-5.092676,0.000000,-1.000000,0.000000
59.814188,1.758813,-6.270933,-0.290284,0.956940,0.000000
60.234049,0.000000,-11.070454,0.000000,-1.000000,0.000000
55.752237,2.242619,12.451302,0.000000,-0.000000,1.000000
56.403872,0.000000,4.475394,0.000000,-1.000000,0.000000
62.127687,0.000000,-4.742470,0.000000,-1.000000,0.000000
62.550370,0.000000,-8.237060,0.000000,-1.000000,0.000000
55.497710,0.000000,11.017828,0.000000,-1.000000,0.000000
58.035070,0.558466,-12.451302,0.000000,0.000000,-1.000000
58.277338,0.000000,-11.710978,0.000000,-1.000000,0.000000
53.416349,1.241797,8.993160,-0.976128,0.196052,-0.093479
63.461379,0.960058,-7.402738,0.980311,0.194996,-0.031092
54.423325,0.000000,8.064206,0.000000,-1.000000,0.000000
60.819329,0.000000,1.300743,0.000000,-1.000000,0.000000
61.440300,3.053104,4.579756,-0.773011,0.634393,0.000000
62.941442,2.617689,-4.053610,0.831181,0.555377,-0.026362
59.949178,1.820604,1.183334,-0.471397,0.881921,0.000000
62.338726,3.481147,4.866187,0.831181,0.555377,0.026362
57.152375,0.000000,-4.468024,0.000000,-1.000000,0.000000
63.278963,0.723434,11.320627,0.976128,0.196052,0.093479
61.217462,0.000000,9.986886,0.000000,-1.000000,0.000000
60.282250,0.000000,-3.044327,0.000000,-1.000000,0.000000
55.213260,3.576511,-6.036850,0.881922,0.471395,-0.000000
58.382027,0.000000,6.843094,0.000000,-1.000000,0.000000
63.216059,0.000000,-9.342885,0.000000,-1.000000,0.000000
62.606715,2.819482,-9.820393,0.826373,0.557535,-0.079138
57.116548,1.764129,9.728633,0.290286,0.956940,-0.000000
53.791929,2.559082,-10.669566,-0.826373,0.557535,0.079137
58.094414,1.534339,-6.158094,0.098017,0.995185,-0.000000
55.050876,3.711424,-1.246506,-0.555484,0.831341,0.017618
58.631139,1.512405,-0.592569,-0.098017,0.995185,0.000000
57.566199,0.000000,-11.066926,0.000000,-1.000000,0.000000
57.567704,1.627272,-4.035017,0.290286,0.956940,0.000000
60.137446,0.000000,-3.959985,0.000000,-1.000000,0.000000
58.387947,1.505429,10.831050,0.098017,0.995185,0.000000
58.643163,1.513589,3.888726,-0.098017,0.995185,0.000000
59.038111,0.000000,7.352926,0.000000,-1.000000,0.000000
60.085698,1.893576,10.506279,-0.471397,0.881921,0.000000
53.903090,0.000000,4.389423,0.000000,-1.000000,0.000000
53.996995,2.140191,0.281494,-0.831181,0.555377,-0.026362
54.187332,0.000000,-0.248218,0.000000,-1.000000,0.000000
55.841448,0.000000,11.155048,0.000000,-1.000000,0.000000
58.685812,1.517790,9.456780,-0.098017,0.995185,0.000000
60.647726,0.000000,1.710484,0.000000,-1.000000,0.000000
53.607559,0.904862,-2.531203,-0.980311,0.194996,0.031092
54.132866,0.000000,11.234162,0.000000,-1.000000,0.000000
57.168986,0.000000,-11.730695,0.000000,-1.000000,0.000000
63.774598,0.109958,-2.858535,0.980311,0.194995,-0.031092
62.849215,0.000000,5.616738,0.000000,-1.000000,0.000000
54.414456,3.487856,10.712309,-0.826373,0.557535,-0.079138
60.077924,0.000000,0.363420,0.000000,-1.000000,0.000000
53.851946,1.947408,1.364247,-0.980311,0.194996,-0.031092
62.076732,0.000000,-3.380438,0.000000,-1.000000,0.000000
59.920159,1.805093,-0.083069,-0.471397,0.881921,0.000000
59.610117,0.000000,8.574763,0.000000,-1.000000,0.000000
57.336878,0.000000,-9.916884,0.000000,-1.000000,0.000000
58.354481,1.508725,2.594065,0.098017,0.995185,0.000000
56.971802,0.000000,9.785863,0.000000,-1.000000,0.000000
63.100540,2.153776,-8.810770,0.831180,0.555377,-0.026362
61.677811,0.000000,-9.630980,0.000000,-1.000000,0.000000
53.205614,0.331964,-12.451302,0.000000,0.000000,-1.000000
60.507155,2.125283,-12.041551,-0.634393,0.773010,0.000000
63.674277,0.954888,-0.722559,0.980311,0.194995,-0.031092
62.535107,3.159680,5.446841,0.831181,0.555377,0.026362
53.486407,2.043369,10.226638,-0.826374,0.557534,-0.079137
56.339757,0.000000,10.193837,0.000000,-1.000000,0.000000
57.154431,1.752638,0.543772,0.290286,0.956940,-0.000000
63.348152,0.000000,2.335494,0.000000,-1.000000,0.000000
61.808331,3.713702,-2.136708,-0.881926,0.471387,0.000000
54.380381,3.268519,9.522880,-0.826373,0.557535,-0.079138
56.379521,2.175822,8.019315,0.634393,0.773010,0.000000
53.605620,2.088261,9.298040,-0.826374,0.557534,-0.079137
53.724310,1.588708,3.138920,-0.980311,0.194996,-0.031092
62.762184,2.481186,-10.580280,0.826373,0.557535,-0.079138
56.326090,0.000000,-4.982887,0.000000,-1.000000,0.000000
55.119581,3.767652,-2.600005,0.956938,0.290293,-0.000000
53.483634,0.001208,-0.771121,-0.980311,0.194996,0.031092
63.613985,1.317953,0.346544,0.980311,0.194995,0.031092
55.252540,3.503024,-1.742387,0.881922,0.471395,-0.000000
58.896372,0.000000,-10.201577,0.000000,-1.000000,0.000000
59.924977,0.000000,4.830295,0.000000,-1.000000,0.000000
58.080791,1.535681,4.743494,0.098017,0.995185,0.000000
56.089485,0.000000,11.164692,0.000000,-1.000000,0.000000
53.384172,1.909693,10.729937,-0.976128,0.196052,-0.093479
58.064486,1.537287,-11.501707,0.098017,0.995185,-0.000000
62.016745,0.000000,-3.658922,0.000000,-1.000000,0.000000
55.468560,0.000000,-2.750064,0.000000,-1.000000,0.000000
56.374858,2.179649,-11.159205,0.634393,0.773010,-0.000000
63.619985,0.906041,2.740703,0.980311,0.194995,0.031092
63.639103,0.685836,3.518939,0.980311,0.194996,0.031092
60.342280,2.030722,-9.661775,-0.471397,0.881921,0.000000
61.531301,3.195420,2.548926,-0.881919,0.471401,0.000000
53.328801,0.324116,-7.678083,-0.980311,0.194996,0.031092
54.527283,3.078804,3.335881,-0.831180,0.555377,-0.026362
60.392060,2.057330,7.986868,-0.471397,0.881921,0.000000
61.297085,2.878595,5.945356,-0.773011,0.634393,0.000000
61.492064,3.122012,-9.688692,-0.881919,0.471401,0.000000
61.086224,2.621661,-3.696939,-0.773011,0.634393,0.000000
56.043224,2.451813,-9.724583,0.634393,0.773010,-0.000000
58.908150,0.000000,-12.293687,0.000000,-1.000000,0.000000
62.125405,3.811534,-0.925157,0.555483,0.831342,-0.017618
54.528550,3.509279,-12.451302,0.000000,0.000000,-1.000000
62.783052,1.003050,12.451302,0.000000,0.000000,1.000000
54.252522,2.544672,-0.746203,-0.831181,0.555377,0.026362
53.807154,2.229646,8.151652,-0.831180,0.555377,-0.026362
63.090453,0.000000,-4.641288,0.000000,-1.000000,0.000000
56.465541,2.105787,-2.445212,0.471395,0.881922,-0.000000
60.791388,2.358547,4.655579,-0.634393,0.773010,0.000000
54.350655,0.000000,-10.590344,0.000000,-1.000000,0.000000
59.809688,0.000000,0.055100,0.000000,-1.000000,0.000000
54.493519,3.591797,-12.451302,0.000000,0.000000,-1.000000
60.631895,1.685071,-12.451302,0.000000,0.000000,-1.000000
55.290461,1.929322,-12.451302,0.000000,0.000000,-1.000000
53.501680,1.362536,-8.355341,-0.976128,0.196052,0.093479
63.162185,0.000000,5.668194,0.000000,-1.000000,0.000000
59.120050,0.000000,-3.505811,0.000000,-1.000000,0.000000
62.161526,3.641168,-7.081996,0.831180,0.555377,-0.026362
54.474085,0.000000,-3.243203,0.000000,-1.000000,0.000000
62.292141,0.818940,-12.451302,0.000000,0.000000,-1.000000
59.316333,1.607791,2.450053,-0.290284,0.956940,0.000000
54.019100,2.238311,-1.651693,-0.831180,0.555377,0.026362
62.205996,3.599151,-6.565073,0.831180,0.555377,-0.026362
55.421242,3.187403,-4.038563,0.881922,0.471395,0.000000
63.695106,0.082403,-5.537718,0.980311,0.194995,-0.031092
57.323694,0.000000,-1.677701,0.000000,-1.000000,0.000000
57.256802,1.721584,9.696825,0.290286,0.956940,0.000000
55.275643,0.305821,-12.451302,0.000000,0.000000,-1.000000
61.536496,3.205138,-5.737537,-0.881919,0.471401,0.000000
53.379178,0.000000,6.750264,0.000000,-1.000000,0.000000
61.862187,0.000000,11.408569,0.000000,-1.000000,0.000000
60.502941,2.121825,-12.418268,-0.634393,0.773010,0.000000
57.705656,0.000000,10.252605,0.000000,-1.000000,0.000000
57.645709,0.000000,11.577380,0.000000,-1.000000,0.000000
61.226764,2.792909,-11.191244,-0.773011,0.634393,0.000000
62.901161,0.000000,0.902318,0.000000,-1.000000,0.000000
61.824738,3.754656,4.707089,-0.956944,0.290272,0.000000
59.110995,0.000000,-6.578662,0.000000,-1.000000,0.000000
63.317778,0.000000,0.758207,0.000000,-1.000000,0.000000
58.029099,0.000000,-11.004556,0.000000,-1.000000,0.000000
55.732854,0.000000,10.195412,0.000000,-1.000000,0.000000
53.492547,0.450676,-3.308966,-0.980311,0.194996,0.031092
61.346771,0.000000,8.127737,0.000000,-1.000000,0.000000
53.588323,1.158147,-4.726197,-0.980311,0.194996,0.031092
62.529042,3.053183,-7.881694,0.831180,0.555377,-0.026362
58.261739,0.000000,-8.342787,0.000000,-1.000000,0.000000
55.104530,3.817265,-6.636473,0.956938,0.290293,-0.000000
55.245239,0.000000,-7.878705,0.000000,-1.000000,0.000000
53.790390,0.000000,-2.806851,0.000000,-1.000000,0.000000
58.183963,1.525519,1.745669,0.098017,0.995185,0.000000
54.706052,3.311300,12.451302,0.000000,-0.000000,1.000000
60.183004,1.945587,9.661060,-0.471397,0.881921,0.000000
56.359739,2.192056,-2.112478,0.634393,0.773010,0.000000
56.172580,0.000000,-8.594275,0.000000,-1.000000,0.000000
59.501700,1.664021,9.851649,-0.290284,0.956940,0.000000
63.452426,1.594673,3.704947,0.980311,0.194995,0.031092
53.293573,0.836595,-9.425395,-0.976128,0.196052,0.093479
62.272583,3.669980,2.964323,0.555485,0.831340,0.017618
55.326926,3.363856,-4.452578,0.881922,0.471395,-0.000000
57.049425,1.793695,4.752684,0.471395,0.881922,0.000000
53.825883,1.757316,-0.993802,-0.980311,0.194996,0.031092
54.127242,1.379457,12.451302,0.000000,-0.000000,1.000000
54.626419,3.664503,9.743441,-0.826373,0.557535,-0.079138
56.110645,0.000000,11.674280,0.000000,-1.000000,0.000000
61.333597,0.000000,5.900358,0.000000,-1.000000,0.000000
61.507255,3.150434,9.995573,-0.881919,0.471401,0.000000
60.969257,2.504521,7.836548,-0.634393,0.773010,0.000000
60.474995,0.000000,-8.154132,0.000000,-1.000000,0.000000
61.107743,0.000000,-6.491037,0.000000,-1.000000,0.000000
53.199135,0.797693,-10.329950,-0.976128,0.196052,0.093479
62.764644,2.920682,-3.244722,0.831181,0.555377,-0.026362
60.761252,0.000000,-2.292573,0.000000,-1.000000,0.000000
55.628233,2.906547,11.031465,0.773011,0.634393,0.000000
61.717406,0.000000,12.287674,0.000000,-1.000000,0.000000
56.639101,2.013017,-12.243209,0.471395,0.881922,-0.000000
61.418232,3.026213,-0.347207,-0.773011,0.634393,0.000000
54.202042,3.161380,10.630319,-0.826373,0.557535,-0.079138
58.697131,0.000000,9.939588,0.000000,-1.000000,0.000000
54.000738,2.505349,-7.856363,-0.831180,0.555377,0.026362
53.758330,2.227720,8.685917,-0.826373,0.557535,-0.079138
59.801956,0.000000,-7.239652,0.000000,-1.000000,0.000000
63.053775,2.405540,4.981258,0.831180,0.555377,0.026362
55.191975,0.000000,-3.223429,0.000000,-1.000000,0.000000
58.768133,1.525898,-0.604635,-0.098017,0.995185,0.000000
54.064162,2.391532,-3.458828,-0.831180,0.555377,0.026362
63.038744,2.319342,-7.271144,0.831181,0.555377,-0.026362
61.424454,0.000000,-6.918000,0.000000,-1.000000,0.000000
62.240300,3.082179,-11.795840,0.826373,0.557535,-0.079138
55.760229,0.000000,-7.638723,0.000000,-1.000000,0.000000
54.925979,0.749355,12.451302,0.000000,-0.000000,1.000000
61.663313,0.000000,-2.798294,0.000000,-1.000000,0.000000
57.223247,1.731762,-6.161212,0.290286,0.956940,-0.000000
57.214922,1.734288,-6.171458,0.290286,0.956940,-0.000000
56.180101,2.339482,-2.548966,0.634393,0.773010,-0.000000
53.093057,0.229098,10.245129,-0.976128,0.196052,-0.093479
63.500737,1.533301,2.566630,0.980311,0.194995,0.031092
54.286692,2.820562,-5.481118,-0.831180,0.555377,0.026362
54.330383,2.682055,1.185602,-0.831181,0.555377,-0.026362
62.189885,3.767578,0.966362,0.555485,0.831340,0.017618
56.730318,0.000000,-6.033013,0.000000,-1.000000,0.000000
63.567137,0.814413,-4.981653,0.980311,0.194995,-0.031092
53.720322,2.182300,-8.762823,-0.826373,0.557535,0.079137
56.397401,2.161148,-3.192137,0.634393,0.773010,0.000000
62.751464,0.000000,7.593071,0.000000,-1.000000,0.000000
59.951073,0.000000,-11.944847,0.000000,-1.000000,0.000000
54.150050,0.000000,-6.102815,0.000000,-1.000000,0.000000
57.118139,0.000000,11.456742,0.000000,-1.000000,0.000000
59.951538,0.000000,10.751298,0.000000,-1.000000,0.000000
62.769559,0.000000,-4.772963,0.000000,-1.000000,0.000000
55.894209,2.582454,7.828112,0.773011,0.634393,0.000000
60.591527,2.194525,-2.364460,-0.634393,0.773010,0.000000
55.235911,0.000000,-11.293502,0.000000,-1.000000,0.000000
60.740162,0.000000,1.616973,0.000000,-1.000000,0.000000
55.021006,0.000000,7.477497,0.000000,-1.000000,0.000000
59.953309,0.000000,-6.735301,0.000000,-1.000000,0.000000
62.827501,2.828934,3.195740,0.831181,0.555377,0.026362
63.647603,1.096815,0.673451,0.980311,0.194995,0.031092
56.110334,1.703999,12.451302,-0.000000,-0.000000,1.000000
61.278412,0.000000,9.660549,0.000000,-1.000000,0.000000
63.361231,0.000000,-7.134348,0.000000,-1.000000,0.000000
61.421746,3.030496,-10.624988,-0.773011,0.634393,0.000000
54.195344,2.510570,1.830553,-0.831181,0.555377,-0.026362
58.494239,0.000000,10.166853,0.000000,-1.000000,0.000000
61.237297,0.000000,-10.848581,0.000000,-1.000000,0.000000
59.901508,0.000000,-10.241767,0.000000,-1.000000,0.000000
53.517515,0.887896,-5.263812,-0.980311,0.194996,0.031092
56.710456,0.000000,-10.342499,0.000000,-1.000000,0.000000
56.989238,1.143281,-12.451302,0.000000,0.000000,-1.000000
56.048783,0.000000,4.611717,0.000000,-1.000000,0.000000
63.443484,1.737923,3.088492,0.980311,0.194995,0.031092
59.022335,1.550934,-7.335656,-0.098017,0.995185,0.000000
53.840400,0.000000,-0.540421,0.000000,-1.000000,0.000000
53.483870,1.827706,9.516911,-0.976128,0.196052,-0.093479
61.610845,0.000000,-1.653490,0.000000,-1.000000,0.000000
63.591150,1.356753,0.823173,0.980311,0.194995,0.031092
57.440432,0.000000,-1.741429,0.000000,-1.000000,0.000000
55.316266,3.383801,-0.258259,0.881922,0.471395,0.000000
60.388202,1.903053,-12.451302,0.000000,0.000000,-1.000000
57.171853,0.000000,9.970350,0.000000,-1.000000,0.000000
61.351669,0.000000,-8.431210,0.000000,-1.000000,0.000000
53.996448,2.739537,9.805244,-0.826373,0.557535,-0.079138
61.991605,0.000000,6.454407,0.000000,-1.000000,0.000000
58.344417,0.000000,-7.798482,0.000000,-1.000000,0.000000
55.923774,0.000000,-5.323104,0.000000,-1.000000,0.000000
62.344114,0.000000,-2.623779,0.000000,-1.000000,0.000000
63.062218,2.408736,-4.647689,0.831181,0.555377,-0.026362
59.334026,0.000000,-6.109821,0.000000,-1.000000,0.000000
60.965449,2.501395,-1.961535,-0.634393,0.773010,0.000000
58.310607,0.992658,-12.451302,0.000000,0.000000,-1.000000
61.548886,3.228319,10.795524,-0.881920,0.471399,-0.000000
59.091868,1.557783,-9.416148,-0.098017,0.995185,0.000000
53.485579,1.178768,-8.094985,-0.980311,0.194996,0.031092
62.072629,3.803310,-2.977252,0.555483,0.831342,-0.017618
53.290387,1.059413,9.925976,-0.976128,0.196052,-0.093479
53.389168,0.599694,-7.503068,-0.980311,0.194996,0.031092
54.251463,3.308208,-11.148681,-0.826374,0.557534,0.079138
53.755585,2.352731,-9.595300,-0.826373,0.557535,0.079137
59.767882,0.000000,2.186276,0.000000,-1.000000,0.000000
58.231566,0.000000,1.170440,0.000000,-1.000000,0.000000
56.650604,0.000000,-1.487643,0.000000,-1.000000,0.000000
54.061745,2.235010,0.237576,-0.831181,0.555377,-0.026362
54.320836,2.810444,-4.191404,-0.831180,0.555377,0.026362
62.532740,0.000000,-11.253840,0.000000,-1.000000,0.000000
54.637215,0.000000,9.382678,0.000000,-1.000000,0.000000
56.453305,2.115269,-6.671415,0.634393,0.773010,0.000000
57.251811,1.723097,0.719333,0.290286,0.956940,-0.000000
54.453834,0.000000,-2.631367,0.000000,-1.000000,0.000000
57.952463,1.548320,12.281629,0.098017,0.995185,0.000000
54.075981,2.943803,-10.413830,-0.826374,0.557534,0.079138
60.371816,2.046509,10.578421,-0.471397,0.881921,0.000000
55.299442,0.000000,-9.236789,0.000000,-1.000000,0.000000
57.211728,0.000000,8.428988,0.000000,-1.000000,0.000000
61.821885,0.000000,12.009905,0.000000,-1.000000,0.000000
53.811439,1.697739,-1.075579,-0.980311,0.194996,0.031092
63.337249,0.000000,-1.512241,0.000000,-1.000000,0.000000
59.891509,1.789780,10.305776,-0.471397,0.881921,0.000000
53.253284,1.481148,11.197911,-0.976128,0.196052,-0.093479
57.662185,0.000000,1.327452,0.000000,-1.000000,0.000000
60.285698,2.000478,-5.919676,-0.471397,0.881921,0.000000
53.864704,1.913869,-0.751629,-0.980311,0.194996,0.031092
59.291406,0.000000,5.980399,0.000000,-1.000000,0.000000
54.575871,3.785948,-12.142870,-0.551086,0.832778,0.052775
59.033341,0.000000,-7.694975,0.000000,-1.000000,0.000000
57.167475,0.000000,-8.507849,0.000000,-1.000000,0.000000
61.184575,2.741501,3.723002,-0.773011,0.634393,0.000000
55.058409,3.747796,-2.725313,-0.555486,0.831340,0.017618
60.173357,0.000000,-6.616175,0.000000,-1.000000,0.000000
63.301831,2.245448,0.532863,0.831181,0.555377,0.026362
56.407881,2.152547,-7.831069,0.634393,0.773010,0.000000
60.358506,2.039395,-1.328001,-0.471397,0.881921,0.000000
61.103321,1.703664,12.451302,0.000000,0.000000,1.000000
54.560294,3.174643,-4.314107,-0.831181,0.555377,0.026362
58.625191,0.000000,0.867527,0.000000,-1.000000,0.000000
62.104184,0.000000,-0.143009,0.000000,-1.000000,0.000000
54.150815,2.718872,-7.622885,-0.831180,0.555377,0.026362
54.293957,3.070653,9.031346,-0.826373,0.557535,-0.079138
59.186612,0.000000,8.556322,0.000000,-1.000000,0.000000
54.918954,3.602733,-2.024468,-0.831181,0.555377,0.026362
56.522436,2.075376,2.681615,0.471395,0.881922,-0.000000
58.711498,0.725884,12.451302,0.000000,-0.000000,1.000000
53.672761,1.705887,5.499126,-0.980311,0.194996,-0.031092
59.938499,0.000000,5.136153,0.000000,-1.000000,0.000000
60.857107,2.412481,6.814488,-0.634393,0.773010,0.000000
57.828926,1.560487,11.494467,0.098017,0.995185,0.000000
62.750431,0.895591,-12.451302,0.000000,0.000000,-1.000000
58.120399,0.000000,-8.803597,0.000000,-1.000000,0.000000
53.334828,0.143006,6.352194,-0.980311,0.194996,-0.031092
58.086547,0.000000,8.107516,0.000000,-1.000000,0.000000
59.134202,0.000000,-6.848152,0.000000,-1.000000,0.000000
63.183973,2.079740,7.739917,0.831180,0.555377,0.026362
54.979470,0.000000,0.902158,0.000000,-1.000000,0.000000
54.224912,0.000000,11.543297,0.000000,-1.000000,0.000000
57.001482,1.819322,-0.794953,0.471395,0.881922,0.000000
53.573925,1.524696,-7.479005,-0.980311,0.194996,0.031092
61.912293,0.000000,-7.658634,0.000000,-1.000000,0.000000
63.496068,0.000000,4.630101,0.000000,-1.000000,0.000000
53.302498,0.000000,-8.649481,0.000000,-1.000000,0.000000
53.682733,0.000000,-0.056157,0.000000,-1.000000,0.000000
56.781161,0.000000,8.313784,0.000000,-1.000000,0.000000
54.193853,2.739822,6.707301,-0.831180,0.555377,-0.026362
53.913685,2.323333,-6.766527,-0.831180,0.555377,0.026362
63.239372,0.802260,11.568723,0.976128,0.196052,0.093479
55.321055,0.000000,11.376659,0.000000,-1.000000,0.000000
63.210307,2.202624,-4.320760,0.831181,0.555377,-0.026362
54.423697,3.417418,-10.119576,-0.826374,0.557534,0.079138
62.009849,2.818957,-12.451302,0.000000,0.000000,-1.000000
53.576463,0.000000,-7.958513,0.000000,-1.000000,0.000000
53.947181,0.000000,8.467627,0.000000,-1.000000,0.000000
54.576771,3.729784,11.247220,-0.551084,0.832779,-0.052775
61.201217,2.761780,-10.762415,-0.773011,0.634393,0.000000
56.342328,2.206345,-9.859180,0.634393,0.773010,-0.000000
57.668729,0.000000,3.459578,0.000000,-1.000000,0.000000
54.268915,2.786978,-5.334076,-0.831180,0.555377,0.026362
59.422311,1.639939,-10.002008,-0.290284,0.956940,0.000000
63.643468,0.000000,4.608376,0.000000,-1.000000,0.000000
57.622291,0.000000,-9.412356,0.000000,-1.000000,0.000000
61.143836,2.691861,-2.272277,-0.773011,0.634393,0.000000
62.867410,2.640435,-5.908627,0.831180,0.555377,-0.026362
55.386416,0.000000,-11.497485,0.000000,-1.000000,0.000000
60.272275,1.993303,-5.460383,-0.471397,0.881921,0.000000
54.251512,2.657528,-3.155618,-0.831181,0.555377,0.026362
57.504097,0.000000,-9.549758,0.000000,-1.000000,0.000000
61.950354,1.679028,-12.451302,0.000000,0.000000,-1.000000
56.044127,2.451073,1.265229,0.634393,0.773010,-0.000000
60.688451,2.274069,-8.595502,-0.634393,0.773010,0.000000
58.298505,1.514238,-6.989291,0.098017,0.995185,-0.000000
61.075671,0.000000,-11.266886,0.000000,-1.000000,0.000000
55.644196,0.000000,11.906968,0.000000,-1.000000,0.000000
54.567816,0.000000,6.984941,0.000000,-1.000000,0.000000
53.440039,0.472269,5.099952,-0.980311,0.194996,-0.031092
60.702309,1.558192,12.451302,-0.000000,-0.000000,1.000000
61.632688,2.821193,12.451302,0.000000,0.000000,1.000000
57.229431,1.729887,-5.203629,0.290286,0.956940,-0.000000
54.409651,2.899050,-3.257830,-0.831181,0.555377,0.026362
56.977369,0.000000,-11.755113,0.000000,-1.000000,0.000000
63.177842,2.011578,-9.369241,0.831181,0.555377,-0.026362
59.931589,0.000000,-3.871659,0.000000,-1.000000,0.000000
57.635444,1.606723,-4.076801,0.290286,0.956940,0.000000
56.919382,0.000000,-0.497228,0.000000,-1.000000,0.000000
59.845662,1.768361,7.098305,-0.290284,0.956940,0.000000
61.001968,2.531365,6.999666,-0.634393,0.773010,0.000000
53.293846,1.816602,11.477907,-0.976128,0.196052,-0.093479
55.500557,0.000000,3.142688,0.000000,-1.000000,0.000000
63.104182,1.176491,12.195533,0.976128,0.196052,0.093479
