x,y,z,nx,ny,nz
63.353321,11.625878,-4.973851,0.000000,0.000000,-1.000000
-58.168707,-0.542670,4.973851,0.000000,-0.000000,1.000000
4.942420,21.291094,-4.973851,0.000000,-0.000000,-1.000000
29.570752,8.792224,4.973851,-0.000000,0.000000,1.000000
-23.801171,-7.567119,4.262739,0.634393,0.773011,0.000000
7.120015,25.330101,3.604027,0.000000,1.000000,0.000000
-62.080721,3.907547,-4.973851,0.000000,0.000000,-1.000000
-0.806915,25.330101,-4.405535,-0.000000,1.000000,0.000000
-33.289850,21.630579,-4.973851,0.000000,-0.000000,-1.000000
-26.608100,25.330101,-3.127931,-0.000000,1.000000,0.000000
-66.167346,-23.519184,4.973851,0.000000,-0.000000,1.000000
-25.870726,-3.335941,4.175902,0.995185,-0.098016,0.000000
-68.086975,-4.230685,0.053118,-1.000000,0.000000,0.000000
-16.399816,-0.799771,-0.288809,-0.881921,-0.471396,0.000000
-31.469443,2.433869,4.973851,0.000000,-0.000000,1.000000
42.239915,-23.128477,4.973851,0.000000,-0.000000,1.000000
-66.856024,-24.312280,4.973851,0.000000,-0.000000,1.000000
-20.460599,16.234386,-4.973851,0.000000,-0.000000,-1.000000
-68.086975,18.645105,2.516945,-1.000000,0.000000,0.000000
-32.804778,-18.899896,4.973851,0.000000,-0.000000,1.000000
-31.952669,-18.700482,4.973851,0.000000,-0.000000,1.000000
2.179074,-20.869952,-4.973851,0.000000,0.000000,-1.000000
11.246727,-25.330101,0.178886,0.000000,-1.000000,0.000000
-28.717207,25.330101,-0.504849,0.000000,1.000000,0.000000
8.208807,-14.237813,-4.973851,-0.000000,-0.000000,-1.000000
13.570642,-18.745597,-4.973851,-0.000000,-0.000000,-1.000000
-30.176342,-10.442431,-4.973851,-0.000000,0.000000,-1.000000
-50.944206,-25.330101,4.783426,0.000000,-1.000000,0.000000
68.086975,14.797522,3.912078,1.000000,-0.000000,0.000000
-32.625809,-8.532369,3.583976,-0.956940,-0.290285,0.000000
56.196996,22.277034,4.973851,0.000000,-0.000000,1.000000
-37.883814,9.244261,4.973851,-0.000000,0.000000,1.000000
29.284053,-18.785758,4.973851,0.000000,0.000000,1.000000
47.080076,-25.330101,3.375962,0.000000,-1.000000,0.000000
-21.365393,-24.211752,4.973851,0.000000,-0.000000,1.000000
54.822539,-5.875554,4.973851,-0.000000,0.000000,1.000000
-16.531390,25.330101,3.311077,0.000000,1.000000,0.000000
68.086975,9.628244,4.073872,1.000000,-0.000000,0.000000
52.924913,-15.544221,-4.973851,0.000000,0.000000,-1.000000
15.606731,25.330101,-3.032465,-0.000000,1.000000,0.000000
62.142204,-5.527560,4.973851,-0.000000,0.000000,1.000000
68.086975,14.959981,3.433532,1.000000,-0.000000,0.000000
-13.357530,-25.330101,-2.772386,0.000000,-1.000000,0.000000
-32.577004,-10.282960,-3.620062,-0.995185,0.098016,0.000000
3.494096,25.330101,-2.659027,-0.000000,1.000000,0.000000
-66.091290,25.330101,0.935621,0.000000,1.000000,0.000000
-61.386869,-2.038134,4.973851,0.000000,-0.000000,1.000000
-56.975973,9.465251,4.973851,0.000000,-0.000000,1.000000
-60.880090,-7.217322,-4.973851,0.000000,0.000000,-1.000000
-42.328476,-15.854576,4.973851,0.000000,-0.000000,1.000000
53.064957,11.256119,-4.973851,0.000000,0.000000,-1.000000
-3.794027,6.898465,4.973851,0.000000,-0.000000,1.000000
26.158720,17.265299,-4.973851,0.000000,0.000000,-1.000000
-4.324196,-8.270231,-4.973851,0.000000,0.000000,-1.000000
35.934833,-25.330101,-1.062618,0.000000,-1.000000,0.000000
-12.185213,-25.330101,0.333273,0.000000,-1.000000,0.000000
47.426853,6.917858,4.973851,-0.000000,0.000000,1.000000
-44.896386,5.685097,-4.973851,-0.000000,0.000000,-1.000000
46.691262,25.330101,-2.750382,-0.000000,1.000000,0.000000
-36.714237,15.731476,-4.973851,0.000000,-0.000000,-1.000000
-65.668339,7.018985,-4.973851,0.000000,0.000000,-1.000000
-19.233633,18.107486,4.973851,-0.000000,0.000000,1.000000
-16.644687,-6.493808,-1.630093,-0.773011,0.634393,0.000000
-2.730486,-21.099146,4.973851,0.000000,-0.000000,1.000000
-28.702901,-25.330101,-2.730889,0.000000,-1.000000,0.000000
-5.849048,7.870088,4.973851,0.000000,-0.000000,1.000000
-51.096074,18.997553,-4.973851,0.000000,-0.000000,-1.000000
18.736790,-23.024996,4.973851,0.000000,-0.000000,1.000000
-15.168641,21.692714,-4.973851,0.000000,-0.000000,-1.000000
-9.248129,-23.504931,4.973851,0.000000,-0.000000,1.000000
8.668736,-9.844905,-4.973851,0.000000,0.000000,-1.000000
-38.210409,25.330101,0.856616,0.000000,1.000000,0.000000
17.217556,-0.173655,4.973851,-0.000000,0.000000,1.000000
63.839266,-4.699564,-4.973851,0.000000,0.000000,-1.000000
46.805667,25.248600,4.973851,-0.000000,0.000000,1.000000
56.351548,-25.330101,2.859709,0.000000,-1.000000,0.000000
-8.967142,25.330101,0.448062,0.000000,1.000000,0.000000
-13.833037,-8.210554,4.973851,-0.000000,-0.000000,1.000000
38.767630,3.695838,-4.973851,0.000000,0.000000,-1.000000
47.959728,-23.556558,-4.973851,0.000000,0.000000,-1.000000
-44.531359,-3.665216,-4.973851,0.000000,-0.000000,-1.000000
63.694169,-13.640930,4.973851,-0.000000,0.000000,1.000000
1.676690,3.975975,4.973851,0.000000,-0.000000,1.000000
-36.541153,24.600310,4.973851,-0.000000,0.000000,1.000000
49.024954,-10.772731,-4.973851,0.000000,0.000000,-1.000000
24.287919,9.966550,4.973851,0.000000,-0.000000,1.000000
-9.004748,-22.375132,-4.973851,0.000000,0.000000,-1.000000
51.974903,23.467580,4.973851,-0.000000,0.000000,1.000000
13.619056,24.615860,-4.973851,0.000000,-0.000000,-1.000000
-10.612196,20.701400,4.973851,-0.000000,0.000000,1.000000
-10.989209,-0.043790,4.973851,0.000000,-0.000000,1.000000
-21.715502,21.344891,4.973851,-0.000000,0.000000,1.000000
-4.253234,19.764989,-4.973851,0.000000,-0.000000,-1.000000
15.855066,-16.837016,-4.973851,-0.000000,-0.000000,-1.000000
-57.951275,3.414113,4.973851,0.000000,-0.000000,1.000000
-19.186228,10.111204,4.973851,-0.000000,0.000000,1.000000
68.086975,-2.439477,-2.040214,1.000000,0.000000,-0.000000
7.715052,-15.760935,-4.973851,-0.000000,-0.000000,-1.000000
-13.153328,-19.973522,-4.973851,0.000000,0.000000,-1.000000
66.056967,9.088711,4.973851,-0.000000,0.000000,1.000000
-33.389731,23.556996,-4.973851,0.000000,-0.000000,-1.000000
-40.727638,-25.330101,2.806766,0.000000,-1.000000,0.000000
38.454587,-21.514591,-4.973851,-0.000000,-0.000000,-1.000000
59.144742,16.062835,-4.973851,0.000000,0.000000,-1.000000
-62.173135,14.564306,4.973851,0.000000,-0.000000,1.000000
-14.325876,10.635885,-4.973851,0.000000,-0.000000,-1.000000
40.025475,-12.040423,-4.973851,0.000000,0.000000,-1.000000
60.434163,-13.520865,4.973851,-0.000000,0.000000,1.000000
3.922484,-1.209098,-4.973851,0.000000,0.000000,-1.000000
43.138288,-3.663776,4.973851,-0.000000,0.000000,1.000000
-49.247114,-0.482765,-4.973851,0.000000,-0.000000,-1.000000
-34.364151,-23.170061,-4.973851,0.000000,0.000000,-1.000000
60.337196,-10.611408,-4.973851,0.000000,0.000000,-1.000000
-30.478541,-0.177676,4.973851,0.000000,-0.000000,1.000000
-33.548008,-12.653624,4.351760,-0.773010,0.634393,0.000000
7.721464,13.266888,4.973851,-0.000000,0.000000,1.000000
-55.268462,-0.600005,4.973851,0.000000,-0.000000,1.000000
22.473987,25.297266,-4.973851,0.000000,-0.000000,-1.000000
3.453265,-25.330101,1.243310,0.000000,-1.000000,0.000000
-49.805219,25.330101,1.004703,0.000000,1.000000,0.000000
32.784564,25.330101,4.449477,0.000000,1.000000,0.000000
25.633235,19.184114,-4.973851,0.000000,-0.000000,-1.000000
-35.080085,14.960183,-4.973851,0.000000,-0.000000,-1.000000
-53.483314,-0.501277,-4.973851,0.000000,0.000000,-1.000000
-54.488946,24.135147,4.973851,-0.000000,0.000000,1.000000
-13.670963,16.794385,-4.973851,0.000000,-0.000000,-1.000000
-27.204496,11.133950,4.973851,-0.000000,0.000000,1.000000
-9.150773,-25.330101,-0.870120,0.000000,-1.000000,0.000000
-29.766357,-21.546498,-4.973851,0.000000,0.000000,-1.000000
-19.453939,6.326717,-4.973851,0.000000,0.000000,-1.000000
-24.081946,-9.501446,-4.973851,-0.000000,-0.000000,-1.000000
-36.886444,11.676034,-4.973851,0.000000,-0.000000,-1.000000
-56.979426,-25.330101,-4.580365,0.000000,-1.000000,0.000000
68.086975,16.641601,-2.312659,1.000000,-0.000000,0.000000
-43.913500,-17.647814,4.973851,0.000000,-0.000000,1.000000
30.661356,-21.952636,-4.973851,0.000000,0.000000,-1.000000
33.241253,10.185627,-4.973851,0.000000,0.000000,-1.000000
-0.754045,-25.330101,-4.244343,0.000000,-1.000000,0.000000
24.465352,-25.330101,3.962223,0.000000,-1.000000,0.000000
-19.119848,16.465447,-4.973851,0.000000,-0.000000,-1.000000
12.017795,-9.028638,4.973851,-0.000000,0.000000,1.000000
49.148901,19.039257,-4.973851,0.000000,0.000000,-1.000000
-35.320680,17.298098,-4.973851,0.000000,-0.000000,-1.000000
27.887823,4.481849,-4.973851,0.000000,0.000000,-1.000000
61.004624,-25.330101,-2.204684,0.000000,-1.000000,0.000000
43.902019,5.370275,-4.973851,0.000000,0.000000,-1.000000
68.086975,5.952504,4.226039,1.000000,-0.000000,0.000000
-25.967499,-25.330101,2.148770,0.000000,-1.000000,0.000000
15.800991,-25.181292,4.973851,0.000000,-0.000000,1.000000
-52.695151,-11.621205,4.973851,0.000000,-0.000000,1.000000
-56.240835,17.398056,4.973851,0.000000,-0.000000,1.000000
-61.633317,25.330101,-1.798547,0.000000,1.000000,0.000000
-54.803880,-25.330101,-3.616140,0.000000,-1.000000,0.000000
48.492747,-2.585545,-4.973851,0.000000,0.000000,-1.000000
-10.053718,1.193942,-2.906397,-0.290285,0.956940,0.000000
32.862378,-20.458271,-4.973851,-0.000000,-0.000000,-1.000000
-59.620266,-25.330101,1.840303,0.000000,-1.000000,0.000000
-38.564208,21.235134,-4.973851,0.000000,-0.000000,-1.000000
-40.114779,-14.050354,-3.855302,0.471398,0.881921,-0.000000
-21.893845,1.519654,-3.936576,0.290285,-0.956940,0.000000
46.386635,-14.125025,4.973851,-0.000000,0.000000,1.000000
-26.824226,-4.856535,4.973851,0.000000,0.000000,1.000000
66.660341,-10.532013,4.973851,-0.000000,0.000000,1.000000
-51.557067,18.072671,-4.973851,0.000000,-0.000000,-1.000000
68.086975,0.076045,3.200557,1.000000,-0.000000,0.000000
-68.086975,0.762675,-2.089702,-1.000000,0.000000,0.000000
49.302948,7.744469,4.973851,-0.000000,0.000000,1.000000
68.086975,20.714797,-1.675417,1.000000,-0.000000,0.000000
38.278006,-5.181505,-4.973851,0.000000,0.000000,-1.000000
-59.740065,19.982042,-4.973851,0.000000,0.000000,-1.000000
-43.904565,9.876661,4.973851,0.000000,-0.000000,1.000000
37.059403,-16.800118,-4.973851,0.000000,0.000000,-1.000000
-65.221929,-13.024087,-4.973851,0.000000,0.000000,-1.000000
-23.050837,-25.330101,1.619160,0.000000,-1.000000,0.000000
61.843008,-22.653787,4.973851,-0.000000,0.000000,1.000000
-42.749513,-23.600947,4.973851,0.000000,-0.000000,1.000000
-0.370534,-20.135985,-4.973851,0.000000,0.000000,-1.000000
-62.071969,-25.330101,2.870175,0.000000,-1.000000,0.000000
44.075361,-22.528943,4.973851,0.000000,0.000000,1.000000
66.546359,-15.475188,-4.973851,0.000000,0.000000,-1.000000
-47.474104,20.212136,-4.973851,0.000000,-0.000000,-1.000000
0.022345,20.481344,4.973851,-0.000000,0.000000,1.000000
-63.502642,-18.717100,-4.973851,0.000000,0.000000,-1.000000
-32.716936,-8.231964,0.153659,-0.956940,-0.290285,0.000000
-0.145414,-20.363307,-4.973851,0.000000,0.000000,-1.000000
-35.586208,-4.903842,-4.893878,-0.471396,-0.881922,0.000000
-68.086975,14.480646,-1.368231,-1.000000,0.000000,0.000000
9.740281,11.109354,-4.973851,0.000000,0.000000,-1.000000
-43.355024,5.707910,4.973851,0.000000,0.000000,1.000000
33.668095,5.184880,-4.973851,0.000000,0.000000,-1.000000
-6.920362,-5.440432,-4.973851,0.000000,0.000000,-1.000000
45.865159,3.454405,-4.973851,0.000000,0.000000,-1.000000
-2.959723,-5.582759,-4.973851,0.000000,0.000000,-1.000000
42.582216,-18.198752,4.973851,-0.000000,0.000000,1.000000
1.787090,-25.330101,-1.313372,0.000000,-1.000000,0.000000
9.383730,17.479789,4.973851,-0.000000,0.000000,1.000000
-43.376213,-15.709424,-4.973851,0.000000,0.000000,-1.000000
10.191831,25.330101,-4.652963,-0.000000,1.000000,0.000000
-10.528116,12.329981,-4.973851,0.000000,-0.000000,-1.000000
51.163592,-10.762290,-4.973851,0.000000,0.000000,-1.000000
33.062630,-22.735925,-4.973851,0.000000,0.000000,-1.000000
-51.033395,25.330101,-3.951715,-0.000000,1.000000,0.000000
7.383700,25.330101,-4.612465,-0.000000,1.000000,0.000000
-39.804558,-20.208734,-4.973851,0.000000,0.000000,-1.000000
62.911956,-21.346093,-4.973851,0.000000,0.000000,-1.000000
-47.439083,25.330101,-2.288271,0.000000,1.000000,0.000000
-62.070331,-0.969755,4.973851,0.000000,-0.000000,1.000000
-17.742480,0.657432,2.909224,-0.634393,-0.773011,0.000000
28.765259,9.693815,4.973851,-0.000000,0.000000,1.000000
60.393901,-24.232431,-4.973851,-0.000000,-0.000000,-1.000000
-24.088506,-15.716411,-4.973851,0.000000,0.000000,-1.000000
3.552887,24.619686,4.973851,-0.000000,0.000000,1.000000
-64.985020,13.411636,-4.973851,0.000000,0.000000,-1.000000
-33.497747,-25.330101,3.248100,0.000000,-1.000000,0.000000
-38.527515,24.978699,-4.973851,0.000000,-0.000000,-1.000000
-4.290543,15.865098,4.973851,-0.000000,0.000000,1.000000
-15.364861,2.310938,-3.414157,0.634393,0.773010,-0.000000
38.133777,17.688190,4.973851,0.000000,-0.000000,1.000000
-68.086975,4.205951,1.084873,-1.000000,0.000000,0.000000
15.162849,5.486713,4.973851,-0.000000,0.000000,1.000000
40.786973,23.542629,-4.973851,0.000000,-0.000000,-1.000000
-22.052732,25.330101,0.733098,0.000000,1.000000,0.000000
45.859597,25.330101,-3.060228,-0.000000,1.000000,0.000000
-56.644356,14.533275,4.973851,0.000000,0.000000,1.000000
20.179559,22.239652,-4.973851,0.000000,-0.000000,-1.000000
-67.604705,-20.919099,-4.973851,0.000000,0.000000,-1.000000
37.852117,14.321475,4.973851,0.000000,-0.000000,1.000000
56.855034,-25.330101,-1.868114,0.000000,-1.000000,0.000000
68.086975,-2.088726,1.857184,1.000000,-0.000000,0.000000
-33.534237,5.420625,4.973851,0.000000,-0.000000,1.000000
-9.820170,-13.242966,-4.973851,-0.000000,-0.000000,-1.000000
-62.417736,-0.047898,4.973851,0.000000,-0.000000,1.000000
31.843269,23.124357,-4.973851,0.000000,-0.000000,-1.000000
-47.177232,-17.101648,4.973851,0.000000,-0.000000,1.000000
-61.729407,3.777613,-4.973851,0.000000,0.000000,-1.000000
-34.151617,3.922905,4.973851,0.000000,-0.000000,1.000000
49.228607,-2.621849,4.973851,-0.000000,0.000000,1.000000
61.890582,24.743191,4.973851,-0.000000,0.000000,1.000000
-22.154591,25.330101,-0.494234,0.000000,1.000000,0.000000
10.274568,-6.550672,4.973851,-0.000000,0.000000,1.000000
52.220187,15.612147,4.973851,-0.000000,0.000000,1.000000
10.106694,-25.330101,1.057736,0.000000,-1.000000,0.000000
-4.658495,-16.294317,-4.973851,-0.000000,-0.000000,-1.000000
-18.587881,1.157465,3.969036,-0.471397,-0.881921,0.000000
-41.242539,21.489435,-4.973851,0.000000,-0.000000,-1.000000
-68.086975,17.879028,4.078330,-1.000000,0.000000,0.000000
-35.247017,-25.330101,1.096514,0.000000,-1.000000,0.000000
-13.673248,18.817040,4.973851,-0.000000,0.000000,1.000000
12.016600,-25.330101,4.378070,0.000000,-1.000000,0.000000
-34.618969,-13.716402,-3.350676,-0.634393,0.773011,0.000000
-32.393189,10.900116,-4.973851,0.000000,-0.000000,-1.000000
27.846646,25.330101,1.917916,-0.000000,1.000000,0.000000
8.516493,25.330101,-2.236823,-0.000000,1.000000,0.000000
-37.753837,25.330101,-2.410850,0.000000,1.000000,0.000000
-40.208788,10.928223,4.973851,-0.000000,0.000000,1.000000
-33.841005,-13.010641,4.964641,-0.773010,0.634393,0.000000
27.680011,1.963619,-4.973851,0.000000,0.000000,-1.000000
65.237895,14.378637,-4.973851,0.000000,0.000000,-1.000000
-44.989743,-17.144241,-4.973851,0.000000,0.000000,-1.000000
44.545113,-4.129192,-4.973851,0.000000,0.000000,-1.000000
-6.449852,25.330101,-4.743619,-0.000000,1.000000,0.000000
-13.544248,-0.339255,-4.973851,-0.000000,-0.000000,-1.000000
-5.860567,-10.145593,-4.973851,0.000000,0.000000,-1.000000
-21.041004,1.631455,1.634901,0.098017,-0.995185,0.000000
35.505175,14.589878,4.973851,0.000000,-0.000000,1.000000
-64.600540,21.646684,4.973851,-0.000000,0.000000,1.000000
27.899747,6.442724,4.973851,-0.000000,0.000000,1.000000
38.330619,4.796641,4.973851,-0.000000,0.000000,1.000000
-0.156198,-16.823218,-4.973851,-0.000000,-0.000000,-1.000000
13.471488,-20.987624,4.973851,0.000000,-0.000000,1.000000
30.499038,22.661882,4.973851,-0.000000,0.000000,1.000000
61.969319,-12.580756,4.973851,-0.000000,0.000000,1.000000
31.947356,20.139016,4.973851,-0.000000,0.000000,1.000000
30.821455,-8.014291,-4.973851,0.000000,0.000000,-1.000000
5.691644,22.566328,4.973851,-0.000000,0.000000,1.000000
-49.760978,24.742563,-4.973851,0.000000,-0.000000,-1.000000
4.020381,-20.421601,4.973851,0.000000,-0.000000,1.000000
24.760760,-5.503907,4.973851,-0.000000,0.000000,1.000000
4.367078,-12.864495,4.973851,0.000000,0.000000,1.000000
6.289200,-25.330101,-3.700809,0.000000,-1.000000,0.000000
32.496161,1.459797,-4.973851,0.000000,0.000000,-1.000000
-60.923383,7.206350,4.973851,0.000000,-0.000000,1.000000
61.315710,-4.736922,-4.973851,0.000000,0.000000,-1.000000
36.220194,2.520896,-4.973851,0.000000,0.000000,-1.000000
28.500806,20.780472,4.973851,-0.000000,0.000000,1.000000
2.109709,-8.664354,4.973851,-0.000000,0.000000,1.000000
-51.001438,10.332163,-4.973851,-0.000000,0.000000,-1.000000
41.982089,13.706199,-4.973851,0.000000,0.000000,-1.000000
59.595159,15.091046,-4.973851,0.000000,0.000000,-1.000000
-6.991889,-22.946857,-4.973851,0.000000,0.000000,-1.000000
-68.086975,15.531484,-3.139465,-1.000000,0.000000,0.000000
5.822164,4.538953,4.973851,0.000000,-0.000000,1.000000
-29.923784,11.069604,4.973851,-0.000000,0.000000,1.000000
-23.596475,-18.331669,-4.973851,0.000000,0.000000,-1.000000
51.499155,-23.441944,4.973851,0.000000,0.000000,1.000000
47.457166,-12.791745,-4.973851,0.000000,0.000000,-1.000000
-21.370520,16.913471,-4.973851,0.000000,-0.000000,-1.000000
-45.853148,18.268369,-4.973851,0.000000,-0.000000,-1.000000
41.555277,-4.130480,-4.973851,0.000000,0.000000,-1.000000
24.486137,-11.674506,-4.973851,0.000000,0.000000,-1.000000
61.600139,-1.104346,4.973851,-0.000000,0.000000,1.000000
-15.410123,-21.625783,-4.973851,0.000000,0.000000,-1.000000
12.481736,-25.330101,4.909521,0.000000,-1.000000,0.000000
-38.856814,25.330101,-4.003137,-0.000000,1.000000,0.000000
54.088242,-25.330101,0.994266,0.000000,-1.000000,0.000000
68.086975,-3.140216,-2.161301,1.000000,0.000000,-0.000000
-64.486812,7.971545,-4.973851,0.000000,0.000000,-1.000000
-40.184818,-14.012918,0.545364,0.471398,0.881921,-0.000000
67.894877,-13.722060,4.973851,-0.000000,0.000000,1.000000
27.454896,5.410092,4.973851,-0.000000,0.000000,1.000000
57.150683,4.937787,-4.973851,0.000000,0.000000,-1.000000
46.593542,-10.634391,4.973851,-0.000000,0.000000,1.000000
68.086975,-1.725387,-2.242423,1.000000,0.000000,-0.000000
67.819029,-20.103503,-4.973851,0.000000,0.000000,-1.000000
-65.208267,-4.401847,4.973851,0.000000,-0.000000,1.000000
61.366897,22.763168,-4.973851,0.000000,0.000000,-1.000000
36.167071,-23.263577,4.973851,0.000000,-0.000000,1.000000
-14.304220,22.833025,-4.973851,0.000000,-0.000000,-1.000000
52.034814,20.897819,4.973851,0.000000,-0.000000,1.000000
68.086975,10.928188,0.673727,1.000000,-0.000000,0.000000
-61.845561,-16.596365,4.973851,0.000000,-0.000000,1.000000
-43.815601,-2.672987,-4.973851,0.000000,-0.000000,-1.000000
-65.530106,9.575688,4.973851,0.000000,-0.000000,1.000000
-14.234768,-3.129737,4.973851,0.000000,-0.000000,1.000000
-41.784453,0.903320,-4.973851,-0.000000,-0.000000,-1.000000
-34.219155,18.674595,-4.973851,0.000000,-0.000000,-1.000000
17.242551,2.451528,4.973851,-0.000000,0.000000,1.000000
11.142618,13.730170,-4.973851,0.000000,-0.000000,-1.000000
57.793671,25.330101,1.918029,-0.000000,1.000000,0.000000
-17.053447,25.330101,-2.128840,-0.000000,1.000000,0.000000
-16.523133,-11.343068,-4.973851,-0.000000,-0.000000,-1.000000
-57.263214,-13.755635,4.973851,0.000000,-0.000000,1.000000
30.254374,3.558039,-4.973851,0.000000,0.000000,-1.000000
30.998580,10.150305,-4.973851,0.000000,0.000000,-1.000000
67.945804,-10.352280,4.973851,-0.000000,0.000000,1.000000
-61.690427,8.468550,4.973851,0.000000,-0.000000,1.000000
39.862075,14.981512,4.973851,0.000000,-0.000000,1.000000
39.608990,3.558375,-4.973851,0.000000,0.000000,-1.000000
52.817522,12.740542,4.973851,-0.000000,0.000000,1.000000
-62.215559,16.771862,-4.973851,0.000000,0.000000,-1.000000
66.931917,-13.821967,4.973851,-0.000000,0.000000,1.000000
-68.086975,1.738504,3.380411,-1.000000,0.000000,0.000000
68.086975,18.229361,-0.485817,1.000000,-0.000000,0.000000
56.892308,-25.330101,1.995814,0.000000,-1.000000,0.000000
54.178723,8.941333,4.973851,-0.000000,0.000000,1.000000
6.002418,3.334788,-4.973851,0.000000,0.000000,-1.000000
-46.628242,-15.687204,-4.973851,0.000000,0.000000,-1.000000
12.715250,3.799192,4.973851,-0.000000,0.000000,1.000000
29.679877,-24.758261,-4.973851,0.000000,0.000000,-1.000000
-49.252301,-25.330101,2.892546,0.000000,-1.000000,0.000000
57.072610,15.095433,4.973851,-0.000000,0.000000,1.000000
-33.023240,-24.002684,-4.973851,0.000000,0.000000,-1.000000
-59.296564,-4.624326,-4.973851,0.000000,0.000000,-1.000000
0.317611,-25.330101,-3.848884,0.000000,-1.000000,0.000000
-4.738133,8.126122,4.973851,0.000000,-0.000000,1.000000
-49.611944,-21.309688,4.973851,0.000000,-0.000000,1.000000
-8.054453,-7.706318,-4.973851,0.000000,0.000000,-1.000000
-40.610114,-13.750307,-4.973851,0.000000,0.000000,-1.000000
-5.015714,-5.769988,-4.973851,0.000000,0.000000,-1.000000
-11.378746,-17.382554,-4.973851,0.000000,0.000000,-1.000000
20.797933,8.228030,-4.973851,0.000000,0.000000,-1.000000
18.127211,-12.996854,-4.973851,0.000000,0.000000,-1.000000
-64.708152,25.074905,-4.973851,0.000000,-0.000000,-1.000000
-27.264992,14.470734,4.973851,-0.000000,0.000000,1.000000
-23.756564,25.330101,2.853592,0.000000,1.000000,0.000000
20.382101,15.333958,4.973851,0.000000,-0.000000,1.000000
43.854158,21.473159,-4.973851,0.000000,-0.000000,-1.000000
68.086975,-21.757345,-3.966442,1.000000,0.000000,-0.000000
61.585736,6.833924,-4.973851,0.000000,0.000000,-1.000000
-68.086975,10.558510,-3.094736,-1.000000,0.000000,0.000000
-5.990123,2.689115,4.973851,0.000000,-0.000000,1.000000
-68.037132,-8.859773,-4.973851,0.000000,0.000000,-1.000000
-55.638429,-14.489421,-4.973851,0.000000,0.000000,-1.000000
-20.784917,21.742529,4.973851,-0.000000,0.000000,1.000000
-5.610823,17.496852,-4.973851,0.000000,-0.000000,-1.000000
-15.960923,-10.412482,-4.973851,-0.000000,-0.000000,-1.000000
-14.017317,-0.295662,4.973851,0.000000,-0.000000,1.000000
-31.279487,-11.000210,4.973851,0.000000,0.000000,1.000000
-7.526045,-2.861831,-4.973851,0.000000,0.000000,-1.000000
14.483307,4.352948,4.973851,-0.000000,0.000000,1.000000
5.656501,-25.330101,-3.210394,0.000000,-1.000000,0.000000
48.370047,-15.977822,-4.973851,0.000000,0.000000,-1.000000
50.727240,-9.068671,4.973851,-0.000000,0.000000,1.000000
-47.993449,21.935790,4.973851,-0.000000,0.000000,1.000000
22.509976,3.127712,-4.973851,0.000000,0.000000,-1.000000
-29.513653,-9.690475,4.973851,0.000000,0.000000,1.000000
-17.666478,14.508420,4.973851,-0.000000,0.000000,1.000000
-66.532049,-0.724717,4.973851,0.000000,-0.000000,1.000000
-11.202341,11.057001,-1.555578,-0.098018,-0.995185,0.000000
17.965634,2.423270,4.973851,-0.000000,0.000000,1.000000
52.452468,-6.479595,-4.973851,0.000000,0.000000,-1.000000
68.086975,-0.879235,-2.082000,1.000000,0.000000,-0.000000
32.329723,3.868139,4.973851,-0.000000,0.000000,1.000000
-61.720337,19.274041,4.973851,0.000000,0.000000,1.000000
48.798443,-14.702517,4.973851,-0.000000,0.000000,1.000000
-7.352785,8.473892,4.307216,-0.881921,-0.471397,0.000000
-13.146233,10.916124,4.246979,0.290285,-0.956940,0.000000
8.633130,-25.330101,-4.391156,0.000000,-1.000000,0.000000
-38.885218,-25.330101,2.706748,0.000000,-1.000000,0.000000
16.845774,25.330101,3.669527,0.000000,1.000000,0.000000
-36.157269,25.170598,-4.973851,0.000000,-0.000000,-1.000000
-15.662870,-13.599981,-4.973851,-0.000000,-0.000000,-1.000000
-46.758096,3.931386,-4.973851,0.000000,-0.000000,-1.000000
-39.260451,-14.429506,4.780330,0.290284,0.956941,0.000000
68.086975,-7.268691,-4.394235,1.000000,0.000000,-0.000000
-2.395143,25.330101,-0.903234,-0.000000,1.000000,0.000000
-24.068196,17.380690,4.973851,-0.000000,0.000000,1.000000
5.642092,8.083175,4.973851,0.000000,-0.000000,1.000000
38.571513,-17.203241,4.973851,-0.000000,0.000000,1.000000
10.281863,-6.720728,-4.973851,0.000000,0.000000,-1.000000
68.086975,20.564295,1.804751,1.000000,-0.000000,0.000000
-47.790127,21.626069,-4.973851,0.000000,-0.000000,-1.000000
-40.364320,-24.195705,-4.973851,0.000000,0.000000,-1.000000
61.948025,-11.390760,4.973851,-0.000000,0.000000,1.000000
-47.321136,8.863596,-4.973851,-0.000000,0.000000,-1.000000
-30.032630,-25.330101,0.078971,0.000000,-1.000000,0.000000
65.388675,-2.321793,4.973851,-0.000000,0.000000,1.000000
-50.733741,-19.796710,4.973851,0.000000,-0.000000,1.000000
-64.060198,-1.360366,-4.973851,0.000000,0.000000,-1.000000
-59.629052,6.776904,-4.973851,0.000000,0.000000,-1.000000
-56.791880,25.330101,3.655217,0.000000,1.000000,0.000000
52.858352,-4.377596,4.973851,-0.000000,0.000000,1.000000
68.086975,-8.707093,-4.730044,1.000000,0.000000,-0.000000
-18.360798,24.182431,-4.973851,0.000000,-0.000000,-1.000000
52.092826,-20.460774,4.973851,-0.000000,0.000000,1.000000
-10.560212,20.743942,4.973851,-0.000000,0.000000,1.000000
12.406381,8.123704,4.973851,0.000000,-0.000000,1.000000
38.528469,-24.916224,4.973851,0.000000,-0.000000,1.000000
40.099732,25.330101,-1.206645,-0.000000,1.000000,0.000000
66.678033,12.816479,4.973851,-0.000000,0.000000,1.000000
17.095691,9.816940,4.973851,0.000000,-0.000000,1.000000
-18.686648,-16.545471,4.973851,0.000000,0.000000,1.000000
-5.073733,12.958660,-4.973851,0.000000,-0.000000,-1.000000
68.086975,-12.279342,3.675823,1.000000,-0.000000,0.000000
34.153870,-14.663338,4.973851,-0.000000,0.000000,1.000000
11.994252,-25.330101,0.011685,0.000000,-1.000000,0.000000
17.087083,25.330101,-2.493399,-0.000000,1.000000,0.000000
2.049189,-25.330101,2.688735,0.000000,-1.000000,0.000000
-38.113772,-14.670730,2.695685,0.098017,0.995185,0.000000
-6.443969,5.358405,4.973851,0.000000,-0.000000,1.000000
-43.580251,23.279326,4.973851,-0.000000,0.000000,1.000000
-35.605301,-0.396535,-4.973851,-0.000000,0.000000,-1.000000
10.317068,25.270858,-4.973851,0.000000,-0.000000,-1.000000
-2.431968,-14.927261,-4.973851,-0.000000,-0.000000,-1.000000
68.086975,22.369453,-0.579752,1.000000,-0.000000,0.000000
15.188696,16.412027,4.973851,-0.000000,0.000000,1.000000
-60.486447,12.027652,4.973851,0.000000,-0.000000,1.000000
68.086975,-17.179010,-1.380205,1.000000,0.000000,-0.000000
46.514522,-19.157303,-4.973851,0.000000,0.000000,-1.000000
-46.721996,3.892897,4.973851,-0.000000,0.000000,1.000000
68.086975,14.986738,4.065925,1.000000,-0.000000,0.000000
41.604125,-16.172210,4.973851,-0.000000,0.000000,1.000000
-20.808406,24.986189,-4.973851,0.000000,-0.000000,-1.000000
27.546773,6.289019,-4.973851,0.000000,0.000000,-1.000000
51.043556,25.330101,2.731150,-0.000000,1.000000,0.000000
-30.366467,-6.159576,-4.973851,-0.000000,0.000000,-1.000000
-43.397354,22.837174,-4.973851,0.000000,-0.000000,-1.000000
41.453406,13.672088,-4.973851,0.000000,0.000000,-1.000000
41.611393,6.026172,4.973851,-0.000000,0.000000,1.000000
-4.231959,-20.185314,-4.973851,0.000000,0.000000,-1.000000
40.376953,25.330101,3.988156,0.000000,1.000000,0.000000
-52.448434,-0.257193,-4.973851,0.000000,0.000000,-1.000000
-43.670143,-5.947302,-4.973851,0.000000,-0.000000,-1.000000
-60.098467,16.651272,-4.973851,0.000000,-0.000000,-1.000000
-26.968090,-11.922673,-4.973851,-0.000000,-0.000000,-1.000000
-45.316782,20.525388,-4.973851,0.000000,-0.000000,-1.000000
61.084144,10.064166,-4.973851,0.000000,0.000000,-1.000000
23.207909,1.424463,-4.973851,0.000000,0.000000,-1.000000
-61.247494,8.973437,-4.973851,0.000000,0.000000,-1.000000
-16.433957,8.163448,-4.973851,0.000000,-0.000000,-1.000000
16.183059,14.070714,-4.973851,0.000000,0.000000,-1.000000
68.086975,-21.352458,2.717744,1.000000,0.000000,-0.000000
-65.599771,-25.330101,1.238669,0.000000,-1.000000,0.000000
-39.524599,25.330101,0.056370,0.000000,1.000000,0.000000
13.789415,-25.330101,0.106246,0.000000,-1.000000,0.000000
-25.627841,-6.809845,4.973851,0.000000,0.000000,1.000000
68.086975,17.718300,4.544895,1.000000,-0.000000,0.000000
-60.786374,8.765608,-4.973851,0.000000,0.000000,-1.000000
27.255352,16.818319,-4.973851,0.000000,0.000000,-1.000000
29.688924,-21.975948,4.973851,0.000000,-0.000000,1.000000
22.789232,22.061020,4.973851,-0.000000,0.000000,1.000000
45.665074,-23.157015,-4.973851,0.000000,0.000000,-1.000000
37.422540,-25.330101,-1.961982,0.000000,-1.000000,0.000000
-24.621459,-0.133195,4.029057,0.773011,-0.634393,0.000000
-50.607264,-14.982759,-4.973851,0.000000,0.000000,-1.000000
-68.086975,19.391363,-3.030435,-1.000000,0.000000,0.000000
68.086975,-2.092516,-4.025377,1.000000,0.000000,-0.000000
-29.618521,-25.330101,0.219088,0.000000,-1.000000,0.000000
68.086975,0.791827,-2.310232,1.000000,0.000000,-0.000000
15.091305,-25.040716,4.973851,0.000000,-0.000000,1.000000
42.784386,9.136121,4.973851,-0.000000,0.000000,1.000000
-51.052914,17.174904,-4.973851,0.000000,-0.000000,-1.000000
-21.171640,25.024901,-4.973851,0.000000,-0.000000,-1.000000
54.017892,-1.743018,-4.973851,0.000000,0.000000,-1.000000
-35.252051,-15.538203,4.973851,0.000000,-0.000000,1.000000
-24.154631,25.330101,2.931711,0.000000,1.000000,0.000000
-10.456537,-6.491024,-4.973851,0.000000,0.000000,-1.000000
-16.914948,5.790290,2.709778,0.995185,0.098018,-0.000000
-61.828280,15.820319,-4.973851,0.000000,0.000000,-1.000000
-18.144518,25.330101,-4.423592,-0.000000,1.000000,0.000000
50.276130,14.828325,4.973851,-0.000000,0.000000,1.000000
35.297666,-9.940719,4.973851,-0.000000,0.000000,1.000000
-68.086975,-5.934428,3.726421,-1.000000,0.000000,0.000000
-0.678893,-13.500183,-4.973851,-0.000000,-0.000000,-1.000000
-12.345188,-18.124633,-4.973851,0.000000,0.000000,-1.000000
6.081195,21.506726,-4.973851,0.000000,-0.000000,-1.000000
-65.718749,-8.932102,4.973851,0.000000,-0.000000,1.000000
-23.814063,-19.707564,4.973851,0.000000,-0.000000,1.000000
-22.344012,-17.079444,-4.973851,0.000000,0.000000,-1.000000
27.703841,10.175776,-4.973851,0.000000,0.000000,-1.000000
68.086975,3.892915,2.564566,1.000000,-0.000000,0.000000
-45.999395,11.606274,4.973851,0.000000,-0.000000,1.000000
68.086975,1.722732,3.526346,1.000000,-0.000000,0.000000
0.856787,8.738737,-4.973851,0.000000,0.000000,-1.000000
-42.520420,-6.498420,-4.973851,0.000000,-0.000000,-1.000000
50.760064,-22.468937,4.973851,0.000000,0.000000,1.000000
-26.594876,-5.303148,-4.973851,0.000000,-0.000000,-1.000000
42.362109,-25.330101,-1.893560,0.000000,-1.000000,0.000000
51.200968,-18.567770,4.973851,-0.000000,0.000000,1.000000
-2.345731,25.330101,-3.380455,-0.000000,1.000000,0.000000
11.527306,-25.330101,-1.691131,0.000000,-1.000000,0.000000
13.430044,7.580088,4.973851,0.000000,-0.000000,1.000000
-2.244248,-4.716187,4.973851,-0.000000,0.000000,1.000000
-19.841973,-18.999539,4.973851,0.000000,-0.000000,1.000000
-31.244900,-21.037284,-4.973851,0.000000,0.000000,-1.000000
-4.896311,25.330101,1.658167,0.000000,1.000000,0.000000
36.572741,-14.015131,-4.973851,0.000000,0.000000,-1.000000
-24.015679,-11.908000,4.973851,0.000000,0.000000,1.000000
35.524975,-3.718759,4.973851,-0.000000,0.000000,1.000000
10.099778,-0.595196,4.973851,-0.000000,0.000000,1.000000
-36.338824,25.330101,-4.495698,-0.000000,1.000000,0.000000
64.467427,21.983880,4.973851,-0.000000,0.000000,1.000000
-47.179600,-25.330101,3.452342,0.000000,-1.000000,0.000000
37.176994,13.747924,4.973851,-0.000000,0.000000,1.000000
39.648236,6.429887,4.973851,-0.000000,0.000000,1.000000
4.895349,19.836044,4.973851,-0.000000,0.000000,1.000000
-38.103128,-21.325967,-4.973851,0.000000,0.000000,-1.000000
29.504722,4.606549,-4.973851,0.000000,0.000000,-1.000000
57.081721,18.444676,-4.973851,0.000000,0.000000,-1.000000
-64.485702,3.410647,4.973851,0.000000,-0.000000,1.000000
-58.131950,14.924649,4.973851,-0.000000,0.000000,1.000000
-47.513861,25.128979,4.973851,-0.000000,0.000000,1.000000
4.780257,-12.044131,4.973851,-0.000000,-0.000000,1.000000
47.808063,-18.854612,4.973851,-0.000000,0.000000,1.000000
34.254427,-12.397880,4.973851,-0.000000,0.000000,1.000000
-3.302040,-24.166620,4.973851,0.000000,-0.000000,1.000000
-18.492397,-17.321313,4.973851,0.000000,-0.000000,1.000000
68.086975,1.179222,1.367314,1.000000,-0.000000,0.000000
-14.853327,22.475042,-4.973851,0.000000,-0.000000,-1.000000
2.598743,-25.330101,1.513741,0.000000,-1.000000,0.000000
1.512464,19.474185,-4.973851,0.000000,-0.000000,-1.000000
14.486305,16.008283,4.973851,-0.000000,0.000000,1.000000
34.635053,10.078924,4.973851,-0.000000,0.000000,1.000000
-2.252212,-9.521959,-4.973851,0.000000,0.000000,-1.000000
54.225619,-9.634559,4.973851,-0.000000,0.000000,1.000000
-55.602769,23.826238,4.973851,-0.000000,0.000000,1.000000
42.792787,-17.428445,-4.973851,0.000000,0.000000,-1.000000
-46.008876,-3.791092,4.973851,-0.000000,0.000000,1.000000
-30.057759,21.112587,-4.973851,0.000000,-0.000000,-1.000000
-67.999614,-13.169021,4.973851,0.000000,-0.000000,1.000000
-17.553186,25.330101,3.638902,0.000000,1.000000,0.000000
-6.006035,-6.769064,4.973851,-0.000000,0.000000,1.000000
-57.781390,-3.061794,-4.973851,0.000000,0.000000,-1.000000
-13.881620,21.380101,-4.973851,0.000000,-0.000000,-1.000000
51.894537,8.973318,4.973851,-0.000000,0.000000,1.000000
55.830416,20.910879,4.973851,0.000000,-0.000000,1.000000
-48.720802,-25.330101,-3.273564,0.000000,-1.000000,0.000000
60.316107,-20.572916,-4.973851,0.000000,0.000000,-1.000000
-48.227966,12.402178,-4.973851,0.000000,0.000000,-1.000000
65.078127,-1.067558,4.973851,-0.000000,0.000000,1.000000
-57.988180,10.367997,-4.973851,0.000000,0.000000,-1.000000
68.086975,22.258122,3.730732,1.000000,-0.000000,0.000000
14.584057,8.747255,-4.973851,0.000000,0.000000,-1.000000
5.872113,25.330101,-0.825195,-0.000000,1.000000,0.000000
-21.111654,6.099712,-4.973851,0.000000,-0.000000,-1.000000
34.322833,10.568198,-4.973851,0.000000,0.000000,-1.000000
-21.328277,7.277030,-4.973851,0.000000,0.000000,-1.000000
-7.111878,-5.066903,4.973851,-0.000000,0.000000,1.000000
68.086975,-1.235704,-0.905220,1.000000,0.000000,-0.000000
56.472664,-17.376485,4.973851,-0.000000,0.000000,1.000000
8.377217,25.330101,1.484742,0.000000,1.000000,0.000000
46.443919,22.692519,-4.973851,0.000000,-0.000000,-1.000000
40.350997,11.552439,4.973851,-0.000000,0.000000,1.000000
46.989597,24.931968,4.973851,-0.000000,0.000000,1.000000
-23.657045,-12.553554,4.973851,0.000000,0.000000,1.000000
12.539438,10.240357,4.973851,0.000000,-0.000000,1.000000
35.712959,-9.241881,-4.973851,0.000000,0.000000,-1.000000
-62.537532,-15.615138,-4.973851,0.000000,0.000000,-1.000000
-47.220549,20.545940,-4.973851,0.000000,-0.000000,-1.000000
38.304245,-14.026308,4.973851,-0.000000,0.000000,1.000000
33.729960,14.283256,-4.973851,0.000000,0.000000,-1.000000
17.020693,8.386509,-4.973851,0.000000,0.000000,-1.000000
-0.040046,-4.912593,-4.973851,0.000000,0.000000,-1.000000
57.911103,-25.330101,-2.936303,0.000000,-1.000000,0.000000
24.734102,3.495831,4.973851,-0.000000,0.000000,1.000000
-4.271521,-17.700921,4.973851,0.000000,0.000000,1.000000
38.371964,-1.468419,4.973851,-0.000000,0.000000,1.000000
-42.667073,-10.532419,0.001370,0.995185,0.098016,0.000000
-35.778338,-25.330101,-1.636787,0.000000,-1.000000,0.000000
-53.274595,-19.164365,-4.973851,0.000000,0.000000,-1.000000
17.545075,-19.151562,-4.973851,-0.000000,-0.000000,-1.000000
-34.619945,-25.330101,-0.880894,0.000000,-1.000000,0.000000
-34.829585,-16.926898,4.973851,0.000000,-0.000000,1.000000
68.086975,-17.809576,0.581473,1.000000,0.000000,-0.000000
68.029471,20.930064,4.973851,-0.000000,0.000000,1.000000
58.412634,5.238499,4.973851,-0.000000,0.000000,1.000000
40.161509,17.946969,-4.973851,0.000000,0.000000,-1.000000
-59.270907,-25.330101,-0.622637,0.000000,-1.000000,0.000000
-35.266858,1.401323,4.973851,0.000000,0.000000,1.000000
-37.330127,-22.258853,-4.973851,0.000000,0.000000,-1.000000
-30.861177,4.066891,4.973851,-0.000000,0.000000,1.000000
44.561648,4.985942,-4.973851,0.000000,0.000000,-1.000000
-5.340017,14.216166,4.973851,-0.000000,0.000000,1.000000
19.885209,24.846148,4.973851,-0.000000,0.000000,1.000000
-68.086975,23.939933,-2.981212,-1.000000,0.000000,0.000000
-41.439610,-25.330101,2.295486,0.000000,-1.000000,0.000000
-61.449865,25.330101,0.888282,0.000000,1.000000,0.000000
36.292484,-17.060674,-4.973851,0.000000,0.000000,-1.000000
15.724148,-25.330101,0.064386,0.000000,-1.000000,0.000000
-48.052142,24.547302,4.973851,-0.000000,0.000000,1.000000
68.086975,23.264744,3.512674,1.000000,-0.000000,0.000000
-63.629484,23.309977,-4.973851,0.000000,-0.000000,-1.000000
57.941915,-15.567928,-4.973851,0.000000,0.000000,-1.000000
50.724712,6.764827,-4.973851,0.000000,0.000000,-1.000000
-56.470715,4.155415,-4.973851,0.000000,0.000000,-1.000000
-61.089364,25.330101,2.108344,0.000000,1.000000,0.000000
-28.706661,-23.937281,-4.973851,0.000000,0.000000,-1.000000
15.347812,4.329203,4.973851,-0.000000,0.000000,1.000000
2.336681,8.667400,-4.973851,0.000000,0.000000,-1.000000
48.864386,-24.181777,4.973851,0.000000,-0.000000,1.000000
-57.101292,-10.372357,-4.973851,0.000000,0.000000,-1.000000
15.690292,18.913826,-4.973851,0.000000,-0.000000,-1.000000
-33.339611,-25.324910,-4.973851,0.000000,0.000000,-1.000000
19.785755,-16.185414,4.973851,0.000000,0.000000,1.000000
-32.367114,3.729702,-4.973851,0.000000,0.000000,-1.000000
-20.426024,1.626587,-0.572099,-0.098017,-0.995185,0.000000
-13.546565,-8.630113,4.973851,-0.000000,-0.000000,1.000000
10.695757,15.038336,4.973851,0.000000,-0.000000,1.000000
-48.458813,-8.584849,4.973851,0.000000,-0.000000,1.000000
27.283406,-9.963261,-4.973851,0.000000,0.000000,-1.000000
43.536993,-14.571679,-4.973851,0.000000,0.000000,-1.000000
-0.014866,-13.805381,-4.973851,-0.000000,-0.000000,-1.000000
-60.668361,-12.013547,4.973851,0.000000,-0.000000,1.000000
-34.262581,25.330101,0.822091,0.000000,1.000000,0.000000
47.368927,-23.406879,-4.973851,0.000000,0.000000,-1.000000
1.918264,-16.916710,-4.973851,-0.000000,-0.000000,-1.000000
-51.635308,-17.521748,4.973851,0.000000,-0.000000,1.000000
-62.761047,-19.230847,-4.973851,0.000000,0.000000,-1.000000
-42.331524,-7.560240,-2.617763,0.881921,-0.471396,0.000000
37.411447,21.709896,4.973851,-0.000000,0.000000,1.000000
30.677703,-7.792523,4.973851,-0.000000,0.000000,1.000000
-2.416545,-11.231099,-4.973851,0.000000,0.000000,-1.000000
-68.086975,-16.745952,0.705648,-1.000000,0.000000,0.000000
-5.016799,-0.850072,-4.973851,0.000000,0.000000,-1.000000
43.577964,-13.987442,4.973851,-0.000000,0.000000,1.000000
33.635599,-25.330101,-3.249889,0.000000,-1.000000,0.000000
2.377454,24.819162,4.973851,-0.000000,0.000000,1.000000
48.406896,0.269487,4.973851,-0.000000,0.000000,1.000000
-38.125565,-23.815094,4.973851,0.000000,-0.000000,1.000000
-6.900044,25.330101,-0.677457,-0.000000,1.000000,0.000000
68.086975,20.288947,2.743936,1.000000,-0.000000,0.000000
47.179680,10.767645,4.973851,-0.000000,0.000000,1.000000
57.178190,-0.325859,4.973851,-0.000000,0.000000,1.000000
50.859328,2.926393,4.973851,-0.000000,0.000000,1.000000
-47.924685,25.330101,2.695996,0.000000,1.000000,0.000000
32.015902,13.282587,-4.973851,0.000000,0.000000,-1.000000
0.735324,15.825412,4.973851,-0.000000,0.000000,1.000000
51.009943,-9.658914,4.973851,-0.000000,0.000000,1.000000
49.069982,12.236135,4.973851,-0.000000,0.000000,1.000000
-23.142913,-15.858591,4.973851,0.000000,0.000000,1.000000
44.301114,-2.666914,4.973851,-0.000000,0.000000,1.000000
22.880444,20.050211,4.973851,-0.000000,0.000000,1.000000
-53.438287,11.548796,-4.973851,-0.000000,-0.000000,-1.000000
22.478055,-21.440360,4.973851,0.000000,-0.000000,1.000000
55.221309,25.330101,-0.774319,-0.000000,1.000000,0.000000
43.564158,-14.439844,-4.973851,0.000000,0.000000,-1.000000
9.334323,-20.079427,-4.973851,0.000000,0.000000,-1.000000
68.086975,15.455944,-2.638114,1.000000,-0.000000,0.000000
7.298342,6.662591,4.973851,0.000000,-0.000000,1.000000
68.086975,-24.455208,3.227084,1.000000,0.000000,-0.000000
61.482476,16.541095,4.973851,-0.000000,0.000000,1.000000
-25.260034,-17.675675,-4.973851,0.000000,0.000000,-1.000000
-44.534231,-5.888607,4.973851,-0.000000,0.000000,1.000000
53.886076,1.605522,-4.973851,0.000000,0.000000,-1.000000
50.118108,22.042824,-4.973851,0.000000,-0.000000,-1.000000
-62.673250,18.526325,4.973851,-0.000000,0.000000,1.000000
34.028685,-23.454551,4.973851,0.000000,-0.000000,1.000000
-62.677535,25.330101,1.753139,0.000000,1.000000,0.000000
25.810236,3.562247,-4.973851,0.000000,0.000000,-1.000000
-4.563421,25.330101,1.378385,0.000000,1.000000,0.000000
-61.825068,-5.855263,4.973851,0.000000,-0.000000,1.000000
41.918526,-16.264580,-4.973851,0.000000,0.000000,-1.000000
-53.092507,18.844867,-4.973851,0.000000,-0.000000,-1.000000
37.215864,-5.657191,-4.973851,0.000000,0.000000,-1.000000
-68.043238,3.007909,-4.973851,0.000000,0.000000,-1.000000
-67.924790,16.729628,-4.973851,0.000000,0.000000,-1.000000
31.400776,21.556626,-4.973851,0.000000,-0.000000,-1.000000
-14.915299,18.755378,4.973851,-0.000000,0.000000,1.000000
36.996196,10.378177,4.973851,-0.000000,0.000000,1.000000
45.415032,-18.724381,4.973851,-0.000000,0.000000,1.000000
19.814863,1.093586,-4.973851,0.000000,0.000000,-1.000000
14.838524,7.645838,-4.973851,0.000000,0.000000,-1.000000
27.677254,0.114005,4.973851,-0.000000,0.000000,1.000000
-23.016995,25.330101,2.839506,0.000000,1.000000,0.000000
-5.847480,19.166829,-4.973851,0.000000,-0.000000,-1.000000
20.807177,-10.278840,-4.973851,0.000000,0.000000,-1.000000
-30.661598,14.230693,4.973851,-0.000000,0.000000,1.000000
-14.267197,-7.680838,4.973851,-0.000000,-0.000000,1.000000
-22.676835,24.244600,-4.973851,0.000000,-0.000000,-1.000000
-16.940685,-0.077523,1.749756,-0.773011,-0.634393,-0.000000
-25.566188,16.291275,-4.973851,0.000000,-0.000000,-1.000000
20.306989,-19.407560,-4.973851,-0.000000,-0.000000,-1.000000
47.032364,-25.330101,0.704937,0.000000,-1.000000,0.000000
-68.086975,-15.788356,0.487781,-1.000000,0.000000,0.000000
-45.075520,2.531099,4.973851,-0.000000,0.000000,1.000000
47.719882,-17.473458,-4.973851,0.000000,0.000000,-1.000000
-40.140242,12.169431,-4.973851,0.000000,-0.000000,-1.000000
-52.049244,18.094465,4.973851,-0.000000,0.000000,1.000000
41.188922,-12.421104,4.973851,-0.000000,0.000000,1.000000
-56.596988,9.454283,4.973851,-0.000000,-0.000000,1.000000
46.706377,-20.345934,4.973851,-0.000000,0.000000,1.000000
-37.303506,25.330101,-0.209070,0.000000,1.000000,0.000000
66.646010,16.251098,-4.973851,0.000000,0.000000,-1.000000
12.017421,-7.245762,-4.973851,0.000000,0.000000,-1.000000
-35.354995,-25.330101,-3.518451,0.000000,-1.000000,0.000000
68.086975,-8.562874,-3.262183,1.000000,0.000000,-0.000000
67.863995,-11.235249,4.973851,-0.000000,0.000000,1.000000
40.054951,-23.311621,-4.973851,0.000000,0.000000,-1.000000
61.196635,2.827271,4.973851,-0.000000,0.000000,1.000000
12.409864,6.219543,-4.973851,0.000000,0.000000,-1.000000
27.160439,16.597296,4.973851,0.000000,-0.000000,1.000000
68.086975,-23.442117,-2.012898,1.000000,0.000000,-0.000000
34.381490,12.274064,4.973851,-0.000000,0.000000,1.000000
51.035649,-11.334253,4.973851,-0.000000,0.000000,1.000000
-19.684015,1.538282,0.345227,-0.290285,-0.956940,0.000000
-68.086975,0.632650,-2.024842,-1.000000,0.000000,0.000000
65.951692,-3.012722,4.973851,-0.000000,0.000000,1.000000
-67.396635,-25.330101,-1.905265,0.000000,-1.000000,0.000000
48.409580,25.330101,-4.941555,-0.000000,1.000000,0.000000
-9.811562,-11.208284,-4.973851,-0.000000,-0.000000,-1.000000
-46.044466,-3.779006,-4.973851,0.000000,-0.000000,-1.000000
59.168086,25.330101,0.091902,-0.000000,1.000000,0.000000
0.053948,-7.366163,4.973851,-0.000000,0.000000,1.000000
-44.318795,-23.082165,-4.973851,0.000000,0.000000,-1.000000
23.284252,24.901753,-4.973851,0.000000,-0.000000,-1.000000
48.312980,0.220275,4.973851,-0.000000,0.000000,1.000000
58.978253,25.330101,1.230924,-0.000000,1.000000,0.000000
-43.667629,3.834078,4.973851,0.000000,0.000000,1.000000
-41.901015,-13.944649,-4.973851,0.000000,0.000000,-1.000000
-35.818499,1.248811,4.973851,0.000000,0.000000,1.000000
-29.052752,11.887107,-4.973851,0.000000,-0.000000,-1.000000
-7.251730,8.284832,-2.017068,-0.881921,-0.471397,0.000000
-8.806652,-11.833221,4.973851,0.000000,0.000000,1.000000
-15.949535,12.479762,-4.973851,0.000000,-0.000000,-1.000000
-6.706229,6.215697,-4.962843,-0.995185,-0.098017,0.000000
9.882179,-3.731890,-4.973851,0.000000,0.000000,-1.000000
59.622214,-16.907619,4.973851,-0.000000,0.000000,1.000000
68.086975,18.534761,-2.541777,1.000000,-0.000000,0.000000
-13.869614,18.127262,4.973851,-0.000000,0.000000,1.000000
6.207470,10.155374,4.973851,0.000000,-0.000000,1.000000
-62.546011,-3.706692,-4.973851,0.000000,0.000000,-1.000000
-68.086975,-10.066873,-4.085845,-1.000000,0.000000,0.000000
-39.138980,-4.718932,-1.853617,0.290284,-0.956941,0.000000
-12.618333,-22.484854,4.973851,0.000000,-0.000000,1.000000
39.127714,-4.874982,-4.973851,0.000000,0.000000,-1.000000
6.259368,22.494309,-4.973851,0.000000,-0.000000,-1.000000
41.516530,20.229161,-4.973851,0.000000,0.000000,-1.000000
58.293907,-4.844175,-4.973851,0.000000,0.000000,-1.000000
0.977964,-25.330101,4.124400,0.000000,-1.000000,0.000000
-18.390019,1.051706,3.849978,-0.471397,-0.881921,0.000000
36.472328,25.330101,-1.794629,-0.000000,1.000000,0.000000
-11.356501,-7.710030,-4.973851,0.000000,0.000000,-1.000000
14.945243,8.387724,4.973851,0.000000,-0.000000,1.000000
34.375476,4.904334,4.973851,-0.000000,0.000000,1.000000
-24.419796,22.725499,4.973851,-0.000000,0.000000,1.000000
-14.268836,17.951856,4.973851,-0.000000,0.000000,1.000000
-17.027688,14.925921,4.973851,-0.000000,0.000000,1.000000
17.928665,-21.618140,4.973851,0.000000,-0.000000,1.000000
-2.795861,4.709791,4.973851,0.000000,-0.000000,1.000000
-48.751338,14.561098,4.973851,-0.000000,0.000000,1.000000
-59.147235,25.330101,-3.257394,0.000000,1.000000,0.000000
-23.367491,-20.421164,4.973851,0.000000,-0.000000,1.000000
-22.081261,1.462803,1.838118,0.290285,-0.956940,0.000000
-23.699876,0.718244,3.784331,0.634393,-0.773011,0.000000
18.695086,20.582777,4.973851,-0.000000,0.000000,1.000000
1.861735,-16.217159,-4.973851,-0.000000,-0.000000,-1.000000
-42.402545,23.549788,-4.973851,0.000000,-0.000000,-1.000000
-68.086975,11.354114,3.042870,-1.000000,0.000000,0.000000
66.285979,16.495363,-4.973851,0.000000,0.000000,-1.000000
-68.086975,-16.078387,4.513092,-1.000000,0.000000,0.000000
28.608132,-2.266468,-4.973851,0.000000,0.000000,-1.000000
13.569574,18.367088,4.973851,-0.000000,0.000000,1.000000
-68.086975,17.296666,2.527315,-1.000000,0.000000,0.000000
13.093397,20.174729,-4.973851,0.000000,-0.000000,-1.000000
46.124958,-3.981856,4.973851,-0.000000,0.000000,1.000000
-19.256635,14.130709,-4.973851,0.000000,-0.000000,-1.000000
58.708807,-24.661450,-4.973851,0.000000,0.000000,-1.000000
36.754431,7.088404,4.973851,-0.000000,0.000000,1.000000
-23.913930,20.523651,-4.973851,0.000000,-0.000000,-1.000000
-30.484712,-21.739075,-4.973851,0.000000,0.000000,-1.000000
11.148679,3.143234,-4.973851,0.000000,0.000000,-1.000000
-51.628522,6.780995,4.973851,-0.000000,0.000000,1.000000
-0.691836,-12.466814,4.973851,0.000000,0.000000,1.000000
-57.538893,20.841927,4.973851,-0.000000,0.000000,1.000000
-33.912237,8.851865,-4.973851,0.000000,-0.000000,-1.000000
-54.864599,-10.935483,-4.973851,0.000000,0.000000,-1.000000
44.705741,16.745257,-4.973851,0.000000,0.000000,-1.000000
68.086975,-17.139856,2.578964,1.000000,0.000000,-0.000000
-68.086975,-1.903902,1.229603,-1.000000,0.000000,0.000000
48.911665,5.707714,4.973851,-0.000000,0.000000,1.000000
-15.187321,9.817741,2.439286,0.634393,-0.773010,0.000000
-6.779063,5.027781,-0.339109,-0.995185,0.098017,0.000000
-32.277615,23.624915,4.973851,-0.000000,0.000000,1.000000
7.991125,-18.185146,-4.973851,-0.000000,-0.000000,-1.000000
-13.047996,1.037052,0.457450,0.290285,0.956940,0.000000
37.731684,-20.007560,4.973851,0.000000,0.000000,1.000000
-53.571561,-8.717268,4.973851,0.000000,-0.000000,1.000000
-21.533633,-24.964554,-4.973851,0.000000,0.000000,-1.000000
61.550647,-25.330101,3.113052,0.000000,-1.000000,0.000000
-19.964172,-13.233971,-4.973851,-0.000000,-0.000000,-1.000000
-13.130649,-20.632461,-4.973851,0.000000,0.000000,-1.000000
-8.144586,-22.301781,4.973851,0.000000,-0.000000,1.000000
36.442824,9.358169,4.973851,-0.000000,0.000000,1.000000
-68.086975,-21.983025,-0.870577,-1.000000,0.000000,0.000000
-56.330986,3.322660,4.973851,0.000000,-0.000000,1.000000
