x,y,z,nx,ny,nz
-22.222377,-4.700939,-2.998940,0.000000,-0.000000,-1.000000
-23.453082,-0.955493,2.998940,-0.000000,0.000000,1.000000
24.838264,9.223052,0.970157,0.941544,0.336890,-0.000000
5.291462,22.527792,2.998940,0.000000,0.000000,1.000000
14.925398,-19.798310,-2.998940,0.000000,0.000000,-1.000000
9.443478,18.527028,2.998940,0.000000,0.000000,1.000000
-2.121425,20.320488,2.998940,0.000000,0.000000,1.000000
-14.559883,13.501544,2.998940,0.000000,0.000000,1.000000
14.587809,22.144348,0.598806,0.514103,0.857729,0.000000
-9.124482,24.873533,0.688023,-0.336890,0.941544,0.000000
-20.611626,16.683014,-2.243644,-0.803208,0.595699,0.000000
11.174998,2.704775,1.253694,-0.970031,-0.242980,0.000000
11.531001,-4.479656,-2.998940,0.000000,0.000000,-1.000000
5.905710,24.941773,2.998940,0.000000,0.000000,1.000000
14.872547,-14.254908,-2.998940,0.000000,0.000000,-1.000000
14.759069,11.189358,-2.998940,-0.000000,0.000000,-1.000000
-8.070022,-18.087861,-2.998940,0.000000,-0.000000,-1.000000
10.723257,21.361075,-2.998940,-0.000000,0.000000,-1.000000
6.331984,19.159575,-2.998940,-0.000000,0.000000,-1.000000
20.119616,-2.291524,-2.998940,0.000000,0.000000,-1.000000
-1.153691,14.464015,2.998940,0.000000,0.000000,1.000000
-22.780677,4.776432,-2.998940,-0.000000,-0.000000,-1.000000
-21.510609,10.171737,-2.998940,-0.000000,-0.000000,-1.000000
25.802852,6.024771,-1.230257,0.970031,0.242980,0.000000
-2.675640,26.386469,2.952195,-0.146730,0.989177,0.000000
-21.847222,-15.017005,1.433068,-0.803208,-0.595699,0.000000
1.502998,-26.451586,1.212412,0.049068,-0.998795,0.000000
-18.528259,-0.453525,-2.998940,-0.000000,-0.000000,-1.000000
-14.498749,-14.122758,2.998940,-0.000000,0.000000,1.000000
17.657488,-6.773713,2.998940,0.000000,-0.000000,1.000000
-21.342771,3.608242,-2.998940,-0.000000,-0.000000,-1.000000
-19.323102,-13.836254,2.998940,-0.000000,0.000000,1.000000
-9.513207,6.473440,1.299079,0.803208,-0.595699,0.000000
-2.939663,23.836843,2.998940,0.000000,0.000000,1.000000
-11.160773,-24.028634,2.660536,-0.427555,-0.903989,0.000000
-18.909189,-5.758314,-2.998940,0.000000,-0.000000,-1.000000
14.767667,22.032144,-2.492843,0.595699,0.803208,-0.000000
-19.700477,-17.714577,1.652720,-0.740951,-0.671559,0.000000
-24.075390,7.788483,2.998940,0.000000,0.000000,1.000000
21.725154,-15.181595,-0.090605,0.803208,-0.595699,0.000000
-18.704758,-0.748058,2.998940,-0.000000,0.000000,1.000000
21.473609,-1.756309,2.998940,0.000000,-0.000000,1.000000
-5.388120,-12.703350,-2.998940,0.000000,-0.000000,-1.000000
-22.032936,11.530118,2.998940,0.000000,0.000000,1.000000
-25.749263,6.238710,-1.877444,-0.970031,0.242980,0.000000
-24.909776,9.023191,1.872425,-0.941544,0.336890,0.000000
0.748606,-25.068956,-2.998940,0.000000,0.000000,-1.000000
-0.185323,-20.297015,2.998940,-0.000000,0.000000,1.000000
11.775410,14.115148,2.998940,0.000000,-0.000000,1.000000
24.866627,9.143784,-1.626652,0.941544,0.336890,0.000000
-26.387097,1.249640,-2.998940,-0.000000,-0.000000,-1.000000
13.964767,2.682319,-2.998940,-0.000000,0.000000,-1.000000
12.107932,23.580661,-1.141399,0.427555,0.903989,0.000000
6.244551,9.661521,2.484606,-0.514103,-0.857729,0.000000
11.138814,2.849228,-1.570552,-0.970031,-0.242980,-0.000000
-16.202467,10.491627,-2.998940,-0.000000,0.000000,-1.000000
19.014740,-16.231321,-2.998940,0.000000,0.000000,-1.000000
17.580804,-4.900431,-2.998940,0.000000,0.000000,-1.000000
-21.176801,-12.823885,2.998940,-0.000000,0.000000,1.000000
17.229448,5.148830,2.998940,0.000000,-0.000000,1.000000
21.571716,-11.908000,2.998940,0.000000,-0.000000,1.000000
-6.922682,9.180027,0.082479,0.595699,-0.803208,0.000000
-8.723061,-10.746148,2.998940,-0.000000,0.000000,1.000000
18.022282,8.204224,-2.998940,-0.000000,0.000000,-1.000000
7.843708,-8.407830,2.800313,-0.671559,0.740951,0.000000
12.197682,19.951243,2.998940,0.000000,0.000000,1.000000
22.062891,6.464169,-2.998940,-0.000000,0.000000,-1.000000
-0.810308,-19.928845,2.998940,-0.000000,-0.000000,1.000000
-8.772401,20.813565,-2.998940,-0.000000,0.000000,-1.000000
-0.352301,-24.877336,2.998940,-0.000000,-0.000000,1.000000
-11.232298,-14.061050,-2.998940,0.000000,-0.000000,-1.000000
-18.766945,-10.901428,2.998940,-0.000000,0.000000,1.000000
12.802010,5.575094,2.998940,0.000000,0.000000,1.000000
14.834117,-0.051523,2.998940,0.000000,-0.000000,1.000000
0.535774,25.466772,2.998940,0.000000,0.000000,1.000000
25.286876,7.969267,0.929156,0.941544,0.336890,0.000000
22.545240,13.918960,-0.954000,0.857729,0.514103,0.000000
-7.772338,18.752089,2.998940,0.000000,0.000000,1.000000
-14.786635,-21.194097,2.998940,-0.000000,0.000000,1.000000
19.057130,-16.455645,2.998940,0.000000,-0.000000,1.000000
-15.669488,3.867690,-2.998940,-0.000000,-0.000000,-1.000000
0.741024,11.474765,-0.468868,-0.049068,-0.998795,0.000000
-13.645549,-3.514138,2.998940,-0.000000,0.000000,1.000000
23.978695,6.861441,-2.998940,-0.000000,0.000000,-1.000000
-23.204783,-7.080976,-2.998940,0.000000,-0.000000,-1.000000
4.910540,26.054953,1.515681,0.146730,0.989177,0.000000
-6.182484,22.201686,2.998940,0.000000,0.000000,1.000000
17.011247,-2.380812,2.998940,0.000000,-0.000000,1.000000
-0.156653,24.073087,-2.998940,-0.000000,0.000000,-1.000000
11.662727,-10.811713,-2.998940,0.000000,0.000000,-1.000000
16.702024,-20.597527,-0.493315,0.595699,-0.803208,0.000000
18.442960,16.109577,2.998940,0.000000,0.000000,1.000000
7.570690,-21.103637,2.998940,0.000000,-0.000000,1.000000
-4.209459,26.158948,-1.720645,-0.146730,0.989177,0.000000
-26.472687,-1.073492,-1.060042,-0.998795,-0.049068,0.000000
-26.494223,-0.635112,-2.781205,-0.998795,-0.049068,0.000000
-15.987562,-21.127408,-1.869535,-0.595699,-0.803208,0.000000
11.499454,-0.238473,-2.714307,-0.998795,0.049068,0.000000
20.763952,11.684628,2.998940,0.000000,0.000000,1.000000
-17.182229,6.940708,2.998940,0.000000,0.000000,1.000000
-22.602967,13.822649,0.055083,-0.857729,0.514103,0.000000
15.723292,-10.425439,-2.998940,0.000000,0.000000,-1.000000
18.983961,3.162429,-2.998940,-0.000000,0.000000,-1.000000
10.799305,-8.058699,-2.998940,0.000000,0.000000,-1.000000
-14.467747,-19.353557,-2.998940,0.000000,-0.000000,-1.000000
10.764784,4.042227,-1.536149,-0.941544,-0.336890,-0.000000
-13.005743,-18.101826,-2.998940,0.000000,-0.000000,-1.000000
2.166862,13.332605,-2.998940,0.000000,0.000000,-1.000000
14.487135,-22.204689,-2.782627,0.514103,-0.857729,0.000000
-17.553335,6.599386,2.998940,0.000000,0.000000,1.000000
-15.423996,18.235062,2.998940,0.000000,0.000000,1.000000
-26.034443,5.048801,-0.662764,-0.989177,0.146730,0.000000
15.511519,21.480465,2.888110,0.595699,0.803208,-0.000000
-11.103567,2.989942,-0.928458,0.970031,-0.242980,0.000000
-14.651529,6.903801,2.998940,0.000000,0.000000,1.000000
-21.977789,-3.341718,2.998940,-0.000000,0.000000,1.000000
19.908479,17.485082,2.812552,0.740951,0.671559,-0.000000
-8.729343,11.708994,2.998940,0.000000,0.000000,1.000000
-14.685353,-5.541101,-2.998940,0.000000,-0.000000,-1.000000
-21.297981,-15.757571,-2.524888,-0.803208,-0.595699,0.000000
6.771350,12.903502,-2.998940,0.000000,0.000000,-1.000000
-10.129928,-15.200511,-2.998940,0.000000,-0.000000,-1.000000
-18.057284,5.031862,2.998940,0.000000,0.000000,1.000000
3.009301,21.129438,-2.998940,-0.000000,0.000000,-1.000000
23.920092,-6.606313,-2.998940,0.000000,0.000000,-1.000000
18.132384,-17.488298,-2.998940,0.000000,0.000000,-1.000000
-3.913685,-10.810777,-0.966438,0.336890,0.941544,0.000000
-8.597856,-9.887861,2.998940,-0.000000,0.000000,1.000000
14.503222,-16.709683,-2.998940,0.000000,0.000000,-1.000000
1.868077,21.662819,-2.998940,0.000000,0.000000,-1.000000
19.866224,0.391536,2.998940,0.000000,0.000000,1.000000
-10.565440,-4.552065,1.074567,0.903989,0.427555,0.000000
-8.901178,18.625558,-2.998940,-0.000000,-0.000000,-1.000000
25.606258,6.809617,-0.021079,0.970031,0.242980,-0.000000
-13.566477,10.148505,2.998940,0.000000,0.000000,1.000000
2.324614,18.761076,2.998940,0.000000,-0.000000,1.000000
-17.955773,19.481869,-0.642264,-0.671559,0.740951,0.000000
20.055172,7.252828,2.998940,0.000000,0.000000,1.000000
-19.872481,0.744557,2.998940,-0.000000,0.000000,1.000000
5.686805,9.995821,2.912635,-0.514103,-0.857729,0.000000
-17.529290,19.868411,1.128223,-0.671559,0.740951,0.000000
4.842785,-25.457247,2.998940,0.000000,-0.000000,1.000000
24.959499,-8.884223,0.668072,0.941544,-0.336890,0.000000
-1.844366,-26.434816,-0.381659,-0.049068,-0.998795,0.000000
8.348460,-7.909213,-2.165567,-0.740951,0.671559,0.000000
-16.833882,-4.798500,2.998940,-0.000000,0.000000,1.000000
-8.794758,15.800155,2.998940,0.000000,0.000000,1.000000
-22.150126,-14.578169,2.354732,-0.857729,-0.514103,0.000000
-12.134712,-23.567995,-2.590059,-0.427555,-0.903989,0.000000
-0.192304,-20.262391,2.998940,-0.000000,0.000000,1.000000
-13.489764,-16.657608,2.998940,-0.000000,0.000000,1.000000
-14.297885,15.897123,2.998940,0.000000,0.000000,1.000000
14.998261,5.768728,-2.998940,-0.000000,0.000000,-1.000000
-13.516965,-8.807446,-2.998940,0.000000,-0.000000,-1.000000
9.020577,7.137675,-2.495140,-0.803208,-0.595699,-0.000000
-12.933183,-17.555954,2.998940,-0.000000,0.000000,1.000000
6.708795,-25.631513,-2.602210,0.242980,-0.970031,0.000000
-6.140259,10.564243,2.998940,0.000000,0.000000,1.000000
-6.853418,24.320182,2.998940,0.000000,0.000000,1.000000
25.640610,-6.672479,-1.068550,0.970031,-0.242980,0.000000
5.188688,-17.230832,-2.998940,0.000000,0.000000,-1.000000
18.657533,0.181874,2.998940,0.000000,0.000000,1.000000
-21.928126,13.664864,-2.998940,-0.000000,-0.000000,-1.000000
8.605178,-9.847591,-2.998940,0.000000,0.000000,-1.000000
-7.013316,15.058310,2.998940,0.000000,0.000000,1.000000
-24.293318,-10.601146,1.432257,-0.903989,-0.427555,0.000000
-12.530364,15.489225,-2.998940,-0.000000,-0.000000,-1.000000
-6.344430,14.004381,-2.998940,-0.000000,0.000000,-1.000000
-21.042024,-11.916033,2.998940,-0.000000,0.000000,1.000000
4.623604,-10.531605,-1.000840,-0.427555,0.903989,0.000000
26.466268,1.204142,-1.071604,0.998795,0.049068,0.000000
-26.168865,-4.142606,-2.888184,-0.989177,-0.146730,0.000000
18.604620,13.941069,-2.998940,-0.000000,0.000000,-1.000000
-8.354252,7.902822,1.499764,0.740951,-0.671559,0.000000
-6.552114,14.328784,2.998940,0.000000,0.000000,1.000000
7.032685,21.770508,2.998940,0.000000,0.000000,1.000000
16.088820,-9.513104,-2.998940,0.000000,0.000000,-1.000000
-21.929133,10.677517,2.998940,0.000000,0.000000,1.000000
-13.465143,12.535238,2.998940,0.000000,0.000000,1.000000
-24.347759,-4.793612,-2.998940,0.000000,-0.000000,-1.000000
14.804735,14.346618,-2.998940,-0.000000,0.000000,-1.000000
16.520974,-20.731803,0.295034,0.595699,-0.803208,0.000000
22.408509,14.147081,-0.457562,0.857729,0.514103,-0.000000
-25.338086,-7.803898,-2.998940,0.000000,-0.000000,-1.000000
-19.518057,-17.915846,-0.517924,-0.740951,-0.671559,0.000000
-2.173929,-13.281268,2.998940,-0.000000,0.000000,1.000000
20.846141,9.410130,2.998940,0.000000,0.000000,1.000000
-17.577290,14.268640,2.998940,0.000000,0.000000,1.000000
-10.935736,24.135068,-0.913250,-0.427555,0.903989,0.000000
1.465686,19.081191,-2.998940,0.000000,0.000000,-1.000000
24.083631,1.710267,-2.998940,0.000000,0.000000,-1.000000
15.986043,18.080164,2.998940,0.000000,0.000000,1.000000
7.396459,-25.459262,0.380507,0.242980,-0.970031,0.000000
7.568273,25.416225,1.406391,0.242980,0.970031,0.000000
-4.971570,-15.664741,-2.998940,0.000000,-0.000000,-1.000000
3.522886,19.671992,-2.998940,0.000000,0.000000,-1.000000
8.370266,14.383897,2.998940,0.000000,-0.000000,1.000000
17.096369,-9.258588,-2.998940,0.000000,0.000000,-1.000000
-21.893419,-14.954716,0.252908,-0.803208,-0.595699,0.000000
15.053049,4.480473,-2.998940,-0.000000,0.000000,-1.000000
1.732428,12.659483,-2.998940,0.000000,0.000000,-1.000000
9.649052,-10.830773,-2.998940,0.000000,0.000000,-1.000000
16.647211,13.048808,-2.998940,-0.000000,0.000000,-1.000000
2.178686,20.157776,2.998940,0.000000,-0.000000,1.000000
7.933726,16.723181,-2.998940,-0.000000,0.000000,-1.000000
-18.740081,12.000007,2.998940,0.000000,0.000000,1.000000
19.690669,-12.327247,2.998940,0.000000,-0.000000,1.000000
17.216047,-5.411156,2.998940,-0.000000,-0.000000,1.000000
10.299669,-13.101283,2.998940,-0.000000,-0.000000,1.000000
4.733719,15.728638,2.998940,0.000000,0.000000,1.000000
-11.597511,-23.822072,2.578951,-0.427555,-0.903989,0.000000
26.382984,-2.699132,2.245666,0.989177,-0.146730,0.000000
12.681648,11.162791,2.998940,0.000000,0.000000,1.000000
-16.292828,-16.079816,-2.998940,0.000000,-0.000000,-1.000000
-22.319834,-2.425784,-2.998940,0.000000,-0.000000,-1.000000
3.860666,10.829747,-2.489378,-0.336890,-0.941544,-0.000000
21.643878,15.291184,2.680160,0.803208,0.595699,-0.000000
-7.308296,-8.893099,-0.829854,0.671559,0.740951,0.000000
24.589892,9.917206,-2.761815,0.941544,0.336890,0.000000
15.117056,-19.788018,2.998940,0.000000,-0.000000,1.000000
-17.956406,3.225103,-2.998940,-0.000000,0.000000,-1.000000
-17.869222,-14.218586,2.998940,-0.000000,0.000000,1.000000
3.736810,-17.950998,-2.998940,0.000000,0.000000,-1.000000
9.727093,6.135150,2.809746,-0.857729,-0.514103,0.000000
-14.992337,-0.753266,-2.998940,-0.000000,-0.000000,-1.000000
-6.210714,12.237999,-2.998940,-0.000000,-0.000000,-1.000000
18.062166,-19.385440,0.548646,0.671559,-0.740951,0.000000
1.456295,-24.612875,-2.998940,0.000000,0.000000,-1.000000
-10.006384,5.669181,0.703888,0.857729,-0.514103,0.000000
24.959019,8.885566,-1.089075,0.941544,0.336890,0.000000
10.201156,12.792225,-2.998940,0.000000,0.000000,-1.000000
-17.828937,-1.496416,2.998940,-0.000000,0.000000,1.000000
-23.872829,2.065893,2.998940,-0.000000,0.000000,1.000000
22.037490,-9.137052,2.998940,-0.000000,-0.000000,1.000000
5.799834,25.859196,-2.890580,0.242980,0.970031,0.000000
9.543397,-12.850605,2.998940,-0.000000,-0.000000,1.000000
16.362189,2.732212,2.998940,0.000000,-0.000000,1.000000
24.551347,6.536397,-2.998940,-0.000000,0.000000,-1.000000
-8.896987,-11.840083,2.998940,-0.000000,0.000000,1.000000
14.977226,2.265796,-2.998940,0.000000,0.000000,-1.000000
19.737087,10.275749,2.998940,0.000000,-0.000000,1.000000
-12.102006,-21.602640,2.998940,-0.000000,0.000000,1.000000
-9.734508,-20.083330,2.998940,-0.000000,0.000000,1.000000
14.658047,-6.599174,-2.998940,0.000000,0.000000,-1.000000
-15.356882,2.884391,-2.998940,-0.000000,0.000000,-1.000000
11.111448,-6.155008,-2.998940,0.000000,0.000000,-1.000000
17.261423,-5.263498,2.998940,-0.000000,-0.000000,1.000000
-2.065669,-20.023595,2.998940,-0.000000,0.000000,1.000000
7.675146,19.626641,2.998940,0.000000,0.000000,1.000000
-14.214251,2.351295,2.998940,0.000000,0.000000,1.000000
-2.345636,12.418832,-2.998940,-0.000000,-0.000000,-1.000000
-24.078262,10.125349,2.998940,0.000000,0.000000,1.000000
-14.888683,-12.637242,-2.998940,0.000000,-0.000000,-1.000000
26.419262,-2.160976,2.840957,0.998795,-0.049068,0.000000
12.508372,-3.189601,-2.998940,0.000000,0.000000,-1.000000
11.442833,-4.794024,2.998940,-0.000000,-0.000000,1.000000
17.119179,-20.240113,-0.661483,0.671559,-0.740951,0.000000
4.857762,-15.705223,-2.998940,0.000000,0.000000,-1.000000
22.333914,7.725325,2.998940,0.000000,0.000000,1.000000
-17.922196,-11.249200,2.998940,-0.000000,0.000000,1.000000
13.032075,-23.076819,2.706227,0.514103,-0.857729,0.000000
-6.848932,9.234724,2.863650,0.595699,-0.803208,0.000000
-8.390252,8.889516,2.998940,0.000000,0.000000,1.000000
5.139726,-17.578263,-2.998940,0.000000,0.000000,-1.000000
6.810405,21.765731,-2.998940,-0.000000,0.000000,-1.000000
5.362291,10.182232,-0.917097,-0.427555,-0.903989,0.000000
-13.900453,3.196815,2.998940,0.000000,0.000000,1.000000
-5.533150,-13.320971,-2.998940,0.000000,-0.000000,-1.000000
9.877479,-16.660692,2.998940,0.000000,-0.000000,1.000000
24.575139,6.474783,-2.998940,-0.000000,0.000000,-1.000000
-10.838839,-12.432076,2.998940,-0.000000,0.000000,1.000000
-1.386338,11.989740,2.998940,0.000000,0.000000,1.000000
-18.417599,-0.925971,-2.998940,0.000000,-0.000000,-1.000000
-23.400171,7.339049,2.998940,0.000000,0.000000,1.000000
0.202165,13.882926,-2.998940,-0.000000,0.000000,-1.000000
6.684789,15.876388,-2.998940,-0.000000,0.000000,-1.000000
-2.938082,14.612600,2.998940,0.000000,0.000000,1.000000
11.312264,-10.264194,2.998940,-0.000000,-0.000000,1.000000
-1.530915,11.396016,1.460526,0.146730,-0.989177,0.000000
18.108528,19.343420,2.059006,0.671559,0.740951,-0.000000
23.608376,12.049333,-0.180934,0.903989,0.427555,-0.000000
25.036377,0.449533,-2.998940,0.000000,0.000000,-1.000000
-24.546266,-10.039132,-0.887132,-0.941544,-0.336890,0.000000
-16.915591,8.427275,2.998940,0.000000,0.000000,1.000000
12.934443,5.879835,-2.998940,0.000000,0.000000,-1.000000
-22.536610,1.782476,2.998940,-0.000000,0.000000,1.000000
-20.227514,6.600116,2.998940,0.000000,0.000000,1.000000
-6.510744,17.950489,2.998940,0.000000,0.000000,1.000000
24.592112,3.107275,2.998940,0.000000,0.000000,1.000000
3.295060,18.650767,-2.998940,0.000000,0.000000,-1.000000
-15.294017,1.296351,-2.998940,-0.000000,0.000000,-1.000000
-6.360569,-9.591982,1.133485,0.514103,0.857729,0.000000
6.329328,19.633008,2.998940,0.000000,-0.000000,1.000000
-4.694016,-21.204801,-2.998940,0.000000,-0.000000,-1.000000
9.386550,-19.994359,2.998940,0.000000,-0.000000,1.000000
-5.563730,11.580136,2.998940,0.000000,0.000000,1.000000
-22.980345,6.118462,2.998940,0.000000,0.000000,1.000000
6.874647,25.589969,-0.105600,0.242980,0.970031,0.000000
16.297932,15.173749,2.998940,0.000000,0.000000,1.000000
26.017618,-5.162230,-2.746155,0.989177,-0.146730,0.000000
-8.667249,-9.740895,2.998940,-0.000000,0.000000,1.000000
-1.611671,11.384037,0.710103,0.146730,-0.989177,0.000000
13.949730,22.328678,-2.998940,-0.000000,0.000000,-1.000000
6.302736,23.329824,-2.998940,-0.000000,0.000000,-1.000000
-26.198492,3.942874,0.503734,-0.989177,0.146730,0.000000
21.194956,-6.392218,2.998940,0.000000,-0.000000,1.000000
5.773153,-25.865879,-2.192207,0.242980,-0.970031,0.000000
-12.404843,8.179083,-2.998940,-0.000000,0.000000,-1.000000
20.432838,-7.043554,2.998940,0.000000,-0.000000,1.000000
18.574427,12.068274,-2.998940,-0.000000,0.000000,-1.000000
-1.236119,-11.829088,2.998940,-0.000000,0.000000,1.000000
5.565352,-16.741063,-2.998940,0.000000,0.000000,-1.000000
-25.989449,-0.674984,2.998940,-0.000000,0.000000,1.000000
25.939857,1.828676,2.998940,0.000000,0.000000,1.000000
19.169025,5.553272,2.998940,0.000000,-0.000000,1.000000
-26.302979,-3.238480,1.102826,-0.989177,-0.146730,0.000000
-10.523416,-6.591832,-2.998940,0.000000,-0.000000,-1.000000
0.529582,-19.260780,-2.998940,0.000000,-0.000000,-1.000000
-18.706706,0.719076,2.998940,-0.000000,0.000000,1.000000
-13.969809,5.335488,2.998940,0.000000,0.000000,1.000000
-18.191194,5.132246,-2.998940,-0.000000,0.000000,-1.000000
-21.402444,15.616719,-0.437104,-0.803208,0.595699,0.000000
-6.202828,-19.882946,-2.998940,0.000000,-0.000000,-1.000000
20.556453,-7.112409,2.998940,0.000000,-0.000000,1.000000
25.331514,-1.983903,-2.998940,0.000000,0.000000,-1.000000
6.448011,-25.696836,-0.182289,0.242980,-0.970031,0.000000
4.939602,10.382149,-2.691352,-0.427555,-0.903989,-0.000000
-13.490431,-2.826104,-2.998940,0.000000,-0.000000,-1.000000
-23.892622,-10.210352,2.998940,-0.000000,0.000000,1.000000
2.217247,-26.416498,-0.437881,0.049068,-0.998795,0.000000
6.701159,-23.176230,-2.998940,0.000000,0.000000,-1.000000
11.055796,-24.078284,2.123864,0.427555,-0.903989,0.000000
20.353663,5.585483,2.998940,0.000000,0.000000,1.000000
-15.680677,16.640485,2.998940,0.000000,0.000000,1.000000
-2.317987,17.838703,-2.998940,-0.000000,0.000000,-1.000000
15.253470,4.294692,-2.998940,-0.000000,0.000000,-1.000000
7.663971,-18.543294,-2.998940,0.000000,0.000000,-1.000000
-19.080254,-18.398887,1.853694,-0.740951,-0.671559,0.000000
-11.286138,20.803589,2.998940,0.000000,0.000000,1.000000
15.312152,-7.842667,2.998940,0.000000,-0.000000,1.000000
0.115210,23.055250,-2.998940,-0.000000,0.000000,-1.000000
0.804935,12.491749,-2.998940,0.000000,0.000000,-1.000000
-10.138826,-17.778912,2.998940,-0.000000,0.000000,1.000000
2.039241,-11.320613,-2.387746,-0.146730,0.989177,0.000000
1.332627,19.548710,-2.998940,-0.000000,0.000000,-1.000000
3.555195,-15.100315,2.998940,0.000000,-0.000000,1.000000
15.640624,-18.076689,-2.998940,0.000000,0.000000,-1.000000
8.291476,-13.797731,2.998940,-0.000000,-0.000000,1.000000
-6.767392,-9.295197,1.750672,0.595699,0.803208,0.000000
-20.724025,-16.531461,-0.192323,-0.803208,-0.595699,0.000000
17.745908,19.665349,2.998940,0.000000,0.000000,1.000000
7.627718,-25.401335,-0.050760,0.242980,-0.970031,0.000000
7.524155,-10.629993,-2.998940,0.000000,0.000000,-1.000000
8.943729,22.932035,-2.998940,-0.000000,0.000000,-1.000000
-13.362164,-16.528329,-2.998940,0.000000,-0.000000,-1.000000
17.930809,7.810434,2.998940,0.000000,0.000000,1.000000
-24.531289,-9.807809,2.998940,-0.000000,0.000000,1.000000
-21.137822,-6.158581,2.998940,-0.000000,0.000000,1.000000
7.126764,9.028670,1.496948,-0.595699,-0.803208,0.000000
23.100523,9.239095,-2.998940,-0.000000,0.000000,-1.000000
-23.720842,-11.811544,-0.826526,-0.903989,-0.427555,0.000000
-7.627604,-19.892398,2.998940,-0.000000,0.000000,1.000000
-26.468771,-1.153201,-2.180412,-0.998795,-0.049068,0.000000
-2.692292,-26.383999,0.653826,-0.146730,-0.989177,0.000000
19.407733,-12.058182,2.998940,0.000000,-0.000000,1.000000
-8.196691,8.076664,0.093706,0.740951,-0.671559,0.000000
-3.890978,-23.222263,-2.998940,0.000000,-0.000000,-1.000000
-16.502696,-0.612946,-2.998940,-0.000000,-0.000000,-1.000000
-12.616864,-8.420746,-2.998940,0.000000,-0.000000,-1.000000
2.813922,-22.555968,2.998940,0.000000,-0.000000,1.000000
-10.257619,-9.185298,2.998940,-0.000000,0.000000,1.000000
0.977993,26.477378,0.129303,0.049068,0.998795,-0.000000
-5.063676,15.958907,-2.998940,-0.000000,0.000000,-1.000000
-9.060911,8.135383,-2.998940,-0.000000,0.000000,-1.000000
-13.461245,-22.611975,2.998940,-0.000000,0.000000,1.000000
6.145903,19.867957,2.998940,0.000000,-0.000000,1.000000
4.416025,-17.528484,-2.998940,0.000000,0.000000,-1.000000
15.720716,3.255872,-2.998940,0.000000,0.000000,-1.000000
-24.918544,8.998684,2.176212,-0.941544,0.336890,0.000000
5.717585,16.363376,-2.998940,-0.000000,0.000000,-1.000000
-18.924691,-10.502392,2.998940,-0.000000,0.000000,1.000000
-11.944624,12.542770,-2.998940,-0.000000,-0.000000,-1.000000
-25.711887,6.387923,-1.867965,-0.970031,0.242980,0.000000
1.551796,11.392919,1.555681,-0.146730,-0.989177,0.000000
-0.061190,-14.343404,-2.998940,0.000000,-0.000000,-1.000000
-1.728332,-26.440516,-0.165193,-0.049068,-0.998795,0.000000
-19.362198,-7.490576,-2.998940,0.000000,-0.000000,-1.000000
-11.422667,-1.351248,-0.257552,0.989177,0.146730,0.000000
6.094894,-16.589150,2.998940,0.000000,-0.000000,1.000000
2.303443,-26.412263,2.588640,0.049068,-0.998795,0.000000
-25.560053,2.332170,-2.998940,-0.000000,-0.000000,-1.000000
12.401888,-7.230479,2.998940,-0.000000,-0.000000,1.000000
-17.558536,-7.705087,-2.998940,0.000000,-0.000000,-1.000000
12.405672,2.912636,-2.998940,0.000000,0.000000,-1.000000
-5.642988,10.022084,1.962476,0.514103,-0.857729,0.000000
-2.703290,-24.957200,-2.998940,0.000000,-0.000000,-1.000000
23.566304,12.138288,-0.696277,0.903989,0.427555,-0.000000
-20.693048,-16.573229,-1.065105,-0.803208,-0.595699,0.000000
24.364468,4.101985,-2.998940,-0.000000,0.000000,-1.000000
-9.413788,-8.218131,2.998940,-0.000000,0.000000,1.000000
21.373883,-4.405949,-2.998940,0.000000,0.000000,-1.000000
-6.559308,17.189651,-2.998940,-0.000000,-0.000000,-1.000000
0.841381,-11.469835,2.021490,-0.049068,0.998795,0.000000
-5.544206,-10.081291,-0.388317,0.514103,0.857729,0.000000
9.962156,-21.460399,2.998940,0.000000,-0.000000,1.000000
12.540238,18.411930,2.998940,0.000000,-0.000000,1.000000
-8.651951,-18.710594,-2.998940,0.000000,-0.000000,-1.000000
-2.308363,-26.412021,0.038739,-0.049068,-0.998795,0.000000
9.691796,-7.572713,2.998940,-0.000000,-0.000000,1.000000
-3.584480,26.251655,1.910709,-0.146730,0.989177,0.000000
-26.177166,-4.086645,0.987221,-0.989177,-0.146730,0.000000
-10.791702,3.966997,-0.245083,0.941544,-0.336890,0.000000
-13.884268,21.253494,2.998940,0.000000,0.000000,1.000000
4.265212,24.086168,-2.998940,-0.000000,0.000000,-1.000000
-0.722402,-14.944366,2.998940,-0.000000,0.000000,1.000000
0.242704,25.300410,2.998940,0.000000,0.000000,1.000000
16.855568,3.302515,-2.998940,-0.000000,0.000000,-1.000000
-15.605464,-21.410792,0.069947,-0.595699,-0.803208,0.000000
-13.951372,-22.525813,2.844216,-0.514103,-0.857729,0.000000
24.604087,-2.866770,2.998940,0.000000,-0.000000,1.000000
4.199347,18.766915,2.998940,0.000000,-0.000000,1.000000
1.828590,-11.351860,-2.774153,-0.146730,0.989177,0.000000
15.286767,-12.505405,2.998940,0.000000,-0.000000,1.000000
-13.150440,15.449046,2.998940,0.000000,0.000000,1.000000
-1.218584,-25.568979,2.998940,-0.000000,-0.000000,1.000000
-6.598264,-20.870367,2.998940,-0.000000,0.000000,1.000000
-11.481143,-0.611191,-1.158155,0.998795,0.049068,0.000000
4.953997,-10.375340,-1.308178,-0.427555,0.903989,0.000000
-20.334986,-9.800157,2.998940,-0.000000,0.000000,1.000000
-11.916093,13.224868,2.998940,0.000000,0.000000,1.000000
4.700753,-26.086072,-2.404178,0.146730,-0.989177,0.000000
-9.106707,-11.005782,2.998940,-0.000000,0.000000,1.000000
24.911251,9.019069,2.259653,0.941544,0.336890,-0.000000
-5.381953,-19.059596,2.998940,-0.000000,0.000000,1.000000
26.482858,0.866448,-2.358889,0.998795,0.049068,0.000000
2.060212,20.265422,-2.998940,-0.000000,0.000000,-1.000000
3.665064,17.009733,-2.998940,-0.000000,0.000000,-1.000000
20.724732,14.862456,2.998940,0.000000,0.000000,1.000000
0.214357,11.500639,-1.277163,-0.049068,-0.998795,-0.000000
-5.208431,11.590956,2.998940,0.000000,0.000000,1.000000
6.222560,15.749685,2.998940,0.000000,0.000000,1.000000
-13.591750,-1.031409,2.998940,-0.000000,0.000000,1.000000
-4.094510,-25.891450,-2.998940,0.000000,-0.000000,-1.000000
12.615338,-21.050004,-2.998940,0.000000,0.000000,-1.000000
-10.295676,-5.122434,-2.454956,0.903989,0.427555,0.000000
8.396548,19.938237,-2.998940,-0.000000,0.000000,-1.000000
-16.979480,19.590910,-2.998940,-0.000000,-0.000000,-1.000000
24.774665,3.327629,2.998940,0.000000,0.000000,1.000000
6.421975,-19.354152,-2.998940,0.000000,0.000000,-1.000000
16.877926,-8.993498,-2.998940,0.000000,0.000000,-1.000000
-7.908026,-8.349536,2.806682,0.671559,0.740951,0.000000
-12.011903,-21.541175,-2.998940,0.000000,-0.000000,-1.000000
-9.284581,-7.450853,2.998940,-0.000000,0.000000,1.000000
17.005458,-17.647538,2.998940,0.000000,-0.000000,1.000000
-14.449285,-22.227375,0.481781,-0.514103,-0.857729,0.000000
13.795954,-20.234549,-2.998940,0.000000,0.000000,-1.000000
-20.616413,14.879497,2.998940,0.000000,0.000000,1.000000
2.115166,-14.510916,2.998940,-0.000000,-0.000000,1.000000
9.829215,-10.350648,2.998940,-0.000000,-0.000000,1.000000
19.839807,17.560849,-1.812174,0.740951,0.671559,0.000000
-26.442995,1.677874,1.383710,-0.998795,0.049068,0.000000
19.162117,9.617076,-2.998940,-0.000000,0.000000,-1.000000
-7.830244,12.673704,2.998940,0.000000,0.000000,1.000000
17.963604,-5.501423,2.998940,-0.000000,-0.000000,1.000000
-5.817185,-11.920797,-2.998940,0.000000,-0.000000,-1.000000
22.922005,4.149868,2.998940,0.000000,0.000000,1.000000
11.154728,2.785697,-1.352162,-0.970031,-0.242980,-0.000000
-18.027462,-18.683870,2.998940,-0.000000,0.000000,1.000000
-1.051194,-26.473782,1.341948,-0.049068,-0.998795,0.000000
8.215674,-25.198710,1.896871,0.336890,-0.941544,0.000000
-23.027344,-13.114618,2.886222,-0.857729,-0.514103,0.000000
-22.401261,-7.257981,2.998940,-0.000000,0.000000,1.000000
-13.564737,-11.230769,-2.998940,0.000000,-0.000000,-1.000000
-13.065355,-20.157607,2.998940,-0.000000,0.000000,1.000000
4.215842,16.208702,-2.998940,0.000000,0.000000,-1.000000
-21.621117,-11.623987,2.998940,-0.000000,0.000000,1.000000
0.301255,16.914803,2.998940,0.000000,0.000000,1.000000
16.484441,-19.503444,-2.998940,0.000000,0.000000,-1.000000
-18.204783,19.256179,-2.286281,-0.671559,0.740951,0.000000
8.430173,-25.121961,2.562619,0.336890,-0.941544,0.000000
8.006818,-22.300554,2.998940,0.000000,-0.000000,1.000000
-18.935176,18.558956,1.118815,-0.740951,0.671559,0.000000
-16.246996,-1.099470,2.998940,-0.000000,0.000000,1.000000
26.467503,1.179014,2.283168,0.998795,0.049068,-0.000000
-8.069374,11.286210,2.998940,0.000000,0.000000,1.000000
23.070420,13.042749,-0.399459,0.857729,0.514103,0.000000
-21.578350,-0.694138,2.998940,-0.000000,0.000000,1.000000
10.742905,4.103373,-0.269881,-0.941544,-0.336890,-0.000000
-24.328449,6.197385,2.998940,0.000000,0.000000,1.000000
-10.628335,-6.739810,-2.998940,0.000000,-0.000000,-1.000000
25.548113,-7.041746,-1.157956,0.970031,-0.242980,0.000000
-24.262597,10.666100,-1.407258,-0.903989,0.427555,0.000000
-2.940047,-18.240101,2.998940,-0.000000,0.000000,1.000000
16.458739,-5.114189,2.998940,-0.000000,-0.000000,1.000000
8.599246,-7.632514,2.881144,-0.740951,0.671559,0.000000
1.624355,-11.382156,0.844104,-0.146730,0.989177,0.000000
1.010517,26.475780,-2.241146,0.049068,0.998795,0.000000
17.649950,10.278886,2.998940,0.000000,0.000000,1.000000
-5.626816,-24.908828,-2.998940,0.000000,-0.000000,-1.000000
13.185196,2.126133,2.998940,0.000000,-0.000000,1.000000
18.669237,-4.214384,2.998940,-0.000000,-0.000000,1.000000
7.618649,-25.403607,-2.955603,0.242980,-0.970031,0.000000
10.285007,-5.144991,-2.153152,-0.903989,0.427555,0.000000
-23.285606,12.683734,2.844225,-0.857729,0.514103,0.000000
-17.282873,-16.583641,-2.998940,0.000000,-0.000000,-1.000000
-4.456829,10.610484,1.682641,0.427555,-0.903989,0.000000
16.916306,7.744178,2.998940,0.000000,0.000000,1.000000
-9.258805,-10.869053,-2.998940,0.000000,-0.000000,-1.000000
17.569870,4.352645,2.998940,0.000000,0.000000,1.000000
-24.040297,5.688161,-2.998940,-0.000000,-0.000000,-1.000000
0.716538,26.490223,1.209409,0.049068,0.998795,-0.000000
-24.505850,-5.861876,2.998940,-0.000000,0.000000,1.000000
-20.936177,0.875205,2.998940,-0.000000,0.000000,1.000000
19.879892,-1.079303,-2.998940,0.000000,0.000000,-1.000000
-5.078143,-14.478288,-2.998940,0.000000,-0.000000,-1.000000
20.038969,17.341108,2.140293,0.740951,0.671559,-0.000000
15.296867,-6.437410,-2.998940,0.000000,0.000000,-1.000000
6.713613,20.777957,2.998940,0.000000,0.000000,1.000000
-10.149627,-5.430195,0.329111,0.857729,0.514103,0.000000
10.237572,5.245284,-1.557440,-0.903989,-0.427555,-0.000000
22.093889,10.235820,-2.998940,-0.000000,0.000000,-1.000000
-9.872388,-24.605928,0.062595,-0.336890,-0.941544,0.000000
11.892299,-7.726261,-2.998940,0.000000,0.000000,-1.000000
-11.729423,23.759682,-0.867372,-0.427555,0.903989,0.000000
-3.518480,-26.261445,2.464854,-0.146730,-0.989177,0.000000
-11.468266,-17.326678,2.998940,-0.000000,0.000000,1.000000
6.647311,15.075827,2.998940,0.000000,-0.000000,1.000000
-16.200407,-12.314667,-2.998940,0.000000,-0.000000,-1.000000
4.618150,26.098325,0.263591,0.146730,0.989177,0.000000
14.800634,11.416862,-2.998940,-0.000000,0.000000,-1.000000
22.288005,-14.348130,0.987971,0.857729,-0.514103,0.000000
26.227667,2.920467,2.998940,0.000000,0.000000,1.000000
-8.790235,-15.991150,2.998940,-0.000000,0.000000,1.000000
-15.578712,21.430632,1.742565,-0.595699,0.803208,0.000000
12.334379,23.473559,0.704502,0.427555,0.903989,0.000000
20.222219,-0.135206,2.998940,0.000000,-0.000000,1.000000
19.110808,17.453351,2.998940,0.000000,0.000000,1.000000
-12.340890,23.470480,0.206585,-0.427555,0.903989,0.000000
-26.168184,-4.147199,-2.775614,-0.989177,-0.146730,0.000000
5.100958,22.605887,2.998940,0.000000,0.000000,1.000000
-15.398037,14.386435,2.998940,0.000000,0.000000,1.000000
0.892906,-11.726337,2.998940,-0.000000,-0.000000,1.000000
-9.031367,-7.123127,1.813963,0.803208,0.595699,0.000000
-23.640066,-2.985490,-2.998940,0.000000,-0.000000,-1.000000
-1.515968,14.511588,-2.998940,-0.000000,0.000000,-1.000000
10.995650,-19.001877,-2.998940,0.000000,0.000000,-1.000000
-11.015641,3.340962,-2.921094,0.970031,-0.242980,0.000000
-14.516905,-14.123659,2.998940,-0.000000,0.000000,1.000000
-26.514572,-0.220893,-0.447011,-0.998795,-0.049068,0.000000
2.833158,-11.142839,0.780679,-0.242980,0.970031,0.000000
11.209503,-12.226928,2.998940,-0.000000,-0.000000,1.000000
-9.839241,23.625682,2.998940,0.000000,0.000000,1.000000
-5.060541,-10.324949,-1.317984,0.427555,0.903989,0.000000
22.648670,13.746397,-2.624768,0.857729,0.514103,0.000000
-12.409609,23.437978,1.652914,-0.427555,0.903989,0.000000
-8.275189,-7.990055,-1.887750,0.740951,0.671559,0.000000
-13.266006,-7.161207,2.998940,-0.000000,0.000000,1.000000
-10.005276,5.671030,-1.325022,0.857729,-0.514103,0.000000
22.888028,-13.347052,-0.596199,0.857729,-0.514103,0.000000
-20.202860,0.412815,2.998940,0.000000,0.000000,1.000000
14.713041,-8.370969,2.998940,-0.000000,-0.000000,1.000000
-21.389536,15.454204,2.998940,0.000000,0.000000,1.000000
9.998084,-24.560953,-0.651146,0.336890,-0.941544,0.000000
-26.215582,-3.827668,-1.910593,-0.989177,-0.146730,0.000000
14.971987,20.880195,2.998940,0.000000,0.000000,1.000000
14.985977,0.868616,2.998940,0.000000,-0.000000,1.000000
-21.829427,-14.072170,-2.998940,0.000000,-0.000000,-1.000000
16.639822,7.753104,-2.998940,-0.000000,0.000000,-1.000000
-2.775022,20.841958,2.998940,0.000000,0.000000,1.000000
-10.714464,-15.271793,-2.998940,0.000000,-0.000000,-1.000000
-13.510063,-18.891063,-2.998940,0.000000,-0.000000,-1.000000
-13.991729,-22.501624,-2.862362,-0.514103,-0.857729,0.000000
1.872281,-18.824996,-2.998940,0.000000,0.000000,-1.000000
20.687040,1.896602,2.998940,0.000000,-0.000000,1.000000
23.481427,12.317744,2.080342,0.903989,0.427555,-0.000000
-8.630983,-11.548401,2.998940,-0.000000,0.000000,1.000000
21.412869,9.185044,-2.998940,-0.000000,0.000000,-1.000000
-6.387966,19.426010,-2.998940,-0.000000,-0.000000,-1.000000
19.136586,10.025986,-2.998940,-0.000000,0.000000,-1.000000
8.828612,22.006605,2.998940,0.000000,0.000000,1.000000
-5.598317,15.472182,2.998940,0.000000,0.000000,1.000000
-9.540773,16.161096,-2.998940,-0.000000,-0.000000,-1.000000
11.797259,-8.584682,2.998940,-0.000000,-0.000000,1.000000
9.175025,-18.888255,-2.998940,0.000000,0.000000,-1.000000
5.376291,22.307204,2.998940,0.000000,0.000000,1.000000
21.927057,12.357250,-2.998940,-0.000000,0.000000,-1.000000
-15.237662,21.595685,-2.998940,-0.000000,-0.000000,-1.000000
-8.695315,-25.027091,-1.761366,-0.336890,-0.941544,0.000000
22.046918,-11.938773,-2.998940,0.000000,0.000000,-1.000000
-6.856944,-24.547256,2.998940,-0.000000,0.000000,1.000000
-23.975718,-3.569142,-2.998940,0.000000,-0.000000,-1.000000
2.612762,23.445372,-2.998940,-0.000000,0.000000,-1.000000
18.598164,18.899639,-1.253425,0.671559,0.740951,0.000000
-21.202605,-5.350261,-2.998940,0.000000,-0.000000,-1.000000
7.065395,9.074184,2.848589,-0.595699,-0.803208,0.000000
-6.527837,-14.593581,-2.998940,0.000000,-0.000000,-1.000000
25.655349,2.286347,-2.998940,0.000000,0.000000,-1.000000
11.311993,-2.097352,-1.590993,-0.989177,0.146730,0.000000
18.527757,-10.980334,2.998940,0.000000,-0.000000,1.000000
0.796199,-13.638443,-2.998940,0.000000,-0.000000,-1.000000
23.515831,-2.445226,-2.998940,0.000000,0.000000,-1.000000
12.813470,17.123909,-2.998940,-0.000000,0.000000,-1.000000
26.173967,4.108211,1.065018,0.989177,0.146730,-0.000000
20.782265,16.452933,2.694881,0.803208,0.595699,-0.000000
20.710730,-1.253854,-2.998940,0.000000,0.000000,-1.000000
26.221394,3.788480,1.830382,0.989177,0.146730,-0.000000
1.502986,20.877036,-2.998940,-0.000000,0.000000,-1.000000
-13.955599,4.520518,-2.998940,-0.000000,-0.000000,-1.000000
-16.129172,-20.246958,2.998940,-0.000000,0.000000,1.000000
-6.209223,-19.786887,-2.998940,0.000000,-0.000000,-1.000000
18.474503,14.017508,2.998940,0.000000,0.000000,1.000000
23.417541,-10.102616,-2.998940,0.000000,0.000000,-1.000000
12.865936,-13.451806,2.998940,-0.000000,-0.000000,1.000000
6.885277,9.207768,2.445613,-0.595699,-0.803208,0.000000
3.419074,21.489652,-2.998940,-0.000000,0.000000,-1.000000
-14.501102,11.292452,-2.998940,-0.000000,0.000000,-1.000000
-1.160178,26.468428,2.916582,-0.049068,0.998795,0.000000
10.756393,14.306585,-2.998940,-0.000000,0.000000,-1.000000
8.842199,16.477406,-2.998940,-0.000000,0.000000,-1.000000
18.715149,-8.830943,2.998940,0.000000,-0.000000,1.000000
6.502609,-24.643147,2.998940,0.000000,-0.000000,1.000000
19.805919,-17.598239,-2.893685,0.740951,-0.671559,0.000000
20.298367,-11.608089,2.998940,0.000000,-0.000000,1.000000
-23.211470,10.831531,-2.998940,-0.000000,-0.000000,-1.000000
-10.685090,4.264955,-1.634706,0.941544,-0.336890,0.000000
-15.459664,15.402746,2.998940,0.000000,0.000000,1.000000
-8.923812,-7.663141,2.998940,-0.000000,0.000000,1.000000
-13.544879,-14.670165,-2.998940,0.000000,-0.000000,-1.000000
-17.539066,3.279090,-2.998940,-0.000000,0.000000,-1.000000
-22.388725,14.180089,0.774118,-0.857729,0.514103,0.000000
-7.456126,25.444316,-0.090551,-0.242980,0.970031,0.000000
-0.645832,-14.170545,2.998940,-0.000000,0.000000,1.000000
-19.884867,-4.654336,-2.998940,0.000000,-0.000000,-1.000000
-6.846482,14.231217,2.998940,0.000000,0.000000,1.000000
14.865839,-12.450572,2.998940,-0.000000,-0.000000,1.000000
-11.279367,2.288107,-2.702705,0.970031,-0.242980,0.000000
-11.618747,8.041572,-2.998940,-0.000000,-0.000000,-1.000000
19.349830,-11.927371,-2.998940,0.000000,0.000000,-1.000000
11.434782,-14.622425,2.998940,-0.000000,-0.000000,1.000000
11.305712,-2.139698,-2.849389,-0.989177,0.146730,0.000000
-21.756914,-13.464868,2.998940,-0.000000,0.000000,1.000000
-21.997550,14.814312,-2.848993,-0.803208,0.595699,0.000000
-15.528255,-21.468054,2.209854,-0.595699,-0.803208,0.000000
23.840710,11.411897,-2.998940,-0.000000,0.000000,-1.000000
-3.977477,-26.193359,-2.555365,-0.146730,-0.989177,0.000000
3.050674,-24.875544,-2.998940,0.000000,0.000000,-1.000000
-14.842534,19.801859,2.998940,0.000000,0.000000,1.000000
14.521674,-3.258110,2.998940,-0.000000,-0.000000,1.000000
21.496900,1.872421,2.998940,0.000000,-0.000000,1.000000
0.273797,16.748579,-2.998940,-0.000000,0.000000,-1.000000
16.335336,-13.088374,2.998940,0.000000,-0.000000,1.000000
14.824828,-21.989751,-1.976092,0.595699,-0.803208,0.000000
17.416626,9.852171,-2.998940,0.000000,0.000000,-1.000000
8.973228,9.698333,2.998940,0.000000,-0.000000,1.000000
10.067470,5.567265,2.198170,-0.857729,-0.514103,0.000000
-16.878353,-20.125903,-2.998940,0.000000,-0.000000,-1.000000
-18.153303,-17.221709,-2.998940,0.000000,-0.000000,-1.000000
-12.696304,1.421666,2.998940,0.000000,0.000000,1.000000
24.277479,10.634633,-0.518689,0.903989,0.427555,0.000000
-25.856400,5.810994,2.136721,-0.970031,0.242980,0.000000
18.370804,12.891052,-2.998940,-0.000000,0.000000,-1.000000
-11.527840,-6.551252,-2.998940,0.000000,-0.000000,-1.000000
12.753345,-12.426143,-2.998940,0.000000,0.000000,-1.000000
-26.058520,-2.233917,2.998940,-0.000000,0.000000,1.000000
-2.587221,-21.676733,2.998940,-0.000000,0.000000,1.000000
-1.433148,14.691591,2.998940,0.000000,0.000000,1.000000
-26.491823,-0.683965,-2.318742,-0.998795,-0.049068,0.000000
9.710952,-20.396945,2.998940,0.000000,-0.000000,1.000000
-1.776322,-14.229315,-2.998940,0.000000,-0.000000,-1.000000
11.785614,23.733106,-1.663618,0.427555,0.903989,0.000000
13.810647,11.930525,-2.998940,0.000000,0.000000,-1.000000
17.648666,-9.369698,2.998940,0.000000,-0.000000,1.000000
-23.741206,-11.768487,-1.372598,-0.903989,-0.427555,0.000000
9.372420,-6.663270,0.506949,-0.803208,0.595699,0.000000
-2.286385,16.299450,2.998940,0.000000,0.000000,1.000000
-19.729908,-5.572469,2.998940,-0.000000,0.000000,1.000000
11.705670,-7.841096,2.998940,-0.000000,-0.000000,1.000000
7.087679,-9.918050,2.998940,-0.000000,-0.000000,1.000000
14.679461,7.237625,-2.998940,-0.000000,0.000000,-1.000000
-15.790159,-12.668461,-2.998940,0.000000,-0.000000,-1.000000
-6.558500,-24.758255,2.998940,-0.000000,0.000000,1.000000
1.578079,-26.447898,1.124967,0.049068,-0.998795,0.000000
-14.544397,-3.075919,2.998940,-0.000000,0.000000,1.000000
-14.756361,10.425075,2.998940,0.000000,0.000000,1.000000
21.706254,-5.912440,-2.998940,0.000000,0.000000,-1.000000
15.027549,-2.159804,2.998940,-0.000000,-0.000000,1.000000
-16.183307,15.667226,-2.998940,-0.000000,-0.000000,-1.000000
20.693672,0.566617,2.998940,0.000000,0.000000,1.000000
9.874865,17.843115,-2.998940,-0.000000,0.000000,-1.000000
26.469993,-1.128331,-2.659631,0.998795,-0.049068,0.000000
11.974707,9.349818,2.998940,0.000000,-0.000000,1.000000
3.500842,-10.958494,1.515588,-0.336890,0.941544,0.000000
-22.556194,2.283996,-2.998940,-0.000000,-0.000000,-1.000000
15.497698,-21.490716,1.044796,0.595699,-0.803208,0.000000
-24.859125,-2.657651,2.998940,-0.000000,0.000000,1.000000
2.565277,-11.209940,-1.984327,-0.242980,0.970031,0.000000
2.232269,25.643852,-2.998940,-0.000000,0.000000,-1.000000
24.359734,10.460720,2.343014,0.903989,0.427555,-0.000000
26.096426,-4.630949,1.502110,0.989177,-0.146730,0.000000
5.369895,-10.999278,-2.998940,0.000000,0.000000,-1.000000
10.039827,5.613385,-1.858789,-0.857729,-0.514103,-0.000000
-11.368860,1.713989,1.640194,0.989177,-0.146730,0.000000
-12.429982,23.428343,-0.398733,-0.427555,0.903989,0.000000
-10.142622,7.337718,2.998940,0.000000,0.000000,1.000000
26.223526,-3.774108,2.975232,0.989177,-0.146730,0.000000
5.338255,-20.552682,-2.998940,0.000000,0.000000,-1.000000
5.846029,16.413546,2.998940,0.000000,0.000000,1.000000
-25.509819,7.194624,2.936538,-0.970031,0.242980,0.000000
19.843999,-17.556224,1.283066,0.740951,-0.671559,0.000000
-9.909410,5.830972,-0.451189,0.857729,-0.514103,0.000000
-4.346137,-15.036864,-2.998940,0.000000,-0.000000,-1.000000
-12.622174,1.590857,-2.998940,-0.000000,0.000000,-1.000000
4.909267,23.486364,-2.998940,-0.000000,0.000000,-1.000000
26.394790,2.619540,1.240746,0.989177,0.146730,0.000000
-8.703019,7.518017,-0.223059,0.740951,-0.671559,0.000000
-24.230258,-6.213142,-2.998940,0.000000,-0.000000,-1.000000
-10.884825,3.706735,-0.746559,0.941544,-0.336890,0.000000
7.381724,12.772750,2.998940,0.000000,-0.000000,1.000000
-20.966809,-4.745993,2.998940,-0.000000,0.000000,1.000000
1.132876,-11.455060,-1.679874,-0.146730,0.989177,0.000000
-16.317992,-0.706805,-2.998940,-0.000000,-0.000000,-1.000000
3.203247,-16.219949,-2.998940,0.000000,0.000000,-1.000000
14.521205,-15.534162,-2.998940,0.000000,0.000000,-1.000000
10.058010,-23.889217,2.998940,0.000000,-0.000000,1.000000
12.171606,-16.335177,-2.998940,0.000000,0.000000,-1.000000
21.843397,-1.303421,2.998940,0.000000,-0.000000,1.000000
6.289768,23.986889,2.998940,0.000000,0.000000,1.000000
8.578871,7.654993,-0.570046,-0.740951,-0.671559,-0.000000
8.544451,16.394113,2.998940,0.000000,0.000000,1.000000
13.951730,5.830721,-2.998940,0.000000,0.000000,-1.000000
15.057361,-8.063989,2.998940,-0.000000,-0.000000,1.000000
7.088618,-9.056960,2.596736,-0.595699,0.803208,0.000000
24.781139,-9.382708,0.553618,0.941544,-0.336890,0.000000
11.770072,-11.868412,2.998940,-0.000000,-0.000000,1.000000
-2.789143,11.153864,-2.996995,0.242980,-0.970031,0.000000
22.045208,6.342440,2.998940,0.000000,0.000000,1.000000
-26.328692,-2.546621,2.998940,-0.000000,0.000000,1.000000
-16.792647,15.401150,-2.998940,-0.000000,-0.000000,-1.000000
-8.811436,7.398398,-0.021793,0.740951,-0.671559,0.000000
-1.335415,26.459819,0.322415,-0.049068,0.998795,0.000000
4.713796,19.467907,2.998940,0.000000,0.000000,1.000000
20.180036,7.689105,2.998940,0.000000,0.000000,1.000000
19.902999,2.476372,-2.998940,-0.000000,0.000000,-1.000000
-18.459687,10.540086,-2.998940,-0.000000,-0.000000,-1.000000
-20.243742,-11.772982,-2.998940,0.000000,-0.000000,-1.000000
1.414956,26.455912,-1.322973,0.049068,0.998795,0.000000
-18.158573,11.001649,-2.998940,-0.000000,-0.000000,-1.000000
-5.757374,-12.416949,-2.998940,0.000000,-0.000000,-1.000000
7.523106,-17.957291,2.998940,0.000000,-0.000000,1.000000
10.284347,15.748760,-2.998940,0.000000,0.000000,-1.000000
-11.413623,-1.464164,2.998940,-0.000000,0.000000,1.000000
-4.049995,-10.762004,-2.722023,0.336890,0.941544,0.000000
13.272013,-22.933005,-0.371478,0.514103,-0.857729,0.000000
-13.114273,-23.027551,0.624087,-0.514103,-0.857729,0.000000
-5.444203,25.948277,-1.984112,-0.242980,0.970031,0.000000
20.861747,13.584643,-2.998940,-0.000000,0.000000,-1.000000
14.900761,1.067826,2.998940,0.000000,-0.000000,1.000000
-0.116213,-12.500445,-2.998940,0.000000,-0.000000,-1.000000
23.538971,-6.189403,2.998940,0.000000,-0.000000,1.000000
-19.068140,17.389773,2.998940,0.000000,0.000000,1.000000
-8.078670,-8.628211,-2.998940,0.000000,-0.000000,-1.000000
1.993046,19.327752,-2.998940,-0.000000,0.000000,-1.000000
-4.697383,-15.126902,-2.998940,0.000000,-0.000000,-1.000000
-20.776757,4.030757,-2.998940,-0.000000,0.000000,-1.000000
-14.559160,3.940587,-2.998940,-0.000000,0.000000,-1.000000
18.345484,12.175802,-2.998940,-0.000000,0.000000,-1.000000
10.981412,20.581578,-2.998940,0.000000,0.000000,-1.000000
12.415004,19.003129,2.998940,0.000000,0.000000,1.000000
9.901173,-13.809985,-2.998940,0.000000,0.000000,-1.000000
-9.438076,-10.574470,2.998940,-0.000000,0.000000,1.000000
-11.059364,10.302310,2.998940,0.000000,0.000000,1.000000
3.072308,-23.972466,-2.998940,0.000000,0.000000,-1.000000
-0.617809,24.796903,2.998940,0.000000,0.000000,1.000000
-17.159257,-13.580910,-2.998940,0.000000,-0.000000,-1.000000
-3.330588,11.018239,1.239447,0.242980,-0.970031,0.000000
19.351488,-11.723349,2.998940,0.000000,-0.000000,1.000000
-13.023833,-9.171181,-2.998940,0.000000,-0.000000,-1.000000
-17.797334,7.156411,-2.998940,-0.000000,0.000000,-1.000000
20.883928,2.471995,2.998940,0.000000,0.000000,1.000000
12.506716,10.451396,2.998940,0.000000,0.000000,1.000000
6.748048,-23.777057,-2.998940,0.000000,0.000000,-1.000000
0.139690,-20.425338,-2.998940,0.000000,-0.000000,-1.000000
-8.388726,-23.564746,-2.998940,0.000000,-0.000000,-1.000000
14.219861,-9.340705,-2.998940,0.000000,0.000000,-1.000000
-4.707580,26.085059,0.445101,-0.146730,0.989177,0.000000
-10.546709,4.591670,1.141968,0.903989,-0.427555,0.000000
20.012900,-12.394270,-2.998940,0.000000,0.000000,-1.000000
1.863639,26.433869,2.322708,0.049068,0.998795,-0.000000
-0.184932,21.241294,2.998940,0.000000,0.000000,1.000000
-15.205772,14.307071,-2.998940,-0.000000,-0.000000,-1.000000
-2.120045,-13.511761,2.998940,-0.000000,0.000000,1.000000
-4.061389,26.180912,-0.903743,-0.146730,0.989177,0.000000
-21.736121,-2.212852,2.998940,-0.000000,0.000000,1.000000
25.181014,-8.265131,-1.903515,0.941544,-0.336890,0.000000
-4.989294,-10.484688,2.998940,-0.000000,0.000000,1.000000
-8.599043,-25.061538,2.418099,-0.336890,-0.941544,0.000000
-19.000687,18.486676,-1.030427,-0.740951,0.671559,0.000000
7.036986,-16.101228,2.998940,0.000000,-0.000000,1.000000
-19.121262,4.233127,2.998940,0.000000,0.000000,1.000000
22.144487,14.457022,2.998940,0.000000,0.000000,1.000000
19.075667,11.796065,2.998940,0.000000,0.000000,1.000000
-21.426801,15.583878,-1.376860,-0.803208,0.595699,0.000000
-20.013922,3.949810,-2.998940,-0.000000,0.000000,-1.000000
-2.867778,19.627608,2.998940,0.000000,0.000000,1.000000
-7.718178,24.995501,2.998940,0.000000,0.000000,1.000000
-17.066070,20.288249,-0.279312,-0.671559,0.740951,0.000000
7.584069,-8.643153,-0.516813,-0.671559,0.740951,0.000000
25.404288,7.615929,-1.027853,0.970031,0.242980,-0.000000
-17.861850,4.173749,2.998940,0.000000,0.000000,1.000000
14.155261,-22.403607,-0.044588,0.514103,-0.857729,0.000000
17.262504,-5.739856,-2.998940,0.000000,0.000000,-1.000000
-18.227699,-19.235410,-2.350750,-0.671559,-0.740951,0.000000
12.328528,19.535195,-2.998940,-0.000000,0.000000,-1.000000
-22.892347,-13.339847,-1.072864,-0.857729,-0.514103,0.000000
-12.278588,-8.197153,-2.998940,0.000000,-0.000000,-1.000000
-7.183792,8.986374,1.125008,0.595699,-0.803208,0.000000
-11.790390,2.741890,2.998940,0.000000,0.000000,1.000000
14.563452,20.719731,2.998940,0.000000,0.000000,1.000000
16.977751,-5.708004,2.998940,-0.000000,-0.000000,1.000000
15.574805,21.067622,-2.998940,-0.000000,0.000000,-1.000000
-20.289066,-17.065168,-2.733437,-0.740951,-0.671559,0.000000
-21.807380,15.070727,-1.926908,-0.803208,0.595699,0.000000
-15.183071,-17.244280,-2.998940,0.000000,-0.000000,-1.000000
-11.073711,3.109134,2.932864,0.970031,-0.242980,0.000000
3.783216,24.154966,-2.998940,-0.000000,0.000000,-1.000000
-9.294092,-11.331902,-2.998940,0.000000,-0.000000,-1.000000
0.567874,-26.497526,-0.409659,0.049068,-0.998795,0.000000
-18.142886,-1.162648,2.998940,-0.000000,0.000000,1.000000
