x,y,z,nx,ny,nz
6.599012,5.349590,21.608748,0.760406,0.649448,-0.000000
0.879558,11.864082,-23.239120,0.078459,0.996917,0.000000
-0.529894,1.766682,1.573289,0.290285,-0.956940,0.000000
-10.886395,4.805020,-13.254615,-0.923879,0.382684,0.000000
8.422590,-8.451385,-19.395251,0.649448,-0.760406,0.000000
-12.546116,1.450307,-33.290357,-0.996917,0.078459,0.000000
-5.939810,-10.312646,-12.762292,-0.522499,-0.852640,0.000000
11.820549,1.432707,-9.893027,0.996917,0.078459,-0.000000
10.111764,-0.409820,-3.671927,0.000000,-0.000000,1.000000
-9.449518,-8.369816,-45.450583,-0.760406,-0.649448,0.000000
8.491623,0.341114,0.724911,0.996917,0.078459,0.000000
10.428350,5.750998,-21.236026,0.852640,0.522499,0.000000
5.649182,9.722184,-3.671927,0.000000,-0.000000,1.000000
-0.319790,11.908137,-22.239953,-0.078459,0.996917,0.000000
-4.204665,2.700629,35.398588,-0.852640,0.522498,0.000000
-10.753741,5.125274,-15.216996,-0.923879,0.382684,0.000000
11.521574,-5.165322,-35.740598,0.923880,-0.382683,0.000000
-12.143328,-3.484426,-35.491456,-0.972370,-0.233446,0.000000
3.708684,-11.340512,-21.074247,0.382684,-0.923879,0.000000
4.352575,0.877028,18.788049,0.000000,-1.000000,0.000000
-1.326744,-1.290749,-15.852308,0.773010,0.634393,0.000000
-6.327936,0.781570,-46.242809,0.000000,0.000000,-1.000000
-6.821040,-10.622589,-27.696750,-0.522499,-0.852640,0.000000
-11.023381,-4.474305,-22.226947,-0.923879,-0.382684,0.000000
0.130203,-1.840530,16.504081,-0.098017,0.995185,0.000000
-6.808802,-10.630089,-33.602545,-0.522499,-0.852640,0.000000
7.733355,9.040048,-10.801900,0.649448,0.760406,-0.000000
-7.533768,-9.076912,-3.671927,0.000000,-0.000000,1.000000
10.140718,-7.560523,-25.841412,0.760406,-0.649448,0.000000
11.835860,-1.238161,-20.197472,0.996917,-0.078459,0.000000
6.412338,5.568158,7.547993,0.760406,0.649448,0.000000
-5.695669,-10.462256,-13.281217,-0.522499,-0.852640,0.000000
-2.679513,8.082010,23.520475,-0.382684,0.923879,0.000000
3.257534,-0.873829,8.758708,1.000000,0.000000,-0.000000
3.461066,0.877028,42.414429,0.000000,-1.000000,0.000000
3.257534,-0.524348,-38.636329,1.000000,0.000000,0.000000
10.535272,-6.963528,-41.466677,0.852640,-0.522499,0.000000
1.005929,-4.896605,35.895890,0.233445,-0.972370,0.000000
-1.994402,-12.501051,-31.183477,-0.233446,-0.972370,0.000000
4.315147,-11.089307,-11.406946,0.382684,-0.923879,0.000000
12.591458,-0.874180,-32.072607,0.996917,-0.078459,0.000000
-1.578260,11.809093,-22.603003,-0.078459,0.996917,0.000000
-3.799936,1.398459,-46.242809,0.000000,0.000000,-1.000000
-10.422450,7.147637,-34.767990,-0.852640,0.522499,0.000000
3.064934,11.498735,-22.419771,0.233445,0.972370,0.000000
1.845805,8.290378,12.792654,0.233445,0.972370,-0.000000
4.909446,-0.952445,27.722819,0.972370,-0.233446,0.000000
3.968630,7.527918,-1.157671,0.522499,0.852640,-0.000000
-1.045263,-1.528209,37.283136,0.634393,0.773010,0.000000
5.625359,-11.331021,-30.479387,0.382683,-0.923880,0.000000
1.732506,12.218171,-23.858089,-0.000000,0.000000,1.000000
-3.876208,-3.154447,26.547383,-0.760406,-0.649448,-0.000000
-0.932015,-11.859954,-13.318227,-0.078459,-0.996917,0.000000
-1.673125,-12.528580,-45.085784,-0.078459,-0.996917,0.000000
12.568286,-1.168607,-24.365207,0.996917,-0.078459,0.000000
8.823731,-7.986629,-18.373110,0.760406,-0.649448,0.000000
9.970082,6.498823,-8.726837,0.852640,0.522499,-0.000000
0.726740,-1.702926,26.412572,-0.471397,0.881921,0.000000
-5.987639,-6.054067,13.172786,-0.649448,-0.760406,-0.000000
0.879499,4.926958,35.283569,0.233445,0.972370,-0.000000
-6.810702,9.778963,-22.617837,-0.522499,0.852640,0.000000
4.030069,-11.991811,-37.661969,0.382683,-0.923880,0.000000
-2.322353,2.894477,46.242809,-0.000000,-0.000000,1.000000
4.937972,6.933905,18.903829,0.522499,0.852640,0.000000
-0.589467,-1.748611,27.513973,0.290285,0.956940,0.000000
11.925939,-0.093591,-5.855231,0.996917,-0.078459,0.000000
3.393414,3.672111,34.542264,0.649448,0.760406,0.000000
8.818607,7.992628,-10.728844,0.760406,0.649448,-0.000000
-10.727123,-5.189534,-3.766566,-0.923879,-0.382684,0.000000
9.816894,-6.748803,-22.574320,0.852640,-0.522499,0.000000
-1.564464,0.985784,-25.705394,0.881921,-0.471397,0.000000
-5.354471,-6.594844,18.345640,-0.649448,-0.760406,0.000000
-6.150857,4.510363,24.448500,-0.000000,0.000000,1.000000
2.216607,-8.201357,-2.951391,0.233445,-0.972370,0.000000
-7.890439,-3.142008,10.213335,-0.923879,-0.382684,-0.000000
7.483147,10.206804,-42.493515,0.649448,0.760406,-0.000000
5.011590,-0.579762,-23.101309,-1.000000,0.000000,0.000000
5.340748,-5.898430,24.448500,0.000000,-0.000000,1.000000
1.616798,-0.887875,1.433930,-0.881921,0.471397,0.000000
-8.278812,-9.527243,-25.698233,-0.649448,-0.760406,0.000000
-12.562623,1.240559,-39.858763,-0.996917,0.078459,0.000000
-1.894506,4.623054,25.956141,-0.382684,0.923879,0.000000
-1.488533,-1.093609,-46.090980,0.773010,0.634393,-0.000000
-8.109326,-4.161006,-46.242809,0.000000,0.000000,-1.000000
0.702885,-1.714206,-18.393268,-0.290285,0.956940,0.000000
-4.736765,-1.619983,44.407048,-0.923879,-0.382684,0.000000
4.696679,7.081769,21.253401,0.522499,0.852640,-0.000000
-1.847559,-0.058836,-44.640461,0.995185,0.098017,-0.000000
12.642378,-0.227183,-38.272961,0.996917,-0.078459,0.000000
-0.920749,11.781818,-46.242809,0.000000,-0.000000,-1.000000
6.958357,10.490370,-23.858089,-0.000000,0.000000,1.000000
-4.823010,1.312473,29.790514,-0.972370,0.233445,0.000000
-1.790816,0.450333,-1.957758,0.956940,-0.290285,0.000000
-11.892903,-0.513358,-4.279872,-0.996917,-0.078459,0.000000
-0.741976,11.874910,-14.738138,-0.078459,0.996917,0.000000
-11.811885,-1.542793,-14.849516,-0.996917,-0.078459,0.000000
-10.971871,-4.598663,-9.108313,-0.923879,-0.382684,0.000000
2.167709,-11.714140,-19.256619,0.233445,-0.972370,0.000000
3.286597,-3.763341,45.990675,0.649448,-0.760406,0.000000
-2.317841,8.177053,9.535331,-0.233445,0.972370,0.000000
-5.816173,6.200513,17.545780,-0.649448,0.760406,0.000000
0.386260,-8.506542,-46.242809,0.000000,0.000000,-1.000000
4.950155,0.877028,-29.536525,0.000000,-1.000000,-0.000000
8.006662,2.861420,11.400734,0.923879,0.382684,0.000000
10.599134,-5.472304,-22.140170,0.852640,-0.522499,0.000000
3.516361,0.877028,40.427499,0.000000,-1.000000,0.000000
10.789070,-6.549368,-38.710527,0.852640,-0.522499,0.000000
-1.285728,-1.330864,27.118053,0.634393,0.773010,-0.000000
-7.572264,3.896264,1.003320,-0.852640,0.522499,0.000000
-8.443096,-0.957697,-2.579512,-0.996917,-0.078459,-0.000000
-12.040586,3.912316,-25.109913,-0.923880,0.382683,0.000000
6.276415,-5.727303,4.509794,0.760406,-0.649448,0.000000
3.960344,3.055936,44.665748,0.760406,0.649448,-0.000000
3.984054,0.877028,22.807827,0.000000,-1.000000,0.000000
-5.822585,-10.082237,-3.671927,-0.000000,0.000000,1.000000
3.624594,-0.877028,22.051420,0.000000,1.000000,-0.000000
3.868080,-0.877028,4.064739,0.000000,1.000000,-0.000000
-0.138517,1.839711,-9.339477,0.098017,-0.995185,0.000000
0.562234,-4.368855,46.242809,0.000000,-0.000000,1.000000
-3.822498,7.869969,-46.242809,0.000000,0.000000,-1.000000
1.154123,-1.438870,-5.738148,-0.634393,0.773010,0.000000
9.748850,5.029899,-46.242809,0.000000,0.000000,-1.000000
8.820337,-9.064737,-25.921166,0.649448,-0.760406,0.000000
12.179068,-3.335557,-40.159839,0.972370,-0.233446,0.000000
-8.046805,-2.764505,5.466793,-0.923879,-0.382684,-0.000000
2.010646,8.250804,19.174823,0.233445,0.972370,-0.000000
9.711714,6.995302,-23.858089,0.000000,0.000000,1.000000
4.173507,-2.426924,-46.242809,0.000000,-0.000000,-1.000000
-1.570542,0.974413,9.362708,0.881921,-0.471397,0.000000
-5.085565,1.852766,24.448500,-0.000000,0.000000,1.000000
5.011590,0.730720,-7.344239,-1.000000,0.000000,0.000000
-6.472134,-5.498145,18.219052,-0.760406,-0.649448,0.000000
-8.144895,-2.451788,-2.821218,-0.972370,-0.233445,-0.000000
7.784536,3.397679,2.315401,0.923879,0.382684,0.000000
10.425249,-5.756058,-5.565482,0.852640,-0.522499,0.000000
-1.476537,1.108225,-27.132925,0.773010,-0.634393,0.000000
-9.194245,-7.552813,-4.621838,-0.760406,-0.649448,0.000000
11.209759,4.024350,-7.311436,0.923879,0.382684,-0.000000
-2.529052,8.126345,6.892123,-0.233445,0.972370,0.000000
-3.300215,7.806451,-46.242809,0.000000,0.000000,-1.000000
-6.025399,-10.260197,-17.031352,-0.522499,-0.852640,0.000000
9.211322,8.648707,-34.801365,0.760406,0.649448,-0.000000
-1.507514,-1.070480,-27.267644,0.773010,0.634393,-0.000000
-9.524268,-7.166406,-7.136561,-0.760406,-0.649448,0.000000
4.968589,6.915143,10.391492,0.522499,0.852640,0.000000
5.011590,-0.135062,8.321111,-1.000000,0.000000,0.000000
5.244342,-6.688903,10.077519,0.649448,-0.760406,0.000000
6.861824,-1.165031,-46.242809,0.000000,0.000000,-1.000000
-0.120657,-1.841470,-43.264999,0.098017,0.995185,-0.000000
-0.006825,1.852682,-17.449191,0.098017,-0.995185,0.000000
2.345873,-3.999426,-46.242809,0.000000,0.000000,-1.000000
10.251197,-0.094331,-46.242809,0.000000,0.000000,-1.000000
-10.688287,5.283294,-7.923589,-0.923879,0.382684,0.000000
4.700573,-0.877028,33.366821,0.000000,1.000000,-0.000000
4.606650,-7.136939,4.642926,0.522499,-0.852640,0.000000
-1.975460,-12.504785,-42.176616,-0.078459,-0.996917,0.000000
8.083372,9.694163,-26.812866,0.649448,0.760406,-0.000000
-9.347484,2.594514,-46.242809,0.000000,0.000000,-1.000000
-5.814898,3.566878,-46.242809,0.000000,0.000000,-1.000000
1.823602,0.302078,-26.069908,-0.995185,-0.098017,0.000000
1.033480,12.578921,-24.461454,0.078459,0.996917,-0.000000
9.478549,-8.335824,-31.863984,0.760406,-0.649448,0.000000
1.438770,1.154245,25.065987,-0.773010,-0.634393,0.000000
8.591486,9.260194,-34.587395,0.649448,0.760406,0.000000
-11.427485,3.361713,-12.626530,-0.972370,0.233445,0.000000
7.222868,-9.476045,-20.140029,0.649448,-0.760406,0.000000
-3.611045,3.464912,34.196113,-0.760406,0.649448,0.000000
-0.908603,4.919971,44.554115,-0.233445,0.972370,0.000000
-10.007694,-6.437447,-17.001274,-0.852640,-0.522499,-0.000000
5.354772,8.385450,-3.671927,0.000000,-0.000000,1.000000
-1.623776,-12.532464,-43.104159,-0.078459,-0.996917,0.000000
-11.681363,-4.779558,-41.958477,-0.923880,-0.382683,-0.000000
1.130935,-11.844299,-18.668015,0.078459,-0.996917,0.000000
3.257534,0.693597,-25.744365,1.000000,0.000000,0.000000
3.196683,-1.086334,-46.242809,0.000000,0.000000,-1.000000
-1.401728,12.549939,-34.288106,-0.078459,0.996917,0.000000
0.510760,12.620060,-28.867297,0.078459,0.996917,-0.000000
-11.963722,-4.097882,-34.334813,-0.923880,-0.382683,-0.000000
1.838906,0.146690,-12.358577,-0.995185,-0.098017,0.000000
11.299439,5.701603,-41.034504,0.923880,0.382683,-0.000000
8.250236,-2.013012,17.156729,0.972370,-0.233445,0.000000
-3.285378,3.764382,46.198559,-0.649448,0.760406,0.000000
3.264701,0.877028,25.718164,0.000000,-1.000000,0.000000
4.899722,0.992946,42.100067,0.972370,0.233446,0.000000
2.465151,9.766486,-3.671927,0.000000,-0.000000,1.000000
-10.076642,6.324933,-18.549470,-0.852640,0.522499,0.000000
-8.450713,-0.860915,21.835413,-0.996917,-0.078459,0.000000
4.349811,-11.859370,-26.595503,0.382683,-0.923880,0.000000
0.474054,-1.783621,-10.588325,-0.290285,0.956940,0.000000
4.423573,-7.249129,6.061531,0.522499,-0.852640,0.000000
-2.346828,-12.416441,-36.183061,-0.233446,-0.972370,0.000000
6.595090,5.354183,-2.661506,0.760406,0.649448,0.000000
6.650512,-0.439656,-46.242809,0.000000,0.000000,-1.000000
9.658950,-8.124601,-44.607576,0.760406,-0.649448,0.000000
-6.784994,10.644678,-39.439306,-0.522499,0.852640,0.000000
-12.604123,0.713256,-28.087995,-0.996917,0.078459,0.000000
7.492648,10.198690,-43.616451,0.649448,0.760406,-0.000000
-7.504186,-8.164832,-3.671927,0.000000,-0.000000,1.000000
-5.691727,-6.306800,10.444149,-0.649448,-0.760406,-0.000000
4.684061,0.877028,34.370704,0.000000,-1.000000,0.000000
9.841937,-7.910351,-27.755006,0.760406,-0.649448,0.000000
11.009334,4.508219,-6.140326,0.923879,0.382684,-0.000000
-3.789879,7.622082,16.742609,-0.382684,0.923879,0.000000
-4.665203,-10.944309,-11.247049,-0.382684,-0.923879,0.000000
-0.087222,8.511604,19.532335,-0.078459,0.996917,-0.000000
-8.252834,2.002188,-0.470972,-0.972370,0.233445,0.000000
4.809185,10.884669,-22.738814,0.382684,0.923879,0.000000
6.390154,9.755456,-46.242809,0.000000,0.000000,-1.000000
-12.175258,3.351428,-34.899601,-0.972370,0.233446,0.000000
0.363415,1.817183,5.077597,-0.290285,-0.956940,0.000000
3.477511,-3.600285,43.246589,0.649448,-0.760406,0.000000
9.553471,-7.132214,-11.310425,0.760406,-0.649448,0.000000
1.736368,0.629827,43.069645,-0.956940,-0.290285,0.000000
-4.275050,7.340144,17.306456,-0.522499,0.852640,0.000000
1.761480,0.547042,37.055186,-0.956940,-0.290285,0.000000
-1.835922,-0.176986,-13.306778,0.995185,0.098017,-0.000000
-10.663185,5.343894,-8.170526,-0.923879,0.382684,0.000000
-2.967221,4.036114,37.893177,-0.649448,0.760406,0.000000
-2.002001,-8.252879,9.799218,-0.233445,-0.972370,0.000000
-9.457142,7.245000,-3.996425,-0.760406,0.649448,0.000000
-5.613677,-10.512501,-19.997480,-0.522499,-0.852640,0.000000
0.923968,-1.597505,-42.248367,-0.471397,0.881921,0.000000
-0.057541,12.655729,-43.040842,-0.078459,0.996917,0.000000
3.393125,0.877028,15.586810,0.000000,-1.000000,0.000000
-11.511175,-5.190427,-43.663373,-0.923880,-0.382683,-0.000000
-12.467085,-2.135883,-43.427167,-0.972370,-0.233446,-0.000000
0.497462,1.776520,-9.550054,-0.290285,-0.956940,0.000000
0.650250,11.882129,-5.978894,0.078459,0.996917,-0.000000
-2.635565,11.601818,-11.118922,-0.233445,0.972370,0.000000
2.264833,8.189779,5.365746,0.233445,0.972370,0.000000
-1.161085,11.841926,-9.636278,-0.078459,0.996917,0.000000
3.011536,-3.998266,43.066360,0.649448,-0.760406,0.000000
-8.323683,9.488919,-41.462503,-0.649448,0.760406,0.000000
12.634863,0.322660,-28.599989,0.996917,0.078459,0.000000
2.181076,-4.504352,26.759441,0.382684,-0.923879,0.000000
-4.962216,0.627359,27.060805,-0.996917,0.078459,0.000000
3.590615,11.372531,-16.691983,0.233445,0.972370,0.000000
8.220660,2.136204,11.824346,0.972370,0.233445,-0.000000
-0.601619,1.744925,16.372571,0.290285,-0.956940,0.000000
1.836251,0.173651,24.914893,-0.995185,-0.098017,0.000000
7.441778,-5.371931,-3.671927,0.000000,-0.000000,1.000000
4.406026,2.372037,37.717632,0.852640,0.522498,0.000000
-1.761677,-0.546394,25.242291,0.956940,0.290285,0.000000
4.276112,-2.584037,30.030402,0.852640,-0.522498,0.000000
1.817748,0.361508,35.257911,-0.995185,-0.098017,0.000000
0.394679,1.807699,14.892531,-0.290285,-0.956940,0.000000
4.686396,-1.741584,42.923333,0.923879,-0.382684,0.000000
11.848882,1.072693,-20.326040,0.996917,0.078459,0.000000
-2.801238,11.562043,-6.982187,-0.233445,0.972370,0.000000
-7.813428,3.327927,16.468416,-0.923879,0.382684,0.000000
1.164682,1.430204,14.207991,-0.634393,-0.773010,0.000000
12.628155,-0.407903,-27.176501,0.996917,-0.078459,0.000000
-7.161263,5.664065,-3.671927,0.000000,-0.000000,1.000000
1.535411,-12.539418,-31.019878,0.078459,-0.996917,0.000000
5.560418,6.418949,23.700043,0.649448,0.760406,-0.000000
3.423968,0.877028,-22.206643,0.000000,-1.000000,0.000000
-6.069802,5.969216,1.699769,-0.760406,0.649448,0.000000
1.877765,-0.037582,46.242809,0.000000,-0.000000,1.000000
-1.298648,7.094431,-46.242809,0.000000,0.000000,-1.000000
-11.700783,-2.223345,-10.574048,-0.972370,-0.233445,-0.000000
6.146376,-11.036024,-44.274833,0.522499,-0.852640,0.000000
-12.625828,0.437470,-28.397448,-0.996917,0.078459,0.000000
-0.737775,-7.561187,-46.242809,0.000000,-0.000000,-1.000000
5.011590,-0.792413,-24.509819,-1.000000,0.000000,0.000000
-8.296490,-9.512144,-44.352440,-0.649448,-0.760406,-0.000000
1.486413,1.096191,36.589100,-0.773010,-0.634393,0.000000
-1.912577,4.615568,39.829855,-0.382684,0.923879,0.000000
-4.483286,-11.019661,-7.289944,-0.382684,-0.923879,0.000000
-0.390162,-4.980884,43.948604,-0.078459,-0.996917,0.000000
-0.550545,-4.968261,32.959667,-0.078459,-0.996917,0.000000
-7.081714,4.696769,11.792548,-0.852640,0.522499,0.000000
6.309390,-10.086167,-16.817625,0.522499,-0.852640,0.000000
-8.354303,1.579538,-1.746005,-0.972370,0.233445,0.000000
-1.824589,0.292057,38.111788,0.995185,-0.098017,0.000000
-1.402084,-5.515752,24.448500,0.000000,-0.000000,1.000000
4.913299,-0.936396,37.041094,0.972370,-0.233446,0.000000
3.257534,0.793777,-26.200439,1.000000,0.000000,0.000000
8.424226,8.449988,-5.643829,0.649448,0.760406,0.000000
-10.638568,-5.403326,-18.846053,-0.923879,-0.382684,0.000000
-11.605177,-4.963488,-28.066307,-0.923880,-0.382683,0.000000
7.919226,-8.881299,-22.894053,0.649448,-0.760406,0.000000
3.257534,-0.351340,-24.010148,1.000000,0.000000,0.000000
9.767698,-7.997275,-28.415726,0.760406,-0.649448,0.000000
2.667002,-4.225271,37.589288,0.522498,-0.852640,0.000000
8.728294,2.512444,-3.671927,-0.000000,-0.000000,1.000000
-5.627928,-6.361289,11.870762,-0.649448,-0.760406,-0.000000
-11.196436,4.056515,-16.848147,-0.923879,0.382684,0.000000
5.011590,0.746767,-12.189891,-1.000000,0.000000,0.000000
-1.652904,-0.820324,-15.856410,0.881921,0.471397,-0.000000
-1.583166,-0.950796,17.772290,0.881921,0.471397,0.000000
-10.984803,-6.229961,-37.696286,-0.852640,-0.522499,-0.000000
7.991400,9.772715,-25.658393,0.649448,0.760406,-0.000000
-11.832263,1.283866,-9.335619,-0.996917,0.078459,0.000000
-8.107513,9.673546,-27.415429,-0.649448,0.760406,0.000000
1.504246,1.074462,23.010935,-0.773010,-0.634393,0.000000
5.930665,-10.318250,-4.389651,0.522499,-0.852640,0.000000
6.528193,5.432509,-2.197018,0.760406,0.649448,0.000000
-11.444661,3.290170,-6.134737,-0.972370,0.233445,0.000000
-0.369515,1.815332,-0.510426,0.290285,-0.956940,0.000000
0.924686,1.597121,42.777657,-0.471397,-0.881921,0.000000
3.967416,-0.877028,22.523020,0.000000,1.000000,-0.000000
-9.511720,7.181098,-18.538936,-0.760406,0.649448,0.000000
5.494306,-10.585651,-10.709938,0.522499,-0.852640,0.000000
2.016389,-8.249425,1.783519,0.233445,-0.972370,0.000000
0.742866,4.953125,35.472738,0.078459,0.996917,0.000000
-6.456500,-5.516451,6.843105,-0.760406,-0.649448,0.000000
9.612091,8.179466,-24.490868,0.760406,0.649448,-0.000000
-5.461527,6.101748,-46.242809,0.000000,0.000000,-1.000000
4.206863,0.877028,9.002346,0.000000,-1.000000,0.000000
6.964791,9.684537,-9.780344,0.522499,0.852640,0.000000
8.380634,-1.469862,3.044762,0.972370,-0.233445,0.000000
-1.738145,-0.623968,-21.398715,0.956940,0.290285,0.000000
8.451555,0.850221,-1.262996,0.996917,0.078459,0.000000
3.097134,3.595751,46.242809,0.000000,-0.000000,1.000000
-12.558215,-1.296570,-44.974833,-0.996917,-0.078459,-0.000000
12.563745,-1.226314,-38.305712,0.996917,-0.078459,0.000000
3.954015,11.238893,-6.644846,0.382684,0.923879,-0.000000
6.491237,9.974731,-3.943406,0.522499,0.852640,-0.000000
1.399656,12.550102,-25.744877,0.078459,0.996917,-0.000000
11.409919,3.434881,-9.619426,0.972370,0.233445,-0.000000
4.182209,-11.144371,-14.467032,0.382684,-0.923879,0.000000
-8.080102,9.696957,-45.649688,-0.649448,0.760406,0.000000
-10.536032,6.962288,-32.199774,-0.852640,0.522499,0.000000
12.131007,-3.535745,-27.693386,0.972370,-0.233446,0.000000
4.159730,0.877028,-30.194868,0.000000,-1.000000,-0.000000
-5.315232,6.628357,23.318969,-0.649448,0.760406,0.000000
11.669206,2.354870,-22.761093,0.972370,0.233445,0.000000
0.485836,11.895069,-13.784062,0.078459,0.996917,-0.000000
5.011590,-0.064484,22.339884,-1.000000,0.000000,0.000000
12.280890,2.911441,-42.984862,0.972370,0.233446,0.000000
1.402104,1.198922,38.557891,-0.773010,-0.634393,0.000000
-12.084915,3.727732,-24.535269,-0.972370,0.233446,0.000000
6.531504,-7.589158,-3.671927,-0.000000,0.000000,1.000000
-11.688027,-2.276477,-14.856779,-0.972370,-0.233445,-0.000000
-10.075301,6.327122,-11.620626,-0.852640,0.522499,0.000000
11.696426,-2.241494,-20.277909,0.972370,-0.233445,0.000000
2.426055,-4.372924,25.369266,0.522498,-0.852640,0.000000
0.564439,1.756203,4.133855,-0.290285,-0.956940,0.000000
-7.520516,-9.221830,-5.900380,-0.649448,-0.760406,0.000000
0.158144,8.251888,24.448500,0.000000,-0.000000,1.000000
-1.839599,-0.139653,-5.587346,0.995185,0.098017,-0.000000
-7.149217,4.586615,2.303255,-0.852640,0.522499,0.000000
-7.907177,-9.844648,-32.318636,-0.649448,-0.760406,0.000000
0.845819,-1.639277,-17.371624,-0.471397,0.881921,0.000000
-6.537598,-10.796282,-31.039673,-0.522499,-0.852640,0.000000
11.872818,0.768558,-6.886705,0.996917,0.078459,-0.000000
-4.982365,10.812936,-5.140196,-0.382684,0.923879,0.000000
3.713699,-11.338435,-17.336997,0.382684,-0.923879,0.000000
9.315046,7.411373,-3.785740,0.760406,0.649448,-0.000000
3.257534,-0.456636,-34.507198,1.000000,0.000000,0.000000
12.263629,-2.983334,-41.783959,0.972370,-0.233446,0.000000
6.628150,5.315474,11.840569,0.760406,0.649448,0.000000
3.821953,-0.877028,-0.198140,0.000000,1.000000,-0.000000
-8.508841,-0.122328,18.664161,-0.996917,-0.078459,-0.000000
6.642062,-0.654059,-46.242809,0.000000,0.000000,-1.000000
-6.322721,-5.673086,23.412962,-0.760406,-0.649448,0.000000
7.648512,-10.065569,-24.873446,0.649448,-0.760406,0.000000
7.684627,-3.638881,4.031728,0.923879,-0.382684,0.000000
-4.625125,11.745331,-36.273124,-0.382683,0.923880,0.000000
5.011590,-0.603348,-5.420538,-1.000000,0.000000,0.000000
4.161266,0.877028,-43.406057,0.000000,-1.000000,-0.000000
-0.803069,-7.504296,24.448500,-0.000000,-0.000000,1.000000
12.203006,3.235849,-28.576619,0.972370,0.233446,-0.000000
4.842598,-0.877028,33.859707,0.000000,1.000000,-0.000000
-10.769426,5.087408,-8.063934,-0.923879,0.382684,0.000000
-1.818739,0.351446,-8.797897,0.995185,-0.098017,0.000000
0.313524,-11.908630,-17.529392,0.078459,-0.996917,0.000000
3.816121,-7.611212,3.691138,0.382684,-0.923879,0.000000
-1.559240,0.995558,-45.501963,0.881921,-0.471397,0.000000
-6.933572,-10.553629,-44.295845,-0.522499,-0.852640,0.000000
-4.841377,-10.871335,-14.138536,-0.382684,-0.923879,0.000000
11.891659,-0.529156,-22.067731,0.996917,-0.078459,0.000000
5.011590,-0.603587,11.578135,-1.000000,0.000000,0.000000
2.673994,12.082583,-23.858089,-0.000000,0.000000,1.000000
2.883468,3.868447,46.242809,0.000000,-0.000000,1.000000
-2.907373,7.987628,-1.829358,-0.382684,0.923879,0.000000
11.618419,4.931519,-40.708018,0.923880,0.382683,0.000000
-0.837599,1.643670,12.159871,0.471397,-0.881921,0.000000
3.138431,7.891920,13.642196,0.382684,0.923879,-0.000000
-7.747977,3.485940,5.088053,-0.923879,0.382684,0.000000
-7.001122,-4.828283,8.297049,-0.852640,-0.522499,0.000000
6.030535,11.107011,-31.344710,0.522499,0.852640,-0.000000
-9.418378,8.406275,-27.863873,-0.760406,0.649448,0.000000
-0.282206,-1.825559,24.425726,0.098017,0.995185,-0.000000
1.829806,-0.239086,-7.975167,-0.995185,0.098017,0.000000
2.964130,-12.268240,-45.810822,0.233446,-0.972370,0.000000
1.942086,-11.768307,-17.715101,0.233445,-0.972370,0.000000
0.190164,1.834624,1.818862,-0.098017,-0.995185,0.000000
1.500712,-1.078768,34.495827,-0.773010,0.634393,0.000000
-0.974263,10.096065,-3.671927,0.000000,-0.000000,1.000000
-4.258587,11.897156,-30.802437,-0.382683,0.923880,0.000000
-0.698355,12.605296,-25.625659,-0.078459,0.996917,0.000000
2.349511,12.415797,-38.133809,0.233446,0.972370,-0.000000
3.257534,-0.401076,-1.997409,1.000000,0.000000,-0.000000
-5.031427,6.889006,-3.671927,-0.000000,0.000000,1.000000
4.160425,0.877028,-38.975534,0.000000,-1.000000,-0.000000
11.500394,-3.058024,-14.907695,0.972370,-0.233445,0.000000
-3.666817,-7.673055,0.645922,-0.382684,-0.923879,0.000000
-10.969187,-6.255444,-26.374373,-0.852640,-0.522499,0.000000
-4.772910,1.521154,36.665439,-0.972370,0.233445,0.000000
3.843968,-0.877028,18.556574,0.000000,1.000000,-0.000000
-3.934393,12.031442,-36.724400,-0.382683,0.923880,0.000000
-1.638598,12.531297,-26.625650,-0.078459,0.996917,0.000000
-2.690369,8.077514,23.621112,-0.382684,0.923879,0.000000
-0.948043,12.585645,-41.879102,-0.078459,0.996917,0.000000
3.997283,3.012686,26.826104,0.760406,0.649448,0.000000
0.330179,1.820834,-7.416279,-0.098017,-0.995185,0.000000
-1.552020,-1.009065,19.457961,0.881921,0.471397,0.000000
-1.368676,-1.239655,24.355275,0.773010,0.634393,0.000000
-0.427516,5.815418,-46.242809,0.000000,-0.000000,-1.000000
1.807905,-0.393999,-28.665645,-0.956940,0.290285,0.000000
11.554023,2.834645,-23.013190,0.972370,0.233445,0.000000
2.922525,4.068687,36.973538,0.522498,0.852640,0.000000
-11.025243,-4.469809,-7.638330,-0.923879,-0.382684,0.000000
12.636261,-0.304898,-38.439519,0.996917,-0.078459,0.000000
-3.687296,-11.349320,-12.416730,-0.233445,-0.972370,0.000000
-1.166347,1.428838,-26.039522,0.634393,-0.773010,0.000000
-9.780316,6.808494,-16.807396,-0.852640,0.522499,0.000000
10.149974,7.549686,-25.571490,0.760406,0.649448,0.000000
1.046604,8.436099,17.794955,0.078459,0.996917,0.000000
-2.935613,4.060666,30.722534,-0.522498,0.852640,0.000000
-3.763835,12.076248,-24.752244,-0.233446,0.972370,0.000000
-1.479436,8.378336,15.662850,-0.233445,0.972370,0.000000
6.757203,-10.661709,-26.205873,0.522499,-0.852640,0.000000
-0.422401,2.879390,-46.242809,0.000000,0.000000,-1.000000
-11.558104,2.817644,-12.407549,-0.972370,0.233445,0.000000
1.303126,1.316586,26.161256,-0.634393,-0.773010,0.000000
-10.735694,5.168844,-22.533328,-0.923879,0.382684,0.000000
12.441096,-2.244132,-30.062313,0.972370,-0.233446,0.000000
1.256255,-1.355052,-34.605087,-0.634393,0.773010,0.000000
4.375263,-11.848827,-25.345346,0.382683,-0.923880,0.000000
-8.557096,9.289565,-33.170281,-0.649448,0.760406,0.000000
-0.595906,8.471570,21.094256,-0.078459,0.996917,0.000000
2.452098,12.391168,-29.022292,0.233446,0.972370,-0.000000
-11.461629,3.219495,-13.640597,-0.972370,0.233445,0.000000
0.582114,1.750841,-7.720353,-0.290285,-0.956940,0.000000
4.531920,0.877028,24.237245,-0.000000,-1.000000,0.000000
6.205602,-10.999730,-29.572014,0.522499,-0.852640,0.000000
5.482457,-6.485533,-3.508171,0.649448,-0.760406,0.000000
-7.962132,8.844654,-18.766642,-0.649448,0.760406,0.000000
-10.581800,-1.722250,-3.671927,-0.000000,-0.000000,1.000000
-5.093754,6.817517,9.409766,-0.649448,0.760406,0.000000
-3.402391,-3.664444,27.163373,-0.649448,-0.760406,0.000000
-8.429606,1.129113,7.270029,-0.996917,0.078459,0.000000
-0.729685,-1.701352,23.886072,0.471397,0.881921,0.000000
0.069765,1.846482,5.078186,-0.098017,-0.995185,0.000000
-2.934463,7.976407,8.836513,-0.382684,0.923879,0.000000
1.755806,12.522073,-35.028698,0.078459,0.996917,0.000000
-7.707282,-3.873447,-3.671927,0.000000,-0.000000,1.000000
-2.271858,-11.689136,-16.107792,-0.233445,-0.972370,0.000000
-7.506356,-4.003816,20.449578,-0.852640,-0.522499,-0.000000
-11.391575,5.479169,-24.144580,-0.923880,0.382683,0.000000
5.011590,0.804455,-41.498968,-1.000000,0.000000,0.000000
6.265160,-7.265533,-3.671927,-0.000000,-0.000000,1.000000
-0.876551,-4.927666,31.221078,-0.233445,-0.972370,0.000000
-0.811252,-1.657753,-11.236507,0.471397,0.881921,0.000000
-11.836991,-3.191043,-23.858089,0.000000,-0.000000,1.000000
-0.086978,-1.844787,21.558564,0.098017,0.995185,0.000000
1.958769,11.764302,-3.781359,0.233445,0.972370,-0.000000
7.566092,3.906337,10.165902,0.852640,0.522499,0.000000
-3.858587,3.175079,28.860222,-0.760406,0.649448,0.000000
1.603369,8.348582,23.302986,0.233445,0.972370,-0.000000
-0.451232,-11.897792,-16.854850,-0.078459,-0.996917,0.000000
-2.866337,11.546414,-13.182797,-0.233445,0.972370,0.000000
-0.765730,1.682085,-0.339433,0.471397,-0.881921,0.000000
11.839438,1.192691,-6.957442,0.996917,0.078459,-0.000000
1.571353,0.972895,-8.815356,-0.881921,-0.471397,0.000000
-2.427172,5.046454,-46.242809,0.000000,0.000000,-1.000000
2.971128,12.266560,-28.690363,0.233446,0.972370,-0.000000
-1.831694,0.219913,5.870770,0.995185,-0.098017,0.000000
6.728693,-5.197753,18.614668,0.760406,-0.649448,0.000000
7.891478,9.858056,-45.084187,0.649448,0.760406,0.000000
11.816019,-1.490266,-5.871629,0.996917,-0.078459,0.000000
-8.784564,-9.095290,-31.600083,-0.649448,-0.760406,-0.000000
1.574167,-4.755743,45.392340,0.382684,-0.923879,0.000000
5.075788,10.774239,-14.504114,0.382684,0.923879,0.000000
8.324943,-9.487843,-25.689345,0.649448,-0.760406,0.000000
8.468753,0.631702,9.465534,0.996917,0.078459,0.000000
3.257534,0.708424,-45.642353,1.000000,0.000000,0.000000
-1.076320,1.502721,-8.441184,0.634393,-0.773010,0.000000
3.213331,-7.860896,5.130131,0.382684,-0.923879,0.000000
10.439790,-7.119341,-32.128138,0.852640,-0.522499,0.000000
8.438590,-1.014957,17.424766,0.996917,-0.078459,0.000000
-4.475857,-7.217089,2.408818,-0.522499,-0.852640,0.000000
-2.139773,-11.720847,-14.156336,-0.233445,-0.972370,0.000000
1.332970,1.283162,34.970549,-0.773010,-0.634393,0.000000
-0.950494,11.858500,-10.787031,-0.078459,0.996917,0.000000
10.263442,-6.020103,-15.742071,0.852640,-0.522499,0.000000
-4.579891,-1.998710,45.872758,-0.923879,-0.382684,0.000000
-0.411406,-1.802625,-12.815020,0.290285,0.956940,0.000000
-6.639523,-10.733823,-27.527376,-0.522499,-0.852640,0.000000
-2.743572,10.551877,-3.671927,-0.000000,0.000000,1.000000
6.960220,9.687338,-14.137095,0.522499,0.852640,0.000000
0.419508,-8.485453,6.726418,0.078459,-0.996917,0.000000
7.893209,-3.135320,18.959437,0.923879,-0.382684,0.000000
12.309354,-2.792878,-46.162951,0.972370,-0.233446,0.000000
-10.500586,-5.633120,-10.225401,-0.852640,-0.522499,-0.000000
-4.755068,10.907085,-19.720215,-0.382684,0.923879,0.000000
-2.202224,12.451158,-46.218704,-0.233446,0.972370,0.000000
8.453115,0.830397,5.326514,0.996917,0.078459,0.000000
-1.709057,-4.699869,44.424701,-0.382684,-0.923879,0.000000
-1.793188,12.519131,-31.901137,-0.078459,0.996917,0.000000
10.392933,7.195805,-43.611840,0.852640,0.522499,0.000000
-1.849612,0.037990,-9.656277,0.995185,-0.098017,0.000000
1.432618,-11.820556,-8.902790,0.078459,-0.996917,0.000000
2.464866,-8.141755,16.005443,0.233445,-0.972370,0.000000
5.175101,11.517523,-45.852407,0.382683,0.923880,0.000000
3.205202,3.832859,27.193785,0.649448,0.760406,0.000000
-0.561070,1.757225,-2.115347,0.290285,-0.956940,0.000000
-1.283545,-11.832288,-20.223867,-0.078459,-0.996917,0.000000
-0.631274,-1.735929,-9.564468,0.290285,0.956940,-0.000000
5.795221,11.251212,-24.534624,0.522499,0.852640,-0.000000
-8.513231,9.327030,-40.589927,-0.649448,0.760406,0.000000
0.654809,8.466934,18.675566,0.078459,0.996917,0.000000
6.058523,11.089860,-27.199069,0.522499,0.852640,-0.000000
-5.725440,6.278006,10.011680,-0.649448,0.760406,0.000000
0.888120,1.616667,-40.724884,-0.471397,-0.881921,0.000000
5.540261,-10.557490,-9.711754,0.522499,-0.852640,0.000000
2.918484,11.533895,-17.311810,0.233445,0.972370,0.000000
-2.157783,12.461827,-46.096286,-0.233446,0.972370,0.000000
1.698402,0.735203,36.643372,-0.881921,-0.471397,0.000000
2.880487,11.543017,-23.614053,0.233445,0.972370,0.000000
9.978714,6.484737,-16.257703,0.852640,0.522499,-0.000000
-7.379181,-4.211347,13.993600,-0.852640,-0.522499,-0.000000
4.249117,11.116657,-8.210693,0.382684,0.923879,-0.000000
1.837942,0.156483,-17.804608,-0.995185,-0.098017,0.000000
-3.903116,7.568065,14.003442,-0.522499,0.852640,0.000000
-4.726702,-1.644278,34.404302,-0.923879,-0.382684,0.000000
1.420140,-12.548490,-24.965633,0.078459,-0.996917,0.000000
-1.714324,0.702495,-5.586741,0.956940,-0.290285,0.000000
0.929612,8.445307,10.912935,0.078459,0.996917,0.000000
5.653438,11.226164,-46.242809,0.000000,0.000000,-1.000000
0.642878,-11.260775,-3.671927,0.000000,-0.000000,1.000000
9.587449,-8.208319,-33.704474,0.760406,-0.649448,0.000000
12.578732,-1.035876,-31.851885,0.996917,-0.078459,0.000000
-1.045290,-1.528186,-7.700408,0.634393,0.773010,0.000000
-11.289179,3.832613,-22.800257,-0.923879,0.382684,0.000000
-0.685024,-11.879392,-14.164815,-0.078459,-0.996917,0.000000
4.756194,7.045299,3.002635,0.522499,0.852640,0.000000
9.569013,8.229904,-24.718996,0.760406,0.649448,-0.000000
2.680064,-8.081782,14.636958,0.382684,-0.923879,0.000000
-2.212024,-11.703501,-18.023032,-0.233445,-0.972370,0.000000
-11.870557,0.797285,-9.230276,-0.996917,0.078459,0.000000
-7.946309,9.811227,-29.544234,-0.649448,0.760406,0.000000
0.023219,1.851067,-4.421213,-0.098017,-0.995185,0.000000
9.595335,-7.083197,-9.247724,0.760406,-0.649448,0.000000
12.598845,-0.780324,-27.015932,0.996917,-0.078459,0.000000
-9.335083,-8.503802,-25.601256,-0.760406,-0.649448,0.000000
1.353544,-1.258093,26.358832,-0.773010,0.634393,0.000000
11.888582,-3.175536,-46.242809,0.000000,0.000000,-1.000000
0.730418,-4.954105,27.121923,0.078459,-0.996917,0.000000
4.878628,-6.970271,7.539222,0.522499,-0.852640,0.000000
0.454219,8.482721,16.901466,0.078459,0.996917,0.000000
1.454293,1.135330,41.110443,-0.773010,-0.634393,0.000000
-7.958749,-9.800601,-27.834923,-0.649448,-0.760406,0.000000
3.565577,-0.877028,-45.152799,0.000000,1.000000,0.000000
7.141822,-4.598682,7.070329,0.852640,-0.522499,0.000000
3.257534,-0.747138,-19.800476,1.000000,0.000000,-0.000000
1.354400,-11.826712,-22.835871,0.078459,-0.996917,0.000000
-2.981150,12.264154,-42.102377,-0.233446,0.972370,0.000000
-11.160306,5.943566,-41.272217,-0.852640,0.522499,0.000000
1.219656,-1.385089,-46.034324,-0.634393,0.773010,0.000000
0.486416,-8.480187,-0.001493,0.078459,-0.996917,0.000000
4.794243,8.893792,-3.671927,-0.000000,0.000000,1.000000
-4.660243,1.804725,30.352401,-0.923879,0.382684,0.000000
4.430501,2.332098,31.884120,0.852640,0.522498,0.000000
-0.309900,1.822831,-13.788407,0.098017,-0.995185,0.000000
-9.030653,8.860244,-32.635052,-0.760406,0.649448,0.000000
-4.549763,11.776547,-37.087747,-0.382683,0.923880,0.000000
6.723450,-9.832431,-5.863523,0.522499,-0.852640,0.000000
11.978988,-4.061028,-28.016179,0.923880,-0.382683,0.000000
-8.757105,3.568169,-3.671927,-0.000000,0.000000,1.000000
-4.715948,7.069961,17.458666,-0.522499,0.852640,0.000000
-6.276659,10.956186,-35.888529,-0.522499,0.852640,0.000000
-5.796895,-6.216978,18.469100,-0.649448,-0.760406,0.000000
0.003874,5.011285,35.644602,0.078459,0.996917,-0.000000
-6.686999,5.327275,-46.242809,0.000000,0.000000,-1.000000
0.824581,12.466247,-46.242809,0.000000,0.000000,-1.000000
-10.780600,-5.060429,-8.940081,-0.923879,-0.382684,0.000000
1.191944,11.839497,-5.877800,0.078459,0.996917,-0.000000
-6.390982,6.611595,-3.671927,-0.000000,-0.000000,1.000000
-4.185348,11.143071,-14.726328,-0.382684,0.923879,0.000000
-7.937975,3.027245,14.618083,-0.923879,0.382684,0.000000
6.248548,10.973413,-38.481850,0.522499,0.852640,-0.000000
-6.642455,-9.882065,-20.644303,-0.522499,-0.852640,0.000000
-8.210919,2.176777,7.009196,-0.972370,0.233445,0.000000
1.767161,-0.528316,-34.737686,-0.956940,0.290285,0.000000
-0.547096,8.475411,9.038656,-0.078459,0.996917,-0.000000
3.257534,0.198399,41.068759,1.000000,0.000000,-0.000000
3.257534,0.828128,-39.268105,1.000000,0.000000,0.000000
-1.745919,-0.598341,-3.619863,0.956940,0.290285,0.000000
-6.587900,-6.296944,-3.671927,-0.000000,0.000000,1.000000
5.011590,0.309239,-29.215462,-1.000000,0.000000,0.000000
4.726769,11.703229,-36.299316,0.382683,0.923880,-0.000000
-7.904505,8.893871,-7.282709,-0.649448,0.760406,0.000000
-8.346989,1.610005,12.810178,-0.972370,0.233445,0.000000
6.983343,9.673168,-23.218115,0.522499,0.852640,0.000000
1.582652,12.535700,-24.103290,0.078459,0.996917,-0.000000
-5.867388,6.156771,12.618318,-0.649448,0.760406,0.000000
8.415411,-1.309476,5.634080,0.996917,-0.078459,0.000000
-2.606001,8.107872,10.677983,-0.233445,0.972370,0.000000
-5.452327,-2.943660,-46.242809,0.000000,0.000000,-1.000000
5.011590,0.829232,22.999348,-1.000000,0.000000,0.000000
5.018497,1.947765,24.448500,-0.000000,0.000000,1.000000
-7.908981,3.097244,10.174012,-0.923879,0.382684,0.000000
3.212816,12.208536,-37.526855,0.233446,0.972370,0.000000
-10.948258,4.655668,-9.599844,-0.923879,0.382684,0.000000
-1.587179,-0.943286,-24.783701,0.881921,0.471397,-0.000000
-7.542099,-10.156454,-27.991893,-0.649448,-0.760406,0.000000
-0.706190,-1.713203,-10.001153,0.290285,0.956940,-0.000000
3.944991,3.073912,36.600868,0.760406,0.649448,0.000000
3.869740,-0.877028,45.112066,0.000000,1.000000,-0.000000
5.011590,-0.649810,-23.884551,-1.000000,0.000000,0.000000
3.278578,-0.877028,-3.887113,0.000000,1.000000,-0.000000
11.018829,4.485294,-20.194248,0.923879,0.382684,0.000000
6.307839,-6.725298,-3.671927,-0.000000,0.000000,1.000000
4.715539,-1.671227,42.092197,0.923879,-0.382684,0.000000
4.110258,-0.877028,-40.376006,0.000000,1.000000,0.000000
-1.376150,-1.230548,-40.789296,0.773010,0.634393,-0.000000
0.215638,4.994619,25.019843,0.078459,0.996917,0.000000
3.257534,-0.407172,-28.860842,1.000000,0.000000,0.000000
6.575908,5.376642,5.977717,0.760406,0.649448,0.000000
-4.533220,-11.783399,-28.972032,-0.382683,-0.923880,0.000000
12.609220,-0.648491,-34.612552,0.996917,-0.078459,0.000000
11.418283,5.414689,-32.143871,0.923880,0.382683,-0.000000
4.341640,-0.877028,-28.234592,0.000000,1.000000,0.000000
9.088314,-1.713569,-3.671927,0.000000,-0.000000,1.000000
3.599588,0.877028,12.524840,0.000000,-1.000000,0.000000
6.700781,-5.230435,-0.077887,0.760406,-0.649448,0.000000
-0.868719,12.591888,-32.106061,-0.078459,0.996917,0.000000
-2.405406,0.394012,-46.242809,0.000000,-0.000000,-1.000000
11.530653,2.931988,-19.162451,0.972370,0.233445,0.000000
-1.599355,0.920508,-35.665704,0.881921,-0.471397,0.000000
1.670797,0.786849,-11.342551,-0.881921,-0.471397,0.000000
11.076754,6.079911,-45.722258,0.852640,0.522499,0.000000
4.163405,2.767959,44.825044,0.852640,0.522498,-0.000000
5.940191,-11.162374,-33.154352,0.522499,-0.852640,0.000000
0.591387,-12.613714,-38.369266,0.078459,-0.996917,0.000000
5.960996,11.149625,-24.627955,0.522499,0.852640,-0.000000
5.563487,8.501358,-3.671927,0.000000,-0.000000,1.000000
-0.205186,-1.833145,2.696720,0.098017,0.995185,-0.000000
11.080397,-4.336656,-6.896407,0.923879,-0.382684,0.000000
8.246887,2.026960,7.869407,0.972370,0.233445,0.000000
-0.596608,1.746445,-3.398275,0.290285,-0.956940,0.000000
4.202770,7.384437,20.988574,0.522499,0.852640,-0.000000
3.716021,-1.402700,46.242809,-0.000000,0.000000,1.000000
-5.912127,6.118560,6.813005,-0.649448,0.760406,0.000000
-4.092538,7.451987,13.521335,-0.522499,0.852640,0.000000
-5.440114,10.618860,-9.120296,-0.522499,0.852640,0.000000
4.070598,-2.919406,25.014682,0.852640,-0.522498,0.000000
-11.226756,-5.835129,-26.962987,-0.852640,-0.522499,-0.000000
-1.201459,1.400022,42.155200,0.634393,-0.773010,0.000000
3.949671,3.068433,25.822762,0.760406,0.649448,0.000000
-2.231209,-7.654297,-46.242809,0.000000,-0.000000,-1.000000
-2.222690,8.199896,14.917020,-0.233445,0.972370,0.000000
1.140706,-1.449881,-19.672770,-0.634393,0.773010,0.000000
6.042440,11.099716,-32.595494,0.522499,0.852640,-0.000000
8.753354,3.486193,-3.671927,0.000000,-0.000000,1.000000
3.476960,-0.877028,-42.436354,0.000000,1.000000,0.000000
4.443012,2.119418,-46.242809,0.000000,0.000000,-1.000000
-4.252943,7.353691,9.699940,-0.522499,0.852640,0.000000
3.478580,-8.227052,-46.242809,0.000000,0.000000,-1.000000
0.867258,-1.627817,-25.368457,-0.471397,0.881921,0.000000
-12.527910,-1.681631,-45.274813,-0.996917,-0.078459,-0.000000
-3.907624,-7.565303,11.283235,-0.522499,-0.852640,0.000000
-6.883390,-1.962008,24.448500,0.000000,-0.000000,1.000000
1.898053,11.778878,-7.060786,0.233445,0.972370,-0.000000
5.885728,6.735551,-3.671927,0.000000,-0.000000,1.000000
-2.128494,-8.222511,7.607241,-0.233445,-0.972370,0.000000
-3.194636,-3.841883,39.656513,-0.649448,-0.760406,0.000000
2.865225,-12.291985,-27.017147,0.233446,-0.972370,0.000000
3.266827,11.450265,-10.015737,0.233445,0.972370,0.000000
-1.727990,-0.657445,31.232677,0.956940,0.290285,0.000000
4.229342,11.909270,-34.460346,0.382683,0.923880,-0.000000
10.139438,-0.224402,-46.242809,0.000000,0.000000,-1.000000
0.630503,-8.468847,4.710550,0.078459,-0.996917,0.000000
8.213153,-2.167474,4.476546,0.972370,-0.233445,0.000000
0.873672,-4.928357,38.047966,0.233445,-0.972370,0.000000
-0.422893,-11.900022,-11.552700,-0.078459,-0.996917,0.000000
11.906317,-0.342910,-11.397784,0.996917,-0.078459,0.000000
11.404687,3.456672,-18.082999,0.972370,0.233445,-0.000000
3.525066,0.877028,-30.916443,0.000000,-1.000000,0.000000
1.159367,-1.434566,-5.156931,-0.634393,0.773010,0.000000
4.237240,2.647472,30.324848,0.852640,0.522498,0.000000
11.883312,0.635215,-6.655508,0.996917,0.078459,-0.000000
-2.047624,-10.606850,-3.671927,0.000000,-0.000000,1.000000
-1.077917,-3.386535,-46.242809,0.000000,0.000000,-1.000000
6.085050,7.489562,-46.242809,0.000000,0.000000,-1.000000
1.030314,1.540477,11.944739,-0.634393,-0.773010,0.000000
6.137308,8.929201,-46.242809,0.000000,0.000000,-1.000000
-8.397436,-8.472869,-7.863495,-0.649448,-0.760406,-0.000000
-1.733494,-0.639300,-0.383968,0.956940,0.290285,0.000000
-7.855827,-9.888505,-34.615361,-0.649448,-0.760406,0.000000
-4.086080,-7.455945,23.237311,-0.522499,-0.852640,0.000000
-4.317893,-11.872591,-37.378222,-0.382683,-0.923880,0.000000
1.833435,-0.202236,-25.095351,-0.995185,0.098017,0.000000
-12.656823,0.043641,-37.071292,-0.996917,0.078459,0.000000
-9.068644,7.699873,-18.488507,-0.760406,0.649448,0.000000
5.011590,0.304043,-26.506552,-1.000000,0.000000,0.000000
-3.753663,11.321881,-20.771195,-0.382684,0.923879,0.000000
9.941202,7.794128,-27.010460,0.760406,0.649448,-0.000000
-1.090010,12.574472,-39.731756,-0.078459,0.996917,0.000000
-1.827421,-0.263302,-7.531048,0.995185,0.098017,0.000000
2.264147,11.690987,-6.555831,0.233445,0.972370,-0.000000
-11.464425,3.207848,-16.567269,-0.972370,0.233445,0.000000
-1.176110,1.420826,-44.423603,0.634393,-0.773010,0.000000
0.783116,-11.871672,-19.248052,0.078459,-0.996917,0.000000
-1.819612,-0.342586,12.886735,0.995185,0.098017,0.000000
8.808234,-2.251447,-3.671927,0.000000,-0.000000,1.000000
3.090680,8.897654,-3.671927,-0.000000,-0.000000,1.000000
5.093349,-6.817863,9.066305,0.649448,-0.760406,0.000000
8.276169,1.904991,-1.720896,0.972370,0.233445,0.000000
1.196731,-1.403902,-23.671803,-0.634393,0.773010,0.000000
-11.002654,-6.200831,-37.726757,-0.852640,-0.522499,-0.000000
9.005339,7.773994,-10.316416,0.760406,0.649448,-0.000000
10.470015,-5.683008,-5.205670,0.852640,-0.522499,0.000000
4.695247,-0.877028,26.370136,0.000000,1.000000,-0.000000
-8.388071,8.889766,-23.858089,-0.000000,0.000000,1.000000
-10.853105,-6.444872,-35.084067,-0.852640,-0.522499,-0.000000
8.371377,-1.508421,7.007811,0.972370,-0.233445,0.000000
1.014647,-12.580403,-42.607356,0.078459,-0.996917,0.000000
4.821743,-1.317753,40.185227,0.972370,-0.233446,0.000000
4.755610,-0.877028,-26.734342,0.000000,1.000000,0.000000
-12.485400,2.059593,-30.597547,-0.972370,0.233446,0.000000
5.011590,-0.545496,9.560421,-1.000000,0.000000,0.000000
9.449980,7.742876,-46.242809,0.000000,0.000000,-1.000000
9.964012,-6.508729,-19.840331,0.852640,-0.522499,0.000000
3.307457,-0.877028,-34.574558,0.000000,1.000000,-0.000000
-2.247210,-4.476959,31.115846,-0.382684,-0.923879,0.000000
-2.390911,-4.394460,40.529971,-0.522498,-0.852640,0.000000
-11.839014,1.198079,-8.332628,-0.996917,0.078459,0.000000
-3.189049,5.949742,24.448500,0.000000,-0.000000,1.000000
4.752351,-11.441488,-23.858089,0.000000,-0.000000,1.000000
11.051743,6.120725,-31.167594,0.852640,0.522499,0.000000
3.936285,-0.877028,-43.546950,0.000000,1.000000,0.000000
2.439010,-8.147962,5.281442,0.233445,-0.972370,0.000000
-3.000876,-12.259418,-39.480335,-0.233446,-0.972370,0.000000
-3.568605,3.514604,33.312766,-0.760406,0.649448,0.000000
1.217621,1.386759,7.283167,-0.634393,-0.773010,0.000000
-8.670498,-8.166042,-13.527911,-0.760406,-0.649448,0.000000
-8.863915,-9.027518,-25.664282,-0.649448,-0.760406,-0.000000
-3.267114,-3.779981,39.873465,-0.649448,-0.760406,0.000000
11.616477,4.936206,-38.980652,0.923880,0.382683,0.000000
10.658005,5.356401,-14.266366,0.923879,0.382684,-0.000000
8.375356,-1.491847,3.578371,0.972370,-0.233445,0.000000
-1.681657,-4.711219,32.939553,-0.382684,-0.923879,0.000000
4.548259,7.172722,16.209891,0.522499,0.852640,-0.000000
10.666782,-1.678292,-46.242809,0.000000,0.000000,-1.000000
-4.236378,-7.363842,12.117178,-0.522499,-0.852640,0.000000
3.564070,-0.877028,22.596421,0.000000,1.000000,-0.000000
-6.268598,10.961126,-33.649429,-0.522499,0.852640,0.000000
2.242937,-12.441383,-41.717479,0.233446,-0.972370,0.000000
3.851688,-5.166596,-46.242809,0.000000,0.000000,-1.000000
-4.991678,-0.253011,43.777453,-0.996917,-0.078459,0.000000
-1.411043,-1.188030,-21.002164,0.773010,0.634393,-0.000000
0.048496,5.007773,31.478796,0.078459,0.996917,-0.000000
2.747719,8.053759,1.848545,0.382684,0.923879,-0.000000
4.329116,-11.198383,-46.242809,0.000000,0.000000,-1.000000
3.814829,-11.296545,-22.916780,0.382684,-0.923879,0.000000
4.678383,-0.877028,25.812707,0.000000,1.000000,-0.000000
-0.940881,12.586209,-45.886375,-0.078459,0.996917,0.000000
11.125908,5.999699,-36.393920,0.852640,0.522499,0.000000
-1.194048,-6.877721,24.448500,0.000000,-0.000000,1.000000
2.940914,-2.952972,46.242809,0.000000,-0.000000,1.000000
-6.176847,11.017351,-45.862804,-0.522499,0.852640,0.000000
3.465175,-7.973133,-46.242809,0.000000,0.000000,-1.000000
4.222401,7.372407,-2.473027,0.522499,0.852640,0.000000
0.172898,-12.646650,-39.304748,0.078459,-0.996917,0.000000
8.533743,-9.309511,-24.736035,0.649448,-0.760406,0.000000
-0.452127,1.790272,-43.612950,0.290285,-0.956940,0.000000
8.341643,1.632274,15.209767,0.972370,0.233445,0.000000
8.969256,-8.932130,-41.932550,0.760406,-0.649448,0.000000
4.082869,-11.185519,-4.767435,0.382684,-0.923879,0.000000
5.951992,11.155143,-35.064865,0.522499,0.852640,-0.000000
-6.561743,-10.781486,-34.919897,-0.522499,-0.852640,0.000000
1.785548,0.467702,36.569950,-0.956940,-0.290285,0.000000
11.732096,2.092916,-6.241716,0.972370,0.233445,0.000000
-12.147376,3.467563,-33.427303,-0.972370,0.233446,0.000000
-3.080283,11.495050,-15.452187,-0.233445,0.972370,0.000000
-8.511022,0.094618,17.154087,-0.996917,0.078459,0.000000
-4.276141,-11.889885,-31.329742,-0.382683,-0.923880,0.000000
5.011590,-0.055265,-43.868489,-1.000000,0.000000,0.000000
1.636105,-8.340723,19.755202,0.233445,-0.972370,0.000000
8.457875,-8.414992,-6.392859,0.760406,-0.649448,0.000000
-5.774693,10.413830,-12.548076,-0.522499,0.852640,0.000000
7.389610,9.333634,-4.884356,0.649448,0.760406,-0.000000
-0.798966,-12.597377,-35.418075,-0.078459,-0.996917,0.000000
8.375686,-1.490475,2.569581,0.972370,-0.233445,0.000000
5.008310,11.586611,-45.563870,0.382683,0.923880,0.000000
-5.937065,-5.234976,-46.242809,0.000000,-0.000000,-1.000000
-8.442386,-8.433127,-20.195700,-0.760406,-0.649448,0.000000
-1.315568,12.556720,-28.098273,-0.078459,0.996917,0.000000
8.316471,-1.737121,23.934141,0.972370,-0.233445,0.000000
-1.605214,-8.144853,24.448500,-0.000000,-0.000000,1.000000
-2.978171,4.259964,-46.242809,0.000000,0.000000,-1.000000
0.253151,-1.828421,-16.005129,-0.098017,0.995185,0.000000
-11.483037,-3.130320,-16.781700,-0.972370,-0.233445,0.000000
12.486330,2.055722,-28.472670,0.972370,0.233446,0.000000
-1.247845,-1.361954,-33.334554,0.634393,0.773010,-0.000000
-12.392066,2.448358,-45.127612,-0.972370,0.233446,0.000000
-1.117926,-1.468576,-29.039164,0.634393,0.773010,-0.000000
-8.419583,1.256460,18.108299,-0.996917,0.078459,0.000000
-6.701854,9.684701,-46.242809,0.000000,0.000000,-1.000000
-1.204059,-8.560789,-3.671927,0.000000,-0.000000,1.000000
11.694549,-2.249313,-12.172302,0.972370,-0.233445,0.000000
1.846178,-0.072853,-39.974393,-0.995185,0.098017,0.000000
4.108104,0.877028,-6.619204,-0.000000,-1.000000,0.000000
-5.141155,-11.531585,-36.759076,-0.382683,-0.923880,0.000000
-0.167290,-8.505303,20.663716,-0.078459,-0.996917,0.000000
-11.732592,-2.090848,-18.941814,-0.972370,-0.233445,-0.000000
3.206259,12.210110,-29.408152,0.233446,0.972370,-0.000000
11.790890,1.809553,-10.205283,0.996917,0.078459,-0.000000
-7.312343,-9.399626,-10.106231,-0.649448,-0.760406,0.000000
-7.707805,9.061869,-12.001221,-0.649448,0.760406,0.000000
11.668404,2.358212,-6.270761,0.972370,0.233445,-0.000000
5.879598,11.112536,-46.242809,0.000000,0.000000,-1.000000
5.264550,11.480473,-32.007806,0.382683,0.923880,0.000000
1.435545,-1.158174,5.158821,-0.773010,0.634393,0.000000
11.553017,-5.089412,-40.443160,0.923880,-0.382683,0.000000
0.619829,5.961532,-46.242809,0.000000,0.000000,-1.000000
4.301262,-2.542996,44.548116,0.852640,-0.522498,0.000000
3.974889,7.524083,3.012927,0.522499,0.852640,-0.000000
-6.060188,5.980472,5.719512,-0.760406,0.649448,0.000000
-3.026973,3.985081,34.519262,-0.649448,0.760406,0.000000
1.814652,-0.371758,-11.435311,-0.956940,0.290285,0.000000
0.284160,-1.825366,21.424978,-0.098017,0.995185,0.000000
-11.868660,0.821397,-4.664325,-0.996917,0.078459,0.000000
0.811578,-8.454596,5.549706,0.078459,-0.996917,0.000000
4.454960,-11.031394,-4.374738,0.382684,-0.923879,0.000000
