x,y,z,nx,ny,nz
39.659174,34.106195,-2.718966,-0.451403,-0.409128,0.793000
47.910109,11.288904,-3.616227,0.126764,0.031753,0.991425
48.851721,13.655464,6.478076,0.126765,0.031753,0.991424
45.381182,20.008779,-3.663900,0.118134,0.055873,0.991424
44.108261,27.368186,-3.016167,-0.522549,-0.313204,0.792998
48.625133,0.000000,4.489710,-0.000000,-1.000000,0.000000
37.797333,26.641285,5.484928,-0.489333,-0.362914,0.792999
40.593397,15.990679,2.075420,-0.870026,-0.311300,0.382291
42.204468,32.004801,-5.772589,0.307690,0.228198,-0.923717
47.454479,30.453184,0.348814,0.850408,0.509715,0.130372
46.300530,0.000000,1.722784,0.000000,-1.000000,0.000000
50.430205,5.162140,3.586776,-0.129266,-0.019175,-0.991425
46.466942,5.633407,-2.068477,0.785117,0.116461,0.608300
43.246639,28.528326,-3.125725,-0.522548,-0.313203,0.792999
37.695809,39.523438,-4.501349,0.533021,0.588099,-0.608299
50.232272,1.741201,6.537193,0.130523,0.006412,0.991425
28.303805,39.073399,-3.313200,0.228199,0.307691,0.923716
54.186378,15.020892,-1.465761,0.961752,0.240906,-0.130372
44.327144,21.528898,6.523694,-0.118134,-0.055873,0.991424
40.359486,29.952905,-3.637109,-0.104964,-0.077846,0.991425
30.876949,30.619507,-1.600387,-0.734628,-0.665827,-0.130372
35.525180,27.904770,-4.659446,-0.637512,-0.472811,-0.608299
52.251616,7.128602,-5.868856,0.378931,0.056209,-0.923716
49.729951,12.853356,6.391474,0.126765,0.031753,0.991424
43.591823,4.504516,-2.494516,-0.914041,-0.135585,-0.382290
39.815663,18.656041,-2.950053,-0.835324,-0.395079,-0.382290
37.515686,34.897555,-6.408565,0.096828,0.087760,-0.991424
47.097906,0.000000,5.577125,-0.000000,-1.000000,0.000000
47.548908,9.496616,6.412361,-0.126765,-0.031753,0.991424
56.277600,0.224248,-1.400697,0.990271,0.048649,-0.130372
51.736390,0.000000,4.749885,0.000000,-1.000000,0.000000
46.349395,4.594215,5.709679,-0.602629,-0.089392,0.792999
35.538321,34.483331,3.652141,0.096828,0.087760,-0.991425
32.242172,37.142570,-6.510156,-0.087760,-0.096828,-0.991424
55.476696,2.891185,3.226849,0.922929,0.045340,0.382290
20.735051,39.530542,-3.933483,-0.339354,-0.717503,-0.608299
42.230575,18.753411,-0.511091,0.896274,0.423906,0.130373
39.601882,35.857039,-0.650945,-0.734627,-0.665828,0.130371
47.613275,17.325251,-3.583497,-0.123042,-0.044025,0.991424
41.816233,24.821579,-6.438249,-0.112089,-0.067184,-0.991424
35.469110,26.677366,3.646664,-0.637512,-0.472811,0.608299
47.645713,8.292760,3.355590,0.378932,0.056209,-0.923716
44.855241,33.942565,-1.196761,0.796352,0.590615,-0.130372
45.927965,32.540428,-0.996235,0.796352,0.590615,-0.130372
44.027913,34.074426,-2.961141,0.742198,0.550451,-0.382290
29.545856,41.169476,-6.483035,0.077846,0.104964,-0.991424
31.782282,36.241499,6.381443,-0.087760,-0.096828,0.991424
50.811222,1.494906,6.462566,0.130524,0.006412,0.991424
56.116882,5.492541,-0.655576,0.990271,0.048649,-0.130371
43.815130,14.747130,-5.479349,-0.573611,-0.205241,-0.792999
50.202522,12.713991,6.260673,0.371597,0.093080,0.923716
48.499564,16.793097,-3.341883,-0.360684,-0.129055,0.923716
49.166994,16.339206,-3.097275,-0.573611,-0.205241,0.792999
47.250746,10.664000,3.388360,0.371597,0.093080,-0.923716
45.887532,26.141463,-2.129310,-0.680784,-0.408046,0.608302
39.139871,34.225147,6.178696,0.283842,0.257259,0.923716
27.995012,46.493272,4.820737,0.313203,0.522548,0.792999
39.978536,38.290084,3.540633,0.588099,0.533021,0.608299
36.990451,33.820938,-6.555163,0.096828,0.087760,-0.991424
40.927162,34.091986,-5.628261,0.451405,0.409130,-0.792999
55.374643,9.626566,1.651712,0.980734,0.145478,0.130372
44.654707,19.168843,6.429720,-0.118134,-0.055873,0.991424
42.205114,26.798050,-6.574063,0.112089,0.067183,-0.991424
22.594814,46.358635,-4.305700,-0.898915,0.438123,0.000000
45.465604,9.746536,-1.484837,0.896349,0.224524,0.382292
52.962098,0.247969,-1.983142,-0.792752,-0.038945,0.608299
40.946441,30.609795,-6.423108,0.104964,0.077847,-0.991424
40.530470,16.758225,-2.557222,-0.870026,-0.311300,-0.382291
22.868457,45.463785,3.526679,-0.163786,-0.346297,-0.923716
27.856542,34.060330,2.907068,-0.550451,-0.742198,0.382291
41.925669,32.464003,5.752014,0.307691,0.228199,0.923716
26.143314,44.690258,-3.116436,-0.313203,-0.522548,0.792999
23.672924,42.795264,6.471099,-0.067184,-0.112089,0.991424
50.901125,6.639480,3.340841,-0.378930,-0.056209,-0.923717
24.771402,36.023780,2.276786,-0.550452,-0.742198,0.382290
50.855617,20.041421,-4.456119,0.747310,0.267392,-0.608300
46.195844,26.279276,-1.558927,-0.792579,-0.475053,0.382287
55.239697,1.765844,3.640297,0.792752,0.038945,0.608299
45.034520,32.235303,-3.490494,0.637512,0.472811,-0.608299
31.590410,30.554532,-2.845390,-0.684670,-0.620549,-0.382289
31.491942,46.640301,1.394945,0.590615,0.796352,0.130372
46.136978,22.449815,6.398967,0.118134,0.055873,0.991424
29.170767,44.641186,1.188990,-0.475053,-0.792578,-0.382289
43.260899,9.149629,3.394652,-0.769921,-0.192855,0.608300
25.943944,36.822692,-4.495183,-0.472811,-0.637512,-0.608300
34.690229,37.445433,6.433778,0.087760,0.096828,0.991424
40.032477,36.981732,-4.634923,0.588099,0.533021,-0.608299
36.707605,37.809295,2.301918,-0.533023,-0.588100,-0.608297
29.352284,38.383986,3.342576,0.228199,0.307691,-0.923716
37.855744,22.779756,-3.386155,-0.680786,-0.408047,-0.608299
50.054029,5.120565,3.636628,-0.129266,-0.019175,-0.991425
40.971385,13.889824,0.190376,-0.933509,-0.334014,0.130370
32.992057,38.990660,-3.456184,-0.257259,-0.283842,0.923716
46.765276,3.230595,-2.168768,0.792751,0.038945,0.608300
39.819382,21.380857,4.645403,-0.680786,-0.408047,0.608299
30.714220,31.167686,2.347517,-0.620549,-0.684670,0.382289
24.830504,42.242149,3.587288,0.067184,0.112089,-0.991424
43.517039,34.366302,3.424497,0.637513,0.472811,0.608299
45.708985,24.297108,3.165356,-0.550732,-0.260477,-0.792998
49.281203,5.192277,3.654768,0.129267,0.019175,-0.991424
28.245609,42.646897,3.433655,-0.196942,-0.328577,-0.923716
25.435072,39.195865,-5.782612,-0.196941,-0.328576,-0.923716
48.179102,28.012896,2.805385,0.792578,0.475053,0.382290
49.753173,3.206788,-3.691069,-0.130523,-0.006412,0.991424
46.194569,23.632831,6.228960,0.346298,0.163787,0.923716
38.354172,20.283155,-0.861307,-0.896274,-0.423906,-0.130372
55.130968,3.566983,-3.666681,0.792752,0.038945,-0.608299
55.177494,0.275892,3.816753,0.792752,0.038945,0.608299
43.428781,0.557241,1.316714,-0.990271,-0.048649,0.130372
37.536701,31.504321,-6.483335,-0.096828,-0.087760,-0.991424
44.655066,12.109445,-0.972149,0.896349,0.224524,0.382292
45.070530,14.851157,-2.790611,0.573611,0.205241,0.792999
43.265789,27.883581,3.290694,-0.328577,-0.196941,-0.923716
40.298943,26.454119,-3.280473,0.328576,0.196941,0.923716
42.226522,28.963964,3.404681,-0.307691,-0.228199,-0.923716
21.958819,39.544895,4.700220,-0.313203,-0.522548,0.792999
42.706779,9.655568,2.475336,-0.896350,-0.224524,0.382290
51.421583,7.624785,-2.954068,-0.602630,-0.089392,0.792999
46.296429,26.927684,5.371999,0.522548,0.313203,0.792999
27.810416,47.157338,4.311219,0.408047,0.680786,0.608299
52.389116,2.767064,-2.568586,-0.792752,-0.038945,0.608299
37.648657,27.779173,2.064718,0.637512,0.472811,-0.608299
32.302719,33.764005,-1.964170,0.533021,0.588098,0.608300
47.446838,12.159467,-3.584875,0.126764,0.031753,0.991425
27.223219,37.459426,-1.081836,0.550452,0.742198,0.382290
34.653580,34.123839,3.457592,0.283841,0.257259,-0.923717
29.727550,36.965688,6.074630,-0.228199,-0.307691,0.923716
23.109899,47.415455,5.414410,-0.898915,0.438123,-0.000000
52.662108,1.388846,2.301054,-0.792752,-0.038945,-0.608299
50.253469,11.030107,-3.298076,-0.371596,-0.093080,0.923717
44.426437,11.339069,-5.193687,-0.590966,-0.148029,-0.792999
23.421122,48.054004,4.927912,-0.898915,0.438124,0.000000
42.705664,29.843428,-2.880768,-0.489332,-0.362914,0.792999
40.854786,34.563526,0.197159,-0.734627,-0.665827,-0.130371
39.984242,19.115330,-3.565034,-0.717503,-0.339354,-0.608299
36.586246,28.868605,1.755759,0.742198,0.550452,-0.382289
50.949075,19.876968,-4.413592,0.747310,0.267392,-0.608300
32.207445,42.365187,-1.364969,-0.550451,-0.742197,0.382291
38.210750,27.620358,5.968791,-0.307690,-0.228199,0.923716
34.186736,41.154252,-0.434035,-0.665827,-0.734627,0.130371
44.714344,9.391500,5.044691,-0.590966,-0.148029,0.792999
40.959097,14.304521,1.164856,-0.933508,-0.334014,0.130372
37.478358,34.365199,-3.538461,-0.283842,-0.257259,0.923716
42.398173,22.133011,6.236690,-0.346298,-0.163786,0.923716
53.290654,5.784909,-5.364841,0.602629,0.089392,-0.792999
48.235936,16.243223,6.453989,0.123042,0.044025,0.991424
41.928529,32.923658,1.181458,-0.742197,-0.550451,-0.382291
52.351303,4.251523,5.966396,0.382616,0.018797,0.923716
45.811147,10.768711,-5.931566,-0.371597,-0.093080,-0.923716
49.247409,16.112001,-6.256812,0.360684,0.129055,-0.923716
51.396627,7.485012,2.988790,-0.602630,-0.089392,-0.792999
28.635621,34.529086,-4.213113,-0.533022,-0.588098,-0.608299
43.142775,31.344414,-1.097978,-0.742198,-0.550451,0.382291
54.289849,14.047218,-1.959529,0.896350,0.224524,-0.382290
30.912036,36.554424,-3.101908,0.409129,0.451404,0.792999
39.479877,28.721591,6.463576,-0.104964,-0.077847,0.991424
51.758936,11.218663,5.785232,0.371597,0.093080,0.923716
55.115554,1.542106,3.816408,0.792752,0.038945,0.608299
44.039419,20.206417,6.414879,-0.118134,-0.055873,0.991424
39.995011,25.585087,-2.805311,0.522548,0.313203,0.792999
35.742500,37.456187,-3.128776,-0.409128,-0.451403,0.793000
52.340701,10.541800,-1.075938,-0.896350,-0.224524,0.382289
48.990593,2.309549,-3.593506,0.130523,0.006412,0.991424
28.394984,42.534961,-3.441625,-0.196941,-0.328577,0.923716
36.297520,30.238797,5.992527,-0.283842,-0.257259,0.923716
50.588848,23.909365,2.253686,0.835324,0.395079,0.382291
41.199579,28.855925,3.634301,-0.104964,-0.077846,-0.991425
41.643122,21.219212,1.972861,0.717503,0.339354,-0.608299
33.565975,39.120802,3.256355,-0.257259,-0.283841,-0.923717
32.280930,44.643414,3.864919,0.472811,0.637512,0.608299
21.559170,41.504277,-5.799823,-0.163786,-0.346298,-0.923716
30.181490,34.914768,-0.090401,0.665828,0.734628,0.130369
50.187708,24.693569,2.319759,0.835324,0.395079,0.382290
42.337364,10.094261,1.866826,-0.896350,-0.224524,0.382291
49.512304,17.765517,-2.384278,-0.747311,-0.267392,0.608299
29.501319,31.839029,-1.310828,-0.665827,-0.734628,-0.130370
47.838645,20.838332,-6.108103,0.346298,0.163787,-0.923716
38.878126,38.013520,4.771424,0.451405,0.409129,0.792999
49.181176,21.618822,5.257433,0.550732,0.260477,0.792998
29.176941,47.870887,-1.997887,0.475053,0.792577,-0.382290
33.228012,29.534537,3.742920,-0.588098,-0.533022,0.608299
37.274195,28.808095,2.472020,0.637512,0.472811,-0.608299
25.682179,47.458434,5.098219,0.313203,0.522548,0.792999
50.422112,17.385893,-5.542241,0.573611,0.205241,-0.792999
47.481045,7.625655,-3.247445,0.378930,0.056209,0.923717
26.624848,40.822572,-3.503134,0.196941,0.328576,0.923716
42.027777,12.127974,2.335369,-0.896350,-0.224524,0.382291
22.233090,45.616473,-4.730992,-0.898914,0.438125,0.000001
38.952156,18.832689,0.256075,-0.896274,-0.423907,0.130372
35.442192,38.029113,6.181061,0.257258,0.283841,0.923717
44.323681,10.903909,5.035879,-0.590966,-0.148029,0.792999
52.589252,9.797462,0.388851,-0.980734,-0.145479,-0.130375
33.549553,40.212498,-2.691180,-0.409129,-0.451405,0.792998
43.787295,20.636693,-6.409086,-0.118134,-0.055873,-0.991424
42.102246,31.379817,-2.505965,-0.637511,-0.472811,0.608301
19.348947,38.864504,-1.332110,-0.423906,-0.896274,-0.130369
36.478817,40.981981,4.157630,0.533021,0.588099,0.608299
38.250507,20.360489,-0.400085,-0.896274,-0.423906,-0.130372
50.757128,0.066292,-3.579207,-0.130523,-0.006412,0.991424
27.230757,36.041573,-4.671279,-0.362914,-0.489333,-0.792999
32.828706,37.160055,6.563783,-0.087760,-0.096828,0.991424
26.380124,46.473436,-5.471625,0.313203,0.522548,-0.792999
27.290517,38.974123,6.141586,-0.228199,-0.307690,0.923716
26.260524,45.692363,2.267868,-0.408046,-0.680784,-0.608302
25.117123,37.705522,-4.735566,-0.313203,-0.522548,-0.792999
47.149817,7.916454,3.068704,0.602629,0.089392,-0.792999
43.767444,11.061863,4.642038,-0.769921,-0.192855,0.608300
41.680318,33.476163,-0.677583,-0.796353,-0.590615,0.130371
46.737878,10.199936,3.079850,0.590966,0.148029,-0.792999
40.219916,17.428110,2.564358,-0.835324,-0.395079,0.382291
43.309969,5.819715,2.287070,-0.914041,-0.135585,0.382290
39.146095,22.366874,-4.553305,-0.680786,-0.408047,-0.608300
43.387639,21.716203,6.422302,-0.118134,-0.055873,0.991424
54.962353,0.441632,4.086520,0.792752,0.038945,0.608299
45.844024,7.791186,-5.686011,-0.602629,-0.089392,-0.792999
36.573474,40.174838,4.776245,0.409129,0.451404,0.792999
21.867719,43.859042,-3.587292,0.055873,0.118134,0.991424
22.479992,42.220770,-3.051405,0.260476,0.550730,0.793000
41.913830,21.075455,5.867594,-0.346298,-0.163786,0.923716
45.162882,10.596878,5.603963,-0.590966,-0.148029,0.792999
21.335168,43.774174,6.248462,-0.898915,0.438123,0.000000
43.429850,14.502155,-5.137256,-0.573611,-0.205241,-0.792999
22.633725,40.213216,0.009022,0.509715,0.850408,-0.130370
37.536102,27.320512,-1.370789,0.742198,0.550452,0.382289
51.481514,14.182674,-5.501512,0.590966,0.148029,-0.792999
23.533150,41.967562,3.251253,0.196941,0.328576,-0.923716
49.773678,17.100278,5.913244,0.360684,0.129055,0.923716
46.930613,5.299552,2.603008,0.785117,0.116461,-0.608300
48.411477,21.854932,1.622018,-0.835325,-0.395079,-0.382287
54.503394,9.940866,-3.493768,0.785117,0.116461,-0.608300
39.805011,25.172386,-5.943286,-0.328576,-0.196941,-0.923716
49.809651,24.966043,-2.864247,0.835324,0.395079,-0.382290
43.017280,8.486307,-2.533011,-0.914041,-0.135585,-0.382290
48.565267,21.630804,1.517603,-0.835325,-0.395079,-0.382289
24.642677,43.157041,-3.677996,0.067184,0.112089,0.991424
55.051916,2.110510,3.862951,0.792752,0.038945,0.608299
40.611932,15.666890,-1.853940,-0.870026,-0.311300,-0.382291
28.233346,45.280848,1.027705,-0.475053,-0.792578,-0.382289
55.512012,1.941042,3.254276,0.922929,0.045340,0.382290
23.292705,45.747071,-6.397924,0.055873,0.118134,-0.991424
55.773570,0.000000,-1.645386,0.000000,-1.000000,0.000000
44.331517,0.000000,0.920206,0.000000,-1.000000,0.000000
53.186967,11.565742,-4.719062,0.590966,0.148029,-0.792999
40.270904,32.104066,3.280354,-0.307691,-0.228199,-0.923716
30.944123,39.631991,-6.536019,0.077847,0.104964,-0.991424
36.706571,28.419584,1.342827,0.742198,0.550452,-0.382290
53.323806,4.474869,-0.225278,-0.990271,-0.048649,0.130370
54.166537,12.914830,-2.913721,0.896350,0.224524,-0.382290
50.064644,24.655405,-2.628102,0.835324,0.395079,-0.382290
55.042995,2.954389,3.820550,0.792752,0.038945,0.608299
39.225530,21.293824,3.922405,-0.680786,-0.408047,0.608299
39.960724,34.083649,2.521170,-0.588101,-0.533022,-0.608297
38.887176,33.733096,6.377694,0.096828,0.087760,0.991424
26.005625,49.315054,2.870609,0.395080,0.835324,0.382290
50.537620,14.381763,-2.495818,-0.769921,-0.192855,0.608299
39.323278,32.661894,3.445929,-0.283842,-0.257259,-0.923716
42.871816,17.364847,-5.474518,-0.573611,-0.205241,-0.792999
51.878941,3.079232,-2.966567,-0.608490,-0.029893,0.792999
32.005792,32.451341,-4.954325,-0.409129,-0.451404,-0.792999
54.180348,1.123296,-4.898114,0.608490,0.029893,-0.792999
29.485923,42.679108,6.236761,0.228199,0.307690,0.923716
24.072938,49.391361,1.698000,-0.898915,0.438124,0.000000
28.714047,41.132392,6.552274,0.077846,0.104964,0.991424
28.024082,33.604333,2.344740,-0.620548,-0.684670,0.382291
49.143653,27.497004,0.888221,0.850408,0.509715,0.130372
48.023252,29.157859,-1.703072,0.850408,0.509715,-0.130372
25.336537,38.726557,-0.878814,0.509715,0.850409,0.130370
50.811421,14.845531,2.002236,-0.769922,-0.192855,-0.608299
39.922060,39.294026,-2.219355,0.684671,0.620550,-0.382288
41.228779,24.634658,3.223307,0.328576,0.196941,-0.923716
50.833102,12.017289,-2.765193,-0.590966,-0.148029,0.792999
42.986549,7.036247,1.945247,-0.914041,-0.135585,0.382290
47.560520,24.781048,-5.344268,0.550731,0.260476,-0.792999
28.870635,44.966984,-0.736373,-0.509715,-0.850408,0.130370
53.455727,0.000000,-3.050791,-0.000000,-1.000000,0.000000
42.618319,11.852710,-3.438329,-0.769921,-0.192855,-0.608300
25.595391,44.573675,3.313319,-0.196942,-0.328577,-0.923716
50.351342,24.964914,-1.627812,0.896274,0.423906,-0.130371
48.019334,18.857373,3.240993,-0.360683,-0.129055,-0.923717
41.272181,24.505558,3.211221,0.328576,0.196941,-0.923716
45.174347,17.719227,-3.420387,0.360684,0.129055,0.923716
41.069728,18.232224,-4.352730,-0.717503,-0.339354,-0.608299
34.958999,38.570510,2.898690,-0.409128,-0.451403,-0.793000
51.300383,13.652359,5.724464,0.371597,0.093080,0.923716
35.045661,30.096383,5.445994,-0.451405,-0.409129,0.792999
32.157612,40.687146,3.067247,-0.362914,-0.489333,-0.792998
31.711071,42.408041,-5.777343,0.228199,0.307691,-0.923716
53.166669,0.000000,-2.649363,-0.000000,-1.000000,0.000000
33.158665,42.000409,-0.160707,-0.590615,-0.796353,0.130370
46.202578,21.894694,-3.422368,-0.346298,-0.163787,0.923716
48.151104,17.816982,3.334896,-0.360683,-0.129055,-0.923717
29.015820,38.961847,3.451940,0.228199,0.307691,-0.923716
30.574847,34.635217,-5.459206,-0.409129,-0.451405,-0.792999
27.852556,45.645735,0.289301,-0.509715,-0.850408,-0.130370
38.671585,31.803847,6.569525,0.096828,0.087760,0.991424
36.912529,27.790353,0.579610,0.796352,0.590615,-0.130373
38.224120,41.023473,1.983473,0.620550,0.684671,0.382288
32.056597,36.972151,-6.477085,-0.087760,-0.096828,-0.991424
34.389559,31.829783,-2.154541,0.588098,0.533021,0.608300
27.412864,43.832431,-3.180280,-0.313203,-0.522548,0.792999
20.703918,42.479012,-5.642069,-0.898915,0.438123,-0.000000
42.579079,18.657448,1.477218,0.835325,0.395079,-0.382289
27.665721,37.607307,-5.778991,-0.228199,-0.307691,-0.923716
40.115324,29.972362,-6.561151,0.104964,0.077846,-0.991424
49.399487,17.634818,-5.984673,0.360684,0.129055,-0.923716
41.936914,31.130369,2.766172,-0.489332,-0.362914,-0.792999
26.456932,38.117379,1.255861,0.550452,0.742198,-0.382289
25.904138,48.293202,4.318733,0.408047,0.680786,0.608299
26.630707,34.168565,0.590668,-0.590616,-0.796352,0.130370
45.924219,0.000000,-4.661309,-0.000000,-1.000000,0.000000
51.571135,13.591278,1.089331,-0.896351,-0.224524,-0.382289
52.421234,10.868452,-0.134737,-0.961752,-0.240906,0.130375
50.670154,16.033703,1.616866,-0.870026,-0.311300,-0.382291
28.913595,42.744070,3.244729,-0.228199,-0.307691,-0.923716
52.394761,9.572442,1.320862,-0.914042,-0.135585,-0.382289
35.054949,27.820521,4.101150,-0.637512,-0.472811,0.608299
27.971878,43.363034,-6.349061,0.196941,0.328576,-0.923716
29.230388,44.815266,-0.319485,-0.509715,-0.850408,0.130370
26.372985,37.922815,0.329744,0.590615,0.796352,-0.130373
37.356800,22.540082,2.129427,-0.792578,-0.475053,0.382290
43.438717,35.315152,2.318542,0.742198,0.550451,0.382290
43.629750,31.849452,-5.016243,0.489333,0.362914,-0.792999
49.605021,13.260366,-3.334199,-0.371596,-0.093080,0.923717
42.782865,8.915922,-2.219331,-0.896350,-0.224525,-0.382290
30.221170,36.158987,5.945049,-0.257259,-0.283842,0.923716
34.545655,27.857757,3.596340,-0.637512,-0.472811,0.608299
29.231309,33.040215,-3.294040,-0.620549,-0.684670,-0.382291
37.649306,36.751341,-5.933165,0.283842,0.257259,-0.923716
39.300680,20.451753,-3.504311,-0.717503,-0.339354,-0.608299
32.181310,34.753516,-6.059080,-0.257259,-0.283842,-0.923716
33.705093,44.841600,-1.913200,0.550451,0.742198,-0.382290
44.166837,9.317371,-4.594474,-0.769921,-0.192855,-0.608300
46.912037,23.381162,6.004608,0.346298,0.163787,0.923716
43.911387,4.263186,-3.187557,-0.922929,-0.045341,-0.382290
55.709260,8.143362,0.789590,0.980734,0.145478,0.130371
27.685513,49.030887,0.886773,0.509715,0.850408,0.130372
34.090702,26.948948,1.556778,-0.796352,-0.590615,0.130372
51.706125,7.344195,2.769464,-0.602630,-0.089392,-0.792999
47.591784,0.000000,-3.268882,0.000000,-1.000000,0.000000
49.406419,8.995258,3.646127,-0.129267,-0.019175,-0.991424
45.177543,3.299164,-4.759476,-0.608490,-0.029893,-0.792999
34.656758,44.412849,0.663574,0.590615,0.796352,0.130372
46.492233,25.175975,-5.832070,0.328576,0.196941,-0.923716
55.478658,9.549613,0.955126,0.980734,0.145478,0.130372
19.202297,38.867563,0.876317,-0.423905,-0.896274,0.130373
23.779132,37.629051,3.802831,-0.408047,-0.680786,0.608300
33.190101,39.992772,6.204880,0.257258,0.283841,0.923717
36.635524,42.856279,0.362562,0.665828,0.734627,0.130372
38.324189,30.841469,6.507674,-0.104964,-0.077847,0.991424
40.760230,16.674331,-3.011801,-0.870026,-0.311300,-0.382291
44.881481,28.836370,1.106341,-0.792579,-0.475053,-0.382287
26.594907,38.147336,-5.679679,-0.362914,-0.489333,-0.792999
42.396007,10.394719,2.180787,-0.896350,-0.224524,0.382291
47.455208,2.894313,2.868180,0.608490,0.029893,-0.792999
45.593883,12.694529,-2.692978,0.590966,0.148029,0.792999
28.329680,43.915244,2.763604,-0.313203,-0.522548,-0.792999
43.570914,28.067562,6.254715,0.328576,0.196941,0.923716
52.805510,2.332342,-2.053762,-0.792751,-0.038945,0.608300
43.633501,11.453807,-4.596768,-0.769921,-0.192855,-0.608300
47.532074,3.299627,2.942441,0.608490,0.029893,-0.792999
51.202282,17.336426,4.990713,0.573611,0.205241,0.792999
42.031479,29.723817,3.281933,-0.307691,-0.228199,-0.923716
36.335277,29.843625,5.894072,-0.283842,-0.257259,0.923716
51.940374,10.966005,5.737701,0.371597,0.093080,0.923716
23.681839,45.596296,-6.393960,0.055873,0.118134,-0.991424
43.816556,14.757203,0.759512,0.933508,0.334015,-0.130371
41.977126,34.808320,-4.659303,0.588099,0.533021,-0.608299
28.843417,34.335256,-4.207800,-0.533022,-0.588098,-0.608299
44.724516,13.633945,5.785758,-0.360684,-0.129055,0.923716
49.056370,0.000000,4.170717,0.000000,-1.000000,0.000000
43.260882,35.994898,-1.354452,0.734627,0.665828,-0.130372
43.436529,13.967427,-5.003690,-0.573611,-0.205241,-0.792999
26.524767,46.259900,-1.121064,-0.475053,-0.792579,0.382287
46.349696,6.091946,5.801792,-0.378931,-0.056209,0.923716
28.795396,44.933420,1.049573,-0.475053,-0.792578,-0.382289
25.230559,50.319345,0.984025,0.423905,0.896274,0.130372
55.680854,6.032387,-2.231980,0.914041,0.135585,-0.382290
50.689195,15.761738,1.794995,-0.870027,-0.311300,-0.382289
34.464689,31.179362,-5.674021,-0.451404,-0.409129,-0.792999
47.557268,28.758447,3.168135,0.792578,0.475053,0.382290
46.253599,0.889164,0.871638,0.990271,0.048649,-0.130370
47.044088,25.420708,0.675715,-0.850408,-0.509715,-0.130373
20.828323,42.027870,-2.208615,0.339355,0.717505,0.608296
43.124162,34.561256,-3.684709,0.637512,0.472811,-0.608299
42.633131,20.508392,-2.690175,0.550731,0.260477,0.792999
22.176793,41.082451,-1.870336,0.408047,0.680786,0.608299
54.415963,13.294732,-2.105775,0.896350,0.224524,-0.382290
28.821205,44.937142,-1.009787,-0.475053,-0.792579,0.382287
53.447176,7.491943,-5.053467,0.602629,0.089392,-0.792999
44.263575,14.161157,5.652069,-0.573611,-0.205241,0.792999
24.373653,45.600083,6.320473,0.163787,0.346297,0.923716
43.872562,20.506339,-6.411900,-0.118134,-0.055873,-0.991424
40.739309,36.248939,-4.593674,0.588099,0.533021,-0.608299
19.370546,39.743283,0.237633,-0.898915,0.438123,-0.000002
22.121054,42.820635,6.377556,-0.055873,-0.118134,0.991424
54.626668,11.963260,-2.393728,0.896350,0.224524,-0.382290
48.949310,23.695136,-4.736454,0.550731,0.260476,-0.792999
43.703619,28.546766,2.817315,-0.522548,-0.313203,-0.792999
46.066812,3.644453,-0.480991,0.990271,0.048649,0.130370
40.337720,15.604237,0.045460,-0.933509,-0.334014,0.130370
32.919695,42.113473,0.552669,-0.590615,-0.796353,-0.130371
35.186484,25.493234,-1.655428,-0.796352,-0.590616,-0.130370
31.328113,39.202006,-6.551392,0.077847,0.104964,-0.991424
52.530248,4.924926,-2.246506,-0.792751,-0.038945,0.608300
45.796150,0.000000,-4.397076,-0.000000,-1.000000,0.000000
40.672390,18.295609,-3.919421,-0.717503,-0.339354,-0.608299
53.076579,19.043484,0.117895,0.933508,0.334015,0.130372
35.275430,35.062181,-3.677705,0.096828,0.087760,0.991425
40.058454,38.757551,-2.845910,0.684671,0.620550,-0.382288
41.071079,38.471812,-1.043733,0.734627,0.665827,-0.130373
22.403285,42.430669,3.171982,0.260476,0.550730,-0.793000
36.920874,37.753818,-5.853834,0.257259,0.283842,-0.923716
49.413158,7.936176,6.565452,0.129267,0.019175,0.991424
55.530487,9.638629,0.465904,0.980734,0.145478,0.130372
25.149988,37.647429,4.710266,-0.313203,-0.522548,0.792999
43.977281,29.020303,-2.336065,-0.680785,-0.408047,0.608301
40.999421,32.378456,6.081682,0.307690,0.228199,0.923717
38.124007,27.124369,2.053938,0.637512,0.472811,-0.608299
50.937497,20.527233,4.141977,0.747311,0.267392,0.608299
36.888815,42.187406,2.066427,0.620550,0.684671,0.382288
43.760925,0.824812,2.416511,-0.922929,-0.045341,0.382291
42.383038,9.317928,1.112377,-0.961752,-0.240907,0.130372
45.710584,10.717257,-5.885926,-0.371597,-0.093080,-0.923716
31.315027,33.766640,5.346658,-0.409129,-0.451404,0.792999
56.436837,0.608543,0.047774,0.990271,0.048649,0.130372
30.808038,34.623478,5.572834,-0.409129,-0.451404,0.792999
39.642308,28.567028,-6.468637,-0.104964,-0.077847,-0.991424
48.140621,3.907930,-3.325550,0.382615,0.018797,0.923717
52.799743,5.760666,-1.704476,-0.914041,-0.135585,0.382290
23.024455,43.816905,-6.547180,-0.055873,-0.118134,-0.991424
45.855518,6.148608,0.977528,0.914040,0.135585,-0.382292
22.153135,43.531487,3.553351,0.163786,0.346298,-0.923716
50.967601,6.284356,3.335181,-0.378930,-0.056209,-0.923717
52.800159,7.905985,-0.912927,-0.980734,-0.145479,0.130370
42.071989,21.368482,2.561993,0.717503,0.339354,-0.608300
46.071648,26.615062,5.643593,0.522548,0.313203,0.792999
22.864868,43.893958,3.647648,0.055873,0.118134,-0.991424
51.261386,20.538420,-3.739154,0.747311,0.267392,-0.608299
46.751001,5.752461,2.457898,0.785117,0.116461,-0.608300
49.410035,1.312353,3.642277,0.130523,0.006412,-0.991424
46.188559,8.582680,5.887254,-0.378931,-0.056209,0.923716
34.975747,28.762156,4.717832,-0.451405,-0.409129,0.792999
29.667278,42.361182,6.297859,0.228199,0.307690,0.923716
39.549185,29.237863,-3.611732,0.104964,0.077847,0.991424
47.662834,19.508733,3.289193,-0.360684,-0.129055,-0.923716
51.909926,12.820482,-0.299616,-0.961752,-0.240907,0.130371
26.966625,39.030128,-6.080225,-0.228199,-0.307690,-0.923716
39.918815,23.051634,5.378234,-0.522548,-0.313203,0.792999
54.142600,10.791288,-3.793900,0.769921,0.192855,-0.608300
23.342185,45.046705,3.578869,-0.055873,-0.118134,-0.991424
45.415689,24.974868,3.099902,-0.522549,-0.313204,-0.792998
45.139980,7.055433,5.068042,-0.602630,-0.089391,0.792999
22.747768,45.127857,3.602698,-0.055873,-0.118134,-0.991424
44.281475,31.079483,-4.966460,0.489333,0.362914,-0.792999
45.266530,6.220007,-5.070038,-0.602629,-0.089391,-0.792999
47.532330,29.519440,2.274190,0.792578,0.475053,0.382290
42.546423,8.986549,1.705331,-0.961752,-0.240907,0.130372
31.184276,35.780490,2.801812,0.409129,0.451404,-0.792999
42.347614,25.123698,-3.619079,0.112089,0.067184,0.991424
29.780634,31.931677,-2.200369,-0.620549,-0.684671,-0.382289
52.694393,8.894513,-5.467429,0.602629,0.089392,-0.792999
43.782715,16.160351,1.908005,0.747310,0.267392,-0.608300
31.271885,34.039604,-5.479781,-0.409129,-0.451405,-0.792999
21.611139,44.340394,5.401521,-0.898915,0.438123,0.000000
46.537781,18.053873,6.584337,0.123042,0.044025,0.991424
28.548981,44.222549,2.377732,-0.408047,-0.680785,-0.608301
48.987396,17.303468,-2.977619,-0.573611,-0.205241,0.792999
20.277174,41.603447,-5.388626,-0.898915,0.438123,-0.000001
23.960388,48.913296,-4.674337,0.260476,0.550731,-0.792999
46.524976,19.135380,6.537901,0.123042,0.044025,0.991424
53.030296,5.266211,-1.328597,-0.914041,-0.135585,0.382290
27.962848,47.976935,-3.286717,0.475053,0.792578,-0.382290
42.933422,10.514751,-3.412965,-0.769921,-0.192855,-0.608300
32.770685,30.207949,3.890857,-0.588098,-0.533022,0.608299
40.960455,22.588686,2.010100,0.680786,0.408047,-0.608300
25.773097,38.336139,0.136829,0.590615,0.796352,-0.130373
35.035173,29.576036,-5.171563,-0.451405,-0.409130,-0.792999
52.492812,20.076221,1.651990,0.933508,0.334015,0.130371
39.243925,20.763884,-3.611497,-0.717503,-0.339354,-0.608299
54.418743,0.470573,4.739793,0.608490,0.029893,0.792999
32.494075,45.382750,2.606303,0.550451,0.742198,0.382290
53.775692,0.000000,1.566646,-0.000000,-1.000000,0.000000
52.021861,9.119980,2.131221,-0.785117,-0.116461,-0.608299
46.619823,14.481941,-3.532512,0.360683,0.129054,0.923717
20.638178,42.344134,-4.223369,-0.898914,0.438124,-0.000001
50.679621,23.205746,-2.782498,0.835324,0.395079,-0.382291
51.848656,7.955506,-2.577716,-0.785117,-0.116461,0.608300
42.656021,35.595589,-3.313110,0.588099,0.533021,-0.608299
25.915404,49.955755,-1.256841,0.423906,0.896274,-0.130372
51.125036,9.827127,6.166799,0.378931,0.056209,0.923716
45.242698,4.045950,-4.837622,-0.608489,-0.029893,-0.792999
44.020956,33.574600,-3.511743,0.637512,0.472811,-0.608299
26.893381,49.537023,0.682280,0.509715,0.850408,0.130372
51.045919,22.119281,3.104926,0.835324,0.395079,0.382290
55.068173,11.432887,1.590819,0.961752,0.240906,0.130372
38.580503,40.968618,1.065985,0.665827,0.734627,0.130373
36.583224,28.286413,0.815379,0.796352,0.590615,-0.130373
23.524432,45.522838,6.411584,0.055873,0.118134,0.991424
44.080012,0.000000,-1.924533,-0.000000,-1.000000,0.000000
28.386987,47.028658,-4.068467,0.408047,0.680786,-0.608299
51.018299,8.006729,-3.209576,-0.378930,-0.056209,0.923717
45.809913,5.215946,5.369792,-0.602629,-0.089392,0.792999
24.754147,49.489019,-3.560051,0.339354,0.717503,-0.608299
48.709488,28.286577,0.633257,0.850408,0.509715,0.130372
38.953143,36.589568,0.565371,-0.734627,-0.665827,-0.130374
25.513432,49.577905,-2.804921,0.395078,0.835325,-0.382290
36.208299,23.843823,-0.641831,-0.850408,-0.509715,-0.130372
36.052823,24.088410,0.583930,-0.850408,-0.509715,0.130372
43.619032,30.479262,-1.419061,-0.742198,-0.550452,0.382289
51.848725,5.484815,-6.134159,0.378931,0.056209,-0.923716
51.532158,3.782635,3.203456,-0.382615,-0.018797,-0.923717
44.421360,31.963601,4.344287,0.637512,0.472811,0.608299
37.990643,31.768485,6.551053,-0.096828,-0.087760,0.991424
24.985993,38.885181,5.461114,-0.313203,-0.522548,0.792999
29.518530,31.668461,0.437606,-0.665827,-0.734627,0.130370
45.644458,8.282151,-5.589697,-0.602629,-0.089392,-0.792999
23.096065,44.574810,-3.648968,-0.055873,-0.118134,0.991424
43.066559,5.221818,-1.033931,-0.980734,-0.145478,-0.130372
46.671600,12.071920,-6.382668,-0.126765,-0.031753,-0.991424
54.138540,0.310608,-4.960830,0.608490,0.029893,-0.792999
46.149412,25.457229,2.295206,-0.680784,-0.408046,-0.608302
47.595180,5.220199,-6.259674,-0.378931,-0.056209,-0.923716
41.133912,32.719179,-2.479759,-0.637511,-0.472811,0.608301
33.266062,41.805231,0.866386,-0.590615,-0.796353,-0.130370
35.511993,37.206785,3.302523,-0.257259,-0.283841,-0.923717
52.707841,0.723515,5.890505,0.382616,0.018797,0.923716
53.396738,0.000000,-3.567640,0.000000,-1.000000,0.000000
24.649597,43.235660,-3.687353,0.067184,0.112089,0.991424
23.903335,46.228830,-2.933670,-0.260477,-0.550732,0.792998
42.694253,6.835202,0.033556,-0.980734,-0.145478,0.130372
40.258057,16.836101,2.035884,-0.835324,-0.395079,0.382291
24.632679,45.383580,3.230481,-0.196941,-0.328576,-0.923716
50.177807,18.467681,-0.323811,-0.933508,-0.334014,0.130373
51.558841,19.459266,3.848091,0.747311,0.267392,0.608299
38.410220,28.986480,-6.371129,-0.104964,-0.077847,-0.991424
46.957592,30.978286,1.536979,0.850408,0.509715,0.130372
48.963295,26.963264,2.483894,0.792577,0.475053,0.382290
23.397253,48.005032,5.079542,-0.898915,0.438124,0.000000
45.316598,1.083594,4.782657,-0.608489,-0.029893,0.792999
41.185950,19.997899,-5.141186,-0.550731,-0.260476,-0.792999
33.362769,41.867919,-0.045357,-0.590615,-0.796353,0.130370
54.404389,13.962819,1.740537,0.896350,0.224524,0.382290
34.969502,44.127027,0.992661,0.590615,0.796352,0.130372
28.507147,45.150819,5.503076,0.313203,0.522548,0.792999
29.047602,42.677782,6.345487,0.228199,0.307690,0.923716
48.702933,24.808600,4.456880,0.717503,0.339354,0.608299
38.819639,27.498241,6.141444,-0.307690,-0.228199,0.923716
38.922885,33.147270,-6.426063,0.096828,0.087760,-0.991424
45.069355,2.590243,-4.640163,-0.792752,-0.038945,-0.608299
47.742529,21.752434,5.982054,0.346298,0.163787,0.923716
52.883196,6.483654,-1.248522,-0.914041,-0.135585,0.382290
53.063443,4.466614,1.353601,-0.922929,-0.045340,-0.382290
43.431931,14.032041,5.017087,-0.573611,-0.205241,0.792999
24.447282,46.331541,-2.683667,-0.260477,-0.550731,0.792999
26.354934,34.746842,-2.077766,-0.550451,-0.742197,-0.382291
32.489505,44.227802,4.138372,0.472811,0.637512,0.608299
36.327352,35.691211,-3.522844,-0.283841,-0.257259,0.923717
44.480720,28.874939,-1.870146,-0.680785,-0.408047,0.608301
27.251417,36.215298,-4.787934,-0.362914,-0.489333,-0.792999
47.503566,26.068457,4.915914,0.522548,0.313203,0.792999
55.281840,9.507846,1.953382,0.914041,0.135585,0.382290
46.016504,11.724570,-2.826865,0.590966,0.148029,0.792999
33.877409,29.665469,4.485480,-0.588098,-0.533022,0.608299
53.744989,8.817017,4.677778,0.602629,0.089392,0.792999
50.280674,24.770536,-2.037083,0.835324,0.395079,-0.382290
48.105797,25.074264,4.869265,0.550731,0.260477,0.792999
28.298627,45.756057,-5.186610,0.313203,0.522548,-0.792999
34.931587,26.244537,-2.277482,-0.742198,-0.550452,-0.382290
51.796234,5.445415,-2.915029,-0.602630,-0.089392,0.792999
35.444311,33.389287,-3.495994,0.283841,0.257259,0.923717
31.997632,42.611215,-1.189423,-0.550452,-0.742198,0.382289
51.824197,4.216360,-6.185446,0.382616,0.018797,-0.923716
42.880059,29.320697,3.012381,-0.489332,-0.362914,-0.792999
35.628685,42.179384,3.744918,0.533021,0.588099,0.608299
49.188553,20.114338,-1.665860,-0.870027,-0.311301,0.382289
42.485526,18.312360,-0.829724,0.896274,0.423906,0.130369
30.035028,38.433425,6.455918,-0.077847,-0.104964,0.991424
46.889267,13.922800,-3.570058,0.126764,0.031753,0.991425
37.649400,29.431347,3.046762,0.489332,0.362914,-0.792999
51.809697,12.918888,-0.857157,-0.961752,-0.240906,0.130375
54.774007,13.008068,-0.850207,0.961752,0.240906,-0.130372
21.488339,38.389192,2.962873,-0.475053,-0.792578,0.382290
23.701312,36.921751,2.670471,-0.475053,-0.792578,0.382290
38.667606,35.176655,-2.731125,-0.451403,-0.409128,0.793000
52.664362,14.246728,4.569384,0.769921,0.192855,0.608300
45.502725,0.000000,-2.411880,0.000000,-1.000000,0.000000
49.844041,2.712768,-3.682301,-0.130523,-0.006412,0.991424
51.243741,6.559650,-3.205150,-0.378930,-0.056209,0.923717
25.413399,39.447814,-5.867612,-0.196941,-0.328576,-0.923716
55.142175,9.136959,-2.418857,0.914041,0.135585,-0.382290
50.165649,1.649253,-6.546559,0.130524,0.006412,-0.991424
52.677802,0.414621,-5.909233,0.382616,0.018797,-0.923716
43.943268,30.387343,5.491912,0.489333,0.362914,0.792999
52.529290,1.599480,2.460661,-0.792751,-0.038945,-0.608300
44.987168,31.366143,4.215691,0.637513,0.472811,0.608299
29.122607,38.627816,3.367055,0.228199,0.307691,-0.923716
43.786184,8.953001,3.997163,-0.769921,-0.192855,0.608300
30.744718,31.798199,3.421009,-0.533022,-0.588098,0.608299
51.872253,22.198126,-0.168164,0.896274,0.423905,-0.130372
33.057821,31.842087,5.215096,-0.451404,-0.409129,0.792999
47.705660,3.133400,3.069372,0.608490,0.029893,-0.792999
47.262873,16.203142,-3.676812,-0.123042,-0.044025,0.991424
35.049197,27.651806,3.963985,-0.637512,-0.472811,0.608299
38.841964,35.570855,5.895452,0.283841,0.257259,0.923717
25.493188,40.675013,6.321152,-0.196941,-0.328576,0.923716
45.436459,8.773324,0.799227,0.980734,0.145479,-0.130371
24.564986,41.523962,-3.313453,0.196941,0.328576,0.923716
41.489817,16.357759,-3.900459,-0.747311,-0.267392,-0.608299
34.512385,41.839962,-4.891765,0.409129,0.451405,-0.792999
45.626733,25.549750,-2.733777,-0.522549,-0.313204,0.792998
40.311661,23.954335,-2.200072,0.680786,0.408047,0.608300
38.689533,28.174917,-3.113591,0.489332,0.362913,0.792999
55.740035,4.177980,-2.438475,0.922929,0.045341,-0.382290
47.299650,22.537501,-6.008885,0.346298,0.163787,-0.923716
28.225937,33.211030,1.968005,-0.620548,-0.684670,0.382291
51.687221,12.539512,-1.434861,-0.896350,-0.224524,0.382289
44.728839,20.226913,3.598463,0.118134,0.055873,-0.991424
50.219093,21.891566,-4.295867,0.717503,0.339354,-0.608299
53.110480,6.315597,-0.353172,-0.980734,-0.145479,0.130370
33.284614,36.854454,-6.574293,-0.087760,-0.096828,-0.991424
31.455551,46.440529,2.048022,0.550451,0.742198,0.382290
38.159200,28.632039,6.201550,-0.307690,-0.228199,0.923716
48.745841,21.045712,-5.731227,0.346298,0.163787,-0.923716
52.040341,0.360523,6.174378,0.382616,0.018797,0.923716
47.403457,0.000000,5.700136,-0.000000,-1.000000,0.000000
40.049234,31.009025,3.587029,-0.104964,-0.077846,-0.991425
21.816665,39.518615,4.601136,-0.408047,-0.680786,0.608300
47.468026,8.635127,-3.303532,0.378931,0.056209,0.923716
47.152116,25.176260,-0.908952,-0.896274,-0.423906,0.130373
45.119340,0.000000,1.093992,0.000000,-1.000000,0.000000
21.695039,44.512535,5.982768,-0.898915,0.438123,0.000000
55.059893,0.000000,1.983775,0.000000,-1.000000,0.000000
40.516528,20.747288,4.922429,-0.550731,-0.260476,0.792999
52.221652,19.207209,3.014226,0.870026,0.311301,0.382291
45.477759,27.932675,0.993090,-0.792579,-0.475053,-0.382287
23.961785,36.871053,-2.889039,-0.475053,-0.792578,-0.382290
39.996836,29.772495,6.589389,0.104964,0.077847,0.991424
39.507309,29.889362,6.558174,-0.104964,-0.077847,0.991424
22.833556,45.321086,6.474559,0.055873,0.118134,0.991424
29.538066,33.350089,-3.864035,-0.533022,-0.588098,-0.608299
41.790508,18.222243,4.977796,-0.550732,-0.260476,0.792999
43.762996,21.931786,-3.579458,0.118134,0.055873,0.991424
19.977385,40.988359,-3.016581,-0.898915,0.438124,-0.000000
50.863538,10.662509,-2.995409,-0.590966,-0.148029,0.792999
29.053438,44.033222,-2.251231,-0.408046,-0.680785,0.608301
22.489965,44.441521,-3.691765,0.055873,0.118134,0.991425
45.915025,27.166298,1.038872,-0.792579,-0.475053,-0.382287
45.992181,14.882266,6.397326,-0.123042,-0.044025,0.991424
32.639993,38.739320,3.589175,-0.087760,-0.096828,-0.991425
37.626259,41.805980,1.221028,0.665828,0.734627,0.130372
37.592596,29.147159,-6.140072,-0.307691,-0.228199,-0.923716
34.460653,26.299509,0.874444,-0.796353,-0.590615,0.130370
39.960405,27.143996,-6.390578,-0.104964,-0.077847,-0.991424
27.198089,33.904474,-1.547905,-0.590615,-0.796352,-0.130372
45.188087,0.192272,-4.641372,-0.792752,-0.038945,-0.608299
33.314615,45.450299,0.406725,0.590615,0.796352,0.130372
45.402278,19.427352,3.633647,0.118134,0.055873,-0.991424
33.685149,27.981144,2.419780,-0.684670,-0.620549,0.382291
51.679036,20.806180,2.947078,0.870026,0.311301,0.382291
46.516747,24.743163,5.911301,0.346298,0.163787,0.923716
42.119637,11.229577,-2.023112,-0.896350,-0.224525,-0.382290
35.999163,38.881614,1.885978,-0.533023,-0.588100,-0.608297
50.708554,4.512053,-6.456568,0.130523,0.006412,-0.991425
43.404004,15.905923,0.748533,0.933508,0.334015,-0.130371
25.958277,45.432002,2.700743,-0.313203,-0.522548,-0.792999
49.890321,14.461704,6.210155,0.371597,0.093080,0.923716
53.966003,12.299848,-3.539143,0.769921,0.192855,-0.608300
37.265326,41.714677,2.301902,0.620550,0.684671,0.382288
39.008028,28.763101,-6.416880,-0.104964,-0.077847,-0.991424
42.213763,37.337500,-0.397964,0.734627,0.665827,-0.130373
40.495946,32.836183,-2.874684,-0.489333,-0.362914,0.792998
42.732466,12.116198,-3.666340,-0.769921,-0.192855,-0.608300
29.306919,31.938126,0.876402,-0.665827,-0.734628,0.130372
41.649399,14.273228,-3.080171,-0.870026,-0.311300,-0.382291
29.521678,31.710860,0.692599,-0.665827,-0.734628,0.130372
33.233619,39.731769,-6.272961,0.257259,0.283841,-0.923717
34.898446,35.100541,-6.545851,-0.087760,-0.096828,-0.991424
55.293268,9.789951,1.826003,0.914041,0.135585,0.382290
47.138978,29.629457,2.952987,0.792578,0.475053,0.382290
39.014236,18.648391,-0.083615,-0.896274,-0.423907,-0.130370
29.085955,44.050638,5.866946,0.196941,0.328576,0.923716
41.612955,20.918734,-5.727008,-0.346298,-0.163787,-0.923716
50.386407,16.555776,1.837498,-0.870027,-0.311300,-0.382289
42.738713,34.463531,4.164628,0.637512,0.472811,0.608299
39.760609,35.712959,-0.492376,-0.734627,-0.665828,0.130371
34.409383,31.538785,-1.918719,0.588099,0.533022,0.608299
48.068265,20.317978,-2.833881,-0.550731,-0.260477,0.792999
47.601095,2.208190,2.954259,0.608490,0.029893,-0.792999
37.514205,21.745787,0.957491,-0.850408,-0.509715,0.130372
33.803323,33.324788,-2.780682,0.451405,0.409130,0.792998
36.122803,28.197295,5.163737,-0.489333,-0.362914,0.792999
48.224691,2.311767,-6.392407,-0.130524,-0.006412,-0.991424
36.835797,42.671045,0.383507,0.665827,0.734627,0.130373
49.791267,9.661117,-3.583071,-0.129267,-0.019175,0.991424
51.637499,1.363126,-3.209057,-0.382615,-0.018797,0.923717
50.871524,1.967857,-3.514028,-0.382615,-0.018797,0.923717
38.190730,26.898893,-5.783889,-0.307690,-0.228199,-0.923716
31.907653,46.330394,1.404685,0.590615,0.796352,0.130372
30.725393,33.180473,4.708782,-0.409130,-0.451405,0.792999
50.673672,9.423547,6.372333,0.129266,0.019175,0.991425
52.161159,20.676660,-1.955320,0.870026,0.311301,-0.382291
26.255088,45.023575,-2.852649,-0.313204,-0.522549,0.792998
33.969873,31.313177,0.545742,0.734628,0.665828,-0.130369
53.949585,11.287175,3.880982,0.769921,0.192855,0.608300
22.626114,43.178109,6.448615,-0.055873,-0.118134,0.991424
46.793214,31.195872,-1.723332,0.792577,0.475053,-0.382290
30.937362,31.592198,3.390654,-0.533022,-0.588098,0.608299
51.537794,8.442061,2.773627,-0.602630,-0.089392,-0.792999
51.853781,9.816824,-2.214745,-0.785117,-0.116461,0.608299
40.007661,26.892472,3.275741,0.307690,0.228199,-0.923716
27.297865,42.573559,6.498537,0.067183,0.112089,0.991424
54.912463,5.359325,3.836691,0.792752,0.038945,0.608299
28.755883,40.897296,3.674160,-0.077846,-0.104964,-0.991425
46.129157,1.533047,0.166661,0.990271,0.048649,-0.130370
50.033486,1.860002,-6.562595,0.130524,0.006412,-0.991424
36.052995,38.897801,5.744017,0.257259,0.283842,0.923716
45.117491,12.235567,2.000336,0.769922,0.192855,-0.608299
33.178553,32.166252,-0.443529,0.734627,0.665828,0.130369
24.708063,45.810454,2.945147,-0.313204,-0.522549,-0.792998
46.811617,5.374550,2.463781,0.785117,0.116461,-0.608300
35.953326,39.500049,0.733008,-0.665828,-0.734627,-0.130371
36.971948,26.511932,-4.916413,-0.489333,-0.362914,-0.792999
42.108084,19.662495,1.486735,0.835325,0.395079,-0.382289
42.382571,36.090757,3.012334,0.684671,0.620549,0.382288
28.569086,45.105158,5.508701,0.313203,0.522548,0.792999
32.281415,37.075725,-3.607381,0.087760,0.096828,0.991424
47.618088,9.023173,-3.388704,0.378931,0.056209,0.923716
39.957849,38.793137,-2.968327,0.684671,0.620550,-0.382288
44.048548,15.541760,-5.788358,-0.360684,-0.129055,-0.923716
51.210692,22.677194,2.168315,0.835324,0.395079,0.382291
42.592575,8.675187,-1.470446,-0.961752,-0.240907,-0.130372
20.533385,38.673722,2.394998,-0.395079,-0.835325,0.382290
38.765711,31.773149,3.662919,-0.104964,-0.077846,-0.991425
50.571342,17.220803,-5.477025,0.573611,0.205241,-0.792999
26.695557,41.295482,-3.606644,0.067184,0.112089,0.991424
29.605763,39.351912,3.619734,0.077847,0.104964,-0.991424
21.718119,42.589416,6.234821,-0.163786,-0.346298,0.923716
46.041127,4.834324,-5.502481,-0.602629,-0.089391,-0.792999
42.228538,33.805537,4.985686,0.489333,0.362914,0.792999
42.099766,29.611982,6.379351,0.104964,0.077846,0.991424
50.948906,14.884856,5.741663,0.371597,0.093080,0.923716
55.413920,5.782817,-2.958723,0.914041,0.135585,-0.382290
30.372294,47.167724,1.970302,0.475053,0.792577,0.382290
55.408130,10.136368,-0.830937,0.980734,0.145478,-0.130372
38.318076,38.657871,-4.739673,0.409129,0.451404,-0.792999
54.404394,14.409814,-0.986636,0.961752,0.240906,-0.130372
46.376438,24.951323,2.380489,-0.680784,-0.408046,-0.608302
28.791992,37.796227,2.844765,0.362913,0.489332,-0.792999
52.355664,7.895777,1.934768,-0.785117,-0.116461,-0.608300
49.664424,8.507617,6.521638,0.129267,0.019175,0.991424
21.180897,43.199572,6.368310,-0.163786,-0.346298,0.923716
49.626806,2.239976,-3.676815,0.130524,0.006412,0.991424
29.531941,43.124798,2.764686,-0.362914,-0.489332,-0.792999
27.956505,36.893906,5.529362,-0.362914,-0.489333,0.792999
39.830459,37.248460,4.596513,0.588099,0.533021,0.608299
36.783497,28.402690,-1.467849,0.742198,0.550451,0.382290
31.534295,45.959421,-2.868689,0.550451,0.742198,-0.382290
33.278550,27.974551,-1.624928,-0.734628,-0.665827,-0.130372
52.502921,18.606519,-2.863253,0.870026,0.311301,-0.382290
26.684551,37.106370,-5.078359,-0.362914,-0.489333,-0.792999
43.553407,0.316887,-1.855278,-0.922929,-0.045340,-0.382291
40.412862,26.765827,3.387453,0.328576,0.196941,-0.923716
54.604728,12.997803,-1.837571,0.896350,0.224524,-0.382290
48.964310,21.502246,0.396698,-0.896274,-0.423906,-0.130373
45.941957,7.424518,1.636719,0.914041,0.135585,-0.382290
48.480354,28.310300,-1.811249,0.792577,0.475053,-0.382290
33.678631,34.542018,6.383325,-0.087760,-0.096828,0.991424
42.960873,36.286617,1.555109,0.734627,0.665828,0.130373
44.501610,0.377798,-3.758614,-0.792752,-0.038945,-0.608299
53.626343,14.495019,3.252241,0.896350,0.224524,0.382290
44.259157,4.139391,-3.683474,-0.792752,-0.038945,-0.608299
42.565737,19.779816,-2.258106,0.717503,0.339354,0.608300
46.018561,21.646641,-6.458341,0.118134,0.055873,-0.991424
29.785427,43.280605,-2.510284,-0.472811,-0.637511,0.608301
45.038040,22.204197,6.543754,0.118134,0.055873,0.991424
22.864636,46.912240,4.071659,-0.898916,0.438122,0.000001
24.816541,42.261224,3.588498,0.067184,0.112089,-0.991424
44.976356,5.052502,-4.717916,-0.602629,-0.089391,-0.792999
23.603109,37.483922,3.522331,-0.408047,-0.680786,0.608299
43.826948,0.000000,1.604826,0.000000,-1.000000,0.000000
27.591007,42.595570,3.576464,-0.067183,-0.112088,-0.991425
47.667688,24.091681,-0.891058,-0.896274,-0.423906,0.130373
20.247739,40.656631,4.855643,-0.260476,-0.550731,0.792999
23.613881,39.789736,-0.995331,0.475053,0.792578,0.382289
23.801858,39.568085,0.367924,0.509715,0.850408,-0.130370
39.820556,17.164967,0.803480,-0.896274,-0.423906,0.130370
56.193787,4.066217,0.603660,0.990271,0.048649,0.130371
30.492503,46.721364,-2.746336,0.475053,0.792578,-0.382290
45.248475,13.588131,-5.989316,-0.371597,-0.093080,-0.923716
26.003420,37.337223,-4.909093,-0.362914,-0.489333,-0.792999
55.594038,9.586522,0.045978,0.980734,0.145478,0.130371
50.613186,8.813157,3.326690,-0.378930,-0.056209,-0.923717
37.896333,41.717378,-0.340985,0.665827,0.734627,-0.130372
47.625695,10.750526,-3.547916,0.371596,0.093080,0.923717
48.580766,0.874771,6.429992,-0.130524,-0.006412,0.991424
51.885396,0.000000,4.993038,0.000000,-1.000000,0.000000
21.805059,44.738268,6.118420,-0.898915,0.438123,0.000000
46.002956,21.465627,-3.570682,-0.118134,-0.055873,0.991424
48.992004,4.898949,-3.611387,0.129267,0.019175,0.991424
32.474382,39.168332,-6.461655,0.087760,0.096828,-0.991424
31.440127,33.396180,5.200321,-0.409129,-0.451404,0.792999
52.702982,0.000000,-2.881180,0.000000,-1.000000,0.000000
45.887905,24.045927,3.123603,-0.550732,-0.260477,-0.792998
25.811666,44.182453,6.417350,0.067183,0.112089,0.991424
47.762282,13.005320,3.652298,0.126765,0.031753,-0.991424
30.641803,47.216117,-1.166189,0.509715,0.850408,-0.130372
27.670083,45.410461,-1.458927,-0.475053,-0.792578,0.382289
47.874184,29.558465,1.109185,0.850408,0.509715,0.130372
53.732223,12.461264,3.783863,0.769921,0.192855,0.608300
25.047733,41.296892,6.394859,-0.067184,-0.112089,0.991424
22.142661,40.903607,1.476440,0.475052,0.792578,-0.382290
27.952297,44.890485,-2.030461,-0.408046,-0.680784,0.608302
43.239596,18.406617,-2.286868,0.717503,0.339354,0.608300
25.076811,36.049396,-2.766270,-0.550451,-0.742198,-0.382290
47.029211,7.932622,2.978874,0.602630,0.089392,-0.792999
53.477422,0.848413,-0.411675,-0.990271,-0.048649,0.130370
36.080835,42.953033,-2.006757,0.620549,0.684670,-0.382290
49.403399,4.428718,-6.561279,-0.130524,-0.006412,-0.991424
43.992133,19.276497,6.327764,-0.346298,-0.163786,0.923716
21.904690,38.592461,3.623667,-0.408047,-0.680786,0.608299
21.858366,43.858278,3.586673,0.055873,0.118134,-0.991425
48.360346,14.928555,6.496928,0.123042,0.044025,0.991424
42.096643,20.205440,-5.781865,-0.346298,-0.163787,-0.923716
20.075843,41.190369,3.786466,-0.898915,0.438123,0.000000
40.769125,21.808726,0.409692,0.850409,0.509715,-0.130370
26.797964,38.123871,-1.759510,0.550452,0.742198,0.382289
51.431211,4.952153,6.333254,0.382616,0.018797,0.923716
51.015906,7.346017,6.362545,0.378931,0.056209,0.923716
25.365344,50.240386,-1.088608,0.423907,0.896274,-0.130371
44.715170,12.391222,1.278566,0.896350,0.224524,-0.382291
35.712886,29.306679,0.121126,0.796352,0.590615,-0.130372
