x,y,z,nx,ny,nz
-4.925940,-3.780580,-67.429091,-0.773010,-0.634393,0.000000
1.077363,-6.130096,-58.960139,0.098017,-0.995185,0.000000
6.087385,-7.629909,9.507976,0.866025,-0.500000,0.000000
0.718846,-4.606722,-90.276321,0.000000,0.000000,-1.000000
9.947389,-0.944186,8.619608,0.866025,-0.500000,0.000000
-1.853011,-5.923334,-70.134172,-0.290285,-0.956940,0.000000
-5.715181,-2.473156,-36.367952,-0.881921,-0.471397,0.000000
3.688245,-5.001717,-79.800401,0.634393,-0.773010,0.000000
6.009813,-1.567927,-54.870512,0.956940,-0.290285,0.000000
-10.314328,0.308629,4.076880,-0.866025,0.500000,0.000000
1.393609,-6.062692,-38.374364,0.290285,-0.956940,0.000000
-3.162334,5.346808,-59.185618,-0.471397,0.881921,0.000000
-5.050657,-3.628612,-76.323667,-0.773010,-0.634393,0.000000
-3.580291,4.902693,9.679987,0.000000,0.000000,1.000000
6.176941,-0.601734,-67.462184,0.995185,-0.098017,0.000000
-6.288522,-7.281530,4.376935,-0.866025,-0.500000,0.000000
1.837284,-3.677303,-33.318768,0.000000,-0.000000,1.000000
7.324859,5.486541,6.140585,0.866025,0.500000,0.000000
-7.161298,4.590177,0.000000,0.000000,0.000000,-1.000000
0.135813,-6.222831,-47.871398,0.098017,-0.995185,0.000000
6.004977,-2.650753,9.679987,0.000000,0.000000,1.000000
2.872843,-9.086784,1.344618,-0.000000,-1.000000,-0.000000
-2.696301,-5.595908,-59.468446,-0.471397,-0.881921,0.000000
4.876660,-3.840628,-45.844658,0.773010,-0.634393,0.000000
1.299015,6.091387,-69.207517,0.290285,0.956940,-0.000000
4.656729,4.108614,-44.770963,0.773010,0.634393,-0.000000
-3.638387,3.696607,0.000000,0.000000,0.000000,-1.000000
-7.114557,-5.850795,7.238961,-0.866025,-0.500000,0.000000
3.898850,4.828878,-56.830780,0.634393,0.773010,-0.000000
1.889041,4.332986,-33.318768,0.000000,0.000000,1.000000
-4.468541,-0.799205,9.679987,0.000000,0.000000,1.000000
0.192820,-6.217216,-40.889549,0.098017,-0.995185,0.000000
4.490436,-4.311243,-45.610539,0.773010,-0.634393,0.000000
-6.189907,0.470087,-79.852063,-0.995185,0.098017,0.000000
9.498449,1.721773,1.777599,0.866025,0.500000,0.000000
5.664695,8.362029,1.265966,0.866025,0.500000,0.000000
6.220833,-0.156093,-65.664117,0.995185,-0.098017,0.000000
-1.022213,6.135528,-66.206766,-0.098017,0.995185,0.000000
-6.159761,-0.776165,-52.779945,-0.995185,-0.098017,0.000000
2.245226,-5.804357,-58.325383,0.290285,-0.956940,0.000000
-5.653565,-2.588432,-61.573675,-0.881921,-0.471397,0.000000
-5.290054,-3.268513,-57.518126,-0.881921,-0.471397,0.000000
4.289263,4.508475,-77.521446,0.634393,0.773010,0.000000
-5.570771,2.562128,0.000000,0.000000,0.000000,-1.000000
-5.522515,2.833610,-82.709739,-0.881921,0.471397,0.000000
3.843228,4.874526,-79.910142,0.634393,0.773010,0.000000
2.113786,5.844228,-82.718425,0.290285,0.956940,0.000000
2.565056,-5.666060,-37.500197,0.471397,-0.881921,0.000000
-3.749907,-4.951113,-51.159873,-0.634393,-0.773010,0.000000
6.132616,1.051778,-68.542673,0.995185,0.098017,-0.000000
7.990855,4.333003,6.645946,0.866025,0.500000,0.000000
-6.027744,1.508817,-67.540074,-0.956940,0.290285,0.000000
4.654104,2.354646,-33.318768,0.000000,0.000000,1.000000
-1.241183,0.248751,9.679987,0.000000,0.000000,1.000000
-5.828818,-2.164589,-56.130361,-0.956940,-0.290285,0.000000
-2.224295,-1.587560,0.000000,0.000000,0.000000,-1.000000
-5.453126,-2.963427,-65.316557,-0.881921,-0.471397,0.000000
6.051473,-1.430593,-40.299634,0.956940,-0.290285,0.000000
-3.214258,8.726152,0.000000,0.000000,0.000000,-1.000000
5.224047,-3.392003,-55.383680,0.881921,-0.471397,0.000000
-9.349087,1.980477,7.750426,-0.866025,0.500000,0.000000
-2.163116,-3.660845,9.679987,0.000000,0.000000,1.000000
-9.865662,1.085742,6.422477,-0.866025,0.500000,0.000000
-2.403094,4.227400,-33.318768,0.000000,0.000000,1.000000
-4.423477,4.392833,-72.129777,-0.773010,0.634393,0.000000
6.137928,-0.997842,-42.820283,0.995185,-0.098017,0.000000
0.316562,-6.205028,-82.643629,0.098017,-0.995185,0.000000
1.616171,5.995178,-82.260548,0.290285,0.956940,0.000000
1.268527,6.100635,-40.066834,0.290285,0.956940,-0.000000
-5.717155,1.225498,9.679987,0.000000,0.000000,1.000000
-2.133819,-5.838152,-38.191360,-0.290285,-0.956940,0.000000
-5.856177,2.074396,-83.852481,-0.956940,0.290285,0.000000
-6.670306,-5.423883,9.679987,0.000000,0.000000,1.000000
8.429168,3.573822,9.627642,0.866025,0.500000,0.000000
3.629967,-5.049545,-48.393469,0.634393,-0.773010,0.000000
4.953506,4.845543,0.000000,0.000000,0.000000,-1.000000
6.142551,-0.950908,-34.192067,0.995185,-0.098017,0.000000
7.513158,5.160398,4.583311,0.866025,0.500000,0.000000
5.986553,-1.644604,-66.472295,0.956940,-0.290285,0.000000
-4.521028,1.620709,9.679987,0.000000,0.000000,1.000000
-4.781604,-3.956454,-34.495804,-0.773010,-0.634393,0.000000
-4.091517,-8.755037,9.679987,-0.000000,0.000000,1.000000
-6.033407,-1.490147,-43.467052,-0.956940,-0.290285,0.000000
-6.715805,-6.541454,3.732653,-0.866025,-0.500000,0.000000
-5.413241,-3.038048,-85.907413,-0.881921,-0.471397,0.000000
-0.689851,6.168262,-48.408842,-0.098017,0.995185,0.000000
-4.690882,-4.066999,-85.503555,-0.773010,-0.634393,0.000000
2.009486,9.086784,7.433116,-0.000000,1.000000,0.000000
1.939120,5.897213,-59.033910,0.290285,0.956940,0.000000
6.479623,-6.950534,8.130853,0.866025,-0.500000,0.000000
-5.107697,3.559108,-44.690917,-0.773010,0.634393,0.000000
6.134750,1.030105,-55.948274,0.995185,0.098017,-0.000000
9.446116,1.812418,6.367145,0.866025,0.500000,0.000000
-7.456047,-5.259317,0.144029,-0.866025,-0.500000,-0.000000
-5.914832,1.881036,-63.020155,-0.956940,0.290285,0.000000
5.798799,2.263548,-63.266612,0.956940,0.290285,-0.000000
-5.763389,2.380277,-86.232941,-0.956940,0.290285,0.000000
3.857384,-4.862909,-57.380256,0.634393,-0.773010,0.000000
-2.175286,0.678448,-33.318768,0.000000,0.000000,1.000000
-9.178551,-0.804454,9.679987,0.000000,0.000000,1.000000
-3.992877,4.751713,-53.193569,-0.634393,0.773010,0.000000
6.169817,-0.674069,-37.766728,0.995185,-0.098017,0.000000
6.056341,7.438303,9.679987,0.000000,0.000000,1.000000
6.216229,0.202838,-35.894345,0.995185,0.098017,-0.000000
5.579613,-2.726786,-63.971899,0.881921,-0.471397,0.000000
-1.193679,6.118640,-61.563528,-0.098017,0.995185,0.000000
-5.097801,-3.571167,-65.602155,-0.773010,-0.634393,0.000000
5.911471,1.892117,-49.955079,0.956940,0.290285,-0.000000
2.968744,5.450284,-33.653929,0.471397,0.881921,-0.000000
-5.304338,3.241791,-77.881037,-0.881921,0.471397,0.000000
-6.187380,-0.495752,-33.596374,-0.995185,-0.098017,0.000000
-4.372834,6.336559,0.000000,0.000000,0.000000,-1.000000
9.477892,0.016806,9.679987,0.000000,0.000000,1.000000
4.620682,-9.086784,2.417178,-0.000000,-1.000000,-0.000000
6.131527,-1.062826,-55.565758,0.995185,-0.098017,0.000000
-6.274681,7.305503,3.520127,-0.866025,0.500000,0.000000
4.768708,3.972168,-52.359931,0.773010,0.634393,-0.000000
-2.064829,-5.859080,-60.727592,-0.290285,-0.956940,0.000000
4.937016,3.767084,-52.508803,0.773010,0.634393,0.000000
-6.203274,-0.334378,-34.282775,-0.995185,-0.098017,0.000000
-4.533198,-4.259137,-35.895679,-0.773010,-0.634393,0.000000
-6.182911,-0.541127,-71.476791,-0.995185,-0.098017,0.000000
5.898229,1.935769,-68.170145,0.956940,0.290285,-0.000000
3.110269,0.303361,0.000000,0.000000,0.000000,-1.000000
-0.101157,-6.226244,-50.538818,-0.098017,-0.995185,0.000000
2.495416,-0.442673,9.679987,-0.000000,0.000000,1.000000
-4.001068,-4.744990,-82.276914,-0.634393,-0.773010,0.000000
6.208173,-0.284635,-70.035494,0.995185,-0.098017,0.000000
2.995950,-1.376656,-90.276321,0.000000,0.000000,-1.000000
4.042220,4.711218,-88.118155,0.634393,0.773010,0.000000
-6.976432,-6.090035,0.573525,-0.866025,-0.500000,-0.000000
-4.116071,-9.086784,6.573977,-0.000000,-1.000000,-0.000000
-0.747222,6.162612,-60.773040,-0.098017,0.995185,0.000000
-2.528807,3.525244,-33.318768,0.000000,0.000000,1.000000
-7.760387,4.732185,8.483813,-0.866025,0.500000,0.000000
6.111531,5.194451,0.000000,0.000000,0.000000,-1.000000
-5.131217,3.530450,-56.724140,-0.773010,0.634393,0.000000
-4.689615,-2.255272,9.679987,0.000000,0.000000,1.000000
-2.358189,-7.294875,0.000000,0.000000,0.000000,-1.000000
6.082230,-1.329199,-66.885353,0.956940,-0.290285,0.000000
6.063996,-1.389310,-67.354399,0.956940,-0.290285,0.000000
-1.937745,5.532602,0.000000,0.000000,0.000000,-1.000000
-6.203992,0.327088,-47.024503,-0.995185,0.098017,0.000000
3.525137,-1.020856,9.679987,-0.000000,0.000000,1.000000
-1.140097,6.123917,-50.670635,-0.098017,0.995185,0.000000
-7.398467,1.577025,9.679987,0.000000,0.000000,1.000000
6.127444,1.104285,-61.941318,0.995185,0.098017,-0.000000
7.116558,-5.847330,5.497508,0.866025,-0.500000,0.000000
4.133548,-4.636267,-34.809049,0.634393,-0.773010,0.000000
-2.304721,4.698694,-33.318768,0.000000,0.000000,1.000000
6.177172,0.599396,-42.676994,0.995185,0.098017,-0.000000
-3.160905,5.347572,-75.705108,-0.471397,0.881921,0.000000
4.034414,-4.717624,-42.793063,0.634393,-0.773010,0.000000
-5.874806,7.998107,9.621004,-0.866025,0.500000,0.000000
3.556417,-5.109906,-89.330207,0.634393,-0.773010,0.000000
-1.483343,-6.035471,-53.169101,-0.290285,-0.956940,0.000000
-3.344985,5.249179,-63.130432,-0.471397,0.881921,0.000000
-1.623019,-5.993101,-72.853280,-0.290285,-0.956940,0.000000
5.141068,3.518446,-76.574657,0.773010,0.634393,0.000000
-3.555069,3.774491,-33.318768,0.000000,0.000000,1.000000
-0.338394,-3.275950,-33.318768,-0.000000,0.000000,1.000000
-7.267659,-3.334609,9.679987,0.000000,0.000000,1.000000
-0.806937,-6.156730,-41.073042,-0.098017,-0.995185,0.000000
9.421579,1.854916,4.931454,0.866025,0.500000,0.000000
4.725043,-4.025374,-43.971622,0.773010,-0.634393,0.000000
-4.876337,-3.841021,-39.730495,-0.773010,-0.634393,0.000000
-2.214474,-5.813685,-48.004843,-0.290285,-0.956940,0.000000
-6.029895,-1.501727,-49.114350,-0.956940,-0.290285,0.000000
-3.418197,-5.210046,-75.850962,-0.471397,-0.881921,0.000000
-6.453272,-6.996175,4.343011,-0.866025,-0.500000,0.000000
-2.782907,2.102883,-90.276321,-0.000000,-0.000000,-1.000000
-6.298159,-1.538705,9.679987,0.000000,0.000000,1.000000
-4.257191,-4.534795,-88.006400,-0.634393,-0.773010,0.000000
5.682559,2.534187,-49.686799,0.881921,0.471397,0.000000
7.844837,-4.585914,7.698167,0.866025,-0.500000,0.000000
1.165247,2.102114,-90.276321,-0.000000,0.000000,-1.000000
-1.085450,9.086784,7.361197,-0.000000,1.000000,0.000000
-6.112752,1.228582,-51.220739,-0.956940,0.290285,0.000000
6.050070,-1.435217,-46.651906,0.956940,-0.290285,0.000000
2.231671,-7.389320,0.000000,0.000000,0.000000,-1.000000
-2.787472,3.502630,-33.318768,0.000000,0.000000,1.000000
-10.071579,-0.729083,4.520821,-0.866025,-0.500000,-0.000000
6.233153,-0.031006,-57.909982,0.995185,-0.098017,0.000000
-0.309990,-6.205676,-61.082480,-0.098017,-0.995185,0.000000
0.422592,6.194585,-78.744328,0.098017,0.995185,0.000000
2.499245,-2.047195,0.000000,0.000000,0.000000,-1.000000
-2.012841,-5.874850,-83.646619,-0.290285,-0.956940,0.000000
5.071718,-3.602949,-51.746850,0.773010,-0.634393,0.000000
-5.958939,7.852385,4.451232,-0.866025,0.500000,0.000000
-0.909463,-6.146632,-80.156861,-0.098017,-0.995185,0.000000
-3.902033,4.826266,-80.482107,-0.634393,0.773010,0.000000
1.499785,-3.985797,0.000000,0.000000,0.000000,-1.000000
-1.419288,6.054902,-41.787951,-0.290285,0.956940,0.000000
2.982349,5.443012,-54.046274,0.471397,0.881921,-0.000000
5.118415,3.546048,-50.335624,0.773010,0.634393,0.000000
-0.900864,-9.086784,0.727416,-0.000000,-1.000000,-0.000000
9.788706,1.219034,1.943117,0.866025,0.500000,0.000000
-6.144811,0.927957,-84.183800,-0.995185,0.098017,0.000000
-5.667427,2.562499,-90.100931,-0.881921,0.471397,0.000000
-4.648521,4.118616,-52.893445,-0.773010,0.634393,0.000000
0.511547,6.185824,-86.428393,0.098017,0.995185,0.000000
3.999607,-4.746189,-77.253961,0.634393,-0.773010,0.000000
-5.266433,3.312705,-62.590419,-0.881921,0.471397,0.000000
-0.028004,9.086784,8.521518,-0.000000,1.000000,0.000000
0.086063,0.246732,9.679987,0.000000,0.000000,1.000000
2.312924,5.783821,-48.954574,0.290285,0.956940,0.000000
-2.448497,9.086784,0.852686,-0.000000,1.000000,0.000000
6.226915,0.094348,-73.010121,0.995185,0.098017,0.000000
2.585318,5.655230,-39.887593,0.471397,0.881921,-0.000000
-5.669776,-8.007575,0.000000,0.000000,0.000000,-1.000000
-1.634311,-5.989676,-80.010941,-0.290285,-0.956940,0.000000
7.515743,5.155921,4.385499,0.866025,0.500000,0.000000
10.142400,0.606417,5.203688,0.866025,0.500000,0.000000
-5.532526,8.197956,9.679987,0.000000,0.000000,1.000000
-3.476244,5.175703,-39.705541,-0.634393,0.773010,0.000000
4.404291,-4.414073,-62.185232,0.634393,-0.773010,0.000000
-3.353778,5.244479,-71.686727,-0.471397,0.881921,0.000000
-4.671078,4.091131,-70.544474,-0.773010,0.634393,0.000000
-4.239869,-4.549012,-83.462646,-0.634393,-0.773010,0.000000
-0.235637,-6.212999,-44.477902,-0.098017,-0.995185,0.000000
-6.171273,0.659279,-62.751002,-0.995185,0.098017,0.000000
-6.135208,-1.025459,-74.185930,-0.995185,-0.098017,0.000000
-4.136632,4.633736,-89.211967,-0.634393,0.773010,0.000000
3.029923,5.417583,-77.319524,0.471397,0.881921,0.000000
-5.501407,2.873099,-39.951753,-0.881921,0.471397,0.000000
2.782629,-5.549765,-80.042438,0.471397,-0.881921,0.000000
-0.092245,6.227122,-58.593255,-0.098017,0.995185,0.000000
-6.122130,-1.158243,-81.017726,-0.995185,-0.098017,0.000000
-1.756164,5.952712,-56.704456,-0.290285,0.956940,0.000000
-2.857666,-5.509657,-81.378563,-0.471397,-0.881921,0.000000
6.075314,-1.352000,-77.738875,0.956940,-0.290285,0.000000
1.745562,5.955928,-84.359724,0.290285,0.956940,0.000000
6.366916,-7.145747,4.614564,0.866025,-0.500000,0.000000
6.020666,1.251873,-33.318768,0.000000,0.000000,1.000000
5.240739,3.360776,-66.263392,0.881921,0.471397,-0.000000
-2.758066,9.086784,9.318512,-0.000000,1.000000,0.000000
-0.273900,3.380777,9.679987,0.000000,0.000000,1.000000
-3.990406,4.753740,-53.242724,-0.634393,0.773010,0.000000
3.150175,5.346908,9.679987,-0.000000,0.000000,1.000000
2.980569,5.443964,-49.598452,0.471397,0.881921,-0.000000
4.112499,-4.653541,-36.526672,0.634393,-0.773010,0.000000
5.024515,3.660466,-66.014949,0.773010,0.634393,0.000000
-4.871029,3.847489,-50.180208,-0.773010,0.634393,0.000000
8.581584,-3.309830,8.568037,0.866025,-0.500000,0.000000
-5.942329,1.790391,-63.795853,-0.956940,0.290285,0.000000
5.981960,-1.659748,-66.683834,0.956940,-0.290285,0.000000
-5.837678,2.135379,-63.525102,-0.956940,0.290285,0.000000
-4.606418,4.169918,-54.605238,-0.773010,0.634393,0.000000
-5.654587,-2.586520,-40.046261,-0.881921,-0.471397,0.000000
5.995146,-1.616279,-89.237029,0.956940,-0.290285,0.000000
4.393999,-4.422520,-67.918459,0.634393,-0.773010,0.000000
6.077472,-1.344884,-71.770204,0.956940,-0.290285,0.000000
-6.169900,0.673226,-61.310517,-0.995185,0.098017,0.000000
10.167790,-0.562441,8.936508,0.866025,-0.500000,0.000000
6.003519,1.588674,-55.369644,0.956940,0.290285,0.000000
2.667141,-5.611494,-83.018319,0.471397,-0.881921,0.000000
-2.749006,5.567737,-77.909406,-0.471397,0.881921,0.000000
3.513089,9.086784,9.435427,-0.000000,1.000000,0.000000
-5.814286,2.212494,-60.112248,-0.956940,0.290285,0.000000
-5.309511,-3.232113,-36.785011,-0.881921,-0.471397,0.000000
1.102486,-6.127621,-86.987978,0.098017,-0.995185,0.000000
-4.505725,4.292614,-38.660391,-0.773010,0.634393,0.000000
-2.497859,-5.701977,-60.762078,-0.471397,-0.881921,0.000000
-2.832923,-5.522882,-79.880004,-0.471397,-0.881921,0.000000
2.031932,-5.869058,-71.778988,0.290285,-0.956940,0.000000
-5.391655,-3.078431,-70.023281,-0.881921,-0.471397,0.000000
-4.012411,-9.086784,8.492774,-0.000000,-1.000000,-0.000000
5.743257,6.494309,0.000000,0.000000,0.000000,-1.000000
3.864994,-4.856663,-68.204763,0.634393,-0.773010,0.000000
-6.140233,-0.974434,-48.189449,-0.995185,-0.098017,0.000000
-5.828957,-2.164128,-59.355283,-0.956940,-0.290285,0.000000
4.543320,-4.246804,-67.010347,0.773010,-0.634393,0.000000
5.563333,-2.757244,-58.362052,0.881921,-0.471397,0.000000
6.754004,6.475292,5.974689,0.866025,0.500000,0.000000
-1.399150,6.061011,-89.534889,-0.290285,0.956940,0.000000
2.225811,5.810246,-35.369245,0.290285,0.956940,-0.000000
6.031732,1.495671,-50.188713,0.956940,0.290285,0.000000
5.915858,1.877657,-56.412526,0.956940,0.290285,-0.000000
6.343564,3.081152,9.679987,0.000000,0.000000,1.000000
-1.017079,-9.086784,6.534399,-0.000000,-1.000000,-0.000000
4.787337,3.548852,-33.318768,0.000000,0.000000,1.000000
-3.325621,6.097095,9.679987,0.000000,0.000000,1.000000
-0.503577,-5.688535,9.679987,-0.000000,0.000000,1.000000
-6.006287,-1.579549,-83.416146,-0.956940,-0.290285,0.000000
6.023406,-1.523118,-67.112854,0.956940,-0.290285,0.000000
3.934721,4.799440,-76.252540,0.634393,0.773010,0.000000
3.105614,5.377125,-71.163446,0.471397,0.881921,0.000000
-5.170720,3.482314,-81.677460,-0.773010,0.634393,0.000000
6.185419,0.515660,-82.616706,0.995185,0.098017,0.000000
5.262776,-8.960209,9.679987,0.000000,0.000000,1.000000
7.503888,3.017181,9.679987,0.000000,0.000000,1.000000
4.424939,-0.285152,9.679987,-0.000000,0.000000,1.000000
-2.439985,5.732912,-90.200161,-0.471397,0.881921,0.000000
5.903302,-1.919045,-60.500220,0.956940,-0.290285,0.000000
1.762938,0.992537,-33.318768,0.000000,0.000000,1.000000
4.786335,3.950689,-66.770279,0.773010,0.634393,0.000000
-1.991599,-5.881293,-42.711330,-0.290285,-0.956940,0.000000
-4.839955,2.602704,9.679987,0.000000,0.000000,1.000000
3.387518,-5.226445,-44.802420,0.471397,-0.881921,0.000000
3.284530,5.281493,-64.033591,0.471397,0.881921,0.000000
-4.159784,4.819283,9.679987,0.000000,0.000000,1.000000
5.374114,-3.111248,-80.111822,0.881921,-0.471397,0.000000
-2.167967,0.584461,-33.318768,0.000000,0.000000,1.000000
8.006630,2.136593,9.679987,0.000000,0.000000,1.000000
9.242502,-2.165086,5.298198,0.866025,-0.500000,0.000000
-8.751094,-3.016230,4.405797,-0.866025,-0.500000,-0.000000
-0.130171,-6.223386,-36.200957,-0.098017,-0.995185,0.000000
-5.992391,-1.625359,-54.602110,-0.956940,-0.290285,0.000000
-2.420845,-5.743142,-38.697607,-0.471397,-0.881921,0.000000
-2.865408,-5.505518,-69.580542,-0.471397,-0.881921,0.000000
0.128376,3.004869,-33.318768,0.000000,0.000000,1.000000
5.589614,-2.708076,-50.062661,0.881921,-0.471397,0.000000
6.228262,-0.080667,-90.062259,0.995185,-0.098017,0.000000
3.231758,-6.862970,0.000000,0.000000,0.000000,-1.000000
6.001019,-1.596916,-80.639201,0.956940,-0.290285,0.000000
2.076621,-5.855502,-81.361903,0.290285,-0.956940,0.000000
2.574960,5.660766,-36.682494,0.471397,0.881921,-0.000000
3.698074,4.993651,-71.218012,0.634393,0.773010,-0.000000
1.505705,7.870142,0.000000,0.000000,0.000000,-1.000000
-3.076911,9.086784,1.722968,-0.000000,1.000000,0.000000
-3.833516,-4.882496,-70.809487,-0.634393,-0.773010,0.000000
0.730010,4.860221,9.679987,0.000000,0.000000,1.000000
4.652798,-4.113404,-86.408313,0.773010,-0.634393,0.000000
-5.453635,2.962475,-52.075014,-0.881921,0.471397,0.000000
5.859642,-2.062974,-77.679457,0.956940,-0.290285,0.000000
-2.428385,5.739112,-79.958366,-0.471397,0.881921,0.000000
-6.182456,-0.545742,-78.883557,-0.995185,-0.098017,0.000000
-0.146824,1.474272,0.000000,0.000000,0.000000,-1.000000
-4.736238,-4.011733,-35.708386,-0.773010,-0.634393,0.000000
2.072746,-5.856678,-59.403300,0.290285,-0.956940,0.000000
2.948810,-3.036014,0.000000,0.000000,0.000000,-1.000000
0.870667,-6.150454,-53.242268,0.098017,-0.995185,0.000000
1.978408,-5.885295,-87.820779,0.290285,-0.956940,0.000000
-1.548796,-3.523330,-33.318768,-0.000000,0.000000,1.000000
-6.183810,-0.531994,-78.637200,-0.995185,-0.098017,0.000000
-5.476379,2.919924,-47.351934,-0.881921,0.471397,0.000000
-5.401260,-3.060461,-33.929802,-0.881921,-0.471397,0.000000
-4.834119,3.892465,-82.303570,-0.773010,0.634393,0.000000
-2.639035,-5.626517,-40.341543,-0.471397,-0.881921,0.000000
6.136724,-1.010070,-81.475240,0.995185,-0.098017,0.000000
-3.888685,-4.837221,-66.783226,-0.634393,-0.773010,0.000000
6.108297,-1.243270,-44.917339,0.956940,-0.290285,0.000000
-3.595904,5.077500,-38.546714,-0.634393,0.773010,0.000000
-1.827183,-1.117259,0.000000,0.000000,0.000000,-1.000000
1.265022,-6.101698,-56.120548,0.290285,-0.956940,0.000000
-4.484944,-4.317936,-82.769749,-0.773010,-0.634393,0.000000
-5.512932,2.851538,-45.572621,-0.881921,0.471397,0.000000
4.148925,-4.623647,-78.575831,0.634393,-0.773010,0.000000
1.617263,5.994847,-53.776966,0.290285,0.956940,-0.000000
-4.237521,9.086784,0.552809,-0.000000,1.000000,0.000000
8.478802,-3.487854,8.985560,0.866025,-0.500000,0.000000
-9.467703,0.813186,0.000000,0.000000,0.000000,-1.000000
7.557928,0.686573,0.000000,0.000000,0.000000,-1.000000
-6.106130,-1.250412,-74.485516,-0.956940,-0.290285,0.000000
-3.005041,-5.430883,-64.318721,-0.471397,-0.881921,0.000000
2.324197,-5.780401,-40.053835,0.290285,-0.956940,0.000000
1.123664,2.860014,-33.318768,0.000000,0.000000,1.000000
-6.152393,0.850976,-57.599257,-0.995185,0.098017,0.000000
1.547267,-1.099826,9.679987,-0.000000,0.000000,1.000000
8.179733,4.005856,4.968292,0.866025,0.500000,0.000000
3.991718,4.752663,-76.421987,0.634393,0.773010,0.000000
4.714051,2.840898,9.679987,-0.000000,0.000000,1.000000
-6.013923,1.554377,-69.648864,-0.956940,0.290285,0.000000
6.224700,-0.116832,-76.745251,0.995185,-0.098017,0.000000
4.017310,-7.224620,9.679987,-0.000000,0.000000,1.000000
1.107310,-6.127146,-36.720212,0.098017,-0.995185,0.000000
5.943285,-1.787240,-58.918122,0.956940,-0.290285,0.000000
4.336064,4.470066,-43.706246,0.634393,0.773010,0.000000
-3.232824,-5.238159,0.000000,0.000000,0.000000,-1.000000
7.746953,-2.343646,9.679987,0.000000,0.000000,1.000000
6.168514,-0.687293,-61.058154,0.995185,-0.098017,0.000000
5.721955,2.460484,-65.436143,0.881921,0.471397,0.000000
0.354355,-7.240574,9.679987,-0.000000,0.000000,1.000000
-6.143446,-0.941821,-70.938325,-0.995185,-0.098017,0.000000
6.269092,7.315184,1.389739,0.866025,0.500000,0.000000
-5.170089,-3.483083,-40.319937,-0.773010,-0.634393,0.000000
4.403089,4.415060,-88.264474,0.634393,0.773010,0.000000
-1.304536,6.089712,-37.935842,-0.290285,0.956940,0.000000
3.809486,4.902218,-86.173563,0.634393,0.773010,0.000000
-1.837652,5.927993,-39.317052,-0.290285,0.956940,0.000000
-3.697364,-9.086784,1.164952,-0.000000,-1.000000,-0.000000
4.006593,9.086784,5.247245,-0.000000,1.000000,0.000000
0.482046,-8.650094,9.679987,-0.000000,0.000000,1.000000
8.680034,3.139310,1.024254,0.866025,0.500000,0.000000
5.070459,2.606822,-33.318768,0.000000,0.000000,1.000000
-1.995538,5.880099,-35.833472,-0.290285,0.956940,0.000000
1.147507,6.123187,-39.729726,0.098017,0.995185,0.000000
3.565996,5.102044,-50.372230,0.634393,0.773010,-0.000000
0.322411,-6.204452,-52.896073,0.098017,-0.995185,0.000000
-7.495357,-5.191231,1.179851,-0.866025,-0.500000,-0.000000
-0.997196,-6.137992,-62.588177,-0.098017,-0.995185,0.000000
1.507644,6.028100,-45.322300,0.290285,0.956940,-0.000000
1.219884,-6.115391,-54.771304,0.290285,-0.956940,0.000000
5.411283,3.041710,-81.089976,0.881921,0.471397,0.000000
4.367421,4.444332,-77.186248,0.634393,0.773010,0.000000
-4.564808,-4.220621,-47.386515,-0.773010,-0.634393,0.000000
-5.280357,3.286654,-69.480759,-0.881921,0.471397,0.000000
6.078737,1.340714,-59.602693,0.956940,0.290285,0.000000
-0.319420,3.269291,9.679987,0.000000,0.000000,1.000000
-6.493527,-6.926452,4.037833,-0.866025,-0.500000,0.000000
0.254703,9.086784,4.996846,-0.000000,1.000000,0.000000
4.268946,-9.086784,4.800005,-0.000000,-1.000000,-0.000000
-3.640166,5.041175,-70.447215,-0.634393,0.773010,0.000000
-6.206118,0.305498,-79.050779,-0.995185,0.098017,0.000000
9.154383,2.317714,2.910527,0.866025,0.500000,0.000000
6.451697,-0.273121,9.679987,0.000000,0.000000,1.000000
-6.219478,0.169852,-78.238348,-0.995185,0.098017,0.000000
-6.144979,-0.926248,-59.752315,-0.995185,-0.098017,0.000000
6.943422,6.147211,3.448925,0.866025,0.500000,0.000000
4.556756,-4.230432,-76.943444,0.773010,-0.634393,0.000000
3.804028,-4.906697,-68.164264,0.634393,-0.773010,0.000000
-5.898766,1.934000,-89.868093,-0.956940,0.290285,0.000000
-6.225699,0.106684,-86.131384,-0.995185,0.098017,0.000000
-5.435085,2.997180,-64.188286,-0.881921,0.471397,0.000000
3.612346,-5.064006,-56.135882,0.634393,-0.773010,0.000000
-0.380441,-4.717528,9.679987,-0.000000,0.000000,1.000000
3.489185,-5.165082,-48.084804,0.634393,-0.773010,0.000000
4.055167,-9.086784,0.039362,-0.000000,-1.000000,-0.000000
3.283878,-5.281841,-66.946590,0.471397,-0.881921,0.000000
1.042673,9.086784,1.989544,-0.000000,1.000000,0.000000
4.948341,-3.753285,-89.349609,0.773010,-0.634393,0.000000
-4.517771,4.277936,-39.755256,-0.773010,0.634393,0.000000
-2.525726,-5.687082,-45.411834,-0.471397,-0.881921,0.000000
2.495029,5.196395,-33.318768,0.000000,0.000000,1.000000
7.351927,4.821080,0.000000,0.000000,0.000000,-1.000000
3.210336,5.321151,-48.327411,0.471397,0.881921,0.000000
-4.367809,-4.444014,-40.621390,-0.634393,-0.773010,0.000000
-0.874762,-6.150050,-77.735425,-0.098017,-0.995185,0.000000
-1.421030,8.998926,9.679987,0.000000,0.000000,1.000000
-5.938160,1.804135,-76.296702,-0.956940,0.290285,0.000000
-5.444568,-1.838467,-33.318768,-0.000000,0.000000,1.000000
-1.812398,5.935654,-44.575154,-0.290285,0.956940,0.000000
-2.051363,5.863164,-40.338852,-0.290285,0.956940,0.000000
0.915955,-9.086784,7.505559,-0.000000,-1.000000,-0.000000
-5.748120,-7.244163,0.000000,0.000000,0.000000,-1.000000
-6.712072,2.649090,0.000000,0.000000,0.000000,-1.000000
-1.409670,-6.057820,-73.707658,-0.290285,-0.956940,0.000000
5.305805,3.239045,-52.615828,0.881921,0.471397,-0.000000
3.116263,9.086784,4.521805,-0.000000,1.000000,0.000000
-6.165331,-0.719618,-36.618809,-0.995185,-0.098017,0.000000
-2.830287,-5.397582,9.679987,-0.000000,0.000000,1.000000
2.135224,1.750899,0.000000,0.000000,0.000000,-1.000000
-6.695041,6.577418,8.133310,-0.866025,0.500000,0.000000
5.238330,3.365283,-42.510191,0.881921,0.471397,-0.000000
-2.152257,-5.832558,-58.730563,-0.290285,-0.956940,0.000000
0.786784,-4.622550,9.679987,-0.000000,0.000000,1.000000
-0.353470,-1.724699,9.679987,-0.000000,0.000000,1.000000
6.567234,-6.798786,6.246279,0.866025,-0.500000,0.000000
-0.538693,9.086784,3.901693,-0.000000,1.000000,0.000000
7.909729,-4.473518,7.285128,0.866025,-0.500000,0.000000
2.594644,3.257553,-90.276321,-0.000000,0.000000,-1.000000
6.232534,-0.037292,-50.815839,0.995185,-0.098017,0.000000
-5.540382,2.033329,9.679987,0.000000,0.000000,1.000000
2.869305,-9.086784,4.099650,-0.000000,-1.000000,-0.000000
-6.202115,-0.346141,-56.844191,-0.995185,-0.098017,0.000000
-5.544177,2.793082,-78.838811,-0.881921,0.471397,0.000000
4.844207,3.880172,-40.105219,0.773010,0.634393,-0.000000
5.266437,-9.051833,1.816551,0.866025,-0.500000,0.000000
-5.563489,-2.756953,-39.260573,-0.881921,-0.471397,0.000000
3.508321,8.639230,9.679987,0.000000,0.000000,1.000000
6.207945,0.286952,-42.754477,0.995185,0.098017,-0.000000
-0.138002,-6.222615,-36.074034,-0.098017,-0.995185,0.000000
6.144924,-0.926805,-45.490198,0.995185,-0.098017,0.000000
4.976693,-3.253561,0.000000,0.000000,0.000000,-1.000000
-10.284501,0.360292,2.360312,-0.866025,0.500000,0.000000
0.551281,-6.181910,-82.088267,0.098017,-0.995185,0.000000
6.164541,-0.727638,-71.029360,0.995185,-0.098017,0.000000
-4.660649,4.103838,-48.533614,-0.773010,0.634393,0.000000
2.478029,5.712577,-80.593298,0.471397,0.881921,-0.000000
0.346596,1.582481,-90.276321,-0.000000,0.000000,-1.000000
3.957517,0.600787,-90.276321,0.000000,0.000000,-1.000000
5.125001,-3.538024,-76.761250,0.773010,-0.634393,0.000000
-6.053417,1.424185,-55.935872,-0.956940,0.290285,0.000000
-6.912980,6.199938,4.641475,-0.866025,0.500000,0.000000
5.265193,3.315025,-37.493653,0.881921,0.471397,-0.000000
1.575041,-3.255245,-90.276321,0.000000,0.000000,-1.000000
4.163828,-4.611417,-36.865814,0.634393,-0.773010,0.000000
2.172511,8.364896,9.679987,0.000000,0.000000,1.000000
-1.104361,-6.127437,-73.920618,-0.098017,-0.995185,0.000000
-7.431171,-5.302403,7.765287,-0.866025,-0.500000,0.000000
5.984300,1.652031,-59.563675,0.956940,0.290285,0.000000
-4.354312,-4.455091,-38.461568,-0.634393,-0.773010,0.000000
4.636900,-4.132776,-38.828727,0.773010,-0.634393,0.000000
3.608477,5.067182,-57.514594,0.634393,0.773010,-0.000000
3.527559,-5.133589,-65.487006,0.634393,-0.773010,0.000000
2.800946,2.641471,-90.276321,-0.000000,0.000000,-1.000000
-1.189931,6.119009,-77.044309,-0.098017,0.995185,0.000000
6.882471,6.252780,5.150281,0.866025,0.500000,0.000000
4.065454,-6.870734,9.679987,-0.000000,0.000000,1.000000
-4.184014,-4.594850,-50.048245,-0.634393,-0.773010,0.000000
-2.710458,5.588341,-47.217606,-0.471397,0.881921,0.000000
-4.647149,4.120288,-53.938795,-0.773010,0.634393,0.000000
-6.135356,-1.023952,-41.824229,-0.995185,-0.098017,0.000000
5.119391,-6.770456,9.679987,-0.000000,0.000000,1.000000
9.116259,2.383746,0.575445,0.866025,0.500000,0.000000
5.568756,-4.062047,0.000000,0.000000,0.000000,-1.000000
3.471191,-5.179849,-67.653759,0.634393,-0.773010,0.000000
-8.281043,-1.467858,0.000000,0.000000,0.000000,-1.000000
-3.273141,-5.287581,-70.564275,-0.471397,-0.881921,0.000000
-1.490200,-6.033391,-58.886671,-0.290285,-0.956940,0.000000
5.666964,2.563364,-57.967507,0.881921,0.471397,0.000000
-3.241618,1.866286,9.679987,0.000000,0.000000,1.000000
3.365055,-2.188807,0.000000,0.000000,0.000000,-1.000000
-7.617748,-4.979243,6.117007,-0.866025,-0.500000,0.000000
5.962027,1.725455,-48.922346,0.956940,0.290285,-0.000000
3.686638,-5.003036,-40.731799,0.634393,-0.773010,0.000000
3.074091,9.086784,4.149239,-0.000000,1.000000,0.000000
5.632626,-2.627606,-68.572060,0.881921,-0.471397,0.000000
6.155069,-0.823805,-38.063559,0.995185,-0.098017,0.000000
1.923034,-1.518491,-33.318768,0.000000,-0.000000,1.000000
4.424405,-4.391703,-75.749800,0.773010,-0.634393,0.000000
3.734054,-4.964123,-87.159698,0.634393,-0.773010,0.000000
6.177965,0.591344,-72.872837,0.995185,0.098017,0.000000
-6.688076,-6.589482,2.435663,-0.866025,-0.500000,-0.000000
4.578723,4.203666,-78.893393,0.773010,0.634393,0.000000
-7.956955,3.437904,0.000000,0.000000,0.000000,-1.000000
-0.212315,6.215296,-53.841383,-0.098017,0.995185,0.000000
6.152359,0.851325,-42.571862,0.995185,0.098017,-0.000000
-8.334694,-3.737457,3.329798,-0.866025,-0.500000,-0.000000
2.009111,9.086784,4.798282,-0.000000,1.000000,0.000000
4.570288,-4.213944,-47.774483,0.773010,-0.634393,0.000000
-4.826624,-3.901597,-74.383910,-0.773010,-0.634393,0.000000
8.747377,-2.388367,0.000000,0.000000,0.000000,-1.000000
-2.812965,-5.533550,-36.035013,-0.471397,-0.881921,0.000000
1.198516,0.389133,-90.276321,-0.000000,0.000000,-1.000000
3.117438,5.370806,-40.304745,0.471397,0.881921,-0.000000
5.358191,3.141038,-84.382663,0.881921,0.471397,0.000000
-8.893252,-2.438923,0.000000,0.000000,0.000000,-1.000000
-0.329997,-4.977094,9.679987,-0.000000,0.000000,1.000000
-1.127245,-8.087088,0.000000,0.000000,0.000000,-1.000000
-5.440015,2.987957,-74.711977,-0.881921,0.471397,0.000000
-5.996841,-1.610691,-87.574415,-0.956940,-0.290285,0.000000
5.206771,-3.424325,-34.936882,0.881921,-0.471397,0.000000
-4.802171,3.931393,-45.428853,-0.773010,0.634393,0.000000
-6.122903,1.150389,-35.984291,-0.995185,0.098017,0.000000
-4.127283,4.641409,-90.111558,-0.634393,0.773010,0.000000
-5.148464,-9.086784,2.992547,-0.000000,-1.000000,-0.000000
3.487246,9.086784,0.456568,-0.000000,1.000000,0.000000
-5.519077,1.846760,-90.276321,-0.000000,-0.000000,-1.000000
-4.678748,-4.081784,-77.254656,-0.773010,-0.634393,0.000000
5.502833,-8.642383,5.122048,0.866025,-0.500000,0.000000
-7.489921,-5.200646,6.395697,-0.866025,-0.500000,0.000000
-1.420826,-2.127519,-33.318768,-0.000000,0.000000,1.000000
-4.891292,3.822799,-35.475192,-0.773010,0.634393,0.000000
6.221114,0.153239,-60.894829,0.995185,0.098017,0.000000
-8.966893,-2.642456,3.383246,-0.866025,-0.500000,-0.000000
5.841821,-2.121721,-75.788271,0.956940,-0.290285,0.000000
-6.914036,0.670234,0.000000,0.000000,0.000000,-1.000000
-7.534795,5.122921,8.069108,-0.866025,0.500000,0.000000
1.672935,-5.977959,-57.732084,0.290285,-0.956940,0.000000
2.485037,5.708831,-86.814428,0.471397,0.881921,0.000000
-3.674593,5.012921,-77.967598,-0.634393,0.773010,0.000000
5.992696,-7.793916,7.201540,0.866025,-0.500000,0.000000
1.105342,4.882269,-90.276321,-0.000000,0.000000,-1.000000
-5.006117,9.086784,3.675404,-0.000000,1.000000,0.000000
6.137546,-1.001716,-38.285747,0.995185,-0.098017,0.000000
3.059814,5.401606,-45.782482,0.471397,0.881921,-0.000000
1.141134,-6.123815,-57.776830,0.098017,-0.995185,0.000000
6.000338,1.599160,-51.857772,0.956940,0.290285,-0.000000
-10.448887,-0.075567,8.126849,-0.866025,-0.500000,-0.000000
5.684650,2.530277,-48.738667,0.881921,0.471397,0.000000
3.758453,-4.944099,-51.813066,0.634393,-0.773010,0.000000
-1.802388,5.938690,-48.582219,-0.290285,0.956940,0.000000
-5.097537,3.571489,-34.085753,-0.773010,0.634393,0.000000
2.369337,5.766708,-80.515056,0.290285,0.956940,0.000000
1.476006,9.086784,7.259628,-0.000000,1.000000,0.000000
3.097780,-5.381313,-57.018311,0.471397,-0.881921,0.000000
-3.010446,-5.427994,-73.540294,-0.471397,-0.881921,0.000000
5.049116,3.630490,-35.411709,0.773010,0.634393,-0.000000
1.489384,-6.033639,-54.061524,0.290285,-0.956940,0.000000
3.514935,5.143950,-78.554796,0.634393,0.773010,-0.000000
1.153432,-2.268600,0.000000,0.000000,0.000000,-1.000000
4.672802,-9.086784,4.204462,-0.000000,-1.000000,-0.000000
-0.621908,-4.588610,-33.318768,-0.000000,0.000000,1.000000
4.392416,-2.088698,9.679987,-0.000000,0.000000,1.000000
0.701821,-6.723889,9.679987,-0.000000,0.000000,1.000000
-3.105835,5.377008,-60.647073,-0.471397,0.881921,0.000000
-4.295450,4.503397,-77.897893,-0.634393,0.773010,0.000000
7.873077,-1.840011,0.000000,0.000000,0.000000,-1.000000
-2.130347,9.086784,7.066672,-0.000000,1.000000,0.000000
3.285093,5.281192,-86.046131,0.471397,0.881921,0.000000
-0.224221,-6.214123,-64.214065,-0.098017,-0.995185,0.000000
1.244659,6.107875,-37.461743,0.290285,0.956940,-0.000000
-5.916314,-1.876151,-50.759513,-0.956940,-0.290285,0.000000
-3.765857,4.938023,-71.696024,-0.634393,0.773010,0.000000
-2.596404,-5.649304,-47.747644,-0.471397,-0.881921,0.000000
-6.199786,-0.369787,-61.554055,-0.995185,-0.098017,0.000000
-5.849717,2.095694,-68.197441,-0.956940,0.290285,0.000000
-3.062747,1.334635,-33.318768,0.000000,0.000000,1.000000
0.857467,6.151754,-73.576305,0.098017,0.995185,0.000000
7.796226,-4.670109,2.429951,0.866025,-0.500000,0.000000
-1.618055,1.605129,9.679987,0.000000,0.000000,1.000000
6.155988,0.814475,-63.087867,0.995185,0.098017,-0.000000
5.757623,2.393753,-46.780157,0.881921,0.471397,0.000000
-2.561052,-5.668200,-34.367088,-0.471397,-0.881921,0.000000
-1.411312,-6.057322,-85.594860,-0.290285,-0.956940,0.000000
5.045837,3.634486,-34.674010,0.773010,0.634393,-0.000000
-2.035292,-5.868039,-65.768463,-0.290285,-0.956940,0.000000
-2.007312,5.876527,-57.624880,-0.290285,0.956940,0.000000
-6.805398,-6.386275,7.882392,-0.866025,-0.500000,0.000000
4.950627,-3.750499,-44.445782,0.773010,-0.634393,0.000000
-0.161089,-3.437659,-90.276321,0.000000,-0.000000,-1.000000
-1.367807,-6.070519,-44.655954,-0.290285,-0.956940,0.000000
-8.497496,-3.455476,0.776249,-0.866025,-0.500000,-0.000000
-0.432023,-6.193656,-37.435534,-0.098017,-0.995185,0.000000
-4.999287,3.691206,-77.802466,-0.773010,0.634393,0.000000
-0.211412,-9.086784,0.562297,-0.000000,-1.000000,-0.000000
5.041151,-3.640195,-42.753921,0.773010,-0.634393,0.000000
9.629039,1.495585,1.872501,0.866025,0.500000,0.000000
-5.152747,3.504214,-57.674953,-0.773010,0.634393,0.000000
6.157108,-0.803107,-61.626738,0.995185,-0.098017,0.000000
-0.844526,6.153028,-76.582882,-0.098017,0.995185,0.000000
-1.973165,-3.337290,-33.318768,-0.000000,0.000000,1.000000
4.171691,4.604963,-50.080037,0.634393,0.773010,0.000000
5.642788,-2.608594,-61.692179,0.881921,-0.471397,0.000000
-2.642813,5.624498,-80.700879,-0.471397,0.881921,0.000000
-3.005267,-5.430762,-46.246679,-0.471397,-0.881921,0.000000
5.568676,-2.747249,-61.998271,0.881921,-0.471397,0.000000
2.555057,-2.311969,-90.276321,0.000000,0.000000,-1.000000
-4.944891,3.757489,-86.451236,-0.773010,0.634393,0.000000
2.540430,-5.679223,-61.611399,0.471397,-0.881921,0.000000
2.081052,-9.086784,7.245066,-0.000000,-1.000000,-0.000000
0.771364,6.160234,-47.275345,0.098017,0.995185,-0.000000
-4.574704,-4.208563,-50.182072,-0.773010,-0.634393,0.000000
-5.692141,-8.314492,1.347173,-0.866025,-0.500000,0.000000
6.185796,7.459457,3.119517,0.866025,0.500000,0.000000
7.342671,-5.455690,5.125005,0.866025,-0.500000,0.000000
-0.123637,5.979002,-33.318768,0.000000,0.000000,1.000000
-6.719143,6.535673,4.522694,-0.866025,0.500000,0.000000
-5.204388,-3.428784,-54.929994,-0.881921,-0.471397,0.000000
4.550653,-4.237869,-78.169740,0.773010,-0.634393,0.000000
4.547757,-5.549541,9.679987,-0.000000,0.000000,1.000000
-7.832267,-4.607684,0.496973,-0.866025,-0.500000,-0.000000
6.050239,-1.434659,-68.764649,0.956940,-0.290285,0.000000
-3.017462,-2.811070,9.679987,0.000000,0.000000,1.000000
-1.623020,5.993101,-57.952605,-0.290285,0.956940,0.000000
1.336989,-6.079867,-63.364081,0.290285,-0.956940,0.000000
2.186785,-5.822084,-64.065317,0.290285,-0.956940,0.000000
-2.120013,3.290148,-33.318768,0.000000,0.000000,1.000000
-8.481772,-3.482711,0.167220,-0.866025,-0.500000,-0.000000
5.972363,-1.691383,-67.490846,0.956940,-0.290285,0.000000
2.128595,5.839736,-42.440262,0.290285,0.956940,-0.000000
-5.905779,1.910881,-55.198178,-0.956940,0.290285,0.000000
-5.457469,2.955303,-81.799824,-0.881921,0.471397,0.000000
-0.971794,9.086784,3.939515,-0.000000,1.000000,0.000000
-5.606959,2.675625,-80.878641,-0.881921,0.471397,0.000000
-4.412079,4.406722,-80.651051,-0.773010,0.634393,0.000000
6.341591,-7.189611,7.495032,0.866025,-0.500000,0.000000
6.136203,-1.015353,-65.604593,0.995185,-0.098017,0.000000
2.332005,-3.825588,0.000000,0.000000,0.000000,-1.000000
-6.163279,0.740450,-44.229209,-0.995185,0.098017,0.000000
1.901095,-0.873246,0.000000,0.000000,0.000000,-1.000000
3.489152,-5.165109,-49.949132,0.634393,-0.773010,0.000000
3.665851,-5.020096,-66.150295,0.634393,-0.773010,0.000000
9.529658,1.667718,1.412759,0.866025,0.500000,0.000000
-8.093588,4.155064,5.317863,-0.866025,0.500000,0.000000
5.578501,2.728866,-58.257660,0.881921,0.471397,0.000000
5.746365,2.414815,-53.429742,0.881921,0.471397,0.000000
-3.652769,-0.284876,0.000000,0.000000,0.000000,-1.000000
7.566973,5.067189,2.534395,0.866025,0.500000,0.000000
-4.953761,-3.746680,-83.728022,-0.773010,-0.634393,0.000000
-3.321992,-5.261469,-58.070642,-0.471397,-0.881921,0.000000
4.166241,4.484097,0.000000,0.000000,0.000000,-1.000000
3.068699,5.396857,-68.067489,0.471397,0.881921,0.000000
-5.998537,1.605098,-47.835180,-0.956940,0.290285,0.000000
-2.321455,4.773653,-90.276321,-0.000000,-0.000000,-1.000000
-0.459839,6.190917,-69.569330,-0.098017,0.995185,0.000000
-0.007469,-6.235471,-71.973432,-0.098017,-0.995185,0.000000
3.265563,-8.918538,9.679987,-0.000000,0.000000,1.000000
4.244360,-9.086784,3.513906,-0.000000,-1.000000,-0.000000
-2.659121,-5.615781,-88.327529,-0.471397,-0.881921,0.000000
1.743341,3.412795,-33.318768,0.000000,0.000000,1.000000
-4.621797,4.151180,-67.090038,-0.773010,0.634393,0.000000
-2.653086,5.619007,-54.581280,-0.471397,0.881921,0.000000
5.637711,2.685301,9.679987,0.000000,0.000000,1.000000
-3.945036,-4.218367,-33.318768,-0.000000,0.000000,1.000000
-1.596520,9.086784,7.082803,-0.000000,1.000000,0.000000
-4.908094,3.802326,-66.909885,-0.773010,0.634393,0.000000
-5.174769,3.477381,-39.657136,-0.773010,0.634393,0.000000
6.012200,-7.328141,9.679987,0.000000,0.000000,1.000000
-4.542827,-2.877209,-90.276321,0.000000,-0.000000,-1.000000
4.930681,-3.774804,-86.515021,0.773010,-0.634393,0.000000
-5.791360,2.288071,-42.710687,-0.956940,0.290285,0.000000
-4.873396,-3.844605,-40.870192,-0.773010,-0.634393,0.000000
6.052883,1.425945,-86.785353,0.956940,0.290285,0.000000
-4.934515,-3.770131,-89.707191,-0.773010,-0.634393,0.000000
-1.459328,6.042756,-43.667796,-0.290285,0.956940,0.000000
3.371289,5.235119,-81.927401,0.471397,0.881921,0.000000
4.307964,7.698335,9.679987,0.000000,0.000000,1.000000
1.646149,4.969630,-90.276321,-0.000000,0.000000,-1.000000
-3.314751,5.265339,-45.054926,-0.471397,0.881921,0.000000
2.704255,-9.086784,3.958641,-0.000000,-1.000000,-0.000000
9.629437,-1.494896,0.305490,0.866025,-0.500000,0.000000
3.780667,-1.688826,0.000000,0.000000,0.000000,-1.000000
-5.021837,2.749413,0.000000,0.000000,0.000000,-1.000000
6.230316,-0.059814,-53.228067,0.995185,-0.098017,0.000000
-3.643702,-5.038273,-34.156920,-0.634393,-0.773010,0.000000
1.475398,-6.037881,-57.725459,0.290285,-0.956940,0.000000
2.609329,-5.642395,-40.270986,0.471397,-0.881921,0.000000
-5.207513,-3.422937,-37.944476,-0.881921,-0.471397,0.000000
7.726451,-0.610113,0.000000,0.000000,0.000000,-1.000000
-1.474299,-6.038215,-75.436341,-0.290285,-0.956940,0.000000
-2.036125,5.867787,-65.539181,-0.290285,0.956940,0.000000
-4.769136,-3.971647,-70.027831,-0.773010,-0.634393,0.000000
5.812481,2.218444,-44.713932,0.956940,0.290285,-0.000000
-5.298107,-3.253447,-55.670284,-0.881921,-0.471397,0.000000
8.970070,1.862203,9.679987,0.000000,0.000000,1.000000
-2.219015,5.812308,-44.451731,-0.290285,0.956940,0.000000
-0.198943,-6.216613,-70.525378,-0.098017,-0.995185,0.000000
-3.220173,5.159403,-90.276321,-0.000000,-0.000000,-1.000000
1.270733,-6.099966,-56.418098,0.290285,-0.956940,0.000000
-0.622487,-6.174897,-85.591843,-0.098017,-0.995185,0.000000
3.835928,4.880517,-47.364416,0.634393,0.773010,-0.000000
-0.288124,-9.086784,9.004043,-0.000000,-1.000000,-0.000000
-3.439881,9.086784,1.159924,-0.000000,1.000000,0.000000
-6.186491,-0.504774,-74.841573,-0.995185,-0.098017,0.000000
4.609927,4.165644,-84.490807,0.773010,0.634393,0.000000
-1.589048,-6.003406,-43.490807,-0.290285,-0.956940,0.000000
-8.799925,2.931652,8.307230,-0.866025,0.500000,0.000000
3.348988,-1.259578,-33.318768,0.000000,-0.000000,1.000000
-1.848103,9.086784,1.627841,-0.000000,1.000000,0.000000
5.453492,6.279146,9.679987,0.000000,0.000000,1.000000
4.446067,-4.365307,-35.961886,0.773010,-0.634393,0.000000
2.714871,-5.623702,0.000000,0.000000,0.000000,-1.000000
-9.538106,-1.653086,4.324514,-0.866025,-0.500000,-0.000000
-4.662094,9.086784,2.543827,-0.000000,1.000000,0.000000
-5.417882,-3.029364,-77.098677,-0.881921,-0.471397,0.000000
-3.681451,-8.228243,9.679987,-0.000000,0.000000,1.000000
-3.796655,4.912748,-75.297740,-0.634393,0.773010,0.000000
3.591244,-5.081324,-84.415499,0.634393,-0.773010,0.000000
0.644774,-6.172702,-35.427205,0.098017,-0.995185,0.000000
9.634571,-1.486004,2.554153,0.866025,-0.500000,0.000000
8.730696,2.757892,0.000000,0.000000,0.000000,-1.000000
-5.043980,-3.636747,-73.247043,-0.773010,-0.634393,0.000000
6.040257,-1.467567,-87.635969,0.956940,-0.290285,0.000000
4.385974,-4.429106,-82.718550,0.634393,-0.773010,0.000000
-6.167340,0.699214,-51.088750,-0.995185,0.098017,0.000000
7.953438,4.397812,4.556237,0.866025,0.500000,0.000000
-0.017364,-6.234497,-71.025577,-0.098017,-0.995185,0.000000
-6.150728,0.867877,-59.421924,-0.995185,0.098017,0.000000
-2.074365,-5.856187,-68.283291,-0.290285,-0.956940,0.000000
-1.232347,6.111610,-40.918805,-0.290285,0.956940,0.000000
-1.706445,5.967794,-63.412959,-0.290285,0.956940,0.000000
5.320249,-3.212022,-59.531926,0.881921,-0.471397,0.000000
4.489298,4.312631,-49.996658,0.773010,0.634393,-0.000000
-5.586333,2.714215,-43.521058,-0.881921,0.471397,0.000000
-5.224454,3.391242,-77.459032,-0.881921,0.471397,0.000000
-0.467583,-7.689214,9.679987,-0.000000,0.000000,1.000000
-5.633584,2.625815,-65.332045,-0.881921,0.471397,0.000000
5.021884,-3.663672,-38.639286,0.773010,-0.634393,0.000000
0.101615,6.226199,-79.016967,0.098017,0.995185,-0.000000
5.658339,-2.579501,-67.319864,0.881921,-0.471397,0.000000
-4.212232,-4.571692,-85.379099,-0.634393,-0.773010,0.000000
6.115829,1.218441,-71.053277,0.956940,0.290285,0.000000
-0.616199,5.346627,0.000000,0.000000,0.000000,-1.000000
-5.284010,-3.279820,-66.213494,-0.881921,-0.471397,0.000000
-2.046606,-5.864607,-83.377661,-0.290285,-0.956940,0.000000
3.915609,4.815124,-46.001855,0.634393,0.773010,-0.000000
2.802968,-9.086784,3.717428,-0.000000,-1.000000,-0.000000
-1.901183,5.908721,-44.441365,-0.290285,0.956940,0.000000
-5.961756,-7.847506,4.804074,-0.866025,-0.500000,0.000000
-1.808399,5.936867,-78.734681,-0.290285,0.956940,0.000000
-6.013100,-1.557091,-54.651630,-0.956940,-0.290285,0.000000
5.839147,-2.130536,-40.084135,0.956940,-0.290285,0.000000
5.600480,2.687747,-59.453250,0.881921,0.471397,0.000000
-2.411105,-5.748348,-71.668371,-0.471397,-0.881921,0.000000
4.440831,4.371687,-90.075676,0.773010,0.634393,0.000000
2.870181,5.502967,-44.449581,0.471397,0.881921,-0.000000
5.883021,1.985906,-75.716937,0.956940,0.290285,0.000000
0.514641,9.086784,4.217340,-0.000000,1.000000,0.000000
-5.959231,-1.734674,-86.797117,-0.956940,-0.290285,0.000000
6.039540,-1.469930,-77.545146,0.956940,-0.290285,0.000000
-2.227393,-3.784123,-33.318768,-0.000000,0.000000,1.000000
-3.296973,5.274842,-61.842011,-0.471397,0.881921,0.000000
-5.535790,-2.808774,-66.519616,-0.881921,-0.471397,0.000000
-8.114136,2.183377,0.000000,0.000000,0.000000,-1.000000
1.814167,5.935117,-41.035021,0.290285,0.956940,-0.000000
-5.526749,2.825689,-69.678652,-0.881921,0.471397,0.000000
-5.119170,-3.545129,-59.481678,-0.773010,-0.634393,0.000000
-4.352590,9.086784,3.775585,-0.000000,1.000000,0.000000
2.287012,-2.952683,-33.318768,0.000000,-0.000000,1.000000
-8.108671,0.692694,0.000000,0.000000,0.000000,-1.000000
-9.028526,2.535704,4.920274,-0.866025,0.500000,0.000000
-3.454731,-5.190519,-71.064122,-0.471397,-0.881921,0.000000
6.559266,6.812588,5.437068,0.866025,0.500000,0.000000
-3.912210,-0.360868,-90.276321,0.000000,-0.000000,-1.000000
3.501997,5.154568,-75.520896,0.634393,0.773010,-0.000000
3.391813,7.211639,9.679987,0.000000,0.000000,1.000000
-5.793975,-2.279448,-72.930791,-0.956940,-0.290285,0.000000
3.897448,4.830029,-40.817540,0.634393,0.773010,-0.000000
2.275554,-5.795157,-75.417875,0.290285,-0.956940,0.000000
-4.328545,1.380399,0.000000,0.000000,0.000000,-1.000000
-0.845941,6.152889,-34.705733,-0.098017,0.995185,0.000000
9.619138,1.512735,5.276790,0.866025,0.500000,0.000000
6.116722,-1.213151,-43.139530,0.995185,-0.098017,0.000000
-5.796037,2.272651,-58.374236,-0.956940,0.290285,0.000000
-3.378590,-5.231217,-45.464784,-0.471397,-0.881921,0.000000
-3.422154,-9.086784,2.797873,-0.000000,-1.000000,-0.000000
2.740081,-5.572507,-53.912952,0.471397,-0.881921,0.000000
-5.977051,-1.675928,-79.443188,-0.956940,-0.290285,0.000000
6.101641,1.265210,-88.751263,0.956940,0.290285,0.000000
4.850070,3.873028,-77.862732,0.773010,0.634393,0.000000
-1.629651,-5.991089,-58.692864,-0.290285,-0.956940,0.000000
2.595887,-6.940438,9.679987,-0.000000,0.000000,1.000000
3.294775,5.276017,-44.650291,0.471397,0.881921,0.000000
-3.715809,-4.979096,-62.989866,-0.634393,-0.773010,0.000000
-2.441763,5.731962,-41.595093,-0.471397,0.881921,0.000000
3.367365,-4.044064,-90.276321,0.000000,0.000000,-1.000000
4.358062,4.452013,-52.192161,0.634393,0.773010,0.000000
2.811813,-5.534165,-50.680055,0.471397,-0.881921,0.000000
8.319196,3.764300,2.797582,0.866025,0.500000,0.000000
-4.235021,6.474284,9.679987,0.000000,0.000000,1.000000
-4.854098,-3.868120,-52.583390,-0.773010,-0.634393,0.000000
5.852891,2.085230,-36.557400,0.956940,0.290285,-0.000000
0.866962,-0.079359,-33.318768,0.000000,-0.000000,1.000000
-4.093507,4.669128,-73.870652,-0.634393,0.773010,0.000000
0.299296,-2.667783,-33.318768,0.000000,-0.000000,1.000000
-2.329976,-5.778648,-49.965914,-0.290285,-0.956940,0.000000
-6.203045,-0.336694,-46.566020,-0.995185,-0.098017,0.000000
-5.612806,-2.664687,-71.374294,-0.881921,-0.471397,0.000000
3.450505,0.483013,0.000000,0.000000,0.000000,-1.000000
-1.255122,-2.834272,-90.276321,0.000000,-0.000000,-1.000000
-1.705544,5.968067,-87.796907,-0.290285,0.956940,0.000000
-1.713554,-5.965638,-35.707461,-0.290285,-0.956940,0.000000
8.323211,-3.757346,2.781282,0.866025,-0.500000,0.000000
-2.569900,-5.663470,-35.061041,-0.471397,-0.881921,0.000000
-5.838749,-2.131850,-53.123851,-0.956940,-0.290285,0.000000
-4.974651,3.721226,-67.440988,-0.773010,0.634393,0.000000
-6.177259,0.598511,-62.950290,-0.995185,0.098017,0.000000
-4.253921,-4.537479,-50.552327,-0.634393,-0.773010,0.000000
5.279050,-3.289101,-80.100418,0.881921,-0.471397,0.000000
-0.832316,6.662969,9.679987,0.000000,0.000000,1.000000
-6.157218,0.801989,-42.157458,-0.995185,0.098017,0.000000
5.561305,-8.541107,1.046429,0.866025,-0.500000,0.000000
