x,y,z,nx,ny,nz
0.410639,0.041704,0.055074,0.866025,0.000000,0.500000
0.130212,-0.084298,-0.383161,-0.000000,0.000000,-1.000000
-0.254225,-0.091783,0.177501,0.000000,-1.000000,0.000000
0.035232,-0.145808,0.161148,0.213584,0.000000,0.976925
0.141192,-0.091783,-0.218766,0.000000,-1.000000,0.000000
-0.087777,-0.458666,0.139661,-0.532126,0.000000,0.846665
-0.160519,-0.562125,-0.037996,-0.973110,0.000000,-0.230339
0.432372,-0.010079,-0.017431,0.866025,0.000000,-0.500000
-0.121418,-0.138907,-0.111658,-0.736071,0.000000,-0.676904
0.092229,0.076349,0.383161,0.000000,0.000000,1.000000
0.051418,-0.010322,0.383161,0.000000,0.000000,1.000000
0.030476,0.091783,-0.126277,0.000000,1.000000,0.000000
-0.047489,0.017029,0.383161,0.000000,0.000000,1.000000
-0.291774,0.091783,0.154718,0.000000,1.000000,0.000000
0.029717,-0.664169,-0.015219,0.826404,0.371391,-0.423232
-0.131730,-0.603287,-0.023531,-0.914008,0.371391,-0.163272
0.039330,-0.021712,0.383161,0.000000,0.000000,1.000000
-0.098625,0.091783,0.200885,0.000000,1.000000,0.000000
0.368852,0.040907,0.127452,0.866025,0.000000,0.500000
-0.007503,-0.248723,-0.164784,-0.045487,0.000000,-0.998965
0.052128,-0.173881,0.156501,0.316017,0.000000,0.948753
-0.114219,-0.425890,-0.119013,-0.692425,0.000000,-0.721490
-0.145408,-0.144143,-0.077887,-0.881505,0.000000,-0.472175
0.060070,-0.644498,0.026942,0.847167,0.371391,0.379969
0.404087,-0.083716,0.066422,0.866025,0.000000,0.500000
-0.202042,0.039297,0.383161,0.000000,0.000000,1.000000
0.140746,-0.179846,-0.086027,0.853239,0.000000,-0.521520
0.145599,0.000583,-0.383161,-0.000000,0.000000,-1.000000
-0.416057,0.004070,0.045690,-0.866025,0.000000,0.500000
0.018431,0.086795,-0.383161,-0.000000,0.000000,-1.000000
-0.170382,-0.033130,0.383161,0.000000,0.000000,1.000000
0.122676,-0.520367,0.110276,0.743693,0.000000,0.668521
-0.084160,0.010700,-0.383161,-0.000000,0.000000,-1.000000
0.105413,-0.620439,0.004794,0.927518,0.371391,0.042185
-0.102644,-0.432434,-0.129128,-0.622259,0.000000,-0.782811
-0.296365,-0.085142,0.253002,-0.866025,0.000000,0.500000
-0.020365,-0.606146,0.127482,-0.146466,0.371391,0.916851
0.065047,-0.408322,-0.151588,0.394333,0.000000,-0.918968
0.012501,-0.217625,-0.164480,0.075782,0.000000,-0.997124
-0.390653,-0.067047,0.089691,-0.866025,0.000000,0.500000
0.157984,-0.544062,0.047444,0.957745,0.000000,0.287620
0.077906,-0.461241,0.145398,0.472287,0.000000,0.881445
0.004705,-0.594072,0.148940,0.029313,0.371391,0.928014
-0.122991,-0.103601,-0.109923,-0.745608,0.000000,-0.666385
0.244390,0.091783,0.227155,0.000000,1.000000,0.000000
0.164746,0.070108,-0.383161,-0.000000,0.000000,-1.000000
0.118458,-0.368594,-0.114794,0.718127,0.000000,-0.695912
-0.095954,-0.347099,0.134175,-0.581700,0.000000,0.813404
0.294661,0.071395,0.255954,0.866025,0.000000,0.500000
0.164687,-0.349765,0.009396,0.998376,0.000000,0.056964
0.197496,-0.069754,-0.383161,-0.000000,0.000000,-1.000000
0.371387,0.033903,-0.123060,0.866025,0.000000,-0.500000
0.045169,-0.083404,0.383161,0.000000,0.000000,1.000000
0.080150,0.079257,-0.383161,-0.000000,0.000000,-1.000000
0.046277,-0.168950,-0.158330,0.280543,0.000000,-0.959841
0.073419,-0.357610,0.147715,0.445086,0.000000,0.895488
-0.003170,-0.091783,-0.086957,0.000000,-1.000000,0.000000
0.093063,-0.611695,0.075672,0.720381,0.371391,0.585765
-0.097673,-0.533508,-0.132928,-0.592120,0.000000,-0.805850
-0.163162,-0.564427,-0.024251,-0.989134,0.000000,-0.147015
-0.080584,-0.600681,0.112167,-0.541734,0.371391,0.754052
-0.164040,-0.549742,0.017342,-0.994458,0.000000,0.105133
-0.189198,0.091783,0.157567,0.000000,1.000000,0.000000
0.252022,0.035315,0.329808,0.866025,0.000000,0.500000
0.292291,0.019921,0.260059,0.866025,0.000000,0.500000
0.156881,-0.234990,0.050974,0.951056,0.000000,0.309020
0.082940,0.091783,-0.119152,0.000000,1.000000,0.000000
0.139872,-0.332650,0.087441,0.847941,0.000000,0.530091
0.034748,-0.542302,-0.161253,0.210650,0.000000,-0.977562
-0.048200,-0.630470,-0.074788,-0.502979,0.371391,-0.780436
-0.023791,-0.204347,-0.163230,-0.144229,0.000000,-0.989544
-0.031802,-0.642168,-0.061999,-0.423762,0.371391,-0.826133
-0.114851,0.050224,0.383161,0.000000,0.000000,1.000000
0.332603,0.046125,0.190237,0.866025,0.000000,0.500000
-0.211870,-0.030328,0.383161,0.000000,0.000000,1.000000
-0.173578,-0.007371,-0.383161,-0.000000,0.000000,-1.000000
0.139059,-0.152559,0.088728,0.843013,0.000000,0.537893
-0.082825,-0.623058,-0.058152,-0.759883,0.371391,-0.533523
-0.137510,-0.013841,0.383161,0.000000,0.000000,1.000000
-0.058625,0.005234,-0.383161,-0.000000,0.000000,-1.000000
-0.229767,0.066837,0.368353,-0.866025,0.000000,0.500000
-0.164517,-0.346359,0.012011,-0.997346,0.000000,0.072813
0.105695,-0.599360,0.092253,0.699504,0.371391,0.610543
-0.056365,-0.388901,0.155026,-0.341699,0.000000,0.939809
0.164689,-0.189168,0.009356,0.998390,0.000000,0.056720
0.069753,-0.259574,-0.149481,0.422863,0.000000,-0.906194
-0.060513,0.091783,-0.179434,0.000000,1.000000,0.000000
0.192088,0.023410,0.383161,0.000000,0.000000,1.000000
-0.122828,-0.119691,0.110106,-0.744616,0.000000,0.667493
-0.163558,-0.258530,-0.021419,-0.991534,0.000000,-0.129845
0.151290,-0.323936,-0.065737,0.917162,0.000000,-0.398514
0.259537,0.043735,0.316790,0.866025,0.000000,0.500000
-0.221505,-0.032996,-0.382664,-0.866025,0.000000,-0.500000
-0.142243,-0.163603,0.083527,-0.862319,0.000000,0.506366
0.255457,-0.073953,0.323857,0.866025,0.000000,0.500000
0.083171,-0.615717,0.076956,0.681502,0.371391,0.630574
-0.291392,-0.004838,-0.261616,-0.866025,0.000000,-0.500000
-0.173578,0.028034,0.383161,0.000000,0.000000,1.000000
-0.079000,-0.193114,0.144807,-0.478918,0.000000,0.877860
-0.038216,-0.094683,-0.160467,-0.231675,0.000000,-0.972793
0.424524,0.065020,0.031025,0.866025,0.000000,0.500000
0.002858,-0.459659,-0.164930,0.017323,0.000000,-0.999850
-0.104016,-0.151448,0.128026,-0.630575,0.000000,0.776129
0.101247,-0.545930,0.130227,0.613790,0.000000,0.789470
0.341265,-0.085650,-0.175233,0.866025,0.000000,-0.500000
0.028506,-0.649529,-0.049978,0.460018,0.371391,-0.806506
0.117011,-0.501164,-0.116269,0.709352,0.000000,-0.704854
0.073579,-0.639104,0.013078,0.914150,0.371391,0.162479
0.043523,-0.143909,-0.159109,0.263852,0.000000,-0.964563
-0.082604,0.049489,-0.383161,-0.000000,0.000000,-1.000000
0.152946,-0.224806,0.061786,0.927200,0.000000,0.374566
0.025960,-0.656885,0.037248,0.530880,0.371391,0.761732
0.010465,0.091783,0.103083,0.000000,1.000000,0.000000
-0.152963,-0.352790,-0.061745,-0.927303,0.000000,-0.374313
0.153659,-0.483656,0.059990,0.931525,0.000000,0.363676
0.159674,-0.493802,0.041403,0.967988,0.000000,0.250995
0.020522,-0.070427,0.383161,0.000000,0.000000,1.000000
-0.163299,-0.427825,0.023314,-0.989962,0.000000,0.141337
-0.006246,0.091783,0.006759,0.000000,1.000000,0.000000
-0.440269,0.005225,-0.003754,-0.866025,0.000000,-0.500000
-0.049217,-0.637057,0.060653,-0.585033,0.371391,0.720975
-0.204747,0.059672,-0.383161,-0.000000,0.000000,-1.000000
-0.233266,-0.040835,-0.362294,-0.866025,0.000000,-0.500000
-0.061587,-0.576355,0.153026,-0.373360,0.000000,0.927687
0.018212,-0.153687,-0.163946,0.110407,0.000000,-0.993886
-0.135285,-0.121329,-0.094382,-0.820135,0.000000,-0.572170
0.164758,-0.234712,-0.008045,0.998810,0.000000,-0.048774
-0.430716,-0.061848,-0.020299,-0.866025,0.000000,-0.500000
-0.133801,-0.103640,0.096474,-0.811141,0.000000,0.584851
-0.036753,-0.501211,0.160808,-0.222804,0.000000,0.974863
-0.085540,-0.596487,0.117119,-0.547618,0.371391,0.749789
-0.074238,-0.377818,0.147305,-0.450053,0.000000,0.893002
0.075739,-0.549759,-0.146538,0.459154,0.000000,-0.888357
-0.167291,-0.091783,-0.024567,0.000000,-1.000000,0.000000
0.077287,-0.147320,-0.145728,0.468532,0.000000,-0.883446
-0.000011,-0.639944,0.073347,-0.000144,0.371391,0.928477
-0.109407,-0.503310,-0.123451,-0.663256,0.000000,-0.748393
-0.073532,-0.324099,-0.147658,-0.445773,0.000000,-0.895146
-0.043051,-0.473394,-0.159238,-0.260987,0.000000,-0.965342
-0.156141,-0.474102,-0.053197,-0.946572,0.000000,-0.322493
-0.126642,-0.085904,-0.383161,-0.000000,0.000000,-1.000000
0.149597,-0.431993,-0.069504,0.906897,0.000000,-0.421353
0.322025,0.008840,-0.208558,0.866025,0.000000,-0.500000
0.023736,-0.663778,0.024388,0.647581,0.371391,0.665363
0.011953,-0.643611,0.066229,0.164901,0.371391,0.913716
-0.102813,-0.109464,-0.128994,-0.623280,0.000000,-0.781998
-0.024884,-0.607424,0.124528,-0.181934,0.371391,0.910477
-0.044356,-0.552490,0.158879,-0.268900,0.000000,0.963168
0.163686,-0.328443,0.020420,0.992308,0.000000,0.123793
0.121511,0.072190,0.383161,0.000000,0.000000,1.000000
-0.164943,-0.097966,0.001903,-0.999933,0.000000,0.011539
0.152170,-0.276922,-0.063672,0.922499,0.000000,-0.386000
0.438689,-0.082322,-0.006490,0.866025,0.000000,-0.500000
0.015523,-0.291406,-0.164222,0.094102,0.000000,-0.995563
-0.163397,-0.515815,0.022613,-0.990559,0.000000,0.137084
-0.047403,-0.609989,0.113238,-0.358529,0.371391,0.856461
-0.164949,-0.478510,-0.001383,-0.999965,0.000000,-0.008382
0.160937,-0.153130,0.036185,0.975644,0.000000,0.219361
-0.009975,-0.661178,-0.037000,-0.241687,0.371391,-0.896469
-0.160715,-0.490615,-0.037156,-0.974301,0.000000,-0.225249
-0.376543,-0.022744,-0.114130,-0.866025,0.000000,-0.500000
-0.142000,-0.256935,0.083941,-0.860841,0.000000,0.508873
-0.119304,-0.091783,0.267774,0.000000,-1.000000,0.000000
-0.337426,-0.020835,-0.181883,-0.866025,0.000000,-0.500000
-0.027336,-0.359290,-0.162674,-0.165717,0.000000,-0.986173
-0.122742,-0.365524,0.110201,-0.744098,0.000000,0.668070
0.233005,0.044625,0.362745,0.866025,0.000000,0.500000
-0.062348,-0.235356,-0.152718,-0.377971,0.000000,-0.925818
0.022850,-0.196467,-0.163364,0.138524,0.000000,-0.990359
-0.071058,-0.127056,-0.148865,-0.430776,0.000000,-0.902459
-0.146119,-0.177161,-0.076545,-0.885816,0.000000,-0.464036
0.313285,-0.091783,-0.083901,0.000000,-1.000000,0.000000
-0.405278,0.050594,0.064359,-0.866025,0.000000,0.500000
0.067622,-0.574334,0.150457,0.409946,0.000000,0.912110
0.322271,-0.040782,-0.208133,0.866025,0.000000,-0.500000
-0.053394,-0.503405,-0.156074,-0.323686,0.000000,-0.946164
-0.057367,0.020496,-0.383161,-0.000000,0.000000,-1.000000
0.064536,-0.534867,-0.151806,0.391234,0.000000,-0.920291
-0.248142,-0.060552,0.336528,-0.866025,0.000000,0.500000
0.139791,0.055831,0.383161,0.000000,0.000000,1.000000
-0.342590,-0.064907,0.172939,-0.866025,0.000000,0.500000
-0.009230,-0.504168,-0.164696,-0.055954,0.000000,-0.998433
0.011814,0.079043,-0.383161,-0.000000,0.000000,-1.000000
-0.000082,-0.091783,-0.004710,0.000000,-1.000000,0.000000
0.122172,0.091783,0.081928,0.000000,1.000000,0.000000
-0.161537,-0.474998,-0.033404,-0.979281,0.000000,-0.202504
-0.099733,-0.312656,-0.131390,-0.604607,0.000000,-0.796524
-0.089751,-0.227119,-0.138401,-0.544094,0.000000,-0.839024
-0.038616,-0.500478,0.160371,-0.234103,0.000000,0.972212
-0.231270,-0.026879,0.365750,-0.866025,0.000000,0.500000
0.135002,0.039246,-0.383161,-0.000000,0.000000,-1.000000
-0.100473,-0.619504,-0.036984,-0.871322,0.371391,-0.320728
0.259050,0.007808,-0.317634,0.866025,0.000000,-0.500000
0.155349,-0.160122,0.055468,0.941768,0.000000,0.336262
-0.022038,0.089112,0.383161,0.000000,0.000000,1.000000
-0.094974,-0.619827,-0.048257,-0.827755,0.371391,-0.420584
-0.154295,-0.424689,-0.058336,-0.935379,0.000000,-0.353647
0.179688,-0.017131,0.383161,0.000000,0.000000,1.000000
-0.051464,-0.300936,-0.156721,-0.311989,0.000000,-0.950086
-0.125208,-0.073380,0.383161,0.000000,0.000000,1.000000
0.164833,-0.348947,-0.006328,0.999264,0.000000,-0.038364
-0.228965,-0.034968,-0.369743,-0.866025,0.000000,-0.500000
-0.090841,-0.099739,0.137688,-0.550704,0.000000,0.834700
0.259685,0.070349,-0.316534,0.866025,0.000000,-0.500000
-0.112795,-0.091783,0.169029,0.000000,-1.000000,0.000000
-0.420114,0.073799,-0.038663,-0.866025,0.000000,-0.500000
-0.228409,-0.091783,-0.245001,0.000000,-1.000000,0.000000
0.439441,-0.063640,-0.005188,0.866025,0.000000,-0.500000
-0.083842,-0.091783,-0.066225,0.000000,-1.000000,0.000000
0.060005,-0.645777,0.021458,0.874260,0.371391,0.312632
0.073203,0.066049,0.383161,0.000000,0.000000,1.000000
-0.342341,0.053690,-0.173370,-0.866025,0.000000,-0.500000
0.011024,0.047495,0.383161,0.000000,0.000000,1.000000
-0.030491,-0.607722,-0.122770,-0.223796,0.371391,-0.901102
0.244233,0.091783,-0.117337,0.000000,1.000000,0.000000
-0.044755,-0.160066,0.158767,-0.271318,0.000000,0.962490
0.027639,-0.654582,-0.040705,0.521562,0.371391,-0.768142
-0.039463,-0.163204,0.160164,-0.239236,0.000000,0.970961
-0.319673,0.091783,0.008848,0.000000,1.000000,0.000000
-0.330658,0.060441,-0.193606,-0.866025,0.000000,-0.500000
0.047882,-0.091783,0.013926,0.000000,-1.000000,0.000000
-0.085136,0.088752,0.383161,0.000000,0.000000,1.000000
-0.071280,-0.091783,-0.004416,0.000000,-1.000000,0.000000
0.298519,-0.066606,0.249272,0.866025,0.000000,0.500000
0.320937,-0.018918,0.210442,0.866025,0.000000,0.500000
-0.121371,-0.151290,-0.111710,-0.735783,0.000000,-0.677217
-0.075797,-0.107684,-0.146509,-0.459500,0.000000,-0.888178
-0.290401,0.049781,0.263332,-0.866025,0.000000,0.500000
0.070608,-0.330940,-0.149079,0.428046,0.000000,-0.903757
-0.107197,-0.025380,-0.383161,-0.000000,0.000000,-1.000000
-0.110643,-0.598226,0.089267,-0.722617,0.371391,0.583004
-0.064527,-0.482687,-0.151810,-0.391181,0.000000,-0.920314
-0.119605,-0.321189,0.113599,-0.725076,0.000000,0.688669
-0.061002,0.046090,0.383161,0.000000,0.000000,1.000000
-0.139116,-0.111655,-0.088638,-0.843360,0.000000,-0.537349
0.263152,-0.089000,0.310529,0.866025,0.000000,0.500000
-0.163512,-0.189520,-0.021770,-0.991253,0.000000,-0.131973
-0.089407,-0.057689,-0.383161,-0.000000,0.000000,-1.000000
-0.234625,-0.012420,0.359939,-0.866025,0.000000,0.500000
-0.223439,-0.091783,0.129145,0.000000,-1.000000,0.000000
0.070147,-0.015396,-0.383161,-0.000000,0.000000,-1.000000
-0.394607,-0.062965,-0.082843,-0.866025,0.000000,-0.500000
-0.077956,0.086890,-0.383161,-0.000000,0.000000,-1.000000
0.000900,-0.599194,0.140564,0.005947,0.371391,0.928458
0.004712,-0.274662,-0.164887,0.028565,0.000000,-0.999592
-0.411097,-0.048934,0.054280,-0.866025,0.000000,0.500000
-0.152508,0.049437,0.383161,0.000000,0.000000,1.000000
-0.128356,-0.089052,-0.383161,-0.000000,0.000000,-1.000000
0.320954,-0.037737,-0.210413,0.866025,0.000000,-0.500000
-0.039804,0.069045,-0.383161,-0.000000,0.000000,-1.000000
-0.256606,-0.010454,-0.321868,-0.866025,0.000000,-0.500000
-0.157953,-0.359886,0.047549,-0.957553,0.000000,0.288257
0.057390,-0.133547,0.154649,0.347913,0.000000,0.937527
0.152214,-0.522347,-0.063568,0.922764,0.000000,-0.385367
-0.069537,-0.150549,0.149581,-0.421551,0.000000,0.906804
0.299222,-0.069386,-0.248053,0.866025,0.000000,-0.500000
-0.098829,0.037619,0.383161,0.000000,0.000000,1.000000
0.380552,0.008580,-0.107186,0.866025,0.000000,-0.500000
-0.050190,0.068747,-0.383161,-0.000000,0.000000,-1.000000
-0.092439,-0.441682,0.136620,-0.560394,0.000000,0.828226
0.128534,-0.112891,0.103388,0.779208,0.000000,0.626766
-0.389330,0.051788,0.091982,-0.866025,0.000000,0.500000
0.437482,0.054221,0.008580,0.866025,0.000000,0.500000
0.163684,-0.150065,-0.020435,0.992297,0.000000,-0.123880
-0.025942,0.008484,0.383161,0.000000,0.000000,1.000000
0.067929,-0.588588,0.142720,0.399024,0.371391,0.838361
0.130130,-0.475275,-0.101371,0.788885,0.000000,-0.614540
0.082303,-0.047624,-0.383161,-0.000000,0.000000,-1.000000
-0.233727,-0.091783,0.141638,0.000000,-1.000000,0.000000
-0.017383,0.091783,-0.088431,0.000000,1.000000,0.000000
-0.159822,-0.269795,0.040827,-0.968886,0.000000,0.247506
-0.135749,-0.546180,-0.093713,-0.822950,0.000000,-0.568113
0.288769,-0.077748,0.266158,0.866025,0.000000,0.500000
0.023801,-0.091783,-0.365389,0.000000,-1.000000,0.000000
0.263472,-0.049830,0.309975,0.866025,0.000000,0.500000
-0.132715,-0.053165,0.383161,0.000000,0.000000,1.000000
-0.389219,-0.042614,-0.092175,-0.866025,0.000000,-0.500000
0.385553,-0.080346,-0.098525,0.866025,0.000000,-0.500000
-0.262635,0.091734,-0.311424,-0.866025,0.000000,-0.500000
-0.247570,-0.091783,-0.162380,0.000000,-1.000000,0.000000
0.132240,-0.600885,-0.038666,0.891163,0.371391,-0.260572
0.138748,-0.426825,-0.089213,0.841128,0.000000,-0.540837
0.048224,0.091783,0.015623,0.000000,1.000000,0.000000
0.163053,-0.218432,0.024973,0.988474,0.000000,0.151394
-0.121507,-0.590869,0.095100,-0.731158,0.371391,0.572255
0.238143,0.091783,-0.109540,0.000000,1.000000,0.000000
-0.239145,0.029963,-0.352110,-0.866025,0.000000,-0.500000
0.151355,-0.214654,-0.065587,0.917556,0.000000,-0.397606
-0.342002,-0.061440,-0.173956,-0.866025,0.000000,-0.500000
-0.258021,-0.015385,-0.319416,-0.866025,0.000000,-0.500000
0.170909,0.046803,-0.383161,-0.000000,0.000000,-1.000000
-0.371366,-0.085377,-0.123098,-0.866025,0.000000,-0.500000
0.121319,-0.337120,0.111766,0.735469,0.000000,0.677559
-0.162102,-0.343095,0.030542,-0.982710,0.000000,0.185151
-0.037865,-0.640277,-0.062176,-0.482937,0.371391,-0.792995
0.093877,-0.623671,0.035005,0.869963,0.371391,0.324396
-0.323414,0.006452,-0.206152,-0.866025,0.000000,-0.500000
0.325578,-0.050451,0.202404,0.866025,0.000000,0.500000
0.396534,0.061307,-0.079504,0.866025,0.000000,-0.500000
-0.141588,-0.127846,-0.084634,-0.858346,0.000000,-0.513072
-0.077434,-0.631095,0.041692,-0.817512,0.371391,0.440163
0.369015,0.066579,0.127169,0.866025,0.000000,0.500000
0.051029,-0.622535,0.088392,0.464210,0.371391,0.804101
-0.103063,-0.452421,-0.128794,-0.624800,0.000000,-0.780785
0.036301,-0.662300,-0.003510,0.924166,0.371391,-0.089368
-0.396873,-0.059326,0.078918,-0.866025,0.000000,0.500000
0.130825,-0.424393,-0.100473,0.793095,0.000000,-0.609098
-0.084946,-0.098577,-0.141400,-0.514969,0.000000,-0.857209
0.049058,-0.630374,-0.074418,0.511028,0.371391,-0.775190
0.164625,-0.239124,-0.010425,0.998001,0.000000,-0.063201
0.353195,-0.046009,-0.154570,0.866025,0.000000,-0.500000
0.363764,0.050741,0.136263,0.866025,0.000000,0.500000
-0.156895,-0.526409,0.050932,-0.951138,0.000000,0.308765
-0.112126,-0.222620,0.120986,-0.679740,0.000000,0.733454
0.198673,0.086709,0.383161,0.000000,0.000000,1.000000
0.235412,-0.091783,-0.073843,0.000000,-1.000000,0.000000
-0.116244,-0.366419,-0.117035,-0.704704,0.000000,-0.709502
-0.109773,-0.509799,-0.123125,-0.665475,0.000000,-0.746420
-0.117001,-0.604160,0.061918,-0.820645,0.371391,0.434294
-0.152140,-0.179500,0.063746,-0.922313,0.000000,0.386444
-0.064481,-0.102886,-0.151829,-0.390904,0.000000,-0.920431
-0.063652,-0.618084,0.088985,-0.540177,0.371391,0.755167
0.070884,-0.129537,0.148948,0.429719,0.000000,0.902963
-0.123092,-0.518374,-0.109811,-0.746217,0.000000,-0.665703
0.114359,-0.540823,-0.118878,0.693276,0.000000,-0.720672
-0.062036,0.043661,-0.383161,-0.000000,0.000000,-1.000000
-0.163049,-0.137540,-0.024999,-0.988449,0.000000,-0.151552
-0.425032,-0.051368,-0.030145,-0.866025,0.000000,-0.500000
-0.360742,-0.082706,-0.141498,-0.866025,0.000000,-0.500000
0.052141,-0.614411,-0.103023,0.419272,0.371391,-0.828420
-0.089932,-0.479609,0.138283,-0.545193,0.000000,0.838311
0.136881,-0.560327,-0.092052,0.829809,0.000000,-0.558047
0.143698,-0.513998,-0.080999,0.871139,0.000000,-0.491036
0.160755,-0.547657,-0.036982,0.974544,0.000000,-0.224196
-0.103204,-0.340347,0.128682,-0.625650,0.000000,0.780104
0.032270,-0.649233,0.048225,0.516353,0.371391,0.771653
0.074856,-0.133096,-0.146992,0.453799,0.000000,-0.891104
-0.070611,-0.633629,0.045061,-0.782682,0.371391,0.499478
-0.382041,0.032373,0.104608,-0.866025,0.000000,0.500000
0.156578,0.091783,-0.111460,0.000000,1.000000,0.000000
0.141197,0.073912,-0.383161,-0.000000,0.000000,-1.000000
-0.000448,-0.091783,-0.021395,0.000000,-1.000000,0.000000
0.068652,-0.559925,-0.149990,0.416186,0.000000,-0.909279
0.136801,-0.091783,0.207104,0.000000,-1.000000,0.000000
-0.102857,-0.100489,0.128959,-0.623548,0.000000,0.781785
0.121010,0.038323,0.383161,0.000000,0.000000,1.000000
-0.047951,-0.370407,0.157831,-0.290694,0.000000,0.956816
-0.149387,-0.091783,-0.127267,0.000000,-1.000000,0.000000
-0.292618,-0.091783,-0.048786,0.000000,-1.000000,0.000000
0.135746,-0.321419,0.093718,0.822929,0.000000,0.568144
-0.114876,-0.019986,0.383161,0.000000,0.000000,1.000000
0.162350,-0.329255,0.029196,0.984212,0.000000,0.176996
-0.110018,-0.165968,0.122907,-0.666960,0.000000,0.745094
-0.164950,-0.504823,0.001147,-0.999976,0.000000,0.006955
0.128149,0.031455,-0.383161,-0.000000,0.000000,-1.000000
-0.021046,-0.659655,0.034993,-0.478545,0.371391,0.795653
0.007848,0.091783,0.325116,0.000000,1.000000,0.000000
-0.275250,0.060980,-0.289574,-0.866025,0.000000,-0.500000
-0.137159,-0.395111,0.091638,-0.831494,0.000000,0.555534
-0.280687,0.080936,-0.280157,-0.866025,0.000000,-0.500000
0.089641,0.091783,-0.239957,0.000000,1.000000,0.000000
0.044782,-0.649521,-0.036147,0.722481,0.371391,-0.583173
-0.061556,-0.091693,0.383161,0.000000,0.000000,1.000000
-0.089592,-0.092611,-0.138504,-0.543132,0.000000,-0.839647
0.218699,0.024630,0.383161,0.000000,0.000000,1.000000
0.134295,-0.517092,0.095786,0.814131,0.000000,0.580681
-0.442248,-0.091090,0.000325,-0.866025,0.000000,0.500000
-0.109782,-0.397980,-0.123117,-0.665530,0.000000,-0.746371
0.251917,-0.067132,-0.329988,0.866025,0.000000,-0.500000
-0.119570,-0.070347,0.383161,0.000000,0.000000,1.000000
0.034523,0.053357,-0.383161,-0.000000,0.000000,-1.000000
0.373125,-0.046254,-0.120050,0.866025,0.000000,-0.500000
-0.118406,-0.395236,0.114848,-0.717807,0.000000,0.696242
0.164857,-0.434409,-0.005658,0.999412,0.000000,-0.034302
-0.231154,-0.079891,-0.365951,-0.866025,0.000000,-0.500000
-0.050934,-0.601123,-0.127594,-0.344225,0.371391,-0.862310
0.072996,-0.610816,-0.096998,0.558300,0.371391,-0.741869
0.352391,0.045573,-0.155963,0.866025,0.000000,-0.500000
-0.163015,-0.473822,0.025221,-0.988242,0.000000,0.152895
0.222600,0.091783,-0.105642,0.000000,1.000000,0.000000
-0.278893,-0.038354,-0.283265,-0.866025,0.000000,-0.500000
0.159001,0.049832,0.383161,0.000000,0.000000,1.000000
0.094878,-0.558865,0.134937,0.575179,0.000000,0.818027
0.159677,-0.291567,0.041391,0.968007,0.000000,0.250924
-0.310161,0.072904,-0.229107,-0.866025,0.000000,-0.500000
-0.063811,0.052136,0.383161,0.000000,0.000000,1.000000
-0.109710,-0.389141,-0.123181,-0.665094,0.000000,-0.746760
0.084141,-0.620561,-0.063347,0.741759,0.371391,-0.558446
0.135570,0.091783,0.106671,0.000000,1.000000,0.000000
0.013006,-0.108908,0.164441,0.078847,0.000000,0.996887
-0.164954,-0.354796,0.000525,-0.999995,0.000000,0.003180
-0.340914,-0.090545,-0.175841,-0.866025,0.000000,-0.500000
-0.194472,0.091783,0.161184,0.000000,1.000000,0.000000
0.410516,0.038288,0.055287,0.866025,0.000000,0.500000
-0.064386,-0.546899,0.151870,-0.390323,0.000000,0.920678
0.030048,-0.645138,-0.057390,0.430669,0.371391,-0.822553
0.104673,0.091783,-0.194352,0.000000,1.000000,0.000000
-0.066019,-0.091783,-0.328062,0.000000,-1.000000,0.000000
-0.017613,-0.211515,-0.164011,-0.106774,0.000000,-0.994283
0.149706,-0.340425,0.069269,0.907558,0.000000,0.419926
-0.044746,-0.613529,-0.108019,-0.355337,0.371391,-0.857791
0.320287,-0.035938,0.211568,0.866025,0.000000,0.500000
-0.354941,-0.016462,0.151545,-0.866025,0.000000,0.500000
0.342487,-0.022890,-0.173117,0.866025,0.000000,-0.500000
0.274488,0.040233,0.290894,0.866025,0.000000,0.500000
0.436035,-0.025962,0.011087,0.866025,0.000000,0.500000
0.004700,0.091783,0.382466,0.000000,1.000000,0.000000
0.156074,-0.200832,-0.053395,0.946162,0.000000,-0.323693
0.067346,-0.062243,0.383161,0.000000,0.000000,1.000000
-0.383237,0.091685,-0.102536,-0.866025,0.000000,-0.500000
-0.164953,-0.325092,0.000616,-0.999993,0.000000,0.003736
0.090984,-0.329986,-0.137593,0.551568,0.000000,-0.834130
0.372202,0.056181,0.121650,0.866025,0.000000,0.500000
0.160147,-0.258858,-0.039533,0.970857,0.000000,-0.239660
-0.110308,-0.290857,0.122646,-0.668717,0.000000,0.743517
-0.281029,0.081058,0.279566,-0.866025,0.000000,0.500000
-0.146818,-0.091783,0.094153,0.000000,-1.000000,0.000000
0.111029,-0.253774,0.121994,0.673086,0.000000,0.739564
-0.425511,-0.079727,-0.029315,-0.866025,0.000000,-0.500000
0.400385,-0.014499,-0.072834,0.866025,0.000000,-0.500000
-0.018730,-0.614496,0.113794,-0.150794,0.371391,0.916150
-0.111820,-0.091783,-0.175181,0.000000,-1.000000,0.000000
0.035394,-0.231270,0.161113,0.214566,0.000000,0.976709
-0.417173,-0.059380,-0.043756,-0.866025,0.000000,-0.500000
0.047568,-0.619200,0.096476,0.410595,0.371391,0.832755
0.033727,-0.655860,-0.032868,0.664944,0.371391,-0.648011
-0.154339,-0.341441,-0.058219,-0.935647,0.000000,-0.352938
-0.364908,0.075745,0.134282,-0.866025,0.000000,0.500000
-0.153776,-0.102198,-0.059689,-0.932235,0.000000,-0.361853
0.173907,-0.091783,-0.051958,0.000000,-1.000000,0.000000
0.054763,-0.559948,0.155599,0.331991,0.000000,0.943283
0.247629,-0.087439,0.337416,0.866025,0.000000,0.500000
0.074200,-0.616474,0.083978,0.614774,0.371391,0.695789
0.020218,-0.317920,0.163711,0.122568,0.000000,0.992460
-0.065464,-0.476391,0.151408,-0.396861,0.000000,0.917879
-0.163870,-0.410421,0.018886,-0.993424,0.000000,0.114490
-0.272003,-0.017173,-0.295198,-0.866025,0.000000,-0.500000
-0.131676,-0.022704,0.383161,0.000000,0.000000,1.000000
-0.096013,0.091783,-0.157939,0.000000,1.000000,0.000000
0.144204,-0.281726,-0.080094,0.874207,0.000000,-0.485553
0.227667,-0.088226,0.371991,0.866025,0.000000,0.500000
-0.436918,-0.040773,0.009557,-0.866025,0.000000,0.500000
0.107156,-0.518071,-0.125410,0.649609,0.000000,-0.760268
-0.122057,-0.503961,0.110959,-0.739946,0.000000,0.672667
0.051754,-0.073548,0.383161,0.000000,0.000000,1.000000
0.284196,-0.003577,0.274079,0.866025,0.000000,0.500000
0.053518,-0.407076,0.156031,0.324443,0.000000,0.945905
-0.155702,-0.103434,-0.054469,-0.943909,0.000000,-0.330205
0.089755,-0.080338,0.383161,0.000000,0.000000,1.000000
-0.016302,-0.477006,0.164147,-0.098825,0.000000,0.995105
0.074428,-0.638883,0.010009,0.920194,0.371391,0.123741
0.009192,-0.346923,0.164698,0.055723,0.000000,0.998446
-0.157887,-0.526226,0.047765,-0.957158,0.000000,0.289567
0.133604,-0.603414,0.000783,0.928461,0.371391,0.005443
-0.164857,-0.304904,-0.005678,-0.999407,0.000000,-0.034420
0.374278,-0.090771,0.118054,0.866025,0.000000,0.500000
0.143904,-0.091783,0.310791,0.000000,-1.000000,0.000000
-0.278403,0.046383,0.284113,-0.866025,0.000000,0.500000
-0.235131,-0.008309,-0.359063,-0.866025,0.000000,-0.500000
-0.224825,-0.034525,0.376913,-0.866025,0.000000,0.500000
0.084669,-0.605801,0.098210,0.606261,0.371391,0.703219
-0.322850,-0.002352,0.207130,-0.866025,0.000000,0.500000
-0.155219,-0.115831,-0.055832,-0.940978,0.000000,-0.338467
0.082189,-0.239697,0.143021,0.498253,0.000000,0.867031
0.203390,0.091783,0.116553,0.000000,1.000000,0.000000
0.149910,-0.325195,-0.068825,0.908799,0.000000,-0.417235
-0.080049,-0.622516,0.063369,-0.727981,0.371391,0.576292
-0.352600,0.030635,-0.155601,-0.866025,0.000000,-0.500000
-0.042017,-0.401109,-0.159513,-0.254719,0.000000,-0.967015
-0.373208,0.008993,0.119907,-0.866025,0.000000,0.500000
0.112039,-0.457233,0.121067,0.679211,0.000000,0.733943
-0.117503,-0.300731,-0.115771,-0.712337,0.000000,-0.701838
0.070591,-0.362044,-0.149087,0.427944,0.000000,-0.903805
0.111102,-0.114651,0.121928,0.673531,0.000000,0.739159
0.011010,-0.410004,0.164587,0.066747,0.000000,0.997770
-0.016714,-0.615476,-0.112473,-0.136477,0.371391,-0.918392
-0.081659,-0.388653,0.143324,-0.495040,0.000000,0.868870
0.109193,-0.488770,-0.123640,0.661960,0.000000,-0.749539
0.134011,-0.600339,0.035672,0.897234,0.371391,0.238829
-0.049404,-0.412004,-0.157382,-0.299503,0.000000,-0.954095
-0.135566,0.050470,0.383161,0.000000,0.000000,1.000000
0.191031,0.091783,0.000056,0.000000,1.000000,0.000000
0.029178,-0.638052,-0.070683,0.354278,0.371391,-0.858228
-0.139148,-0.599586,0.014679,-0.923353,0.371391,0.097407
-0.040722,-0.585216,-0.158475,-0.231077,0.371391,-0.899262
0.005631,-0.386210,-0.164858,0.034136,0.000000,-0.999417
0.381775,0.077434,-0.105068,0.866025,0.000000,-0.500000
-0.375867,-0.074336,-0.115301,-0.866025,0.000000,-0.500000
0.024628,-0.259181,-0.163106,0.149301,0.000000,-0.988792
-0.391215,-0.041295,0.088717,-0.866025,0.000000,0.500000
0.112810,-0.582873,-0.120349,0.683886,0.000000,-0.729589
-0.135965,-0.184024,-0.093399,-0.824260,0.000000,-0.566211
0.193562,0.087498,-0.383161,-0.000000,0.000000,-1.000000
0.005972,0.091783,0.286396,0.000000,1.000000,0.000000
-0.412360,-0.053823,0.052093,-0.866025,0.000000,0.500000
-0.140888,-0.095801,0.085793,-0.854105,0.000000,0.520101
-0.023851,-0.638470,-0.071928,-0.292227,0.371391,-0.881290
-0.127946,-0.259686,0.104115,-0.775642,0.000000,0.631173
-0.163427,-0.215768,-0.022399,-0.990738,0.000000,-0.135790
0.085756,-0.200874,0.140911,0.519874,0.000000,0.854243
0.059007,-0.391018,0.154040,0.357714,0.000000,0.933831
-0.377629,0.028132,0.112249,-0.866025,0.000000,0.500000
0.142429,-0.556856,-0.083210,0.863444,0.000000,-0.504444
0.051285,-0.120731,0.156780,0.310903,0.000000,0.950442
-0.034608,-0.653838,0.036679,-0.637198,0.371391,0.675313
0.001926,-0.658312,-0.043005,0.041531,0.371391,-0.927547
-0.093906,-0.626915,0.013268,-0.919346,0.371391,0.129892
0.333905,-0.018071,-0.187981,0.866025,0.000000,-0.500000
0.121697,-0.091783,-0.081332,0.000000,-1.000000,0.000000
0.099274,-0.624207,-0.002553,0.928170,0.371391,-0.023872
0.043346,-0.611500,-0.112184,0.334636,0.371391,-0.866076
0.321142,0.017156,0.210088,0.866025,0.000000,0.500000
0.054784,-0.100710,0.155591,0.332115,0.000000,0.943239
-0.164948,-0.431248,0.001495,-0.999959,0.000000,0.009060
-0.342978,0.012853,0.172266,-0.866025,0.000000,0.500000
-0.128539,-0.542830,0.103382,-0.779238,0.000000,0.626728
-0.255514,-0.078442,0.323758,-0.866025,0.000000,0.500000
0.365697,-0.022409,0.132916,0.866025,0.000000,0.500000
0.042756,-0.074369,-0.383161,-0.000000,0.000000,-1.000000
0.090800,-0.365429,-0.137714,0.550458,0.000000,-0.834863
0.305898,0.091783,0.069526,0.000000,1.000000,0.000000
-0.159772,-0.091783,0.140387,0.000000,-1.000000,0.000000
0.063522,-0.075268,0.383161,0.000000,0.000000,1.000000
0.164677,-0.113527,-0.009557,0.998320,0.000000,-0.057935
0.149546,-0.382339,-0.069614,0.906587,0.000000,-0.422018
0.317539,0.050933,-0.216329,0.866025,0.000000,-0.500000
-0.259766,-0.081493,-0.316393,-0.866025,0.000000,-0.500000
-0.074087,-0.431290,-0.147381,-0.449134,0.000000,-0.893464
-0.149519,-0.091783,-0.091763,0.000000,-1.000000,0.000000
-0.118634,-0.173107,0.114612,-0.719191,0.000000,0.694813
0.271696,-0.062079,-0.295731,0.866025,0.000000,-0.500000
-0.258979,-0.056271,0.317757,-0.866025,0.000000,0.500000
0.124596,-0.607073,-0.027385,0.906832,0.371391,-0.199311
0.246177,0.008868,0.339931,0.866025,0.000000,0.500000
-0.276456,0.000692,-0.287487,-0.866025,0.000000,-0.500000
0.159118,-0.229344,0.043491,0.964617,0.000000,0.263653
0.063963,-0.638140,-0.041641,0.778111,0.371391,-0.506568
-0.143730,-0.380315,-0.080942,-0.871331,0.000000,-0.490696
0.152576,-0.588776,-0.040074,0.898018,0.371391,-0.235865
0.056787,-0.375142,-0.154871,0.344261,0.000000,-0.938874
-0.066171,-0.602865,-0.117110,-0.456752,0.371391,-0.808361
0.047326,-0.644486,-0.045794,0.667240,0.371391,-0.645647
0.082656,-0.621463,-0.062842,0.739114,0.371391,-0.561943
-0.252944,0.051454,0.328211,-0.866025,0.000000,0.500000
0.138846,-0.457941,0.089060,0.841723,0.000000,0.539909
0.023000,0.018458,-0.383161,-0.000000,0.000000,-1.000000
0.141794,-0.261703,0.084287,0.859596,0.000000,0.510974
0.099623,-0.301088,-0.131473,0.603942,0.000000,-0.797028
0.113661,-0.601686,0.075507,0.773377,0.371391,0.513768
-0.051275,-0.535253,-0.156783,-0.310845,0.000000,-0.950461
0.043980,-0.522806,0.158983,0.266619,0.000000,0.963802
-0.345534,-0.062935,-0.167839,-0.866025,0.000000,-0.500000
-0.437950,-0.032880,-0.007769,-0.866025,0.000000,-0.500000
-0.149459,0.068096,0.383161,0.000000,0.000000,1.000000
0.148701,-0.211638,0.071401,0.901464,0.000000,0.432854
0.087949,-0.086861,0.383161,0.000000,0.000000,1.000000
-0.143556,-0.501208,-0.081251,-0.870274,0.000000,-0.492567
0.098753,-0.622627,0.025181,0.899688,0.371391,0.229415
-0.268247,-0.048215,-0.301704,-0.866025,0.000000,-0.500000
-0.007322,-0.338463,0.164792,-0.044386,0.000000,0.999014
0.047162,-0.091783,0.015849,0.000000,-1.000000,0.000000
-0.062450,-0.020593,-0.383161,-0.000000,0.000000,-1.000000
0.164371,-0.492542,0.013865,0.996461,0.000000,0.084051
0.047292,-0.087212,0.383161,0.000000,0.000000,1.000000
0.126036,-0.568605,-0.106418,0.764066,0.000000,-0.645138
-0.026305,-0.660632,-0.029093,-0.622709,0.371391,-0.688696
-0.183187,0.012864,-0.383161,-0.000000,0.000000,-1.000000
-0.104094,0.022265,-0.383161,-0.000000,0.000000,-1.000000
0.156727,-0.175283,0.051445,0.950123,0.000000,0.311876
-0.148818,-0.299495,0.071156,-0.902176,0.000000,0.431368
-0.376698,0.046762,0.113862,-0.866025,0.000000,0.500000
-0.124250,0.084810,0.383161,0.000000,0.000000,1.000000
0.072650,-0.326625,0.148094,0.440424,0.000000,0.897790
0.017368,-0.541410,-0.164038,0.105289,0.000000,-0.994442
0.154734,-0.380470,0.057160,0.938043,0.000000,0.346519
0.161205,-0.229858,0.034970,0.977270,0.000000,0.211998
-0.134441,-0.446037,0.095580,-0.815018,0.000000,0.579435
-0.062331,-0.579641,-0.152724,-0.377871,0.000000,-0.925858
-0.025536,-0.301397,-0.162966,-0.154808,0.000000,-0.987945
0.232005,0.010699,0.364477,0.866025,0.000000,0.500000
0.195617,-0.091783,0.301840,0.000000,-1.000000,0.000000
0.039372,-0.627939,-0.084421,0.392442,0.371391,-0.841462
0.243568,0.091783,-0.196832,0.000000,1.000000,0.000000
0.150459,-0.331247,-0.067618,0.912122,0.000000,-0.409918
-0.280991,-0.046939,0.279632,-0.866025,0.000000,0.500000
0.132963,-0.323124,-0.097626,0.806058,0.000000,-0.591836
0.058989,-0.620938,-0.086499,0.523121,0.371391,-0.767081
0.278990,-0.037801,0.283097,0.866025,0.000000,0.500000
0.104311,-0.603358,-0.083633,0.724392,0.371391,-0.580797
-0.131060,-0.346760,-0.100166,-0.794524,0.000000,-0.607233
0.040993,-0.091783,0.015865,0.000000,-1.000000,0.000000
-0.214030,-0.022889,0.383161,0.000000,0.000000,1.000000
0.075395,0.054966,-0.383161,-0.000000,0.000000,-1.000000
0.155286,-0.440851,0.055645,0.941385,0.000000,0.337334
-0.426251,-0.056926,0.028032,-0.866025,0.000000,0.500000
0.310679,0.091783,-0.038345,0.000000,1.000000,0.000000
0.164298,-0.286663,-0.014706,0.996018,0.000000,-0.089153
0.082146,-0.399112,-0.143045,0.497994,0.000000,-0.867180
-0.040628,-0.584498,-0.159722,-0.228884,0.371391,-0.899823
-0.137026,-0.349963,-0.091836,-0.830689,0.000000,-0.556737
-0.164885,-0.385853,0.004787,-0.999579,0.000000,0.029022
0.054498,-0.052872,-0.383161,-0.000000,0.000000,-1.000000
-0.046018,-0.376795,-0.158406,-0.278974,0.000000,-0.960299
-0.035603,0.091783,0.011016,0.000000,1.000000,0.000000
-0.016233,0.010785,0.383161,0.000000,0.000000,1.000000
-0.088982,0.014138,-0.383161,-0.000000,0.000000,-1.000000
-0.005119,-0.206440,-0.164875,-0.031031,0.000000,-0.999518
0.011461,0.091783,0.062102,0.000000,1.000000,0.000000
-0.155487,-0.168362,0.055080,-0.942606,0.000000,0.333908
0.024003,0.091783,-0.353719,0.000000,1.000000,0.000000
-0.068902,-0.277075,-0.149875,-0.417700,0.000000,-0.908585
-0.295732,-0.084211,0.254099,-0.866025,0.000000,0.500000
-0.150722,-0.515353,-0.067029,-0.913719,0.000000,-0.406347
-0.034905,0.069843,-0.383161,-0.000000,0.000000,-1.000000
-0.344552,0.058323,-0.169541,-0.866025,0.000000,-0.500000
-0.075913,0.041899,-0.383161,-0.000000,0.000000,-1.000000
-0.019775,-0.585598,-0.161790,-0.112643,0.371391,-0.921618
-0.004683,-0.629552,-0.090369,-0.048049,0.371391,-0.927233
0.160078,-0.407327,0.039813,0.970436,0.000000,0.241358
-0.163839,-0.440742,-0.019147,-0.993241,0.000000,-0.116074
-0.124479,-0.574994,0.108236,-0.754625,0.000000,0.656157
-0.013693,-0.445662,-0.164385,-0.083012,0.000000,-0.996549
-0.070987,-0.583671,0.148898,-0.430346,0.000000,0.902664
-0.149976,-0.277882,-0.068683,-0.909194,0.000000,-0.416373
0.388298,0.027197,-0.093770,0.866025,0.000000,-0.500000
-0.150542,0.086613,0.383161,0.000000,0.000000,1.000000
0.155316,-0.185269,0.055561,0.941566,0.000000,0.336827
-0.137032,-0.051950,-0.383161,-0.000000,0.000000,-1.000000
0.152343,-0.523202,-0.063258,0.923545,0.000000,-0.383491
-0.301901,0.023975,0.243413,-0.866025,0.000000,0.500000
-0.024421,-0.493870,0.163137,-0.148048,0.000000,0.988980
0.116359,-0.543025,0.116921,0.705404,0.000000,0.708806
0.005489,-0.568831,0.164863,0.033278,0.000000,0.999446
-0.164245,-0.519364,0.015278,-0.995702,0.000000,0.092619
0.144007,-0.247081,-0.080449,0.873008,0.000000,-0.487706
-0.209354,0.080804,-0.383161,-0.000000,0.000000,-1.000000
-0.050282,-0.591413,-0.144926,-0.304337,0.371391,-0.877182
-0.164937,-0.336194,-0.002374,-0.999896,0.000000,-0.014392
0.351910,0.011473,0.156796,0.866025,0.000000,0.500000
-0.442165,-0.064105,0.000470,-0.866025,0.000000,0.500000
-0.134745,-0.467038,-0.095151,-0.816861,0.000000,-0.576834
-0.090317,-0.247491,-0.138032,-0.547527,0.000000,-0.836788
0.127206,-0.424806,0.105017,0.771160,0.000000,0.636641
-0.034769,-0.471160,0.161249,-0.210777,0.000000,0.977534
0.076063,-0.331661,0.146371,0.461114,0.000000,0.887341
0.126010,-0.605565,-0.032193,0.899584,0.371391,-0.229822
0.014498,-0.650671,0.053732,0.241880,0.371391,0.896417
0.274801,0.091779,-0.290352,0.866025,0.000000,-0.500000
-0.164149,-0.192749,0.016279,-0.995118,0.000000,0.098689
0.158204,-0.295181,-0.046708,0.959074,0.000000,-0.283156
0.419339,0.033198,0.040005,0.866025,0.000000,0.500000
0.026987,-0.623966,0.095982,0.251313,0.371391,0.893818
0.358494,0.083445,-0.145392,0.866025,0.000000,-0.500000
0.189962,-0.090173,0.383161,0.000000,0.000000,1.000000
0.123975,-0.608769,0.014075,0.922550,0.371391,0.104736
-0.092524,-0.548968,-0.136562,-0.560908,0.000000,-0.827878
0.282571,0.006478,-0.276894,0.866025,0.000000,-0.500000
-0.100512,-0.614800,0.055516,-0.812743,0.371391,0.448908
0.079212,-0.387022,0.144691,0.480206,0.000000,0.877156
-0.010980,-0.413874,0.164589,-0.066563,0.000000,0.997782
0.322632,-0.001687,-0.207507,0.866025,0.000000,-0.500000
-0.225558,-0.034661,-0.375643,-0.866025,0.000000,-0.500000
0.345983,-0.091783,0.064205,0.000000,-1.000000,0.000000
-0.412961,-0.018999,0.051053,-0.866025,0.000000,0.500000
-0.367935,0.083034,-0.129040,-0.866025,0.000000,-0.500000
0.068147,-0.387507,0.150220,0.413127,0.000000,0.910673
-0.351188,-0.080871,0.158046,-0.866025,0.000000,0.500000
-0.055061,-0.629570,0.071771,-0.565152,0.371391,0.736663
-0.059440,-0.632851,0.060828,-0.648910,0.371391,0.664067
0.005445,-0.266849,-0.164865,0.033007,0.000000,-0.999455
0.026807,-0.157863,-0.162762,0.162511,0.000000,-0.986707
0.163341,-0.268878,-0.023012,0.990222,0.000000,-0.139504
-0.097398,-0.369657,-0.133130,-0.590453,0.000000,-0.807072
0.163810,-0.175837,-0.019401,0.993060,0.000000,-0.117612
0.164921,-0.455876,-0.003341,0.999795,0.000000,-0.020255
-0.044754,-0.222201,-0.158767,-0.271313,0.000000,-0.962491
-0.310605,0.090715,-0.228337,-0.866025,0.000000,-0.500000
-0.180729,-0.091783,0.063568,0.000000,-1.000000,0.000000
-0.015015,-0.057342,0.383161,0.000000,0.000000,1.000000
0.383159,0.078796,-0.102671,0.866025,0.000000,-0.500000
-0.237008,-0.010439,-0.355811,-0.866025,0.000000,-0.500000
0.152812,-0.314880,-0.062116,0.926389,0.000000,-0.376567
-0.098222,-0.623794,0.018702,-0.912090,0.371391,0.173669
-0.369725,-0.003568,-0.125940,-0.866025,0.000000,-0.500000
0.101990,-0.377269,-0.129646,0.618293,0.000000,-0.785947
0.180185,-0.091783,-0.008315,0.000000,-1.000000,0.000000
0.277943,-0.012574,-0.284910,0.866025,0.000000,-0.500000
-0.236262,0.040676,0.357103,-0.866025,0.000000,0.500000
-0.111127,-0.379217,0.121905,-0.673684,0.000000,0.739019
0.427576,0.085924,0.025739,0.866025,0.000000,0.500000
0.105437,-0.616446,-0.038097,0.873221,0.371391,-0.315521
-0.105765,-0.573860,0.126585,-0.641178,0.000000,0.767392
-0.032186,0.003050,0.383161,0.000000,0.000000,1.000000
0.235692,0.091783,-0.289778,0.000000,1.000000,0.000000
-0.109903,-0.091783,0.293675,0.000000,-1.000000,0.000000
-0.164927,-0.508187,0.003021,-0.999832,0.000000,0.018316
-0.122891,0.047541,-0.383161,-0.000000,0.000000,-1.000000
-0.368769,0.091783,-0.038014,0.000000,1.000000,0.000000
0.130278,-0.093214,0.101181,0.789780,0.000000,0.613390
0.393746,0.003410,-0.084333,0.866025,0.000000,-0.500000
-0.007675,-0.660217,-0.039161,-0.178563,0.371391,-0.911144
0.163450,-0.091783,0.235833,0.000000,-1.000000,0.000000
-0.311349,0.047264,-0.227049,-0.866025,0.000000,-0.500000
-0.164529,-0.233324,-0.011846,-0.997418,0.000000,-0.071816
0.106998,-0.074736,0.383161,0.000000,0.000000,1.000000
0.405863,0.071533,0.063346,0.866025,0.000000,0.500000
-0.082962,-0.269107,0.142573,-0.502942,0.000000,0.864320
-0.164372,-0.217817,-0.013847,-0.996470,0.000000,-0.083945
0.089945,-0.260270,-0.138274,0.545273,0.000000,-0.838258
0.002144,0.063267,0.383161,0.000000,0.000000,1.000000
0.001677,-0.510873,-0.164946,0.010164,0.000000,-0.999948
-0.136585,-0.251092,-0.092491,-0.828014,0.000000,-0.560707
-0.058649,0.091783,-0.079062,0.000000,1.000000,0.000000
0.025545,-0.650047,0.050599,0.418440,0.371391,0.828840
0.154402,0.091783,0.221947,0.000000,1.000000,0.000000
0.235733,0.045231,-0.358019,0.866025,0.000000,-0.500000
-0.177910,-0.033667,-0.383161,-0.000000,0.000000,-1.000000
0.069411,-0.627628,0.062888,0.688065,0.371391,0.623406
-0.180217,-0.076172,-0.383161,-0.000000,0.000000,-1.000000
0.300815,0.000430,-0.245295,0.866025,0.000000,-0.500000
-0.158818,-0.202202,-0.044572,-0.962802,0.000000,-0.270209
-0.059196,-0.573363,-0.153967,-0.358866,0.000000,-0.933389
-0.146617,-0.195900,0.075587,-0.888835,0.000000,0.458227
0.416139,-0.014056,-0.045547,0.866025,0.000000,-0.500000
-0.302555,-0.016675,-0.242281,-0.866025,0.000000,-0.500000
-0.377387,-0.059781,-0.112669,-0.866025,0.000000,-0.500000
0.121210,-0.338818,0.111885,0.734808,0.000000,0.678276
-0.160072,-0.469784,-0.039837,-0.970400,0.000000,-0.241505
-0.131004,-0.604072,-0.019984,-0.917859,0.371391,-0.140013
0.140136,-0.147202,0.087017,0.849541,0.000000,0.527523
-0.046684,-0.655318,0.011105,-0.903273,0.371391,0.214866
0.064816,-0.072650,-0.383161,-0.000000,0.000000,-1.000000
-0.246212,-0.069734,-0.339869,-0.866025,0.000000,-0.500000
-0.184499,0.061854,0.383161,0.000000,0.000000,1.000000
0.159363,-0.195245,0.042585,0.966102,0.000000,0.258162
0.016992,-0.091783,0.157840,0.000000,-1.000000,0.000000
-0.399925,-0.021779,-0.073631,-0.866025,0.000000,-0.500000
0.262719,-0.009227,-0.311278,0.866025,0.000000,-0.500000
0.071597,-0.315391,-0.148607,0.434038,0.000000,-0.900894
0.234881,0.078396,0.359496,0.866025,0.000000,0.500000
0.087499,-0.247255,-0.139835,0.530444,0.000000,-0.847720
-0.363574,-0.063550,0.136593,-0.866025,0.000000,0.500000
-0.434412,-0.029691,0.013899,-0.866025,0.000000,0.500000
-0.372420,-0.035116,-0.121272,-0.866025,0.000000,-0.500000
-0.144198,-0.553875,-0.080106,-0.874168,0.000000,-0.485623
-0.298859,-0.038265,-0.248682,-0.866025,0.000000,-0.500000
0.248549,-0.091783,0.279862,0.000000,-1.000000,0.000000
0.013229,-0.637618,0.076043,0.159137,0.371391,0.914737
-0.050528,-0.584586,0.156718,-0.284909,0.371391,0.883683
0.372603,-0.050203,0.120955,0.866025,0.000000,0.500000
0.115194,-0.613822,0.016960,0.918575,0.371391,0.135240
0.293359,0.056246,0.258209,0.866025,0.000000,0.500000
0.063346,-0.151963,0.152306,0.384023,0.000000,0.923324
0.365426,-0.025931,-0.133384,0.866025,0.000000,-0.500000
-0.012848,-0.193418,-0.164453,-0.077890,0.000000,-0.996962
0.080919,-0.631108,0.034386,0.854524,0.371391,0.363123
0.109226,-0.269623,-0.123611,0.662158,0.000000,-0.749364
0.129743,-0.599849,0.051216,0.863623,0.371391,0.340917
-0.164838,-0.131688,0.006209,-0.999291,0.000000,0.037640
-0.060793,-0.647352,-0.006397,-0.923378,0.371391,-0.097166
-0.109126,-0.292204,0.123699,-0.661554,0.000000,0.749897
0.157011,-0.355755,0.050572,0.951844,0.000000,0.306582
-0.010047,-0.515937,-0.164648,-0.060909,0.000000,-0.998143
0.075772,-0.330510,-0.146522,0.459349,0.000000,-0.888256
0.414439,0.039998,0.048492,0.866025,0.000000,0.500000
0.046073,-0.553059,-0.158389,0.279309,0.000000,-0.960201
0.325416,0.091783,-0.097124,0.000000,1.000000,0.000000
-0.368598,-0.002289,-0.127891,-0.866025,0.000000,-0.500000
-0.350134,0.052708,-0.159872,-0.866025,0.000000,-0.500000
0.031597,-0.342173,0.161900,0.191551,0.000000,0.981483
0.161278,-0.419101,-0.034631,0.977713,0.000000,-0.209945
-0.224539,0.029353,0.377408,-0.866025,0.000000,0.500000
0.202709,-0.052763,-0.383161,-0.000000,0.000000,-1.000000
-0.349842,-0.063885,-0.160377,-0.866025,0.000000,-0.500000
-0.164324,-0.375279,0.014404,-0.996180,0.000000,0.087320
0.302774,-0.060837,-0.241901,0.866025,0.000000,-0.500000
0.100160,-0.260998,0.131065,0.607195,0.000000,0.794553
0.408275,0.016598,0.059168,0.866025,0.000000,0.500000
0.308227,-0.033639,0.232456,0.866025,0.000000,0.500000
0.388234,-0.024056,-0.093881,0.866025,0.000000,-0.500000
0.031843,0.091783,-0.028857,0.000000,1.000000,0.000000
0.150288,-0.378034,-0.067996,0.911089,0.000000,-0.412209
-0.006405,-0.314250,-0.164830,-0.038829,0.000000,-0.999246
0.011716,-0.442933,0.164538,0.071028,0.000000,0.997474
0.221682,-0.073960,0.382358,0.866025,0.000000,0.500000
-0.128623,-0.514211,-0.103276,-0.779751,0.000000,-0.626090
-0.092682,0.091783,0.248907,0.000000,1.000000,0.000000
-0.238604,0.091783,-0.086223,0.000000,1.000000,0.000000
-0.086474,-0.367628,-0.140472,-0.524228,0.000000,-0.851578
-0.141485,-0.269827,0.084806,-0.857720,0.000000,0.514117
-0.390301,0.058188,-0.090301,-0.866025,0.000000,-0.500000
-0.038345,-0.016232,0.383161,0.000000,0.000000,1.000000
0.361477,0.011212,0.140226,0.866025,0.000000,0.500000
-0.040558,-0.382497,0.159891,-0.245877,0.000000,0.969301
0.442087,-0.069683,0.000604,0.866025,0.000000,0.500000
0.059420,-0.277881,0.153881,0.360218,0.000000,0.932868
-0.188201,-0.051906,0.383161,0.000000,0.000000,1.000000
0.037080,0.014713,-0.383161,-0.000000,0.000000,-1.000000
-0.028379,0.091783,0.075327,0.000000,1.000000,0.000000
0.026436,-0.463811,0.162822,0.160261,0.000000,0.987075
-0.132663,-0.179583,0.098034,-0.804239,0.000000,0.594307
-0.016397,0.091783,0.020799,0.000000,1.000000,0.000000
-0.164951,-0.398583,-0.001119,-0.999977,0.000000,-0.006785
-0.033307,-0.573527,0.161557,-0.201915,0.000000,0.979403
0.106343,-0.210384,0.126100,0.644680,0.000000,0.764453
-0.439611,-0.025142,0.004893,-0.866025,0.000000,0.500000
0.161068,-0.426955,0.035596,0.976439,0.000000,0.215792
-0.144058,-0.587576,0.069002,-0.837373,0.371391,0.401093
0.046583,-0.192373,-0.158240,0.282398,0.000000,-0.959297
0.084947,-0.327060,-0.141400,0.514973,0.000000,-0.857206
-0.161180,-0.270799,0.035085,-0.977119,0.000000,0.212696
0.372286,0.016252,0.121503,0.866025,0.000000,0.500000
0.016438,-0.640483,0.070569,0.210635,0.371391,0.904269
0.384163,-0.053365,-0.100931,0.866025,0.000000,-0.500000
-0.068883,-0.637518,-0.035188,-0.826837,0.371391,-0.422385
0.222970,0.077143,-0.380126,0.866025,0.000000,-0.500000
0.262657,0.019284,-0.311387,0.866025,0.000000,-0.500000
0.215681,0.085210,0.383161,0.000000,0.000000,1.000000
-0.018341,-0.649576,0.054453,-0.296378,0.371391,0.879903
0.100577,-0.444502,0.130745,0.609724,0.000000,0.792614
-0.305828,0.063193,0.236611,-0.866025,0.000000,0.500000
-0.086170,-0.383841,0.140658,-0.522387,0.000000,0.852709
0.243573,-0.041586,0.344442,0.866025,0.000000,0.500000
0.046587,0.091783,-0.284080,0.000000,1.000000,0.000000
-0.155245,-0.381810,-0.055759,-0.941136,0.000000,-0.338029
0.347515,-0.014345,0.164408,0.866025,0.000000,0.500000
0.340299,0.089225,-0.176906,0.866025,0.000000,-0.500000
0.314899,0.072516,0.220901,0.866025,0.000000,0.500000
0.417755,-0.005892,-0.042749,0.866025,0.000000,-0.500000
-0.034133,-0.663487,0.005103,-0.918273,0.371391,0.137274
0.384325,-0.035447,-0.100652,0.866025,0.000000,-0.500000
0.117068,-0.509817,0.116211,0.709698,0.000000,0.704506
0.044595,-0.185860,0.158812,0.270349,0.000000,0.962762
-0.000719,-0.053654,-0.383161,-0.000000,0.000000,-1.000000
-0.381699,-0.077288,-0.105200,-0.866025,0.000000,-0.500000
-0.002556,0.091783,0.046206,0.000000,1.000000,0.000000
0.028086,-0.227912,-0.162546,0.170263,0.000000,-0.985399
0.081946,-0.634043,0.013687,0.915792,0.371391,0.152954
0.426794,-0.087180,-0.027094,0.866025,0.000000,-0.500000
-0.089118,-0.091783,-0.055493,0.000000,-1.000000,0.000000
-0.007541,-0.657494,-0.043753,-0.157709,0.371391,-0.914985
0.297708,0.080423,0.250676,0.866025,0.000000,0.500000
-0.011650,-0.350376,0.164543,-0.070626,0.000000,0.997503
0.125068,-0.115326,-0.107554,0.758198,0.000000,-0.652024
-0.163903,-0.379940,0.018597,-0.993624,0.000000,0.112741
