x,y,z,nx,ny,nz
46.573339,0.000000,27.035644,0.000000,-1.000000,0.000000
43.100549,3.428603,8.490431,-0.831326,0.555475,-0.018571
48.059596,0.000000,-8.798278,0.000000,-1.000000,0.000000
47.873595,0.320391,1.893009,-0.098017,0.995185,0.000000
44.460023,2.216284,-1.347658,0.881920,0.471400,0.000000
46.776831,0.459414,6.305835,0.290285,0.956940,0.000000
48.027913,0.000000,22.612918,0.000000,-1.000000,0.000000
42.104290,0.935239,6.292990,-0.980550,0.195043,-0.021905
50.427968,1.374859,9.688776,-0.634395,0.773009,0.000000
45.852373,0.842349,1.101646,0.471397,0.881921,-0.000000
41.670828,0.000000,-16.711088,0.000000,-1.000000,0.000000
52.104856,0.622903,-28.301564,0.973621,0.199407,-0.110899
46.706231,0.000000,19.679810,0.000000,-1.000000,0.000000
46.241994,0.634091,27.908030,0.471397,0.881921,0.000000
51.491225,3.161582,-5.313765,-0.956940,0.290287,0.000000
43.064256,4.067591,-15.982164,-0.827680,0.558417,0.055829
43.886368,0.000000,-21.942628,0.000000,-1.000000,0.000000
43.968340,3.560619,27.314949,0.995185,0.098014,0.000000
46.909011,0.000000,20.896494,0.000000,-1.000000,0.000000
44.878480,0.000000,-13.660905,0.000000,-1.000000,0.000000
44.233751,2.639605,9.098030,0.881920,0.471400,-0.000000
46.433614,0.000000,22.856659,0.000000,-1.000000,0.000000
46.303953,0.000000,-13.302065,0.000000,-1.000000,0.000000
49.858233,0.926672,-19.659538,-0.471395,0.881922,0.000000
52.036832,1.197228,27.866070,0.973621,0.199407,0.110898
51.795917,4.049460,-13.707257,0.827681,0.558416,-0.055829
45.200028,1.313185,-12.914861,0.634393,0.773011,-0.000000
48.962798,0.516074,12.072163,-0.290285,0.956940,0.000000
42.367090,1.762687,1.896681,-0.980550,0.195043,-0.021905
53.515427,1.380162,3.090727,0.980550,0.195045,0.021905
41.757401,2.579869,19.600613,-0.820249,0.564325,-0.093429
51.357960,0.000000,27.081332,0.000000,-1.000000,0.000000
43.947473,4.587300,18.546132,0.995185,-0.098014,0.000000
51.595932,3.676622,-11.802311,-0.995185,0.098019,-0.000000
49.245710,0.000000,-9.492684,0.000000,-1.000000,0.000000
48.132127,0.000000,-27.771675,0.000000,-1.000000,0.000000
45.132698,0.000000,2.567610,0.000000,-1.000000,0.000000
43.151953,0.000000,-19.329438,0.000000,-1.000000,0.000000
45.127848,0.000000,-0.474838,0.000000,-1.000000,0.000000
42.670821,2.642572,4.216320,-0.831326,0.555474,-0.018571
50.721834,1.699397,21.421539,-0.773010,0.634394,0.000000
53.390114,0.404773,-13.510669,0.978284,0.196486,-0.065988
52.081238,0.000000,0.798573,0.000000,-1.000000,0.000000
51.256253,0.000000,19.282627,0.000000,-1.000000,0.000000
45.361263,0.000000,8.983918,-0.000000,-1.000000,0.000000
43.175228,3.303673,1.410800,-0.831326,0.555474,-0.018571
51.751259,4.354252,4.783984,0.555527,0.831406,0.012410
42.716529,3.461049,-15.070507,-0.827680,0.558417,0.055829
42.065077,0.000000,6.337960,-0.000000,-1.000000,0.000000
52.408311,3.060859,-14.516585,0.827680,0.558417,-0.055829
44.031057,3.262333,26.915508,0.956940,0.290285,0.000000
53.269901,0.776669,14.185502,0.978284,0.196486,0.065988
41.904464,3.802884,-28.533512,0.000000,0.000000,-1.000000
50.813095,1.773000,28.533512,0.000000,0.000000,1.000000
52.438541,0.000000,19.151848,0.000000,-1.000000,0.000000
50.761889,1.748205,-3.937470,-0.773010,0.634394,0.000000
49.418364,0.000000,-3.771571,0.000000,-1.000000,0.000000
42.508782,0.000000,-2.028156,0.000000,-1.000000,0.000000
48.259973,0.000000,-2.258121,0.000000,-1.000000,0.000000
51.388293,2.822261,-21.118221,-0.956941,0.290283,0.000000
47.374598,0.000000,-22.616367,0.000000,-1.000000,0.000000
43.909766,4.155353,-23.556190,0.995185,0.098014,-0.000000
53.028058,2.432003,11.618668,0.827680,0.558417,0.055829
42.346258,3.497058,-19.970761,-0.820249,0.564325,0.093429
43.132444,0.000000,-17.570865,0.000000,-1.000000,0.000000
52.473498,0.092315,26.019164,0.973621,0.199408,0.110899
47.329867,0.354802,-26.586343,0.098017,0.995185,-0.000000
52.456478,1.611328,23.437239,0.973621,0.199408,0.110899
53.389351,0.333023,13.735620,0.978284,0.196485,0.065988
43.310617,0.000000,-6.842164,0.000000,-1.000000,0.000000
43.554528,0.000000,-24.982957,0.000000,-1.000000,0.000000
51.819362,2.907996,-23.941287,0.820249,0.564325,-0.093429
52.151586,0.000000,-13.632526,0.000000,-1.000000,0.000000
43.094103,3.416398,8.413958,-0.831326,0.555475,-0.018571
41.135032,2.681886,25.680812,-0.820249,0.564325,-0.093429
48.547831,0.390195,-19.381748,-0.290285,0.956940,0.000000
49.739928,0.000000,-22.169719,0.000000,-1.000000,0.000000
47.220276,0.000000,8.817513,-0.000000,-1.000000,0.000000
53.239751,2.476471,1.077289,0.831326,0.555474,0.018571
52.112773,4.059289,-4.182699,0.831326,0.555475,-0.018571
49.900445,0.000000,-15.300923,0.000000,-1.000000,0.000000
53.442940,0.075504,-13.707941,0.978284,0.196486,-0.065988
43.934231,3.906949,-10.365560,0.995185,0.098014,-0.000000
44.134870,0.000000,-27.252165,0.000000,-1.000000,0.000000
44.498732,2.143865,-6.893953,0.881920,0.471400,0.000000
42.640941,2.593229,4.077987,-0.831326,0.555474,-0.018571
49.491832,0.000000,15.869446,0.000000,-1.000000,0.000000
43.780879,5.168680,28.533512,0.000000,-0.000000,1.000000
44.607237,0.000000,-15.206937,0.000000,-1.000000,0.000000
43.396778,5.052419,26.735770,-0.543317,0.837243,-0.061886
49.834096,0.913770,-14.503748,-0.471395,0.881922,0.000000
42.297836,2.640947,28.533512,0.000000,0.000000,1.000000
44.807439,1.728122,-24.544389,0.773012,0.634391,-0.000000
42.759536,4.636872,26.708467,-0.543317,0.837244,-0.061886
51.585587,3.571599,5.391840,-0.995185,0.098019,-0.000000
43.208645,3.327030,-0.613574,-0.831326,0.555474,0.018571
45.285007,0.000000,-15.359516,0.000000,-1.000000,0.000000
52.731998,2.646911,-13.858263,0.827680,0.558417,-0.055829
41.329617,0.878260,18.930646,-0.973621,0.199408,-0.110899
51.539533,0.000000,-16.180159,0.000000,-1.000000,0.000000
53.284413,0.612049,-14.460518,0.978284,0.196486,-0.065988
51.240963,2.493432,9.494968,-0.881922,0.471396,0.000000
52.797032,0.557800,21.847576,0.978284,0.196485,0.065988
53.138887,2.500266,4.880618,0.831326,0.555475,0.018571
42.624802,2.449429,-0.499354,-0.831326,0.555474,0.018571
48.084332,0.000000,24.985901,0.000000,-1.000000,0.000000
43.783191,4.533798,14.473730,-0.551472,0.833363,-0.037198
46.009030,0.758613,-13.659438,0.471397,0.881921,-0.000000
51.489246,3.155053,12.147647,-0.956941,0.290284,0.000000
48.160207,0.348619,-16.545971,-0.098017,0.995185,0.000000
42.759259,4.350850,-22.841357,-0.543317,0.837243,0.061886
52.444382,2.310561,21.486495,0.827680,0.558416,0.055829
42.402651,0.000000,2.115456,-0.000000,-1.000000,0.000000
49.558553,0.000000,-9.515259,0.000000,-1.000000,0.000000
41.884619,3.020018,21.142271,-0.820249,0.564325,-0.093429
43.579675,4.357901,13.550244,-0.551472,0.833363,-0.037198
52.261387,0.353841,27.411117,0.973621,0.199408,0.110899
52.479869,2.751867,-16.546347,0.827680,0.558417,-0.055829
52.942180,0.754269,19.110725,0.978284,0.196485,0.065988
48.028489,0.000000,8.317988,-0.000000,-1.000000,0.000000
53.171049,2.273614,-10.220192,0.831326,0.555474,-0.018571
44.232674,2.641619,-17.455243,0.881920,0.471400,-0.000000
41.241342,2.587756,24.178925,-0.820249,0.564325,-0.093429
46.376049,0.580990,-11.218513,0.290285,0.956940,-0.000000
44.023774,3.286343,-27.775568,0.956940,0.290285,-0.000000
49.160473,0.000000,-15.839145,0.000000,-1.000000,0.000000
51.399251,0.000000,-3.534858,0.000000,-1.000000,0.000000
44.296325,2.522539,-8.780371,0.881920,0.471400,-0.000000
43.757412,4.185975,-2.258630,-0.555529,0.831404,0.012410
52.329446,3.351209,-12.781632,0.827680,0.558417,-0.055829
52.402317,0.524467,-25.867031,0.973621,0.199407,-0.110899
52.307145,3.274290,13.881609,0.827680,0.558416,0.055829
42.252973,0.000000,-21.821282,0.000000,-1.000000,0.000000
50.526970,1.461956,-8.534708,-0.773010,0.634394,0.000000
47.423505,0.345579,14.208222,0.098017,0.995185,0.000000
43.697764,4.882102,21.789109,-0.543317,0.837243,-0.061886
48.710907,0.439664,-18.151343,-0.290285,0.956940,0.000000
51.941539,4.121507,9.986788,0.831326,0.555474,0.018571
43.935173,3.897376,12.139122,0.995185,0.098014,0.000000
51.183448,2.385829,-6.639991,-0.881922,0.471396,0.000000
42.960405,2.986527,1.541217,-0.831326,0.555474,-0.018571
42.973573,2.998078,1.297267,-0.831326,0.555474,-0.018571
51.757271,0.000000,22.938929,0.000000,-1.000000,0.000000
42.679044,0.000000,-10.368033,0.000000,-1.000000,0.000000
43.735178,0.000000,14.297301,0.000000,-1.000000,0.000000
44.218199,2.668700,16.342006,0.881920,0.471400,-0.000000
49.145706,0.000000,5.174384,0.000000,-1.000000,0.000000
52.212860,3.240106,15.621312,0.827680,0.558416,0.055829
49.629882,0.000000,-15.653025,0.000000,-1.000000,0.000000
49.837177,0.915417,-4.039497,-0.471395,0.881922,0.000000
47.135620,0.373934,25.488264,0.098017,0.995185,0.000000
47.611265,0.000000,15.648379,0.000000,-1.000000,0.000000
44.553660,2.041103,9.785645,0.881920,0.471400,0.000000
41.853701,1.067018,12.281732,-0.978284,0.196484,-0.065988
48.255880,0.358042,-10.285757,-0.098017,0.995185,0.000000
43.152683,3.262914,-1.200892,-0.831326,0.555474,0.018571
49.511673,0.741432,-0.483864,-0.471395,0.881922,0.000000
44.397980,2.332357,13.014871,0.881920,0.471400,0.000000
46.048065,0.737749,-1.928648,0.471397,0.881921,0.000000
42.636007,0.000000,-14.096402,0.000000,-1.000000,0.000000
46.227740,0.641710,17.467041,0.471397,0.881921,0.000000
46.266557,0.620962,19.347154,0.471397,0.881921,0.000000
41.898808,0.000000,27.472901,-0.000000,-1.000000,0.000000
53.422248,1.569710,-5.574024,0.980550,0.195044,-0.021905
52.144389,0.705697,27.805615,0.973621,0.199407,0.110898
51.541428,3.327076,-9.182833,-0.956941,0.290284,0.000000
50.373581,1.330225,2.860738,-0.634395,0.773009,0.000000
52.798702,0.000000,7.959130,0.000000,-1.000000,0.000000
42.637738,0.000000,10.997569,0.000000,-1.000000,0.000000
43.521416,4.013331,7.140165,-0.831326,0.555475,-0.018571
46.922077,0.415354,6.057316,0.290285,0.956940,0.000000
44.211791,0.000000,-23.212893,0.000000,-1.000000,0.000000
42.037143,4.083111,-26.224432,-0.820249,0.564325,0.093429
51.425384,2.944535,-14.509321,-0.956941,0.290283,0.000000
51.262925,0.000000,-9.401951,0.000000,-1.000000,0.000000
52.387825,0.000000,-26.172500,0.000000,-1.000000,0.000000
50.087749,1.095648,-2.726575,-0.634395,0.773009,0.000000
41.235197,3.126481,28.533512,0.000000,-0.000000,1.000000
49.034638,0.537867,5.461636,-0.290285,0.956940,0.000000
53.313921,1.668418,9.544293,0.980550,0.195044,0.021905
49.875691,0.000000,2.837125,0.000000,-1.000000,0.000000
45.014872,0.000000,-23.438446,0.000000,-1.000000,0.000000
44.408620,2.312450,-4.314132,0.881920,0.471400,0.000000
52.152744,2.474890,23.630431,0.820249,0.564325,0.093428
49.066909,0.547656,-11.888831,-0.290285,0.956940,0.000000
48.605741,0.407762,20.447043,-0.290285,0.956940,0.000000
48.570365,0.397031,27.338640,-0.290285,0.956940,0.000000
41.344215,0.000000,27.080900,-0.000000,-1.000000,0.000000
42.308302,1.337909,-0.745993,-0.980550,0.195043,0.021905
49.165234,0.000000,-25.751028,0.000000,-1.000000,0.000000
46.488463,0.000000,-0.609483,0.000000,-1.000000,0.000000
46.382020,0.000000,-10.432823,0.000000,-1.000000,0.000000
43.209281,4.887968,26.157049,-0.543317,0.837244,-0.061886
51.535423,0.000000,10.599259,-0.000000,-1.000000,0.000000
50.829008,0.000000,-3.395597,0.000000,-1.000000,0.000000
41.674981,0.605568,28.533512,0.000000,-0.000000,1.000000
52.943608,0.032118,-21.239822,0.978284,0.196486,-0.065988
44.075834,3.114723,-12.058294,0.956940,0.290285,-0.000000
53.411101,1.487879,6.801649,0.980550,0.195045,0.021905
42.213929,1.964062,9.612297,-0.978284,0.196484,-0.065988
41.854569,0.000000,27.203288,-0.000000,-1.000000,0.000000
44.289174,2.535917,-3.816885,0.881920,0.471400,-0.000000
49.858099,0.000000,-2.060487,0.000000,-1.000000,0.000000
49.764357,0.876494,1.645966,-0.471395,0.881922,0.000000
51.453915,3.038588,-13.820930,-0.956941,0.290283,0.000000
52.060263,3.037162,-19.913516,0.827681,0.558416,-0.055829
40.781041,2.256432,-26.224902,-0.973621,0.199408,0.110899
48.408217,0.000000,-26.524487,0.000000,-1.000000,0.000000
52.102398,3.037105,19.289430,0.827680,0.558416,0.055829
51.358498,0.000000,-20.096746,0.000000,-1.000000,0.000000
52.097291,4.018336,6.100621,0.831326,0.555474,0.018571
53.477391,1.410397,-4.524187,0.980550,0.195044,-0.021905
43.121206,3.275678,2.991672,-0.831326,0.555474,-0.018571
53.398493,0.000000,5.044995,0.000000,-1.000000,0.000000
42.210973,1.650758,-7.888443,-0.980550,0.195043,0.021905
43.092184,4.526163,22.290268,-0.543317,0.837244,-0.061886
44.127618,5.415777,27.715859,0.956941,-0.290283,0.000001
45.242659,0.029545,-28.533512,0.000000,0.000000,-1.000000
42.187505,0.000000,-12.760674,0.000000,-1.000000,0.000000
52.529094,0.000000,-16.921370,0.000000,-1.000000,0.000000
51.210997,2.437368,-13.662312,-0.881922,0.471396,0.000000
45.594060,0.989812,20.923685,0.634393,0.773011,0.000000
42.803671,3.208840,11.255954,-0.827680,0.558417,-0.055829
45.204792,1.309275,-15.963659,0.634393,0.773011,-0.000000
51.046483,0.000000,27.803153,0.000000,-1.000000,0.000000
47.842099,0.000000,18.524127,0.000000,-1.000000,0.000000
51.676407,0.000000,22.808782,0.000000,-1.000000,0.000000
48.645249,0.000000,-6.800967,0.000000,-1.000000,0.000000
52.849031,1.011133,-19.726837,0.978284,0.196485,-0.065988
48.615342,0.000000,22.331607,0.000000,-1.000000,0.000000
50.768006,0.000000,13.070993,0.000000,-1.000000,0.000000
52.653290,0.000000,9.235036,0.000000,-1.000000,0.000000
51.734046,0.000000,-27.078147,0.000000,-1.000000,0.000000
52.319750,3.829675,-1.785404,0.831326,0.555474,-0.018571
42.907883,3.934020,16.964423,-0.827680,0.558416,-0.055829
45.827889,0.855435,-10.539433,0.471397,0.881921,-0.000000
49.450906,0.708952,-28.074761,-0.471395,0.881922,0.000000
42.590360,3.141753,-13.747318,-0.827680,0.558416,0.055829
52.620977,2.973562,12.236931,0.827680,0.558417,0.055829
48.660476,0.424366,28.085543,-0.290285,0.956940,0.000000
50.956692,1.985572,-26.822095,-0.773010,0.634394,0.000000
44.090587,0.000000,-9.010802,0.000000,-1.000000,0.000000
47.977287,0.330603,2.706808,-0.098017,0.995185,0.000000
49.821223,0.000000,-22.913218,0.000000,-1.000000,0.000000
46.702623,0.000000,28.236857,-0.000000,-1.000000,0.000000
40.529305,0.849446,-28.533512,0.000000,0.000000,-1.000000
43.096040,3.206692,-2.054860,-0.831326,0.555474,0.018571
50.605632,1.557805,10.524922,-0.773010,0.634394,0.000000
49.847184,0.920766,5.591715,-0.471395,0.881922,0.000000
52.226215,0.427750,-27.587006,0.973621,0.199407,-0.110899
50.581843,0.000000,-12.330945,0.000000,-1.000000,0.000000
41.526639,0.109162,14.278406,-0.978284,0.196484,-0.065988
48.945424,0.000000,-2.618226,0.000000,-1.000000,0.000000
40.785565,1.201907,24.289032,-0.973621,0.199408,-0.110899
49.535387,0.754108,7.290542,-0.471395,0.881922,0.000000
50.199042,0.000000,-23.154412,0.000000,-1.000000,0.000000
49.726846,0.856444,8.892998,-0.471395,0.881922,0.000000
52.588176,3.457240,0.909208,0.831326,0.555474,0.018571
50.015143,0.000000,-9.192666,0.000000,-1.000000,0.000000
52.850862,2.565852,12.906845,0.827680,0.558416,0.055829
51.570390,0.000000,13.993130,0.000000,-1.000000,0.000000
43.745940,0.000000,-11.911109,0.000000,-1.000000,0.000000
42.913295,0.000000,9.378390,0.000000,-1.000000,0.000000
52.738899,2.077595,18.184070,0.978284,0.196486,0.065988
51.560093,3.388607,-0.000238,-0.956941,0.290281,0.000000
53.248696,1.776806,-11.498917,0.980550,0.195044,-0.021905
46.478834,0.000000,27.033294,0.000000,-1.000000,0.000000
45.885474,0.824656,13.734383,0.471397,0.881921,0.000000
43.845585,4.251712,2.715644,-0.555529,0.831405,-0.012410
52.893781,2.302718,14.902490,0.827680,0.558416,0.055829
45.901601,0.816036,24.567847,0.471397,0.881921,0.000000
42.130751,2.461633,-13.758416,-0.827680,0.558416,0.055829
46.165396,0.000000,26.195096,0.000000,-1.000000,0.000000
50.874253,1.885120,-9.809514,-0.773010,0.634394,0.000000
43.436857,0.000000,-2.103813,0.000000,-1.000000,0.000000
42.392409,0.000000,20.420564,0.000000,-1.000000,0.000000
41.665611,0.359142,12.962449,-0.978284,0.196484,-0.065988
45.940446,0.795272,9.847753,0.471397,0.881921,0.000000
46.263462,0.000000,28.408979,-0.000000,-1.000000,0.000000
43.955611,4.669924,21.001536,0.995185,-0.098014,0.000000
42.128883,2.866636,-17.837054,-0.827680,0.558416,0.055829
50.638090,1.597355,23.409971,-0.773010,0.634394,0.000000
53.001827,1.940061,-14.695618,0.978284,0.196485,-0.065988
51.829901,0.000000,14.643468,0.000000,-1.000000,0.000000
45.960519,0.784543,14.535845,0.471397,0.881921,0.000000
42.290905,1.831407,5.918901,-0.980550,0.195043,-0.021905
52.357658,0.621869,26.083976,0.973621,0.199408,0.110899
41.864183,2.012491,-14.941585,-0.978284,0.196484,0.065988
53.437244,2.050391,-0.622680,0.980550,0.195045,-0.021905
52.032217,0.000000,-15.981858,0.000000,-1.000000,0.000000
42.690693,0.000000,13.513793,0.000000,-1.000000,0.000000
48.353996,0.367706,6.404091,-0.098017,0.995185,0.000000
49.300943,0.000000,23.648139,0.000000,-1.000000,0.000000
42.799134,2.736016,1.267467,-0.831326,0.555474,-0.018571
51.002410,0.000000,0.536294,0.000000,-1.000000,0.000000
48.088881,0.341594,-23.852611,-0.098017,0.995185,0.000000
48.803320,0.000000,-3.735725,0.000000,-1.000000,0.000000
53.228293,2.372301,4.705925,0.831326,0.555475,0.018571
50.930165,0.000000,-19.486225,0.000000,-1.000000,0.000000
41.401868,0.090294,16.071989,-0.978284,0.196484,-0.065988
44.861101,0.000000,14.583960,0.000000,-1.000000,0.000000
47.106565,0.376795,17.937625,0.098017,0.995185,-0.000000
46.202789,0.655047,7.107372,0.471397,0.881921,0.000000
45.280463,0.000000,-18.182603,0.000000,-1.000000,0.000000
52.925708,2.974477,0.239535,0.831326,0.555474,0.018571
46.038911,0.742642,-0.437252,0.471397,0.881921,0.000000
49.202539,0.588799,1.945287,-0.290285,0.956940,0.000000
46.444454,0.560240,5.668428,0.290285,0.956940,-0.000000
41.084387,2.301907,-23.830316,-0.820249,0.564325,0.093429
51.796470,0.000000,4.087278,0.000000,-1.000000,0.000000
45.540837,1.033491,23.242248,0.634393,0.773011,0.000000
46.147352,0.684678,16.135227,0.471397,0.881921,0.000000
49.942195,0.000000,-11.808746,0.000000,-1.000000,0.000000
41.493580,0.119483,14.799241,-0.978284,0.196484,-0.065988
44.327756,0.000000,12.080797,0.000000,-1.000000,0.000000
43.947836,3.768808,2.670911,0.995185,0.098014,0.000000
45.287776,0.000000,-11.041420,0.000000,-1.000000,0.000000
53.484666,1.253449,5.596022,0.980550,0.195045,0.021905
53.159875,2.255808,-11.209804,0.980550,0.195044,-0.021905
44.346225,0.000000,26.582851,0.000000,-1.000000,0.000000
51.101120,0.000000,23.085908,0.000000,-1.000000,0.000000
42.414577,3.934715,-22.014472,-0.820249,0.564325,0.093429
51.967208,0.000000,-12.639229,0.000000,-1.000000,0.000000
41.980736,2.751919,-18.679067,-0.820249,0.564325,0.093429
51.359823,2.728408,19.672805,-0.956941,0.290283,0.000000
53.402483,1.534098,-6.775906,0.980550,0.195044,-0.021905
53.269262,1.821456,-10.180744,0.980550,0.195044,-0.021905
49.278361,0.000000,19.522227,0.000000,-1.000000,0.000000
49.548575,0.761157,-15.777014,-0.471395,0.881922,0.000000
48.941685,0.000000,0.193428,0.000000,-1.000000,0.000000
44.918613,1.592655,-5.294134,0.773012,0.634391,0.000000
42.055885,0.000000,4.299546,-0.000000,-1.000000,0.000000
52.462536,0.000000,-6.446081,0.000000,-1.000000,0.000000
47.168848,0.000000,16.509998,0.000000,-1.000000,0.000000
52.753186,1.939555,-18.383298,0.978284,0.196485,-0.065988
45.249218,0.000000,16.055459,0.000000,-1.000000,0.000000
50.250675,0.000000,16.518244,0.000000,-1.000000,0.000000
44.519428,2.105146,3.100881,0.881920,0.471400,0.000000
44.191597,2.733106,-22.886199,0.956940,0.290285,0.000000
45.978810,0.000000,-14.142889,0.000000,-1.000000,0.000000
50.353167,1.313471,25.567208,-0.634395,0.773009,0.000000
44.954222,0.000000,24.401210,0.000000,-1.000000,0.000000
50.263603,1.239968,28.355103,-0.634395,0.773009,0.000000
51.800439,0.000000,16.614601,0.000000,-1.000000,0.000000
48.908270,0.499533,4.626121,-0.290285,0.956940,0.000000
42.166849,4.363247,-28.187541,-0.530971,0.842975,0.086393
42.309290,1.450991,-1.708684,-0.980550,0.195043,0.021905
48.616798,0.000000,2.984247,0.000000,-1.000000,0.000000
42.308431,1.855364,-5.347673,-0.980550,0.195043,0.021905
53.246884,2.230816,-7.537467,0.980550,0.195044,-0.021905
53.042465,0.000000,-19.704540,0.000000,-1.000000,0.000000
42.020456,0.000000,-3.414289,0.000000,-1.000000,0.000000
47.451470,0.000000,-18.442665,0.000000,-1.000000,0.000000
50.365570,0.000000,-5.059140,0.000000,-1.000000,0.000000
41.089831,1.263443,21.728415,-0.973621,0.199408,-0.110899
52.043393,4.219640,-0.725155,0.555526,0.831406,-0.012410
52.692414,1.145255,21.649364,0.978284,0.196485,0.065988
51.494866,0.000000,25.707297,0.000000,-1.000000,0.000000
45.092179,1.401694,13.666794,0.634393,0.773011,-0.000000
46.825052,0.000000,-1.770044,0.000000,-1.000000,0.000000
52.216435,3.806905,-7.091244,0.831326,0.555475,-0.018571
49.620835,0.799781,-8.841908,-0.471395,0.881922,0.000000
51.261861,0.000000,5.323204,0.000000,-1.000000,0.000000
47.372604,0.000000,-5.167957,0.000000,-1.000000,0.000000
47.826720,0.000000,14.914815,0.000000,-1.000000,0.000000
50.909129,1.927616,20.526485,-0.773010,0.634394,0.000000
51.335763,2.670790,-3.926167,-0.881922,0.471396,0.000000
42.579077,3.042314,-12.919981,-0.827680,0.558417,0.055829
49.868718,0.932276,-27.653748,-0.471395,0.881922,0.000000
52.818882,1.535354,18.612893,0.978284,0.196486,0.065988
44.771733,1.771631,9.644618,0.773012,0.634391,0.000000
41.534163,1.078662,17.053633,-0.978284,0.196485,-0.065988
47.214068,0.000000,-4.253834,0.000000,-1.000000,0.000000
50.265868,1.241827,-4.693248,-0.634395,0.773009,0.000000
46.141111,0.688015,22.324641,0.471397,0.881921,0.000000
41.828838,0.541929,28.533512,0.000000,-0.000000,1.000000
44.280095,0.000000,17.134389,0.000000,-1.000000,0.000000
43.213844,3.723006,-10.317864,-0.827680,0.558417,0.055829
48.083195,0.000000,25.849101,0.000000,-1.000000,0.000000
42.535038,3.293584,16.086143,-0.827680,0.558416,-0.055829
51.959147,3.016319,21.621078,0.827680,0.558416,0.055829
51.530226,3.290147,-1.583358,-0.956941,0.290281,0.000000
51.083494,0.000000,-19.029497,0.000000,-1.000000,0.000000
44.100625,0.000000,-27.407287,0.000000,-1.000000,0.000000
49.747141,0.867292,20.695850,-0.471395,0.881922,0.000000
50.791518,0.000000,-28.140889,0.000000,-1.000000,0.000000
48.752643,0.000000,4.132223,0.000000,-1.000000,0.000000
53.175795,0.000000,1.721719,0.000000,-1.000000,0.000000
51.280036,2.566532,-3.034716,-0.881922,0.471396,0.000000
43.608686,0.000000,-12.194332,0.000000,-1.000000,0.000000
45.349927,0.000000,9.358937,-0.000000,-1.000000,0.000000
53.502856,0.000000,-4.353854,0.000000,-1.000000,0.000000
52.721664,3.178591,-3.268282,0.831326,0.555474,-0.018571
44.386946,2.353001,-3.148604,0.881920,0.471400,-0.000000
53.114308,1.226174,15.153752,0.978284,0.196486,0.065988
43.105122,0.000000,-9.700838,0.000000,-1.000000,0.000000
48.587235,0.402148,-16.262885,-0.290285,0.956940,0.000000
42.374099,2.100967,4.594975,-0.980550,0.195043,-0.021905
42.251226,2.844260,15.799468,-0.827680,0.558416,-0.055829
43.304231,4.882602,25.250839,-0.543317,0.837244,-0.061886
44.047762,0.000000,20.445338,0.000000,-1.000000,0.000000
53.091254,0.428684,17.870134,0.978284,0.196485,0.065988
41.148122,2.095565,-22.712905,-0.973621,0.199408,0.110899
46.509647,0.000000,26.334270,0.000000,-1.000000,0.000000
51.623353,3.955026,-9.443446,-0.995185,0.098019,-0.000000
43.600833,0.000000,-14.304415,0.000000,-1.000000,0.000000
46.990198,0.000000,19.888371,0.000000,-1.000000,0.000000
50.884256,0.000000,19.097983,0.000000,-1.000000,0.000000
53.372295,0.566716,13.292647,0.978284,0.196486,0.065988
52.547596,3.406928,-4.230625,0.831326,0.555474,-0.018571
52.030627,0.000000,-24.449291,0.000000,-1.000000,0.000000
46.987619,0.000000,-26.668360,0.000000,-1.000000,0.000000
42.217180,1.041575,2.186411,-0.980550,0.195043,-0.021905
43.159528,3.717362,11.066659,-0.827680,0.558417,-0.055829
45.877717,0.000000,-7.215771,0.000000,-1.000000,0.000000
51.635205,4.284423,4.440443,-0.995186,-0.098003,-0.000000
45.052861,1.433962,-10.469939,0.634393,0.773011,-0.000000
51.161053,2.343930,-24.407888,-0.881922,0.471396,0.000000
47.566540,0.000000,3.343507,0.000000,-1.000000,0.000000
44.088696,3.072324,-13.417112,0.956940,0.290285,-0.000000
41.597417,2.265992,28.533512,0.000000,-0.000000,1.000000
42.026854,2.828073,-18.734166,-0.820249,0.564325,0.093429
45.202756,0.000000,14.715581,0.000000,-1.000000,0.000000
43.913176,4.239064,11.049489,0.995185,-0.098017,-0.000000
50.884411,1.897498,8.748913,-0.773010,0.634394,0.000000
47.155078,0.000000,-5.459288,0.000000,-1.000000,0.000000
48.044958,0.337268,-5.592654,-0.098017,0.995185,0.000000
45.907257,0.813012,24.479472,0.471397,0.881921,0.000000
43.940123,3.847123,-3.894676,0.995185,0.098014,-0.000000
48.348502,0.367165,8.996688,-0.098017,0.995185,0.000000
42.802447,2.712485,0.415369,-0.831326,0.555474,-0.018571
53.445570,0.000000,9.850181,0.000000,-1.000000,0.000000
48.708431,0.438913,-23.957808,-0.290285,0.956940,0.000000
43.911258,4.140197,-9.780279,0.995185,0.098014,-0.000000
52.144838,0.000000,-24.386937,0.000000,-1.000000,0.000000
41.443243,0.296635,16.072987,-0.978284,0.196484,-0.065988
41.816999,0.000000,-20.001779,0.000000,-1.000000,0.000000
46.178373,0.668097,-25.352511,0.471397,0.881921,-0.000000
48.253399,0.000000,20.060413,0.000000,-1.000000,0.000000
41.882700,1.716728,-13.786400,-0.978284,0.196484,0.065988
49.331431,0.645091,12.848048,-0.471395,0.881922,0.000000
43.435742,0.000000,-22.631411,0.000000,-1.000000,0.000000
52.988324,2.700664,-5.626485,0.831326,0.555474,-0.018571
49.864636,0.930094,-20.608194,-0.471395,0.881922,0.000000
43.927323,4.382703,-20.076099,0.995185,-0.098009,-0.000000
52.986958,2.322683,-13.321427,0.827680,0.558417,-0.055829
43.937221,3.876591,11.004677,0.995185,0.098014,0.000000
51.971589,4.067455,-10.258373,0.831326,0.555475,-0.018571
45.014294,1.476067,2.037122,0.773012,0.634391,0.000000
44.830331,1.545554,28.533512,0.000000,-0.000000,1.000000
40.211408,0.883171,-28.533512,0.000000,0.000000,-1.000000
50.002473,1.025663,7.727684,-0.634395,0.773009,0.000000
46.554060,0.000000,6.665976,-0.000000,-1.000000,0.000000
51.905377,4.236577,5.768589,0.555527,0.831406,0.012410
52.205182,0.000000,-11.037567,0.000000,-1.000000,0.000000
42.187607,3.004659,18.346989,-0.827680,0.558416,-0.055829
49.866297,0.930982,1.593344,-0.471395,0.881922,0.000000
51.194961,2.407368,19.989395,-0.881922,0.471396,0.000000
44.096416,0.000000,-26.362765,0.000000,-1.000000,0.000000
51.968286,3.538937,16.258212,0.827680,0.558416,0.055829
42.297368,0.000000,17.068452,0.000000,-1.000000,0.000000
43.879830,0.000000,-4.867847,0.000000,-1.000000,0.000000
42.750057,2.994931,-9.911235,-0.827680,0.558417,0.055829
44.017215,5.051826,25.622295,0.956939,-0.290289,-0.000000
51.707944,0.000000,3.468271,0.000000,-1.000000,0.000000
53.266030,1.973425,8.972257,0.980550,0.195045,0.021905
45.112179,0.000000,-10.436733,0.000000,-1.000000,0.000000
43.922262,4.331317,9.865628,0.995185,-0.098017,-0.000000
51.808306,4.039861,-13.619596,0.827681,0.558416,-0.055829
48.148481,0.347464,-7.076241,-0.098017,0.995185,0.000000
46.397235,0.000000,-17.001516,0.000000,-1.000000,0.000000
49.811029,0.901441,27.009975,-0.471395,0.881922,0.000000
46.143518,0.000000,-1.032068,0.000000,-1.000000,0.000000
46.020573,0.752444,-5.141695,0.471397,0.881921,-0.000000
42.102365,0.313862,-0.846385,-0.980550,0.195043,0.021905
52.866359,2.581638,12.519204,0.827680,0.558416,0.055829
45.561596,0.000000,17.284174,0.000000,-1.000000,0.000000
42.210746,3.787576,-22.915244,-0.820249,0.564325,0.093429
43.956026,4.674137,22.562222,0.995185,-0.098014,0.000000
45.153817,1.351109,8.525287,0.634393,0.773011,-0.000000
41.862303,4.026433,27.417070,-0.820249,0.564325,-0.093429
44.319826,2.478572,24.952771,0.881920,0.471400,0.000000
41.700011,1.970912,17.251663,-0.978284,0.196485,-0.065988
51.076195,2.185171,5.033657,-0.881922,0.471396,0.000000
43.941067,4.522258,-22.243010,0.995185,-0.098009,-0.000000
53.097259,2.394628,-9.903749,0.831326,0.555474,-0.018571
45.375256,1.169379,8.271078,0.634393,0.773011,0.000000
49.861934,0.928650,-27.015169,-0.471395,0.881922,0.000000
42.148796,2.498845,-13.863088,-0.827680,0.558416,0.055829
46.564701,0.000000,10.837891,0.000000,-1.000000,0.000000
41.798082,3.542882,25.060187,-0.820249,0.564325,-0.093429
52.583738,0.058531,-25.112070,0.973621,0.199407,-0.110899
49.647723,0.814152,9.361049,-0.471395,0.881922,0.000000
50.373590,0.000000,28.527855,-0.000000,-1.000000,0.000000
43.035467,4.224892,18.638394,-0.551473,0.833363,-0.037198
43.940969,3.838526,-0.861247,0.995185,0.098014,-0.000000
53.352123,0.592285,13.515554,0.978284,0.196486,0.065988
52.177396,3.923767,5.343396,0.831326,0.555474,0.018571
47.612461,0.000000,16.020601,0.000000,-1.000000,0.000000
45.510798,1.058143,6.734818,0.634393,0.773011,0.000000
40.906516,0.616705,28.533512,0.000000,-0.000000,1.000000
41.954912,2.979526,20.280570,-0.820249,0.564325,-0.093429
41.212372,3.190385,-27.911364,-0.808748,0.573246,0.131586
51.224337,2.462326,-19.678098,-0.881922,0.471396,0.000000
52.852666,1.494031,18.235085,0.978284,0.196486,0.065988
46.474676,0.551072,6.201187,0.290285,0.956940,-0.000000
44.688471,1.873086,-21.617097,0.773012,0.634391,-0.000000
44.057929,3.173748,21.754942,0.956940,0.290285,0.000000
51.029392,0.000000,11.384627,0.000000,-1.000000,0.000000
48.440037,0.376180,13.871940,-0.098017,0.995185,0.000000
53.217872,2.471677,2.200045,0.831326,0.555475,0.018571
46.289817,0.608529,12.739913,0.471397,0.881921,0.000000
42.457495,4.149556,22.935349,-0.820249,0.564325,-0.093429
48.744290,0.449791,-13.317622,-0.290285,0.956940,0.000000
43.923781,4.013047,-23.725469,0.995185,0.098014,-0.000000
50.866256,0.000000,-22.655643,0.000000,-1.000000,0.000000
50.994788,2.032870,26.532620,-0.881922,0.471396,0.000000
43.942859,3.819339,23.413257,0.995185,0.098014,0.000000
50.733405,0.000000,-23.525685,0.000000,-1.000000,0.000000
52.741359,2.183715,17.831622,0.978284,0.196486,0.065988
48.650181,0.000000,-17.086958,0.000000,-1.000000,0.000000
41.921492,0.000000,15.280038,0.000000,-1.000000,0.000000
50.554019,1.494914,23.673375,-0.773010,0.634394,0.000000
41.863460,1.744484,14.154278,-0.978284,0.196485,-0.065988
40.514085,0.131915,24.748492,-0.973621,0.199408,-0.110899
48.691251,0.433701,-27.658764,-0.290285,0.956940,0.000000
47.425793,0.345354,18.273989,0.098017,0.995185,0.000000
43.968528,3.558709,13.653608,0.995185,0.098014,0.000000
51.544041,3.335690,-7.227526,-0.956941,0.290281,0.000000
42.574565,0.000000,-21.957088,0.000000,-1.000000,0.000000
43.504478,4.032258,8.464493,-0.831326,0.555475,-0.018571
48.198528,0.352394,6.106038,-0.098017,0.995185,0.000000
45.393215,1.154640,-11.583925,0.634393,0.773011,-0.000000
44.694864,0.000000,27.208991,0.000000,-1.000000,0.000000
49.318788,0.000000,24.696317,0.000000,-1.000000,0.000000
48.581201,0.000000,9.075032,-0.000000,-1.000000,0.000000
42.880134,0.000000,9.200797,-0.000000,-1.000000,0.000000
46.513751,0.539219,-21.258302,0.290285,0.956940,-0.000000
43.933356,0.000000,24.706732,0.000000,-1.000000,0.000000
50.386730,1.341016,8.733631,-0.634395,0.773009,0.000000
51.621783,3.939101,8.843924,-0.995184,0.098024,0.000000
42.163596,4.159521,28.533512,0.000000,-0.000000,1.000000
44.755534,1.791369,-23.698171,0.773012,0.634391,-0.000000
41.114293,2.919851,28.533512,0.000000,-0.000000,1.000000
47.150727,0.372446,-10.845850,0.098017,0.995185,-0.000000
53.053189,1.440644,-15.421238,0.978284,0.196486,-0.065988
52.019660,0.014215,-28.533512,0.000000,0.000000,-1.000000
46.016471,0.754636,0.729508,0.471397,0.881921,0.000000
52.657842,3.046719,-10.069536,0.831326,0.555475,-0.018571
51.592958,3.646430,-16.214764,-0.995185,0.098019,-0.000000
52.267752,0.000000,20.441506,0.000000,-1.000000,0.000000
53.808118,0.081726,1.550188,0.980550,0.195044,0.021905
51.520122,3.256839,17.702419,-0.956941,0.290281,0.000000
44.479174,2.180456,-26.093882,0.881920,0.471400,-0.000000
53.585026,1.165012,-1.890939,0.980550,0.195045,-0.021905
46.111309,0.703944,1.315059,0.471397,0.881921,0.000000
42.136390,2.309845,12.156587,-0.827680,0.558417,-0.055829
43.911346,4.139306,-28.512837,0.995185,0.098014,-0.000000
53.475172,1.391549,4.791342,0.980550,0.195045,0.021905
52.240015,0.927493,-26.567268,0.973621,0.199407,-0.110899
49.877108,0.936760,26.418471,-0.471395,0.881922,0.000000
45.842246,0.000000,18.868190,0.000000,-1.000000,0.000000
49.017699,0.532728,-6.909392,-0.290285,0.956940,0.000000
41.218287,2.008656,-21.940627,-0.973621,0.199408,0.110899
53.617719,0.942270,2.410811,0.980550,0.195045,0.021905
48.883233,0.491939,-0.252943,-0.290285,0.956940,0.000000
42.381860,0.000000,-1.984726,0.000000,-1.000000,0.000000
49.052311,0.543228,20.200282,-0.290285,0.956940,0.000000
48.605551,0.407704,-14.603095,-0.290285,0.956940,0.000000
47.345273,0.000000,-6.572513,0.000000,-1.000000,0.000000
47.847647,0.317835,-7.899414,-0.098017,0.995185,0.000000
47.740375,0.314371,17.795228,0.098017,0.995185,0.000000
50.708264,0.000000,25.564104,0.000000,-1.000000,0.000000
44.363772,0.000000,4.918871,-0.000000,-1.000000,0.000000
42.993830,4.888494,28.055675,-0.543317,0.837243,-0.061886
52.542954,2.814669,-14.982923,0.827680,0.558417,-0.055829
50.288427,0.000000,-10.182041,0.000000,-1.000000,0.000000
46.486904,0.000000,-23.209844,0.000000,-1.000000,0.000000
45.081186,0.000000,12.711818,0.000000,-1.000000,0.000000
44.590745,1.992165,-10.230381,0.773012,0.634391,-0.000000
51.355160,2.713035,-13.588376,-0.956941,0.290283,0.000000
40.875784,1.279100,23.635770,-0.973621,0.199408,-0.110899
41.539225,0.000000,28.371600,-0.000000,-1.000000,0.000000
42.570306,2.405189,-1.615573,-0.831326,0.555475,0.018571
51.653190,0.000000,19.212278,0.000000,-1.000000,0.000000
45.379213,0.000000,-9.208876,0.000000,-1.000000,0.000000
50.256716,0.000000,-21.739342,0.000000,-1.000000,0.000000
52.230766,2.904493,-18.712758,0.827680,0.558417,-0.055829
46.661581,0.494375,4.719963,0.290285,0.956940,0.000000
47.090518,0.000000,24.370533,0.000000,-1.000000,0.000000
46.844646,0.438842,-18.718700,0.290285,0.956940,-0.000000
51.172921,2.366134,19.024036,-0.881922,0.471396,0.000000
43.016247,0.000000,7.942165,-0.000000,-1.000000,0.000000
50.519326,0.000000,-8.026655,0.000000,-1.000000,0.000000
51.268989,2.545865,25.000213,-0.881922,0.471396,0.000000
42.214484,0.000000,27.721181,-0.000000,-1.000000,0.000000
43.926094,4.370232,12.928799,0.995185,-0.098017,-0.000000
45.367456,1.175781,1.250646,0.634393,0.773011,0.000000
53.484066,0.126021,12.947826,0.978284,0.196485,0.065988
48.565463,0.395544,16.925201,-0.290285,0.956940,0.000000
51.576966,3.484063,5.250479,-0.995185,0.098019,-0.000000
44.062006,0.000000,-2.314919,0.000000,-1.000000,0.000000
43.056970,0.000000,5.385921,-0.000000,-1.000000,0.000000
41.364119,1.651938,-28.533512,0.000000,0.000000,-1.000000
51.591152,3.628106,19.807018,-0.995186,0.098005,-0.000000
47.536890,0.334412,14.366435,0.098017,0.995185,0.000000
47.711692,0.000000,-16.413617,0.000000,-1.000000,0.000000
51.965208,4.193747,-5.959650,0.555530,0.831404,-0.012410
47.510903,0.000000,22.401243,0.000000,-1.000000,0.000000
44.589351,1.993864,2.143888,0.773012,0.634391,-0.000000
53.557978,0.000000,-1.076910,0.000000,-1.000000,0.000000
42.132974,0.000000,11.740881,0.000000,-1.000000,0.000000
51.961132,3.899963,12.753203,0.827680,0.558417,0.055829
53.665291,0.000000,-1.597874,0.000000,-1.000000,0.000000
44.016908,3.308975,-14.723153,0.956940,0.290285,-0.000000
47.190922,0.000000,-14.858813,0.000000,-1.000000,0.000000
42.151479,4.167707,-25.731607,-0.820249,0.564325,0.093429
43.214590,0.000000,-22.141526,0.000000,-1.000000,0.000000
53.257853,2.140413,7.851397,0.980550,0.195045,0.021905
46.134637,0.691475,20.111730,0.471397,0.881921,0.000000
46.517427,0.538103,26.372237,0.290285,0.956940,0.000000
46.977984,0.000000,-25.405081,0.000000,-1.000000,0.000000
47.570356,0.000000,8.568067,-0.000000,-1.000000,0.000000
52.589202,0.000000,-14.160367,0.000000,-1.000000,0.000000
49.896630,0.000000,-18.674950,0.000000,-1.000000,0.000000
48.225704,0.000000,-10.482531,0.000000,-1.000000,0.000000
46.736431,0.000000,-25.704105,0.000000,-1.000000,0.000000
44.288165,2.537804,6.886612,0.881920,0.471400,-0.000000
50.465564,1.405713,21.478093,-0.634395,0.773009,0.000000
53.033081,0.388395,-18.852521,0.978284,0.196486,-0.065988
50.582733,0.000000,16.896570,0.000000,-1.000000,0.000000
52.855443,1.662929,17.690991,0.978284,0.196486,0.065988
43.097245,4.933456,-27.756041,-0.543317,0.837244,0.061886
49.002406,0.528089,27.105872,-0.290285,0.956940,0.000000
52.179418,3.167679,-16.841534,0.827680,0.558417,-0.055829
45.384509,1.161785,2.575504,0.634393,0.773011,0.000000
42.748144,1.453706,28.533512,0.000000,-0.000000,1.000000
46.645168,0.000000,6.523406,-0.000000,-1.000000,0.000000
48.574545,0.255227,-28.533512,0.000000,0.000000,-1.000000
43.299891,0.000000,-26.286206,0.000000,-1.000000,0.000000
44.462967,2.210776,-5.030064,0.881920,0.471400,0.000000
51.424936,0.000000,-7.870565,0.000000,-1.000000,0.000000
44.237693,2.632230,-14.242054,0.881920,0.471400,-0.000000
49.646514,0.000000,3.462573,0.000000,-1.000000,0.000000
46.631494,0.000000,-14.983839,0.000000,-1.000000,0.000000
51.993690,2.681443,-23.779208,0.820249,0.564325,-0.093429
42.630131,3.321546,14.956051,-0.827680,0.558416,-0.055829
40.653277,1.518115,26.019019,-0.973621,0.199408,-0.110899
43.943868,4.550693,24.905721,0.995185,-0.098014,0.000000
52.055451,3.861146,-11.743163,0.827680,0.558417,-0.055829
51.958482,0.000000,-15.869157,0.000000,-1.000000,0.000000
44.239566,2.628727,28.457521,0.881920,0.471400,0.000000
46.983602,0.396691,-11.728507,0.290285,0.956940,0.000000
44.443874,2.246496,-6.947772,0.881920,0.471400,0.000000
42.404315,3.857677,21.639242,-0.820249,0.564325,-0.093429
43.602459,3.934286,-1.148100,-0.831326,0.555474,0.018571
51.518154,3.250350,9.932517,-0.956941,0.290281,0.000000
41.864535,3.357935,-23.359666,-0.820249,0.564325,0.093429
43.751643,4.288983,9.417745,-0.555528,0.831405,-0.012410
48.975497,0.519926,28.470188,-0.290285,0.956940,0.000000
41.431943,3.078884,-25.472043,-0.820249,0.564325,0.093429
52.830673,0.000000,-21.786055,0.000000,-1.000000,0.000000
43.981527,3.426723,4.748341,0.995185,0.098014,0.000000
41.007038,0.333080,-20.782398,-0.973621,0.199408,0.110899
41.557856,0.982822,16.417007,-0.978284,0.196485,-0.065988
41.840642,0.000000,-18.948436,0.000000,-1.000000,0.000000
50.867521,1.876917,11.941181,-0.773010,0.634394,0.000000
46.609959,0.510034,-25.278240,0.290285,0.956940,-0.000000
53.279254,2.010559,8.049657,0.980550,0.195045,0.021905
43.941023,3.837981,-24.603299,0.995185,0.098014,-0.000000
42.696341,4.126331,-20.698151,-0.820249,0.564325,0.093429
43.973343,3.509817,11.585653,0.995185,0.098014,0.000000
42.272401,0.000000,-17.599846,0.000000,-1.000000,0.000000
46.776519,0.000000,17.304757,0.000000,-1.000000,0.000000
52.213636,0.000000,7.713693,0.000000,-1.000000,0.000000
44.970499,0.000000,-21.791684,0.000000,-1.000000,0.000000
44.161897,0.000000,0.501768,0.000000,-1.000000,0.000000
41.177153,0.711217,19.968824,-0.973621,0.199408,-0.110899
44.063635,3.154937,-1.476250,0.956940,0.290285,-0.000000
44.656186,1.912425,-28.266506,0.773012,0.634391,-0.000000
43.955404,3.691964,6.672709,0.995185,0.098014,0.000000
46.406937,0.571620,-12.507142,0.290285,0.956940,-0.000000
41.894349,3.452016,23.666181,-0.820249,0.564325,-0.093429
51.083007,2.197916,6.063533,-0.881922,0.471396,0.000000
44.092123,3.061026,-20.188655,0.956940,0.290285,-0.000000
52.794499,2.951257,6.807525,0.831326,0.555475,0.018571
47.758499,0.312585,5.901931,0.098017,0.995185,0.000000
41.080217,2.714228,-26.357400,-0.820249,0.564325,0.093429
48.869023,0.487628,12.655532,-0.290285,0.956940,0.000000
45.569970,0.000000,-12.694625,0.000000,-1.000000,0.000000
44.724150,1.829610,-26.420920,0.773012,0.634391,-0.000000
47.482341,0.339785,-16.634835,0.098017,0.995185,-0.000000
52.781284,1.427626,19.491054,0.978284,0.196485,0.065988
44.188279,2.744043,-20.678519,0.956940,0.290285,0.000000
49.766564,0.000000,-13.330569,0.000000,-1.000000,0.000000
42.453719,2.305467,3.851771,-0.831326,0.555474,-0.018571
49.133039,0.567716,10.656611,-0.290285,0.956940,0.000000
44.280797,2.551590,-13.388457,0.881920,0.471400,-0.000000
47.444487,0.343513,-25.403711,0.098017,0.995185,-0.000000
42.341014,0.000000,-14.587819,0.000000,-1.000000,0.000000
43.616353,4.138207,-28.533512,0.000000,0.000000,-1.000000
46.794778,0.453970,6.031563,0.290285,0.956940,0.000000
41.866223,0.000000,-11.740022,0.000000,-1.000000,0.000000
45.307379,1.225084,5.908989,0.634393,0.773011,0.000000
42.441002,2.572494,10.267725,-0.827680,0.558417,-0.055829
53.646734,0.235538,-7.404830,0.980550,0.195045,-0.021905
44.037718,0.000000,-12.805199,0.000000,-1.000000,0.000000
43.487534,0.000000,-12.244589,0.000000,-1.000000,0.000000
44.736215,1.814909,26.114264,0.773012,0.634391,0.000000
51.458597,3.054017,16.209518,-0.956941,0.290284,0.000000
41.964851,0.226460,6.223795,-0.980550,0.195043,-0.021905
46.314650,0.599615,-26.165118,0.290285,0.956940,-0.000000
44.426538,0.000000,-1.596335,0.000000,-1.000000,0.000000
51.370222,0.000000,-22.476445,0.000000,-1.000000,0.000000
42.062754,2.870298,-18.674031,-0.820249,0.564325,0.093429
48.279059,0.000000,21.922529,0.000000,-1.000000,0.000000
47.935558,0.326493,-5.000285,-0.098017,0.995185,0.000000
42.359662,2.418413,9.932443,-0.827680,0.558417,-0.055829
44.554035,0.000000,28.148379,-0.000000,-1.000000,0.000000
45.482142,1.081661,4.827694,0.634393,0.773011,0.000000
41.664538,0.000000,22.851112,0.000000,-1.000000,0.000000
45.506435,0.000000,-16.410861,0.000000,-1.000000,0.000000
46.028592,0.748157,-17.236983,0.471397,0.881921,-0.000000
45.716717,0.914858,-22.082914,0.471397,0.881921,-0.000000
47.794539,0.000000,-19.632852,0.000000,-1.000000,0.000000
43.929995,3.949957,5.122669,0.995185,0.098014,-0.000000
53.007615,2.558746,9.007738,0.831326,0.555475,0.018571
50.804526,0.000000,-1.069521,0.000000,-1.000000,0.000000
42.653489,4.356480,23.846107,-0.543317,0.837244,-0.061886
42.295010,1.448695,2.327453,-0.980550,0.195043,-0.021905
42.987110,0.000000,2.617968,-0.000000,-1.000000,0.000000
53.623439,0.086204,9.777323,0.980550,0.195044,0.021905
45.764030,0.000000,-2.684120,0.000000,-1.000000,0.000000
41.669040,1.485475,-16.265381,-0.978284,0.196485,0.065988
42.479106,2.609091,-10.068870,-0.827680,0.558417,0.055829
53.150781,2.047400,-12.167732,0.978284,0.196486,-0.065988
50.395469,0.000000,5.416896,0.000000,-1.000000,0.000000
44.107074,3.011741,22.929940,0.956940,0.290285,0.000000
51.710476,4.335375,-7.874282,0.555526,0.831406,-0.012410
43.885713,4.345845,7.225711,-0.555527,0.831406,-0.012410
51.997544,2.311760,-25.978313,0.820249,0.564325,-0.093429
52.267766,3.509754,12.110243,0.827680,0.558417,0.055829
43.132744,4.962608,-27.838780,-0.543318,0.837243,0.061886
48.719786,0.000000,9.444462,-0.000000,-1.000000,0.000000
50.860486,1.868344,-12.431769,-0.773010,0.634394,0.000000
51.120022,0.000000,24.096551,0.000000,-1.000000,0.000000
51.450603,3.027670,-3.462050,-0.956940,0.290287,0.000000
51.577395,3.488416,-14.423734,-0.995185,0.098019,-0.000000
47.882951,0.321312,4.882833,-0.098017,0.995185,0.000000
52.948468,2.720740,6.810075,0.831326,0.555475,0.018571
53.150409,2.110206,11.986238,0.978284,0.196486,0.065988
52.350193,1.991580,-23.686621,0.973621,0.199408,-0.110898
48.472364,0.379364,-15.331543,-0.098017,0.995185,0.000000
45.687998,0.930209,-27.874775,0.471397,0.881921,-0.000000
51.544941,3.338656,8.166123,-0.956941,0.290281,0.000000
48.354899,0.367795,-7.358298,-0.098017,0.995185,0.000000
43.510417,4.415763,15.873295,-0.551472,0.833363,-0.037198
42.541036,4.134275,22.109615,-0.820249,0.564325,-0.093429
51.618422,3.904963,-16.025077,-0.995185,0.098019,-0.000000
42.200223,2.541748,-13.529796,-0.827680,0.558416,0.055829
53.130885,2.370531,-9.119294,0.831326,0.555474,-0.018571
43.764529,5.070357,-23.749845,-0.543317,0.837244,0.061886
43.941160,4.523198,24.530796,0.995185,-0.098014,0.000000
50.848720,1.854007,20.230495,-0.773010,0.634394,0.000000
43.139125,0.000000,22.848491,0.000000,-1.000000,0.000000
49.735059,0.000000,21.402797,0.000000,-1.000000,0.000000
53.534935,0.000000,0.974772,0.000000,-1.000000,0.000000
52.826247,0.000000,11.816767,0.000000,-1.000000,0.000000
52.825314,2.017057,17.083202,0.978284,0.196486,0.065988
51.674263,4.003893,15.966574,0.827680,0.558416,0.055829
45.851589,0.842768,7.690979,0.471397,0.881921,-0.000000
47.296869,0.358052,-1.899693,0.098017,0.995185,-0.000000
48.237811,0.356263,-5.597840,-0.098017,0.995185,0.000000
46.142205,0.000000,-0.449836,0.000000,-1.000000,0.000000
49.759100,0.000000,26.175388,0.000000,-1.000000,0.000000
51.379978,2.794848,-4.760968,-0.956941,0.290283,0.000000
46.621974,0.506389,3.822405,0.290285,0.956940,0.000000
45.959009,0.785350,-12.399058,0.471397,0.881921,-0.000000
47.525493,0.335535,12.502972,0.098017,0.995185,0.000000
47.053792,0.381993,-28.380532,0.098017,0.995185,-0.000000
40.592553,2.435763,28.433403,-0.808749,0.573246,-0.131586
48.182274,0.000000,0.935346,0.000000,-1.000000,0.000000
49.716014,0.850654,23.141230,-0.471395,0.881922,0.000000
48.678517,0.429838,-13.463624,-0.290285,0.956940,0.000000
51.357920,2.722135,-17.032107,-0.956941,0.290283,0.000000
48.088207,0.000000,-18.722937,0.000000,-1.000000,0.000000
45.548204,0.000000,-9.201053,0.000000,-1.000000,0.000000
46.833177,0.000000,22.587377,0.000000,-1.000000,0.000000
51.810902,2.242252,27.970532,0.973621,0.199407,0.110898
51.583088,3.546222,-4.852467,-0.995185,0.098019,-0.000000
49.702450,0.843404,2.572527,-0.471395,0.881922,0.000000
49.933567,0.000000,21.015836,0.000000,-1.000000,0.000000
52.841692,1.056827,-19.699569,0.978284,0.196485,-0.065988
52.525662,0.000000,-14.965907,0.000000,-1.000000,0.000000
44.719409,1.835388,11.676401,0.773012,0.634391,0.000000
47.210116,0.366596,-15.668889,0.098017,0.995185,-0.000000
50.302359,0.000000,-4.916616,0.000000,-1.000000,0.000000
46.509617,0.540472,27.172944,0.290285,0.956940,0.000000
48.807571,0.468987,-22.908066,-0.290285,0.956940,0.000000
44.847186,1.679690,13.641260,0.773012,0.634391,0.000000
43.467140,4.654161,-20.730063,-0.543317,0.837244,0.061886
41.381068,0.000000,18.125125,0.000000,-1.000000,0.000000
42.163099,0.000000,0.436658,-0.000000,-1.000000,0.000000
46.992918,0.000000,-7.709274,0.000000,-1.000000,0.000000
45.506026,0.000000,9.856801,0.000000,-1.000000,0.000000
43.338475,0.000000,-12.729462,0.000000,-1.000000,0.000000
42.143551,0.000000,8.676253,-0.000000,-1.000000,0.000000
45.039611,1.445218,-2.784164,0.773012,0.634391,0.000000
50.170966,0.000000,-0.827730,0.000000,-1.000000,0.000000
43.313712,4.418728,-18.855898,-0.551473,0.833363,0.037198
45.526615,1.045162,16.931192,0.634393,0.773011,0.000000
42.154894,3.472739,-21.503926,-0.820249,0.564325,0.093429
50.635581,0.000000,-13.191168,0.000000,-1.000000,0.000000
42.977971,0.000000,1.756618,-0.000000,-1.000000,0.000000
44.745142,0.000000,-1.752200,0.000000,-1.000000,0.000000
42.238522,1.049543,-1.301987,-0.980550,0.195043,0.021905
51.466539,0.000000,1.169227,0.000000,-1.000000,0.000000
42.168418,0.000000,-11.847665,0.000000,-1.000000,0.000000
48.581805,0.400501,-2.109500,-0.290285,0.956940,0.000000
52.752293,1.677113,-19.177977,0.978284,0.196485,-0.065988
42.766437,4.290729,21.964952,-0.543317,0.837244,-0.061886
43.947973,3.767415,14.713792,0.995185,0.098014,0.000000
48.608665,0.408649,14.126542,-0.290285,0.956940,0.000000
45.041608,1.135644,-28.533512,0.000000,0.000000,-1.000000
52.411317,2.974082,15.339987,0.827680,0.558416,0.055829
43.088249,4.427250,-20.986635,-0.543317,0.837244,0.061886
44.727706,0.000000,-13.333095,0.000000,-1.000000,0.000000
42.094436,0.529427,-3.120713,-0.980550,0.195043,0.021905
42.164097,0.000000,26.205528,0.000000,-1.000000,0.000000
46.386882,0.000000,6.643737,-0.000000,-1.000000,0.000000
43.311418,3.600182,-28.533512,0.000000,0.000000,-1.000000
50.213787,0.000000,-17.969684,0.000000,-1.000000,0.000000
51.378343,2.789458,19.958641,-0.956940,0.290287,0.000000
49.466461,0.000000,10.611893,-0.000000,-1.000000,0.000000
49.319578,0.638756,9.867641,-0.471395,0.881922,0.000000
43.879899,0.000000,20.413955,0.000000,-1.000000,0.000000
48.198726,0.000000,3.606032,0.000000,-1.000000,0.000000
44.146004,2.883404,-8.586983,0.956940,0.290285,0.000000
51.776097,0.000000,6.797406,0.000000,-1.000000,0.000000
52.390790,0.000000,0.605980,0.000000,-1.000000,0.000000
