x,y,z,nx,ny,nz
52.647981,5.140479,2.825968,0.830916,0.555201,0.036478
40.754674,1.937649,9.443758,0.000000,-0.000000,1.000000
39.782757,2.284393,-6.279064,-0.972245,0.195272,0.128878
42.943265,5.712102,-1.917993,0.956941,-0.290283,0.000000
41.858953,5.566890,-6.651164,-0.550384,0.831718,0.072957
39.885912,0.589139,-0.018807,-0.979877,0.194910,0.043018
51.335936,2.591505,5.860589,-0.956941,0.290283,0.000000
50.628717,0.030444,9.443758,0.000000,-0.000000,1.000000
43.149829,2.092231,4.552030,0.881921,0.471398,0.000000
53.791996,2.514709,8.214070,0.972245,0.195272,0.128877
44.906602,0.000000,6.136308,0.000000,-1.000000,0.000000
42.677825,4.499351,-2.868777,0.995185,-0.098016,0.000000
51.865650,5.539249,7.375581,0.550384,0.831718,0.072957
52.024857,0.000000,-8.824813,0.000000,-1.000000,0.000000
51.574762,3.652061,-1.532807,-0.995184,0.098021,0.000000
41.133654,2.910593,9.443758,-0.000000,-0.000000,1.000000
51.412924,0.000000,-3.952743,0.000000,-1.000000,0.000000
53.512903,0.000000,3.162885,0.000000,-1.000000,0.000000
44.777572,0.314497,0.379626,0.471396,0.881922,-0.000000
52.005209,3.837773,-9.443758,0.000000,0.000000,-1.000000
45.267305,0.000000,4.589117,0.000000,-1.000000,0.000000
52.711817,0.000000,8.913978,0.000000,-1.000000,0.000000
42.974501,6.093273,3.241001,-0.555405,0.831222,-0.024384
44.600937,0.419051,-6.306287,0.634394,0.773010,0.000000
52.644014,0.000000,-3.700705,0.000000,-1.000000,0.000000
53.154039,0.000000,1.919670,0.000000,-1.000000,0.000000
40.468318,1.871951,-9.443758,0.000000,0.000000,-1.000000
51.339375,5.644014,3.079280,-0.956941,-0.290283,0.000000
54.610542,1.041210,-0.793842,0.979878,0.194909,-0.043018
53.384409,3.584733,7.169944,0.824013,0.555942,0.109228
54.381111,0.000000,-1.056976,0.000000,-1.000000,0.000000
54.431972,1.116822,4.518777,0.979877,0.194910,0.043018
40.334930,0.605798,9.443758,0.000000,-0.000000,1.000000
51.541881,4.928626,6.718262,-0.995184,-0.098021,0.000000
44.565758,0.447922,-0.854692,0.634394,0.773010,0.000000
44.034651,0.883791,-3.041789,0.634394,0.773010,-0.000000
49.732640,0.000000,-0.639013,0.000000,-1.000000,0.000000
52.025845,1.390835,9.443758,-0.000000,-0.000000,1.000000
51.486674,3.088427,-4.236633,-0.956941,0.290283,0.000000
40.022692,1.364508,0.416324,-0.979877,0.194910,-0.043018
54.225503,2.188568,4.365825,0.979877,0.194909,0.043018
39.514643,0.000000,-5.450146,-0.000000,-1.000000,0.000000
54.808713,0.136170,-0.380456,0.979878,0.194909,-0.043018
41.405948,5.232791,-6.889857,-0.824013,0.555942,0.109229
43.947689,0.958445,9.338931,0.773010,0.634394,0.000000
53.865655,3.241984,-3.984486,0.830916,0.555201,-0.036478
44.176324,0.767523,-1.113962,0.634394,0.773010,-0.000000
41.011832,3.876009,-9.443758,0.000000,-0.000000,-1.000000
44.098537,0.152885,-9.443758,0.000000,0.000000,-1.000000
42.991966,6.099322,-3.049355,-0.555405,0.831222,0.024383
51.550313,3.403836,3.347094,-0.995184,0.098021,0.000000
53.881563,0.000000,7.858547,0.000000,-1.000000,0.000000
40.297212,2.779970,-0.576537,-0.979877,0.194910,0.043018
49.155564,0.138723,-1.286233,-0.471396,0.881922,0.000000
52.913227,4.802595,-1.926682,0.830916,0.555201,-0.036478
43.422121,1.598849,1.252490,0.773010,0.634394,-0.000000
40.309407,3.322528,-5.439402,-0.824013,0.555942,0.109228
42.177646,0.000000,-2.524903,0.000000,-1.000000,0.000000
44.229304,0.724043,1.478387,0.634394,0.773010,-0.000000
42.903225,6.006390,1.902720,-0.555404,0.831223,-0.024383
43.195218,6.239542,8.756693,0.881921,-0.471398,0.000000
52.766065,2.991887,-9.443758,0.000000,0.000000,-1.000000
44.230863,0.000000,1.941295,0.000000,-1.000000,0.000000
41.515316,5.155580,-5.671816,-0.824013,0.555942,0.109229
43.027369,6.494519,-8.411764,-0.550384,0.831718,0.072957
49.105651,0.000000,-4.349700,0.000000,-1.000000,0.000000
51.572536,0.000000,-8.367996,0.000000,-1.000000,0.000000
41.718586,0.000000,6.190804,-0.000000,-1.000000,0.000000
53.630019,2.799509,9.004492,0.972245,0.195272,0.128877
40.466454,4.018062,-7.794718,-0.824013,0.555942,0.109228
42.889685,6.043464,3.474971,-0.555405,0.831222,-0.024384
49.994581,0.000000,3.960988,0.000000,-1.000000,0.000000
53.741672,3.378149,-4.736173,0.830916,0.555201,-0.036478
51.481511,5.175451,4.568949,-0.956941,-0.290282,0.000000
54.730101,0.303337,-1.413703,0.979878,0.194909,-0.043018
43.270166,6.379761,5.915012,0.881921,-0.471397,0.000000
51.587325,4.467241,5.849340,-0.995184,-0.098021,0.000000
41.838217,5.333211,-3.212983,-0.555405,0.831222,0.024383
39.728563,0.191047,1.799259,-0.979877,0.194910,-0.043018
43.383393,1.655265,-0.269632,0.881921,0.471398,0.000000
39.638370,1.075865,9.443758,0.000000,-0.000000,1.000000
42.750595,5.076950,1.483993,0.956941,-0.290283,0.000000
39.379480,0.950353,-7.300057,-0.972245,0.195272,0.128877
50.411341,0.000000,4.680433,0.000000,-1.000000,0.000000
54.459433,1.329338,-2.930380,0.979878,0.194909,-0.043018
40.855633,4.699693,-8.328082,-0.824013,0.555942,0.109228
42.759861,3.139361,2.912628,0.956941,0.290283,-0.000000
49.389543,0.263787,5.863883,-0.471396,0.881922,0.000000
41.958172,0.000000,-5.447491,0.000000,-1.000000,0.000000
39.705091,1.971085,-6.390259,-0.972245,0.195272,0.128878
51.407457,2.827280,-4.050649,-0.956941,0.290283,0.000000
49.056519,0.000000,-1.764295,0.000000,-1.000000,0.000000
54.644145,0.000000,2.027871,0.000000,-1.000000,0.000000
44.678587,0.367405,-2.789904,0.471396,0.881922,-0.000000
52.216026,0.000000,9.270482,0.000000,-1.000000,0.000000
53.675765,2.703046,8.805543,0.972245,0.195272,0.128877
42.907846,5.595338,-0.587936,0.956941,-0.290283,0.000000
53.425025,3.742603,-6.060024,0.824013,0.555942,-0.109228
52.146814,0.000000,2.206422,0.000000,-1.000000,0.000000
44.814413,0.000000,-3.477271,0.000000,-1.000000,0.000000
54.393251,1.216187,4.950577,0.979877,0.194910,0.043018
51.444779,0.000000,-9.280090,0.000000,-1.000000,0.000000
43.173360,2.048208,6.400214,0.881921,0.471398,0.000000
41.961843,5.314535,0.101698,-0.830916,0.555201,-0.036478
51.358949,0.000000,-9.134802,0.000000,-1.000000,0.000000
51.520332,5.047472,-1.454572,-0.956941,-0.290282,0.000000
51.598426,3.892317,5.902444,-0.995184,0.098021,0.000000
52.666746,3.353217,9.443758,-0.000000,-0.000000,1.000000
51.194776,6.080687,6.264159,0.550384,0.831718,0.072957
51.207931,6.147496,-4.924419,0.555405,0.831223,-0.024383
52.069024,0.000000,-6.820910,0.000000,-1.000000,0.000000
41.606665,0.122004,-9.443758,0.000000,0.000000,-1.000000
44.778004,0.000000,-2.520101,0.000000,-1.000000,0.000000
49.365012,0.250675,-5.490652,-0.471396,0.881922,0.000000
54.668246,0.351609,-2.603955,0.979878,0.194909,-0.043018
51.600867,3.917103,0.867447,-0.995184,0.098021,0.000000
51.839793,0.000000,-1.287486,0.000000,-1.000000,0.000000
51.760271,5.106513,9.443758,0.000000,0.000000,1.000000
44.898067,0.000000,-5.528514,0.000000,-1.000000,0.000000
42.521463,5.239307,9.443758,0.000000,-0.000000,1.000000
51.792127,0.000000,6.229590,0.000000,-1.000000,0.000000
40.850550,4.331879,-6.494359,-0.824013,0.555942,0.109229
54.735853,0.135330,-2.043894,0.979878,0.194909,-0.043018
51.612319,4.213483,-5.203565,-0.995184,-0.098021,0.000000
43.905348,1.010037,-6.624666,0.773010,0.634394,0.000000
50.803486,0.000000,8.577340,0.000000,-1.000000,0.000000
51.535207,4.996393,1.540814,-0.995184,-0.098021,0.000000
54.009365,0.000000,-0.422255,0.000000,-1.000000,0.000000
41.465825,5.457703,8.372162,-0.550384,0.831718,-0.072957
54.672421,0.000000,-0.088807,0.000000,-1.000000,0.000000
52.703905,4.894521,-5.295604,0.830916,0.555201,-0.036478
53.073024,3.740762,-8.724872,0.824013,0.555942,-0.109228
49.078669,0.097622,-3.150541,-0.471396,0.881922,0.000000
50.044625,0.000000,8.940364,0.000000,-1.000000,0.000000
42.771521,5.145933,5.938662,0.956941,-0.290283,0.000000
51.468950,3.029997,6.044148,-0.956941,0.290283,0.000000
42.012316,5.791600,-8.055922,-0.550384,0.831718,0.072957
41.301354,0.000000,-5.413375,0.000000,-1.000000,0.000000
41.513771,0.000000,-3.921701,0.000000,-1.000000,0.000000
53.104714,0.000000,2.565939,0.000000,-1.000000,0.000000
39.408298,0.000000,-6.007812,-0.000000,-1.000000,0.000000
53.028775,0.034375,9.443758,0.000000,-0.000000,1.000000
40.505608,3.745416,-6.111654,-0.824013,0.555942,0.109228
42.073020,2.108010,-9.443758,0.000000,0.000000,-1.000000
50.019264,0.713030,-4.857818,-0.634392,0.773012,0.000000
42.368029,5.876178,9.443758,0.000000,-0.000000,1.000000
42.660032,3.928167,0.177076,0.995185,0.098016,-0.000000
51.342632,0.000000,5.638246,0.000000,-1.000000,0.000000
39.393261,0.925413,-7.158309,-0.972245,0.195272,0.128877
43.295646,1.819428,-0.029693,0.881921,0.471398,0.000000
49.287356,0.000000,-2.793698,0.000000,-1.000000,0.000000
39.433798,1.128461,7.160150,-0.972245,0.195272,-0.128878
50.205359,0.000000,-3.467283,0.000000,-1.000000,0.000000
43.326570,1.761572,-8.046992,0.881921,0.471398,-0.000000
51.466378,5.225336,1.797130,-0.956941,-0.290282,0.000000
53.391386,0.000000,3.640523,0.000000,-1.000000,0.000000
51.356103,0.000000,6.377659,0.000000,-1.000000,0.000000
51.310686,2.508268,-1.006008,-0.956941,0.290283,0.000000
44.335505,0.000000,-0.589198,0.000000,-1.000000,0.000000
49.689492,0.000000,-0.405527,0.000000,-1.000000,0.000000
42.650818,4.021718,8.533761,0.995185,0.098016,0.000000
44.546969,0.463342,-0.947067,0.634394,0.773010,0.000000
44.607711,0.413493,-5.240042,0.634394,0.773010,0.000000
51.534191,3.245068,9.196430,-0.956941,0.290283,0.000000
50.088719,0.000000,-6.325943,0.000000,-1.000000,0.000000
41.667750,5.030860,-2.483152,-0.830916,0.555200,0.036478
52.086794,0.000000,6.257111,0.000000,-1.000000,0.000000
44.379058,0.000000,-0.268981,0.000000,-1.000000,0.000000
43.667456,0.361877,-9.443758,0.000000,0.000000,-1.000000
42.720287,4.930479,-6.625430,0.995185,-0.098016,0.000000
42.901333,5.573869,-2.239824,0.956941,-0.290283,0.000000
51.405117,5.427290,2.100271,-0.956941,-0.290283,0.000000
49.007175,0.000000,3.660358,0.000000,-1.000000,0.000000
49.455636,0.299115,-1.432355,-0.471396,0.881922,0.000000
39.487416,0.279034,9.443758,0.000000,-0.000000,1.000000
44.351333,0.623896,-3.353009,0.634394,0.773010,-0.000000
51.583972,4.501289,6.675871,-0.995184,-0.098021,0.000000
52.491630,0.627255,9.443758,-0.000000,-0.000000,1.000000
42.219051,0.000000,6.712889,-0.000000,-1.000000,0.000000
42.846466,5.392995,3.925124,0.956941,-0.290283,0.000000
39.954151,2.718294,-5.643517,-0.972245,0.195272,0.128878
40.585111,0.000000,6.263019,-0.000000,-1.000000,0.000000
51.429364,5.347358,-9.266054,-0.956941,-0.290282,0.000000
39.601725,3.077572,9.247576,-0.810192,0.557405,-0.181353
54.644453,0.865185,-0.818940,0.979878,0.194909,-0.043018
53.754446,0.000000,-2.556231,0.000000,-1.000000,0.000000
43.140879,2.108975,7.681389,0.881921,0.471398,0.000000
42.055173,0.000000,-2.036119,0.000000,-1.000000,0.000000
52.118515,0.000000,6.141333,0.000000,-1.000000,0.000000
50.237681,0.000000,6.022182,0.000000,-1.000000,0.000000
43.875735,0.000000,-4.642532,0.000000,-1.000000,0.000000
51.310094,2.506316,-7.468072,-0.956941,0.290283,0.000000
54.107983,3.033879,1.632034,0.830916,0.555201,0.036478
43.202569,1.993561,-3.586061,0.881921,0.471398,-0.000000
49.326436,0.000000,-5.612133,0.000000,-1.000000,0.000000
49.227423,0.177133,-5.776928,-0.471396,0.881922,0.000000
39.681863,0.376132,3.701601,-0.979877,0.194910,-0.043018
49.619769,0.386846,-8.461258,-0.471396,0.881922,0.000000
50.051835,0.739760,7.008473,-0.634392,0.773012,0.000000
42.140012,0.000000,4.401862,-0.000000,-1.000000,0.000000
53.056162,0.000000,-9.320581,0.000000,-1.000000,0.000000
53.039988,0.000000,-6.124577,0.000000,-1.000000,0.000000
52.799210,4.889427,3.202234,0.830916,0.555201,0.036478
41.258587,4.277397,0.335480,-0.830916,0.555200,-0.036478
51.563879,3.541572,2.320437,-0.995184,0.098021,0.000000
41.888603,0.000000,-4.729684,0.000000,-1.000000,0.000000
39.846721,0.854978,2.116010,-0.979877,0.194910,-0.043018
53.774319,3.394456,3.744338,0.830916,0.555201,0.036478
41.964327,0.000000,0.970149,-0.000000,-1.000000,0.000000
51.851826,1.622797,9.443758,-0.000000,-0.000000,1.000000
50.046137,0.735084,1.996228,-0.634392,0.773012,0.000000
42.668731,4.407011,4.801105,0.995185,-0.098016,0.000000
51.304269,2.487113,-5.246570,-0.956941,0.290283,0.000000
39.967964,1.272692,-1.246925,-0.979877,0.194910,0.043018
43.662335,0.000000,-9.083649,0.000000,-1.000000,0.000000
49.880791,0.599389,7.287887,-0.634392,0.773012,0.000000
42.207185,0.000000,-2.597263,0.000000,-1.000000,0.000000
39.629864,1.876693,-6.814745,-0.972245,0.195272,0.128878
41.210111,5.326886,-9.443758,0.000000,0.000000,-1.000000
40.237351,3.004784,-4.228399,-0.830916,0.555201,0.036478
41.725466,0.000000,-7.457071,0.000000,-1.000000,0.000000
44.227497,0.381160,9.443758,0.000000,-0.000000,1.000000
51.164556,0.000000,2.456876,0.000000,-1.000000,0.000000
39.125544,0.064190,-7.873047,-0.972245,0.195272,0.128877
40.389211,3.143119,2.874731,-0.830916,0.555200,-0.036478
52.510218,5.272952,3.947749,0.830916,0.555201,0.036478
49.824544,0.553228,-7.684232,-0.634392,0.773012,0.000000
40.094368,3.672798,8.844417,-0.824013,0.555942,-0.109229
39.406776,0.898543,-7.015635,-0.972245,0.195272,0.128877
51.552534,4.820469,-3.509033,-0.995184,-0.098021,0.000000
42.185660,5.504332,1.132347,-0.555404,0.831223,-0.024383
52.927272,2.910174,9.443758,0.000000,-0.000000,1.000000
52.266269,0.000000,2.763255,0.000000,-1.000000,0.000000
43.524102,1.474586,-7.432930,0.773010,0.634394,-0.000000
53.026214,0.000000,-6.241755,0.000000,-1.000000,0.000000
51.349093,5.611977,5.904324,-0.956941,-0.290283,0.000000
49.578879,0.364989,8.293580,-0.471396,0.881922,0.000000
44.636971,0.389649,-2.048374,0.471396,0.881922,-0.000000
54.657848,0.691931,1.298822,0.979877,0.194909,0.043018
51.527214,5.024787,7.059694,-0.956941,-0.290282,0.000000
39.758847,1.545775,5.340301,-0.972245,0.195272,-0.128877
51.052498,6.266237,-0.405078,-0.881921,-0.471396,0.000000
43.735684,1.216772,2.873754,0.773010,0.634394,0.000000
43.584993,0.000000,4.684395,-0.000000,-1.000000,0.000000
51.873636,0.000000,-0.616693,0.000000,-1.000000,0.000000
51.347755,2.630469,-4.850613,-0.956941,0.290283,0.000000
49.189435,0.000000,1.154503,0.000000,-1.000000,0.000000
42.342422,0.000000,3.417585,-0.000000,-1.000000,0.000000
49.771096,0.509364,-1.740821,-0.634392,0.773012,0.000000
51.601471,3.923232,-0.868748,-0.995184,0.098021,0.000000
43.409690,1.613997,-8.965451,0.773010,0.634394,-0.000000
41.900072,5.456364,-5.080965,-0.550384,0.831718,0.072957
53.959557,2.317129,-7.249363,0.972245,0.195272,-0.128877
51.267442,2.382747,4.505552,-0.881921,0.471398,0.000000
45.143957,0.118661,1.787448,0.471396,0.881922,0.000000
42.686030,4.582657,-8.327635,0.995185,-0.098016,0.000000
43.231692,0.000000,-4.785757,0.000000,-1.000000,0.000000
51.100974,6.175545,1.858353,-0.881921,-0.471396,0.000000
39.541329,2.607056,-8.589272,-0.972245,0.195272,0.128877
51.077659,6.219164,-2.174045,-0.881921,-0.471396,0.000000
42.028060,0.000000,5.737289,-0.000000,-1.000000,0.000000
51.893891,0.000000,5.697502,0.000000,-1.000000,0.000000
54.176235,1.388889,-7.021206,0.972245,0.195272,-0.128877
41.491118,0.000000,-4.872274,0.000000,-1.000000,0.000000
51.975612,1.189276,-9.443758,0.000000,0.000000,-1.000000
52.249247,4.864068,9.222084,0.824013,0.555942,0.109228
51.256810,5.915465,7.679737,0.550384,0.831718,0.072957
39.866375,1.093273,2.748031,-0.979877,0.194910,-0.043018
44.245441,0.000000,-7.913746,0.000000,-1.000000,0.000000
42.705022,3.471370,-2.441045,0.995185,0.098016,0.000000
54.034433,2.528944,-6.363571,0.972245,0.195272,-0.128877
43.371669,0.000000,-6.210239,0.000000,-1.000000,0.000000
43.168168,6.188935,6.535026,0.881921,-0.471397,0.000000
39.751260,0.384891,2.160532,-0.979877,0.194910,-0.043018
50.508767,0.000000,-8.789282,0.000000,-1.000000,0.000000
51.518239,3.192483,-0.283255,-0.956941,0.290283,0.000000
43.134054,6.125111,0.733897,0.881917,-0.471404,-0.000000
40.030758,2.992448,-5.861502,-0.824013,0.555942,0.109228
42.161105,0.000000,-8.005923,0.000000,-1.000000,0.000000
49.910866,0.624070,9.058336,-0.634392,0.773012,0.000000
51.199002,5.992149,2.627921,-0.881922,-0.471395,0.000000
42.298809,0.000000,8.314893,-0.000000,-1.000000,0.000000
53.640897,0.000000,-5.029698,0.000000,-1.000000,0.000000
51.276156,0.000000,7.260781,0.000000,-1.000000,0.000000
52.658518,5.235608,-1.138067,0.830916,0.555201,-0.036478
51.612464,4.212012,-2.371098,-0.995184,-0.098021,0.000000
51.545902,4.887800,-7.041768,-0.995184,-0.098021,0.000000
44.656830,0.000000,-4.844299,0.000000,-1.000000,0.000000
50.035508,0.000000,-0.134806,0.000000,-1.000000,0.000000
42.636061,0.373043,-9.443758,0.000000,0.000000,-1.000000
52.464228,0.000000,-7.160135,0.000000,-1.000000,0.000000
51.269798,5.859700,3.458268,-0.881916,-0.471407,0.000000
49.464032,0.303602,8.724656,-0.471396,0.881922,0.000000
42.735525,5.027270,7.670282,0.956941,-0.290283,0.000000
52.004881,0.000000,-6.530650,0.000000,-1.000000,0.000000
52.305869,5.424921,-4.547927,0.555405,0.831222,-0.024383
52.091760,5.274078,8.323319,0.824013,0.555942,0.109228
40.947404,0.000000,7.494908,-0.000000,-1.000000,0.000000
45.049694,0.000000,5.871993,0.000000,-1.000000,0.000000
52.909546,0.000000,-2.272703,0.000000,-1.000000,0.000000
43.383852,1.654406,-8.960446,0.881921,0.471398,-0.000000
42.681520,3.709996,-5.651815,0.995185,0.098016,-0.000000
39.760460,0.000000,5.356311,-0.000000,-1.000000,0.000000
42.959130,6.218443,-5.779262,-0.550384,0.831718,0.072957
51.375124,5.526163,8.662606,-0.956941,-0.290283,0.000000
43.242077,0.467874,9.443758,0.000000,-0.000000,1.000000
51.687252,4.357685,9.443758,0.000000,0.000000,1.000000
51.411536,5.406129,-5.847019,-0.956941,-0.290282,0.000000
54.615491,0.722074,-2.127077,0.979878,0.194909,-0.043018
50.328457,0.000000,4.025814,0.000000,-1.000000,0.000000
54.539797,0.229110,6.035783,0.972245,0.195272,0.128877
42.661066,4.329186,0.179956,0.995185,-0.098016,0.000000
40.902098,4.413399,-6.520398,-0.824013,0.555942,0.109229
41.238307,4.235332,-0.157210,-0.830916,0.555200,0.036478
51.559415,4.750614,1.763324,-0.995184,-0.098021,0.000000
41.297990,5.406593,9.055639,-0.550384,0.831718,-0.072957
44.069051,0.000000,-6.551411,0.000000,-1.000000,0.000000
42.933245,5.679069,-5.377400,0.956941,-0.290283,0.000000
43.408496,0.000000,-7.882132,0.000000,-1.000000,0.000000
50.983593,1.851704,6.453085,-0.881921,0.471398,0.000000
42.723355,3.285234,-3.393491,0.995185,0.098016,0.000000
54.203285,0.591486,-8.025353,0.972245,0.195272,-0.128877
42.758618,5.103397,4.861862,0.956941,-0.290283,0.000000
51.026335,6.315185,-1.289121,-0.881921,-0.471396,0.000000
54.569606,1.119518,1.371478,0.979877,0.194909,0.043018
43.477335,0.000000,5.071072,-0.000000,-1.000000,0.000000
52.669499,0.000000,3.884572,0.000000,-1.000000,0.000000
44.698796,0.356603,-7.283685,0.471396,0.881922,-0.000000
42.718901,4.916408,-0.112648,0.995185,-0.098016,0.000000
52.738433,5.143354,-0.721839,0.830916,0.555201,-0.036478
50.774135,1.337286,-9.443758,0.000000,0.000000,-1.000000
42.704356,3.478133,-9.235066,0.995185,0.098016,-0.000000
40.543805,4.051667,7.382228,-0.824013,0.555942,-0.109229
43.137003,2.116227,-7.977971,0.881921,0.471398,-0.000000
54.489169,1.342546,-2.193211,0.979878,0.194909,-0.043018
44.449531,0.543307,-4.274664,0.634394,0.773010,-0.000000
43.991681,0.919056,-7.119446,0.634394,0.773010,-0.000000
39.488786,0.404028,-9.443758,0.000000,0.000000,-1.000000
54.309125,1.484103,5.652938,0.979877,0.194910,0.043018
51.637743,0.000000,-5.545371,0.000000,-1.000000,0.000000
40.274843,2.760714,0.998818,-0.979877,0.194910,-0.043018
41.556113,0.000000,-6.831206,0.000000,-1.000000,0.000000
40.478133,3.213263,1.916831,-0.830916,0.555200,-0.036478
41.194622,0.000000,7.280692,-0.000000,-1.000000,0.000000
51.419052,5.381353,-0.931884,-0.956941,-0.290282,0.000000
54.555780,0.015685,-6.238584,0.972245,0.195272,-0.128877
51.613863,4.197809,1.767965,-0.995184,-0.098021,0.000000
42.693801,3.585303,1.380572,0.995185,0.098016,0.000000
41.284469,4.586127,4.444819,-0.830916,0.555201,-0.036478
43.642830,1.329915,1.407678,0.773010,0.634394,0.000000
53.776846,0.000000,8.434325,0.000000,-1.000000,0.000000
43.086089,0.000000,1.511046,0.000000,-1.000000,0.000000
41.987618,0.000000,6.938656,-0.000000,-1.000000,0.000000
52.774408,4.879935,-3.911655,0.830916,0.555201,-0.036478
40.805801,3.629363,0.786132,-0.830916,0.555200,-0.036478
39.923780,3.021524,-6.816528,-0.824013,0.555942,0.109228
52.354554,4.219234,-9.443758,0.000000,0.000000,-1.000000
49.870043,0.590567,-0.164875,-0.634392,0.773012,0.000000
54.194300,2.862710,2.022123,0.979877,0.194909,0.043018
42.795917,3.020500,1.247014,0.956941,0.290283,-0.000000
41.390871,5.251431,-7.098472,-0.824013,0.555942,0.109229
39.467246,0.000000,5.454303,-0.000000,-1.000000,0.000000
40.660469,0.000000,0.445674,-0.000000,-1.000000,0.000000
51.017487,6.331738,-0.028512,-0.881923,-0.471393,0.000000
44.348551,0.626179,6.816706,0.634394,0.773010,0.000000
43.145492,6.177620,-2.221477,-0.555405,0.831223,0.024383
52.733754,0.000000,-3.183393,0.000000,-1.000000,0.000000
42.792532,6.361877,8.671229,-0.550384,0.831718,-0.072957
43.991069,0.000000,-1.642509,0.000000,-1.000000,0.000000
40.478022,3.495113,-9.443758,0.000000,-0.000000,-1.000000
45.310916,0.029419,-5.723935,0.471396,0.881922,0.000000
50.490272,0.000000,1.395563,0.000000,-1.000000,0.000000
49.709724,0.458998,4.711160,-0.634392,0.773012,0.000000
53.854081,0.000000,9.375392,0.000000,-1.000000,0.000000
52.389892,5.376909,-4.270737,0.555405,0.831222,-0.024383
44.237049,0.000000,7.718793,-0.000000,-1.000000,0.000000
51.465778,3.019539,5.539794,-0.956941,0.290283,0.000000
50.623993,1.335808,7.637134,-0.773012,0.634392,0.000000
43.068692,6.387216,6.876756,-0.550384,0.831718,-0.072957
52.310218,0.000000,2.592026,0.000000,-1.000000,0.000000
39.565882,1.247968,6.344792,-0.972245,0.195272,-0.128877
42.819831,5.305189,-0.431365,0.956941,-0.290283,0.000000
54.660225,0.701260,1.202400,0.979877,0.194909,0.043018
52.798548,2.326910,9.443758,0.000000,0.000000,1.000000
51.803327,5.874235,0.677773,0.555406,0.831222,0.024383
51.558233,3.484247,-2.531586,-0.995184,0.098021,0.000000
51.379802,0.000000,-4.004303,0.000000,-1.000000,0.000000
42.901068,5.572997,3.088284,0.956941,-0.290283,0.000000
42.644467,4.086205,-6.404335,0.995185,0.098016,-0.000000
39.896020,2.950691,-6.665423,-0.824013,0.555942,0.109228
49.536218,0.342187,-7.314548,-0.471396,0.881922,0.000000
50.935752,1.762202,6.925545,-0.881921,0.471398,0.000000
53.770268,3.559061,-1.331334,0.830916,0.555201,-0.036478
39.702623,1.490379,-9.443758,0.000000,0.000000,-1.000000
51.245020,2.340799,-8.334557,-0.881921,0.471398,0.000000
53.086295,4.351703,4.847081,0.830916,0.555201,0.036478
41.143430,0.000000,-6.814312,0.000000,-1.000000,0.000000
40.333281,2.919813,-0.750010,-0.830916,0.555201,0.036478
52.870196,0.000000,-1.178112,0.000000,-1.000000,0.000000
42.652933,4.000242,-4.389176,0.995185,0.098016,-0.000000
53.778491,3.584043,0.763798,0.830916,0.555201,0.036478
39.771372,0.239950,-1.045689,-0.979877,0.194910,0.043018
53.517569,3.657985,-5.581778,0.830916,0.555201,-0.036478
52.028820,0.000000,1.259640,0.000000,-1.000000,0.000000
42.081473,0.000000,5.033784,-0.000000,-1.000000,0.000000
54.708325,0.228492,2.248843,0.979877,0.194910,0.043018
51.067684,0.000000,2.359829,0.000000,-1.000000,0.000000
49.630121,0.393670,3.941598,-0.634392,0.773012,0.000000
42.337520,5.809885,5.811050,-0.550384,0.831718,-0.072957
54.323921,0.964210,-6.550531,0.972245,0.195272,-0.128877
52.054957,3.829631,9.443758,-0.000000,-0.000000,1.000000
52.792924,4.253436,8.228567,0.824013,0.555942,0.109228
43.475941,1.533270,3.776006,0.773010,0.634394,-0.000000
51.095292,6.186175,5.063732,-0.881920,-0.471399,-0.000000
42.711389,4.840134,-4.738406,0.995185,-0.098016,0.000000
39.787242,1.361777,4.847301,-0.972245,0.195272,-0.128877
51.763159,5.894140,0.914177,0.555406,0.831222,0.024383
44.346278,0.628045,0.232753,0.634394,0.773010,0.000000
44.569731,0.444662,-6.102129,0.634394,0.773010,0.000000
42.675819,4.478978,-2.727862,0.995185,-0.098016,0.000000
42.693278,4.656248,4.513575,0.995185,-0.098016,0.000000
51.865767,2.937127,-9.443758,0.000000,0.000000,-1.000000
44.617014,0.405857,-5.961367,0.634394,0.773010,0.000000
40.429284,0.000000,7.142058,-0.000000,-1.000000,0.000000
41.438368,5.532126,9.443758,0.000000,-0.000000,1.000000
51.604302,3.951981,-5.206418,-0.995184,0.098021,0.000000
42.845839,5.390928,2.775811,0.956941,-0.290283,0.000000
40.265703,2.606828,-0.509753,-0.979877,0.194910,0.043018
52.184753,5.600848,-1.309353,0.555405,0.831222,-0.024383
42.803290,5.250663,-6.062690,0.956941,-0.290283,0.000000
44.705994,0.000000,-4.715753,0.000000,-1.000000,0.000000
41.034626,0.000000,0.785523,-0.000000,-1.000000,0.000000
39.374930,1.131086,-7.608224,-0.972245,0.195272,0.128877
40.991763,0.000000,-1.787864,-0.000000,-1.000000,0.000000
41.963255,0.000000,-1.751866,0.000000,-1.000000,0.000000
41.749962,1.878838,9.443758,0.000000,-0.000000,1.000000
54.487928,1.433373,1.809928,0.979877,0.194909,0.043018
51.172129,1.813356,9.443758,-0.000000,-0.000000,1.000000
40.400468,3.036404,0.994109,-0.830916,0.555200,-0.036478
41.834204,0.000000,9.441568,0.000000,-1.000000,0.000000
42.707634,5.881426,2.097880,-0.555404,0.831223,-0.024383
51.536219,3.260744,-9.229246,-0.995184,0.098021,0.000000
40.578911,2.569515,9.443758,0.000000,-0.000000,1.000000
44.696734,0.357706,6.971693,0.471396,0.881922,-0.000000
54.050198,0.625134,-9.129250,0.972245,0.195272,-0.128877
51.264846,0.000000,5.667424,0.000000,-1.000000,0.000000
52.859190,4.678038,-5.053340,0.830916,0.555201,-0.036478
42.754339,5.089290,-8.715081,0.956941,-0.290283,0.000000
41.090218,4.492328,-5.502960,-0.824013,0.555942,0.109229
50.513611,0.000000,6.450351,0.000000,-1.000000,0.000000
51.456979,2.990535,-2.819202,-0.956941,0.290283,0.000000
50.858423,1.621462,7.338739,-0.773012,0.634392,0.000000
53.031352,0.000000,7.748222,0.000000,-1.000000,0.000000
51.565057,4.693324,-1.798493,-0.995184,-0.098021,0.000000
43.056811,2.266254,-7.710764,0.881921,0.471398,-0.000000
42.453701,5.837891,5.253857,-0.550384,0.831718,-0.072957
39.833860,0.000000,9.434269,0.000000,-1.000000,0.000000
42.702620,3.495758,6.500695,0.995185,0.098016,0.000000
43.517105,1.483111,8.965646,0.773010,0.634394,0.000000
51.145479,6.092282,-0.681056,-0.881921,-0.471396,0.000000
52.667213,0.000000,4.806015,0.000000,-1.000000,0.000000
39.257937,0.297739,7.228147,-0.972245,0.195272,-0.128877
51.584818,3.754156,3.392281,-0.995184,0.098021,0.000000
49.355355,0.000000,-2.479498,0.000000,-1.000000,0.000000
51.573360,5.833570,-6.225300,0.550384,0.831718,-0.072957
40.249868,2.743801,1.491060,-0.979877,0.194910,-0.043018
52.804553,4.660471,6.069136,0.824013,0.555942,0.109228
51.370743,5.540607,5.268462,-0.956941,-0.290283,0.000000
42.677434,4.495382,6.452111,0.995185,-0.098016,0.000000
39.339039,0.000000,6.486502,-0.000000,-1.000000,0.000000
51.705878,5.870388,3.028635,0.555405,0.831222,0.024383
41.172203,1.463407,-9.443758,0.000000,0.000000,-1.000000
39.808729,1.808256,5.361704,-0.972245,0.195272,-0.128877
51.393706,5.984945,5.854915,0.550384,0.831718,0.072957
50.406153,0.000000,6.935830,0.000000,-1.000000,0.000000
42.969114,0.000000,2.184868,0.000000,-1.000000,0.000000
51.557808,4.766925,-7.884261,-0.995184,-0.098021,0.000000
42.814078,5.286225,-1.422794,0.956941,-0.290283,0.000000
42.949168,6.460780,8.617078,-0.550384,0.831718,-0.072957
39.685259,0.249151,-3.048917,-0.979877,0.194910,0.043018
41.890232,0.000000,-5.438710,0.000000,-1.000000,0.000000
42.702023,0.000000,6.921915,-0.000000,-1.000000,0.000000
43.880180,1.040705,-1.924528,0.773010,0.634394,0.000000
43.117746,2.152254,-1.036601,0.881921,0.471398,-0.000000
42.340451,3.698577,-9.443758,0.000000,0.000000,-1.000000
44.120000,0.813747,3.649106,0.634394,0.773010,-0.000000
51.379498,6.067112,-3.756681,0.555405,0.831223,-0.024383
42.875804,6.152251,5.653268,-0.550384,0.831718,-0.072957
49.062365,0.000000,5.762562,0.000000,-1.000000,0.000000
43.096577,6.204633,-4.256556,-0.555405,0.831222,0.024383
42.961046,2.476140,5.876758,0.956941,0.290283,0.000000
44.756594,0.000000,-1.563051,0.000000,-1.000000,0.000000
50.385352,0.000000,-4.330387,0.000000,-1.000000,0.000000
42.537996,1.853712,9.443758,0.000000,-0.000000,1.000000
40.406525,0.000000,-7.058669,0.000000,-1.000000,0.000000
54.544933,1.525314,-0.094884,0.979878,0.194909,-0.043018
51.606555,4.272005,-1.227174,-0.995184,-0.098021,0.000000
41.708212,0.000000,-6.195237,0.000000,-1.000000,0.000000
50.873159,1.645098,-7.981222,-0.881921,0.471398,0.000000
50.901705,1.698504,-5.537496,-0.881921,0.471398,0.000000
53.979653,0.000000,-2.223745,0.000000,-1.000000,0.000000
40.575406,0.000000,-0.783332,-0.000000,-1.000000,0.000000
44.387393,0.594303,5.907965,0.634394,0.773010,0.000000
52.890255,4.406905,6.713192,0.824013,0.555942,0.109228
51.584165,4.499326,7.801764,-0.995184,-0.098021,0.000000
44.528023,0.000000,2.742022,0.000000,-1.000000,0.000000
49.101779,0.109975,2.891524,-0.471396,0.881922,0.000000
42.982089,5.840088,-4.494337,0.956941,-0.290283,0.000000
43.031501,0.000000,-7.423083,0.000000,-1.000000,0.000000
39.672957,2.323711,7.166963,-0.972245,0.195272,-0.128878
54.150876,2.562374,4.372049,0.979877,0.194909,0.043018
42.638686,5.290408,-9.443758,0.000000,0.000000,-1.000000
51.364078,2.361760,9.443758,0.000000,0.000000,1.000000
41.720082,5.486657,-6.784134,-0.550384,0.831718,0.072957
40.040127,1.686146,-1.476477,-0.979877,0.194910,0.043018
50.576863,0.000000,-5.665421,0.000000,-1.000000,0.000000
51.954846,3.891919,9.443758,-0.000000,-0.000000,1.000000
48.962064,0.035296,-5.009125,-0.471396,0.881922,0.000000
42.143511,5.468267,0.862977,-0.555404,0.831223,-0.024383
50.590424,1.294904,6.849883,-0.773012,0.634392,0.000000
51.366364,6.107182,-2.689904,0.555405,0.831222,-0.024383
53.164298,3.719600,8.144015,0.824013,0.555942,0.109228
54.451248,1.068622,4.298097,0.979877,0.194910,0.043018
42.874528,6.032315,-3.440132,-0.555405,0.831222,0.024383
53.136830,0.000000,6.810902,0.000000,-1.000000,0.000000
54.239416,0.270097,8.239739,0.972245,0.195272,0.128877
40.453006,3.264317,-3.266223,-0.830916,0.555201,0.036478
51.535548,3.253926,-7.872132,-0.995184,0.098021,0.000000
52.722957,5.186034,0.424767,0.830916,0.555201,0.036478
40.723539,3.714471,-3.955281,-0.830916,0.555201,0.036478
44.521852,0.483955,6.730350,0.634394,0.773010,0.000000
39.619369,3.121690,-9.304354,-0.810192,0.557405,0.181353
51.568193,4.661483,1.487106,-0.995184,-0.098021,0.000000
42.786149,5.194155,6.109623,0.956941,-0.290283,0.000000
51.500007,3.132381,5.847623,-0.956941,0.290283,0.000000
43.914676,0.998671,6.983038,0.773010,0.634394,0.000000
40.334966,2.923100,-0.761666,-0.830916,0.555201,0.036478
51.512059,5.074745,-2.431574,-0.956941,-0.290282,0.000000
40.444914,3.096053,0.889571,-0.830916,0.555200,-0.036478
41.777321,5.053494,-0.331778,-0.830916,0.555200,0.036478
53.084587,4.480663,2.923213,0.830916,0.555201,0.036478
39.980850,1.236260,-0.788314,-0.979877,0.194910,0.043018
52.302379,5.513271,-1.615529,0.555405,0.831222,-0.024383
41.016197,4.151849,-3.945907,-0.830916,0.555201,0.036478
40.895093,4.052888,-4.738347,-0.824013,0.555942,0.109229
53.860985,2.884378,7.133500,0.972245,0.195272,0.128877
49.468563,0.306024,-5.219557,-0.471396,0.881922,0.000000
42.702209,3.499927,-7.511908,0.995185,0.098016,-0.000000
54.131862,2.666273,4.334402,0.979877,0.194909,0.043018
51.143640,2.151131,2.885448,-0.881921,0.471398,0.000000
42.654551,4.263039,4.686026,0.995185,-0.098016,0.000000
44.575448,0.000000,-2.268991,0.000000,-1.000000,0.000000
41.639413,0.000000,5.311793,-0.000000,-1.000000,0.000000
41.043112,3.961073,-0.429199,-0.830916,0.555200,0.036478
45.315742,0.026840,-8.577200,0.471396,0.881922,-0.000000
49.794567,0.293050,-9.443758,0.000000,0.000000,-1.000000
39.909893,1.785178,4.563561,-0.972245,0.195272,-0.128877
49.011017,0.000000,2.646395,0.000000,-1.000000,0.000000
50.635534,0.445108,-9.443758,0.000000,0.000000,-1.000000
41.213626,0.000000,-6.412773,0.000000,-1.000000,0.000000
51.529104,3.228300,-7.341558,-0.956941,0.290283,0.000000
40.906467,4.802130,-8.465973,-0.824013,0.555942,0.109228
39.714997,0.618429,-4.044707,-0.979877,0.194910,0.043018
41.962291,0.000000,-5.928728,0.000000,-1.000000,0.000000
52.608247,3.174705,9.443758,-0.000000,-0.000000,1.000000
54.320608,0.000000,2.730546,0.000000,-1.000000,0.000000
45.279081,0.046435,4.835009,0.471396,0.881922,0.000000
49.241547,0.000000,2.371371,0.000000,-1.000000,0.000000
42.966684,2.457552,-3.687419,0.956941,0.290283,0.000000
51.292912,5.797182,5.193360,-0.956941,-0.290283,0.000000
53.032727,0.000000,-4.740657,0.000000,-1.000000,0.000000
39.669492,1.149989,-5.414703,-0.972245,0.195272,0.128878
49.097406,0.107638,-4.669576,-0.471396,0.881922,0.000000
49.245605,0.186851,7.002880,-0.471396,0.881922,0.000000
41.145967,5.258673,-8.982874,-0.824013,0.555942,0.109229
44.402757,0.000000,-2.485957,0.000000,-1.000000,0.000000
51.174479,0.000000,-4.808300,0.000000,-1.000000,0.000000
40.597171,0.204610,9.443758,0.000000,-0.000000,1.000000
51.570752,5.970669,-2.688027,0.555405,0.831222,-0.024383
43.102451,0.286399,-9.443758,0.000000,0.000000,-1.000000
50.400379,0.000000,-4.511195,0.000000,-1.000000,0.000000
51.543422,3.333874,-2.265624,-0.995184,0.098021,0.000000
39.886311,1.163755,-9.443758,0.000000,0.000000,-1.000000
42.981416,5.837869,9.426725,0.956941,-0.290283,0.000000
42.431684,5.682598,1.605491,-0.555404,0.831223,-0.024383
54.372705,1.500452,-4.130616,0.979877,0.194910,-0.043018
50.010668,0.705975,8.734758,-0.634392,0.773012,0.000000
42.844282,5.385797,1.537042,0.956941,-0.290283,0.000000
51.603185,5.910120,-4.013370,0.555405,0.831223,-0.024383
52.068902,5.233773,8.700899,0.824013,0.555942,0.109228
52.834819,4.116156,-8.611227,0.824013,0.555942,-0.109228
44.540441,0.468699,-2.017090,0.634394,0.773010,0.000000
53.135126,4.574316,-0.346604,0.830916,0.555201,-0.036478
53.763821,3.401568,3.875237,0.830916,0.555201,0.036478
41.937406,5.560739,5.989200,-0.550384,0.831718,-0.072957
39.778213,0.255887,0.962078,-0.979877,0.194910,-0.043018
43.123444,2.141593,-2.540182,0.881921,0.471398,-0.000000
45.038112,0.000000,1.314965,0.000000,-1.000000,0.000000
45.299721,0.000000,-3.837219,0.000000,-1.000000,0.000000
39.338018,2.120829,9.136741,-0.956926,0.195989,-0.214198
42.166979,1.799031,-9.443758,0.000000,0.000000,-1.000000
51.694587,0.000000,5.691702,0.000000,-1.000000,0.000000
43.085166,6.033648,2.222950,0.881920,-0.471399,0.000000
51.142162,6.098487,-5.336582,-0.881922,-0.471395,0.000000
52.620416,0.000000,-3.182769,0.000000,-1.000000,0.000000
49.393532,0.265920,-6.200083,-0.471396,0.881922,0.000000
42.799037,3.010214,7.069819,0.956941,0.290283,0.000000
52.945266,0.000000,6.356971,0.000000,-1.000000,0.000000
42.712541,4.851832,6.318611,0.995185,-0.098016,0.000000
52.492380,5.240191,-4.852686,0.830916,0.555201,-0.036478
50.767058,1.510134,-2.345886,-0.773012,0.634392,0.000000
49.413917,0.276816,-0.482940,-0.471396,0.881922,0.000000
52.279667,0.000000,6.284846,0.000000,-1.000000,0.000000
50.212755,0.000000,-0.329432,0.000000,-1.000000,0.000000
40.002846,0.000000,7.664397,-0.000000,-1.000000,0.000000
43.080509,6.024937,-0.874380,0.881920,-0.471399,0.000000
42.203075,5.579154,3.286380,-0.555404,0.831223,-0.024383
42.753897,5.087835,-2.551501,0.956941,-0.290283,0.000000
54.369058,0.647480,6.689925,0.972245,0.195272,0.128877
39.722006,0.000000,-5.947209,-0.000000,-1.000000,0.000000
44.183061,0.761994,-7.265599,0.634394,0.773010,-0.000000
53.209707,3.750768,-7.642814,0.824013,0.555942,-0.109228
40.368028,0.000000,-6.740765,0.000000,-1.000000,0.000000
54.429788,1.556835,2.574876,0.979877,0.194909,0.043018
43.028731,5.928067,-6.297082,0.881920,-0.471399,-0.000000
51.368836,6.067521,-3.985643,0.555405,0.831223,-0.024383
52.252734,0.000000,1.517925,0.000000,-1.000000,0.000000
53.659034,3.122819,7.449207,0.824013,0.555942,0.109228
54.132263,0.000000,-3.148805,0.000000,-1.000000,0.000000
41.872410,4.031702,9.443758,0.000000,-0.000000,1.000000
44.690166,0.000000,1.193485,0.000000,-1.000000,0.000000
42.740919,5.045052,-4.215512,0.956941,-0.290283,0.000000
49.244011,0.185999,-3.335150,-0.471396,0.881922,0.000000
41.005888,0.000000,-8.972650,0.000000,-1.000000,0.000000
41.495608,4.709397,1.511564,-0.830916,0.555201,-0.036478
53.863782,3.433908,-1.106064,0.830916,0.555201,-0.036478
39.740346,3.046598,8.327960,-0.824013,0.555942,-0.109228
51.434953,5.741957,8.313840,0.550384,0.831718,0.072957
41.023318,0.000000,-4.257986,0.000000,-1.000000,0.000000
41.613614,5.131242,-4.806385,-0.824013,0.555942,0.109229
43.615053,1.363762,-3.948203,0.773010,0.634394,-0.000000
42.230608,5.894476,9.443758,0.000000,-0.000000,1.000000
53.677066,0.778508,-9.443758,0.000000,0.000000,-1.000000
53.822848,0.122724,9.443758,-0.000000,-0.000000,1.000000
49.252066,0.190304,-6.007480,-0.471396,0.881922,0.000000
52.532045,5.366652,-1.382405,0.555405,0.831222,-0.024383
45.117195,0.000000,-5.074672,0.000000,-1.000000,0.000000
40.033417,2.813184,5.189308,-0.972245,0.195272,-0.128878
42.183804,5.953771,-8.610997,-0.550384,0.831718,0.072957
42.965197,2.462456,-0.808717,0.956941,0.290283,0.000000
44.626148,0.398362,-6.795047,0.634394,0.773010,0.000000
53.928476,0.000000,-9.055101,0.000000,-1.000000,0.000000
40.488019,0.000000,-8.360514,0.000000,-1.000000,0.000000
43.188327,2.020206,-2.394483,0.881921,0.471398,-0.000000
50.968660,1.823768,-1.615110,-0.881921,0.471398,0.000000
51.163939,2.189108,2.095893,-0.881921,0.471398,0.000000
53.336112,4.231472,0.986573,0.830916,0.555201,0.036478
51.195545,2.248238,0.586591,-0.881921,0.471398,0.000000
54.253640,1.498702,6.270876,0.972245,0.195272,0.128877
40.852549,4.139269,-5.498954,-0.824013,0.555942,0.109229
40.736474,3.939210,5.356372,-0.824013,0.555942,-0.109228
49.853792,0.000000,-0.198585,0.000000,-1.000000,0.000000
49.726837,0.000000,2.549744,0.000000,-1.000000,0.000000
39.883548,1.278722,3.197106,-0.979877,0.194910,-0.043018
51.432631,2.910268,1.793899,-0.956941,0.290283,0.000000
52.916918,4.347211,6.815867,0.824013,0.555942,0.109228
51.002629,6.359537,-0.534754,-0.881923,-0.471393,0.000000
53.107601,0.000000,-0.099126,0.000000,-1.000000,0.000000
41.663810,0.000000,5.750407,-0.000000,-1.000000,0.000000
54.348903,1.720233,-3.676990,0.979877,0.194910,-0.043018
40.850794,0.000000,-4.531139,0.000000,-1.000000,0.000000
51.016756,1.913749,8.519140,-0.881921,0.471398,0.000000
52.552952,5.100589,-5.597711,0.830916,0.555201,-0.036478
40.157132,2.157388,-0.946447,-0.979877,0.194910,0.043018
39.914851,0.786366,-0.253244,-0.979877,0.194910,0.043018
40.410733,4.205220,-9.443758,0.000000,0.000000,-1.000000
43.983529,0.925746,-8.147057,0.634394,0.773010,-0.000000
53.875688,3.317733,-2.603045,0.830916,0.555201,-0.036478
42.009275,5.588824,-5.767203,-0.550384,0.831718,0.072957
42.662879,3.899258,7.743998,0.995185,0.098016,0.000000
52.968517,4.823450,-0.349861,0.830916,0.555201,-0.036478
51.756280,5.786611,4.736587,0.555405,0.831223,0.024383
51.889788,5.778911,-1.957973,0.555405,0.831222,-0.024383
53.800361,2.830033,7.673194,0.972245,0.195272,0.128877
43.318722,1.776254,-9.419979,0.881921,0.471398,-0.000000
39.289534,0.174714,6.803372,-0.972245,0.195272,-0.128877
54.170339,0.165891,8.918748,0.972245,0.195272,0.128877
40.353303,3.064925,-2.502550,-0.830916,0.555201,0.036478
39.383292,1.069464,7.451778,-0.972245,0.195272,-0.128878
44.278400,0.000000,-3.592143,0.000000,-1.000000,0.000000
44.168727,0.773757,8.262470,0.634394,0.773010,0.000000
51.615763,4.178522,4.539908,-0.995184,-0.098021,0.000000
50.425428,1.093854,0.744559,-0.773012,0.634392,0.000000
50.068746,0.000000,7.648279,0.000000,-1.000000,0.000000
43.517962,1.482067,-8.532798,0.773010,0.634394,-0.000000
42.879946,5.503366,-3.580704,0.956941,-0.290283,0.000000
53.074506,0.000000,-0.405904,0.000000,-1.000000,0.000000
49.439090,0.290271,-3.604886,-0.471396,0.881922,0.000000
52.652316,1.505849,9.443758,0.000000,0.000000,1.000000
39.763289,0.449901,-2.181086,-0.979877,0.194910,0.043018
43.043985,5.956605,6.064737,0.881917,-0.471404,-0.000000
39.813943,2.663965,-6.618914,-0.972245,0.195272,0.128878
54.030516,0.639211,-9.256402,0.972245,0.195272,-0.128877
54.274954,1.822504,4.898014,0.979877,0.194910,0.043018
53.219299,4.139177,-5.052114,0.830916,0.555201,-0.036478
49.563233,0.356627,0.526450,-0.471396,0.881922,0.000000
49.783247,0.519336,7.246728,-0.634392,0.773012,0.000000
52.998429,0.000000,0.382165,0.000000,-1.000000,0.000000
52.369245,5.477145,1.324005,0.555405,0.831222,0.024383
50.047136,0.735903,-6.741356,-0.634392,0.773012,0.000000
42.722749,3.291382,2.792410,0.995185,0.098016,0.000000
53.301569,0.000000,1.307108,0.000000,-1.000000,0.000000
39.819279,0.000000,-1.282952,-0.000000,-1.000000,0.000000
39.930167,0.880184,0.329444,-0.979877,0.194910,-0.043018
43.037676,2.302054,8.306267,0.881921,0.471398,0.000000
51.126731,1.671223,9.443758,-0.000000,-0.000000,1.000000
39.783822,0.000000,-1.853088,-0.000000,-1.000000,0.000000
44.408102,0.000000,-1.597739,0.000000,-1.000000,0.000000
51.582238,4.518896,-4.138137,-0.995184,-0.098021,0.000000
41.679139,4.903947,-0.292075,-0.830916,0.555200,0.036478
42.808751,6.143371,-6.057874,-0.550384,0.831718,0.072957
49.166514,0.000000,3.849713,0.000000,-1.000000,0.000000
50.655311,0.000000,0.530043,0.000000,-1.000000,0.000000
45.186476,0.095933,7.102698,0.471396,0.881922,0.000000
51.520923,5.045525,8.807166,-0.956941,-0.290283,0.000000
44.964913,0.000000,4.017508,0.000000,-1.000000,0.000000
53.222661,3.191955,9.443758,0.000000,0.000000,1.000000
49.949917,0.000000,-1.113081,0.000000,-1.000000,0.000000
39.996167,2.057206,-4.159060,-0.979877,0.194910,0.043018
41.660008,4.955625,1.514406,-0.830916,0.555201,-0.036478
40.871639,4.148861,-5.403759,-0.824013,0.555942,0.109229
40.351011,3.141503,3.720263,-0.830916,0.555200,-0.036478
53.093239,4.472873,-2.844702,0.830916,0.555201,-0.036478
45.334511,0.016808,-7.168721,0.471396,0.881922,0.000000
43.871296,1.051530,-7.395892,0.773010,0.634394,-0.000000
39.445197,0.918169,6.755526,-0.972245,0.195272,-0.128877
40.865923,0.000000,-3.013679,-0.000000,-1.000000,0.000000
51.837054,3.484072,9.443758,-0.000000,-0.000000,1.000000
51.499667,3.131257,5.523121,-0.956941,0.290283,0.000000
39.317919,1.458731,-8.534752,-0.972245,0.195272,0.128877
39.945796,0.996509,-0.500498,-0.979877,0.194910,0.043018
51.219781,2.293580,7.249573,-0.881921,0.471398,0.000000
51.435599,5.719781,-8.561775,0.550384,0.831718,-0.072957
44.995306,0.198116,0.461256,0.471396,0.881922,0.000000
40.855141,3.658918,-0.112071,-0.830916,0.555200,0.036478
43.129237,6.392477,6.479984,-0.550384,0.831718,-0.072957
53.055217,4.354573,5.511305,0.830916,0.555201,0.036478
51.608409,3.993676,-0.172174,-0.995184,0.098021,0.000000
50.392613,1.053870,0.029881,-0.773012,0.634392,0.000000
42.693989,3.583391,-1.700291,0.995185,0.098016,0.000000
53.683827,3.504673,-4.128090,0.830916,0.555201,-0.036478
48.901059,0.002688,-7.894527,-0.471396,0.881922,0.000000
52.657906,0.000000,8.021855,0.000000,-1.000000,0.000000
40.991851,4.127606,4.131475,-0.830916,0.555201,-0.036478
40.153078,3.139459,5.686966,-0.824013,0.555942,-0.109228
42.673180,4.452183,-8.179540,0.995185,-0.098016,0.000000
54.515143,0.665538,-4.669020,0.979877,0.194910,-0.043018
51.082888,6.209382,4.590552,-0.881920,-0.471399,-0.000000
40.174781,2.826369,-3.575528,-0.979877,0.194910,0.043018
40.195137,2.391793,1.142844,-0.979877,0.194910,-0.043018
52.804444,4.760767,5.041215,0.830916,0.555201,0.036478
53.607772,2.519844,-9.443758,0.000000,0.000000,-1.000000
44.128390,0.000000,3.432779,0.000000,-1.000000,0.000000
40.141788,2.104064,1.054364,-0.979877,0.194910,-0.043018
42.855372,0.000000,1.916561,0.000000,-1.000000,0.000000
51.883337,0.000000,-3.827108,0.000000,-1.000000,0.000000
44.063735,0.859922,3.278739,0.634394,0.773010,-0.000000
42.788326,3.045522,7.606020,0.956941,0.290283,0.000000
49.097749,0.000000,-0.411202,0.000000,-1.000000,0.000000
44.866346,0.267046,0.715643,0.471396,0.881922,-0.000000
51.539065,4.957215,3.594622,-0.995184,-0.098021,0.000000
54.256076,1.950428,-4.748433,0.979877,0.194910,-0.043018
53.189201,3.677036,8.172784,0.824013,0.555942,0.109228
51.619291,4.142694,-5.084320,-0.995184,-0.098021,0.000000
53.867237,0.000000,-5.344671,0.000000,-1.000000,0.000000
42.055920,0.000000,4.275816,-0.000000,-1.000000,0.000000
42.679245,4.513761,3.410852,0.995185,-0.098016,0.000000
51.855889,0.623118,9.443758,-0.000000,-0.000000,1.000000
42.886122,2.723132,-3.967855,0.956941,0.290283,-0.000000
54.287887,0.405746,-7.668545,0.972245,0.195272,-0.128877
49.532345,0.340117,-2.161492,-0.471396,0.881922,0.000000
43.096847,6.055504,-8.248898,0.881921,-0.471397,0.000000
51.468983,5.216749,6.187036,-0.956941,-0.290283,0.000000
42.219471,5.639433,4.758443,-0.550384,0.831718,-0.072957
49.987435,0.000000,-1.172348,0.000000,-1.000000,0.000000
51.471204,5.209428,1.132016,-0.956941,-0.290282,0.000000
39.960264,1.039901,-0.367562,-0.979877,0.194910,0.043018
54.345342,0.000000,-5.499647,0.000000,-1.000000,0.000000
40.959212,3.853673,0.705675,-0.830916,0.555200,-0.036478
41.288924,4.448491,-2.248536,-0.830916,0.555200,0.036478
49.843281,0.000000,6.521509,0.000000,-1.000000,0.000000
51.138731,6.104906,-4.285497,-0.881922,-0.471395,0.000000
42.698285,3.539771,-5.519196,0.995185,0.098016,-0.000000
39.212149,1.199333,8.855903,-0.956926,0.195989,-0.214198
52.388643,4.821887,-8.385179,0.824013,0.555942,-0.109228
44.125304,0.000000,-4.833730,0.000000,-1.000000,0.000000
42.276897,0.000000,-9.297455,0.000000,-1.000000,0.000000
42.892471,5.995533,-1.777500,-0.555405,0.831223,0.024383
43.891400,1.027033,9.318491,0.773010,0.634394,0.000000
51.541681,4.930655,-5.271611,-0.995184,-0.098021,0.000000
40.569859,1.992327,-9.443758,0.000000,0.000000,-1.000000
52.771030,4.637420,6.439354,0.824013,0.555942,0.109228
43.029131,5.928816,-6.311878,0.881920,-0.471399,-0.000000
42.641387,4.117470,0.190121,0.995185,0.098016,-0.000000
45.089251,0.000000,8.217683,0.000000,-1.000000,0.000000
45.154129,0.000000,-3.513688,0.000000,-1.000000,0.000000
52.879951,0.000000,3.114821,0.000000,-1.000000,0.000000
52.137812,5.653282,-0.591105,0.555406,0.831222,-0.024383
44.749883,0.000000,-5.713676,0.000000,-1.000000,0.000000
42.650423,4.025728,-5.383038,0.995185,0.098016,-0.000000
44.640242,0.387901,3.342011,0.471396,0.881922,-0.000000
41.955075,5.556361,5.805994,-0.550384,0.831718,-0.072957
54.128568,0.000000,3.684541,0.000000,-1.000000,0.000000
51.030833,0.000000,-8.764798,0.000000,-1.000000,0.000000
51.036646,0.000000,-2.355592,0.000000,-1.000000,0.000000
41.036369,2.636019,-9.443758,0.000000,0.000000,-1.000000
40.055573,1.848986,1.862471,-0.979877,0.194910,-0.043018
43.322820,1.768587,-2.154843,0.881921,0.471398,0.000000
51.948088,0.000000,3.351246,0.000000,-1.000000,0.000000
42.228648,0.000000,-5.459098,0.000000,-1.000000,0.000000
39.290192,0.964288,-7.994752,-0.972245,0.195272,0.128877
51.069513,0.000000,-2.617812,0.000000,-1.000000,0.000000
51.379915,5.510370,-6.358227,-0.956941,-0.290282,0.000000
50.746476,0.000000,-3.968602,0.000000,-1.000000,0.000000
39.613063,0.011971,-3.618778,-0.979877,0.194910,0.043018
49.177803,0.000000,8.676519,0.000000,-1.000000,0.000000
39.422346,0.000000,-7.634937,0.000000,-1.000000,0.000000
41.268907,4.539171,-4.084621,-0.830916,0.555201,0.036478
49.645707,0.406461,-1.666050,-0.634392,0.773012,0.000000
51.202243,5.986086,0.998589,-0.881922,-0.471395,0.000000
53.546156,3.956872,-0.381541,0.830916,0.555201,-0.036478
39.830182,2.280836,-5.915904,-0.972245,0.195272,0.128878
51.996704,0.761480,9.443758,-0.000000,-0.000000,1.000000
51.452229,2.974877,-0.273452,-0.956941,0.290283,0.000000
43.672095,0.000000,-3.250717,0.000000,-1.000000,0.000000
39.926779,0.000000,-3.897154,-0.000000,-1.000000,0.000000
52.889826,0.000000,5.342251,0.000000,-1.000000,0.000000
43.266185,1.874544,3.940720,0.881921,0.471398,0.000000
53.834498,3.545962,0.067632,0.830916,0.555201,0.036478
39.278400,0.000000,8.769068,0.000000,-1.000000,0.000000
44.575169,0.000000,5.923716,0.000000,-1.000000,0.000000
39.992894,2.243791,4.632282,-0.972245,0.195272,-0.128877
40.056657,3.534829,8.426681,-0.824013,0.555942,-0.109229
41.332048,5.396469,8.683285,-0.550384,0.831718,-0.072957
42.605308,6.031364,6.315755,-0.550384,0.831718,-0.072957
42.648380,4.046473,2.107584,0.995185,0.098016,-0.000000
52.265820,0.000000,9.231926,0.000000,-1.000000,0.000000
