x,y,z,nx,ny,nz
0.108492,0.114255,0.101127,-0.731500,0.000000,-0.681841
0.263157,-0.184746,0.160321,0.853999,0.000000,0.520275
0.151591,-0.205080,0.057432,0.000000,-1.000000,0.000000
0.138819,-0.205080,-0.089115,0.000000,-1.000000,0.000000
-0.303288,-0.048835,-0.054506,-0.984232,0.000000,-0.176883
0.108283,-0.205080,0.119089,0.000000,-1.000000,0.000000
-0.262487,-0.205080,0.132505,0.000000,-1.000000,0.000000
0.133117,-0.205080,0.077985,0.000000,-1.000000,0.000000
-0.146030,-0.133602,0.025930,0.984598,0.000000,-0.174835
-0.152925,-0.005354,-0.267522,-0.496275,0.000000,-0.868165
0.293110,0.191249,-0.095084,0.951202,0.000000,-0.308568
-0.156411,0.096695,0.265499,-0.507587,0.000000,0.861600
-0.008948,0.178986,0.148044,0.060334,0.000000,-0.998178
-0.230505,0.205080,-0.043573,0.000000,1.000000,0.000000
-0.137316,-0.077952,0.056049,0.925844,0.000000,-0.377905
0.286515,-0.173975,-0.113416,0.929802,0.000000,-0.368059
-0.004532,-0.197731,0.148245,0.030559,0.000000,-0.999533
-0.307244,0.080736,0.023570,-0.997070,0.000000,0.076488
0.008316,0.182894,0.308034,0.026988,0.000000,0.999636
0.131284,-0.025306,-0.069005,-0.885174,0.000000,0.465261
0.273137,-0.079473,-0.142655,0.886387,0.000000,-0.462945
0.146285,-0.075280,-0.024448,-0.986320,0.000000,0.164840
0.232832,0.022786,0.201850,0.755588,0.000000,0.655047
0.060501,0.141203,0.135413,-0.407925,0.000000,-0.913015
-0.148166,-0.065250,-0.006623,0.999002,0.000000,0.044656
-0.148540,0.044011,0.269982,-0.482042,0.000000,0.876148
-0.084626,-0.007892,-0.121802,0.570583,0.000000,0.821240
0.226458,-0.139415,-0.208976,0.734904,0.000000,-0.678171
-0.117360,0.114230,-0.090685,0.791293,0.000000,0.611438
-0.269780,-0.202134,-0.148907,-0.875491,0.000000,-0.483234
0.007103,-0.046878,0.148144,-0.047894,0.000000,-0.998852
0.180736,0.205080,-0.091492,0.000000,1.000000,0.000000
0.148293,-0.029510,-0.002504,-0.999857,0.000000,0.016883
0.031686,0.158142,0.144890,-0.213637,0.000000,-0.976913
-0.028625,0.205080,-0.196810,0.000000,1.000000,0.000000
-0.147523,0.205080,0.102651,0.000000,1.000000,0.000000
-0.029613,-0.095388,-0.145328,0.199661,0.000000,0.979865
0.181463,0.205080,0.002517,0.000000,1.000000,0.000000
0.102394,0.103307,0.107297,-0.690386,0.000000,-0.723442
-0.144101,-0.196554,0.272377,-0.467639,0.000000,0.883920
-0.135535,-0.027948,0.060228,0.913837,0.000000,-0.406081
-0.212057,0.135674,-0.223576,-0.688169,0.000000,-0.725550
-0.139437,0.088028,0.050541,0.940148,0.000000,-0.340768
0.095767,0.205080,-0.141265,0.000000,1.000000,0.000000
-0.094076,0.029050,0.114660,0.634302,0.000000,-0.773086
-0.040751,-0.049438,-0.305440,-0.132247,0.000000,-0.991217
-0.051532,-0.001952,-0.139074,0.347452,0.000000,0.937698
-0.183990,0.205080,-0.023935,0.000000,1.000000,0.000000
-0.144373,0.003012,0.033963,0.973428,0.000000,-0.228992
-0.005841,0.125054,0.308091,-0.018955,0.000000,0.999820
0.215830,-0.205080,0.088788,0.000000,-1.000000,0.000000
0.086165,0.015993,-0.120718,-0.580959,0.000000,0.813933
-0.134208,-0.205080,-0.124892,0.000000,-1.000000,0.000000
0.263157,-0.184746,0.160321,0.853999,0.000000,0.520275
-0.136978,0.037315,0.056870,0.923563,0.000000,-0.383446
-0.129864,-0.193879,0.071641,0.875600,0.000000,-0.483037
0.222120,0.085293,-0.213581,0.720826,0.000000,-0.693116
0.139456,-0.205080,-0.056488,0.000000,-1.000000,0.000000
0.063344,-0.205080,0.250598,0.000000,-1.000000,0.000000
0.103846,0.023401,-0.105892,-0.700177,0.000000,0.713969
0.084272,0.129930,-0.296399,0.273480,0.000000,-0.961878
0.304994,0.058433,-0.043967,0.989769,0.000000,-0.142681
-0.084588,0.066721,0.296309,-0.274504,0.000000,0.961586
-0.236123,0.205080,0.077674,0.000000,1.000000,0.000000
-0.148805,-0.016971,-0.269836,-0.482904,0.000000,-0.875673
0.303039,0.145981,0.055872,0.983425,0.000000,0.181317
-0.267768,-0.019922,0.152495,-0.868963,0.000000,0.494877
0.188724,0.205080,0.137631,0.000000,1.000000,0.000000
0.181852,-0.205080,0.026227,0.000000,-1.000000,0.000000
0.102451,-0.163677,-0.290617,0.332475,0.000000,-0.943112
0.138819,-0.205080,-0.089115,0.000000,-1.000000,0.000000
0.130604,0.139799,0.279100,0.423837,0.000000,0.905739
0.138202,-0.179142,0.275417,0.448493,0.000000,0.893786
0.274923,-0.120136,0.139182,0.892182,0.000000,0.451676
-0.212057,0.135674,-0.223576,-0.688169,0.000000,-0.725550
0.060923,0.154680,0.302064,0.197709,0.000000,0.980261
-0.054004,0.205080,0.283784,0.000000,1.000000,0.000000
-0.041875,-0.205080,0.193620,0.000000,-1.000000,0.000000
-0.274754,0.089083,0.139515,-0.891634,0.000000,0.452757
0.000103,-0.205080,0.173837,0.000000,-1.000000,0.000000
-0.017577,0.144723,0.307645,-0.057040,0.000000,0.998372
-0.123709,0.082102,-0.081812,0.834100,0.000000,0.551614
0.222848,-0.129153,0.212822,0.723188,0.000000,0.690651
-0.053317,0.035400,0.138400,0.359484,0.000000,-0.933151
0.270156,-0.157255,0.148223,0.876713,0.000000,0.481014
-0.042791,0.162086,0.142007,0.288516,0.000000,-0.957475
-0.111449,0.166388,-0.097858,0.751437,0.000000,0.659804
-0.008804,0.205080,-0.201041,0.000000,1.000000,0.000000
0.145594,0.112198,-0.028274,-0.981661,0.000000,0.190637
-0.139539,-0.034026,-0.050258,0.940836,0.000000,0.338863
0.008039,-0.155157,-0.148096,-0.054199,0.000000,0.998530
0.012872,-0.094885,0.147755,-0.086790,0.000000,-0.996227
0.097114,-0.079634,0.292444,0.315155,0.000000,0.949040
-0.126707,0.205080,0.108189,0.000000,1.000000,0.000000
-0.094898,0.205080,0.267583,0.000000,1.000000,0.000000
-0.041759,-0.063056,0.305304,-0.135518,0.000000,0.990775
-0.016112,0.058480,0.147437,0.108636,0.000000,-0.994082
0.260030,0.131306,-0.165344,0.843852,0.000000,-0.536576
-0.040484,-0.085210,0.305476,-0.131379,0.000000,0.991332
0.148079,0.028248,-0.008348,-0.998415,0.000000,0.056288
-0.152548,0.205080,-0.022382,0.000000,1.000000,0.000000
-0.282883,0.077336,0.122194,-0.918015,0.000000,0.396547
0.152839,0.205080,-0.036575,0.000000,1.000000,0.000000
0.227804,0.203777,0.207509,0.739270,0.000000,0.673409
0.019848,-0.205080,-0.205388,0.000000,-1.000000,0.000000
-0.209464,-0.197732,0.226007,-0.679753,0.000000,0.733441
0.152839,0.205080,-0.036575,0.000000,1.000000,0.000000
0.029693,-0.198443,0.306713,0.096361,0.000000,0.995346
-0.177405,0.205080,0.107447,0.000000,1.000000,0.000000
-0.278505,0.009028,-0.131868,-0.903807,0.000000,-0.427939
0.195852,0.205080,-0.155116,0.000000,1.000000,0.000000
-0.183990,0.205080,-0.023935,0.000000,1.000000,0.000000
0.143114,0.172288,0.038930,-0.964937,0.000000,-0.262482
-0.008642,0.152947,-0.308025,-0.028046,0.000000,-0.999607
-0.251839,0.077445,-0.177571,-0.817269,0.000000,-0.576256
0.272764,0.124268,0.143368,0.885175,0.000000,0.465259
-0.049383,0.205080,-0.296532,0.000000,1.000000,0.000000
0.147927,-0.094718,-0.010707,-0.997391,0.000000,0.072193
-0.069207,-0.189821,0.131177,0.466626,0.000000,-0.884455
0.308122,0.133915,-0.003894,0.999920,0.000000,-0.012636
0.176134,0.184789,-0.252846,0.571593,0.000000,-0.820537
0.136340,-0.181677,-0.058383,-0.919262,0.000000,0.393647
-0.017688,-0.113180,0.147256,0.119263,0.000000,-0.992863
0.217333,0.205080,0.128413,0.000000,1.000000,0.000000
-0.217887,-0.080615,0.217899,-0.707087,0.000000,0.707126
-0.293080,0.179413,-0.095176,-0.951106,0.000000,-0.308865
-0.104854,0.205080,0.194301,0.000000,1.000000,0.000000
0.162721,-0.205080,0.017698,0.000000,-1.000000,0.000000
0.096440,-0.077001,0.112678,-0.650243,0.000000,-0.759726
0.296833,-0.048186,-0.082732,0.963284,0.000000,-0.268484
0.178634,-0.063675,0.251086,0.579705,0.000000,0.814827
0.108394,0.205080,0.138694,0.000000,1.000000,0.000000
0.043575,-0.205080,-0.203144,0.000000,-1.000000,0.000000
-0.102797,0.147264,0.106911,0.693104,0.000000,-0.720838
0.070631,-0.060480,0.130416,-0.476227,0.000000,-0.879323
-0.006446,-0.046658,0.148174,0.043459,0.000000,-0.999055
0.181463,0.205080,0.002517,0.000000,1.000000,0.000000
0.037390,0.075748,-0.143524,-0.252099,0.000000,0.967702
-0.101861,-0.205080,0.271178,0.000000,-1.000000,0.000000
0.283592,0.018864,-0.120539,0.920316,0.000000,-0.391175
-0.086772,-0.085922,0.120282,0.585052,0.000000,-0.810996
0.305180,0.025193,-0.042652,0.990374,0.000000,-0.138415
-0.173794,-0.205080,0.057161,0.000000,-1.000000,0.000000
0.145036,0.202396,-0.031013,-0.977894,0.000000,0.209102
0.292386,-0.174005,0.097287,0.948854,0.000000,0.315715
-0.091656,0.053223,-0.116603,0.617987,0.000000,0.786189
0.143811,-0.036101,0.036269,-0.969639,0.000000,-0.244541
-0.009950,0.002640,0.147980,0.067088,0.000000,-0.997747
-0.126707,0.205080,0.108189,0.000000,1.000000,0.000000
0.134716,-0.078022,0.062037,-0.908317,0.000000,-0.418283
0.138710,0.036663,-0.052505,-0.935242,0.000000,0.354010
0.100653,-0.060048,0.291244,0.326639,0.000000,0.945149
0.212118,-0.205080,-0.007588,0.000000,-1.000000,0.000000
-0.120837,0.062256,0.085997,0.814739,0.000000,-0.579828
0.152555,0.205080,0.172556,0.000000,1.000000,0.000000
0.117244,-0.069180,0.284970,0.380482,0.000000,0.924788
-0.143134,-0.205080,-0.119855,0.000000,-1.000000,0.000000
-0.212057,0.135674,-0.223576,-0.688169,0.000000,-0.725550
0.148304,0.180273,0.001762,-0.999929,0.000000,-0.011881
-0.125413,0.181058,-0.079175,0.845590,0.000000,0.533833
0.099563,-0.039427,-0.109929,-0.671298,0.000000,0.741187
0.120916,-0.205080,0.246099,0.000000,-1.000000,0.000000
-0.253559,-0.048702,0.175106,-0.822852,0.000000,0.568255
0.300730,0.134372,0.067200,0.975931,0.000000,0.218079
0.148312,-0.186797,0.000888,-0.999982,0.000000,-0.005990
0.015694,0.042499,0.147482,-0.105814,0.000000,-0.994386
-0.130257,0.022269,0.279262,-0.422712,0.000000,0.906264
0.228848,-0.105225,-0.206356,0.742660,0.000000,-0.669669
-0.287270,-0.024002,-0.111492,-0.932250,0.000000,-0.361816
-0.126178,0.170568,0.281129,-0.409475,0.000000,0.912321
0.245225,-0.174972,-0.186598,0.795807,0.000000,-0.605551
0.090801,-0.027326,0.294465,0.294669,0.000000,0.955599
0.116084,0.205080,0.208425,0.000000,1.000000,0.000000
0.268347,0.095005,0.151474,0.870842,0.000000,0.491563
-0.258790,-0.205080,-0.046466,0.000000,-1.000000,0.000000
0.138081,-0.140303,-0.054136,-0.931003,0.000000,0.365010
-0.141294,0.111302,-0.045090,0.952667,0.000000,0.304015
0.243074,-0.017771,-0.189392,0.788825,0.000000,-0.614617
-0.090449,-0.205080,-0.142505,0.000000,-1.000000,0.000000
0.146862,0.193935,0.020704,-0.990208,0.000000,-0.139599
-0.030736,0.006882,-0.306610,-0.099743,0.000000,-0.995013
-0.137316,-0.077952,0.056049,0.925844,0.000000,-0.377905
-0.012333,-0.005634,0.147801,0.083155,0.000000,-0.996537
0.005505,0.120426,-0.308097,0.017863,0.000000,-0.999840
0.306380,0.128521,-0.032953,0.994265,0.000000,-0.106941
0.307167,-0.054400,0.024555,0.996820,0.000000,0.079686
-0.074886,-0.169496,0.128020,0.504914,0.000000,-0.863170
0.043338,0.040938,-0.305084,0.140640,0.000000,-0.990061
0.045817,-0.205080,0.260417,0.000000,-1.000000,0.000000
0.009254,0.160047,0.148025,-0.062396,0.000000,-0.998051
0.120722,0.185079,-0.086159,-0.813959,0.000000,0.580922
0.021315,0.205080,0.206967,0.000000,1.000000,0.000000
-0.011997,-0.079109,0.307913,-0.038934,0.000000,0.999242
0.097083,-0.160390,0.292454,0.315053,0.000000,0.949074
-0.141302,0.096823,-0.045066,0.952719,0.000000,0.303852
-0.193212,0.049091,0.240049,-0.627013,0.000000,0.779009
0.135273,0.128779,-0.060814,-0.912069,0.000000,0.410037
0.138684,-0.205080,-0.169938,0.000000,-1.000000,0.000000
0.284083,-0.007189,0.119378,0.921908,0.000000,0.387408
-0.266626,0.205080,0.144136,0.000000,1.000000,0.000000
-0.054004,0.205080,0.283784,0.000000,1.000000,0.000000
0.122321,0.085801,-0.083874,-0.824739,0.000000,0.565514
-0.167190,-0.205080,-0.178820,0.000000,-1.000000,0.000000
-0.231895,-0.095305,0.202926,-0.752547,0.000000,0.658538
-0.176197,-0.205080,-0.047803,0.000000,-1.000000,0.000000
0.046707,0.205080,0.244393,0.000000,1.000000,0.000000
-0.070984,-0.008820,-0.130224,0.478605,0.000000,0.878030
0.163907,0.205080,0.090415,0.000000,1.000000,0.000000
-0.251743,0.176880,-0.177707,-0.816959,0.000000,-0.576696
0.012410,-0.205080,-0.265254,0.000000,-1.000000,0.000000
-0.178203,0.044988,-0.251392,-0.578305,0.000000,-0.815820
-0.107236,0.200389,-0.102457,0.723035,0.000000,0.690812
0.132402,-0.001725,-0.066834,-0.892713,0.000000,0.450625
-0.049775,-0.129458,0.139712,0.335608,0.000000,-0.942002
-0.292597,-0.145886,0.096649,-0.949540,0.000000,0.313647
0.046413,-0.205080,-0.263418,0.000000,-1.000000,0.000000
-0.144879,0.128729,-0.271964,-0.470161,0.000000,-0.882581
-0.123938,0.044560,-0.081464,0.835647,0.000000,0.549267
-0.047014,0.181023,-0.140666,0.316988,0.000000,0.948429
-0.017577,0.144723,0.307645,-0.057040,0.000000,0.998372
-0.065881,-0.205080,0.169594,0.000000,-1.000000,0.000000
0.186881,-0.134188,0.245010,0.606467,0.000000,0.795108
0.002202,0.205080,-0.214231,0.000000,1.000000,0.000000
0.101044,0.155543,0.291109,0.327908,0.000000,0.944710
-0.138885,-0.081690,0.052038,0.936426,0.000000,-0.350865
0.014193,0.085378,-0.147634,-0.095697,0.000000,0.995410
-0.075806,0.205080,-0.131709,0.000000,1.000000,0.000000
-0.122689,-0.010341,0.083335,0.827219,0.000000,-0.561879
0.101064,0.064920,0.108550,-0.681420,0.000000,-0.731892
0.258425,-0.205080,0.059416,0.000000,-1.000000,0.000000
0.022279,0.011473,-0.307340,0.072299,0.000000,-0.997383
-0.005774,-0.061862,0.148202,0.038933,0.000000,-0.999242
-0.254602,0.132185,-0.173585,-0.826238,0.000000,-0.563321
-0.063777,0.097490,-0.133902,0.430014,0.000000,0.902822
-0.025471,0.019176,-0.146111,0.171734,0.000000,0.985143
-0.175405,0.205080,0.076291,0.000000,1.000000,0.000000
0.017893,0.205080,-0.211279,0.000000,1.000000,0.000000
-0.141269,-0.143460,-0.045168,0.952500,0.000000,0.304539
0.166211,-0.089475,0.259477,0.539390,0.000000,0.842056
0.243825,0.205080,0.069860,0.000000,1.000000,0.000000
-0.132631,-0.205080,0.259993,0.000000,-1.000000,0.000000
-0.020168,-0.046470,0.146937,0.135980,0.000000,-0.990712
-0.083686,-0.046826,-0.122449,0.564249,0.000000,0.825605
0.138359,-0.205080,-0.083922,0.000000,-1.000000,0.000000
-0.120426,-0.205080,0.155409,0.000000,-1.000000,0.000000
0.230204,-0.126775,0.204842,0.747060,0.000000,0.664757
0.234102,-0.090269,0.200376,0.759711,0.000000,0.650261
-0.070653,-0.009494,-0.130405,0.476372,0.000000,0.879244
0.148070,0.072594,-0.008507,-0.998354,0.000000,0.057358
-0.055558,0.154127,-0.137515,0.374594,0.000000,0.927189
0.063315,0.110897,0.134121,-0.426896,0.000000,-0.904301
0.241279,-0.046904,0.191673,0.783002,0.000000,0.622019
0.124040,-0.182071,-0.081309,-0.836332,0.000000,0.548224
-0.143223,-0.190718,0.038525,0.965675,0.000000,-0.259753
0.195392,-0.063821,-0.238278,0.634088,0.000000,-0.773261
0.035318,0.174719,0.144048,-0.238127,0.000000,-0.971234
-0.287805,0.078005,0.110104,-0.933986,0.000000,0.357310
-0.288853,0.165320,-0.107322,-0.937390,0.000000,-0.348282
0.241279,-0.046904,0.191673,0.783002,0.000000,0.622019
-0.046505,-0.205080,-0.297701,0.000000,-1.000000,0.000000
0.267453,-0.205080,-0.127559,0.000000,-1.000000,0.000000
0.270446,-0.205080,-0.022125,0.000000,-1.000000,0.000000
0.023747,0.205080,0.234265,0.000000,1.000000,0.000000
0.181463,0.205080,0.002517,0.000000,1.000000,0.000000
0.184792,-0.205080,-0.091203,0.000000,-1.000000,0.000000
0.139387,-0.144146,0.050679,-0.939809,0.000000,-0.341700
-0.308140,0.042610,0.001986,-0.999979,0.000000,0.006446
0.131284,-0.025306,-0.069005,-0.885174,0.000000,0.465261
0.128675,0.016573,0.073755,-0.867585,0.000000,-0.497290
0.251322,-0.144546,-0.178301,0.815594,0.000000,-0.578625
0.302058,-0.129381,0.060953,0.980242,0.000000,0.197804
-0.144373,0.003012,0.033963,0.973428,0.000000,-0.228992
-0.119436,0.205080,0.113813,0.000000,1.000000,0.000000
0.029599,0.136336,0.306722,0.096054,0.000000,0.995376
0.093214,-0.205080,0.239879,0.000000,-1.000000,0.000000
0.138081,-0.140303,-0.054136,-0.931003,0.000000,0.365010
-0.134744,0.146541,0.061978,0.908500,0.000000,-0.417885
-0.046999,0.205080,0.202415,0.000000,1.000000,0.000000
0.087566,0.128104,-0.119705,-0.590410,0.000000,0.807103
0.253237,0.178234,0.175571,0.821807,0.000000,0.569766
-0.094429,-0.076846,-0.293321,-0.306443,0.000000,-0.951889
0.163907,0.205080,0.090415,0.000000,1.000000,0.000000
0.090394,0.205080,0.139880,0.000000,1.000000,0.000000
0.249429,0.170029,-0.180941,0.809448,0.000000,-0.587191
-0.169596,0.205080,-0.091882,0.000000,1.000000,0.000000
-0.203838,-0.205080,0.100308,0.000000,-1.000000,0.000000
-0.278552,-0.166043,0.131769,-0.903960,0.000000,0.427617
-0.154635,-0.205080,-0.063507,0.000000,-1.000000,0.000000
0.189862,0.205080,0.088869,0.000000,1.000000,0.000000
-0.059406,0.041473,-0.302366,-0.192784,0.000000,-0.981241
0.305243,0.039327,-0.042201,0.990578,0.000000,-0.136952
-0.058732,0.131612,0.136190,0.395994,0.000000,-0.918253
0.138670,0.205080,-0.179636,0.000000,1.000000,0.000000
0.128629,0.110628,0.073835,-0.867274,0.000000,-0.497831
-0.064600,0.205080,0.290723,0.000000,1.000000,0.000000
0.138710,0.036663,-0.052505,-0.935242,0.000000,0.354010
0.165424,-0.205080,-0.086942,0.000000,-1.000000,0.000000
0.101394,0.205080,0.231192,0.000000,1.000000,0.000000
0.003872,-0.187980,-0.148264,-0.026106,0.000000,0.999659
-0.046999,0.205080,0.202415,0.000000,1.000000,0.000000
-0.290986,0.030913,0.101397,-0.944311,0.000000,0.329055
0.211153,-0.106646,-0.224430,0.685236,0.000000,-0.728321
-0.078909,0.174081,-0.297872,-0.256075,0.000000,-0.966657
0.053325,-0.022369,0.303497,0.173052,0.000000,0.984913
-0.143934,0.073942,-0.035779,0.970466,0.000000,0.241239
-0.004378,-0.148769,0.308115,-0.014208,0.000000,0.999899
0.204060,-0.122282,0.230898,0.662217,0.000000,0.749312
0.291034,0.022201,-0.101260,0.944466,0.000000,-0.328609
0.084646,-0.173633,-0.296293,0.274695,0.000000,-0.961531
-0.255275,0.137905,0.172595,-0.828420,0.000000,0.560108
-0.066535,-0.173900,0.132553,0.448607,0.000000,-0.893729
-0.215392,-0.205080,0.187886,0.000000,-1.000000,0.000000
0.196276,0.205080,-0.067867,0.000000,1.000000,0.000000
0.263191,-0.205080,-0.070376,0.000000,-1.000000,0.000000
-0.053662,0.152580,-0.303438,-0.174146,0.000000,-0.984720
-0.299470,0.205080,0.000828,0.000000,1.000000,0.000000
-0.279251,-0.070957,0.130281,-0.906227,0.000000,0.422790
-0.062561,-0.196332,0.301729,-0.203024,0.000000,0.979174
-0.144373,0.003012,0.033963,0.973428,0.000000,-0.228992
0.109868,0.205080,0.237388,0.000000,1.000000,0.000000
-0.301587,-0.128664,-0.063244,-0.978712,0.000000,-0.205240
-0.308140,0.042610,0.001986,-0.999979,0.000000,0.006446
-0.074886,-0.169496,0.128020,0.504914,0.000000,-0.863170
0.211657,0.069290,-0.223955,0.686870,0.000000,-0.726780
-0.303573,0.179180,-0.052894,-0.985158,0.000000,-0.171651
0.207222,-0.086436,-0.228064,0.672480,0.000000,-0.740116
0.137501,-0.134953,-0.055592,-0.927094,0.000000,0.374829
-0.046505,-0.205080,-0.297701,0.000000,-1.000000,0.000000
0.147154,-0.203412,-0.018516,-0.992176,0.000000,0.124846
0.117268,0.061296,0.090804,-0.790672,0.000000,-0.612241
-0.158125,-0.205080,-0.092582,0.000000,-1.000000,0.000000
0.189862,0.205080,0.088869,0.000000,1.000000,0.000000
0.119566,-0.125884,0.087757,-0.806164,0.000000,-0.591693
0.177298,0.205080,-0.031852,0.000000,1.000000,0.000000
-0.074886,-0.169496,0.128020,0.504914,0.000000,-0.863170
-0.251839,0.077445,-0.177571,-0.817269,0.000000,-0.576256
-0.106275,0.205080,-0.181813,0.000000,1.000000,0.000000
0.112289,0.201325,-0.096894,-0.757100,0.000000,0.653299
-0.005468,-0.186366,-0.308098,-0.017746,0.000000,-0.999843
0.298071,0.051827,-0.078152,0.967304,0.000000,-0.253620
-0.097488,0.205080,-0.256598,0.000000,1.000000,0.000000
-0.108164,-0.205080,0.104329,0.000000,-1.000000,0.000000
-0.145358,-0.048237,-0.029465,0.980067,0.000000,0.198669
-0.029677,0.205080,-0.288955,0.000000,1.000000,0.000000
0.126372,-0.205080,0.083364,0.000000,-1.000000,0.000000
-0.191316,-0.205080,-0.235411,0.000000,-1.000000,0.000000
0.078209,0.152718,-0.126018,-0.527321,0.000000,0.849666
0.263157,-0.184746,0.160321,0.853999,0.000000,0.520275
-0.248895,0.132092,0.181674,-0.807718,0.000000,0.589570
-0.272717,-0.205080,-0.026350,0.000000,-1.000000,0.000000
-0.090226,0.078491,0.117714,0.608341,0.000000,-0.793676
0.047168,-0.205080,0.148276,0.000000,-1.000000,0.000000
0.162721,-0.205080,0.017698,0.000000,-1.000000,0.000000
-0.248325,-0.205080,0.017411,0.000000,-1.000000,0.000000
-0.263797,-0.205080,-0.063698,0.000000,-1.000000,0.000000
-0.120468,-0.056120,0.086513,0.812250,0.000000,-0.583310
-0.018141,-0.182875,0.307612,-0.058870,0.000000,0.998266
-0.277438,0.054456,-0.134099,-0.900343,0.000000,-0.435180
-0.044210,0.035812,0.141572,0.298086,0.000000,-0.954539
0.120916,-0.205080,0.246099,0.000000,-1.000000,0.000000
-0.306559,0.038169,0.031243,-0.994847,0.000000,0.101391
0.014641,0.035602,-0.147590,-0.098715,0.000000,0.995116
-0.054689,-0.205080,-0.221217,0.000000,-1.000000,0.000000
-0.230105,-0.109045,-0.204954,-0.746738,0.000000,-0.665118
0.278030,0.022106,-0.132866,0.902266,0.000000,-0.431179
-0.057026,-0.136112,-0.136913,0.384491,0.000000,0.923129
0.305438,-0.175962,0.040767,0.991210,0.000000,0.132297
0.147086,0.205080,-0.078081,0.000000,1.000000,0.000000
0.148304,0.180273,0.001762,-0.999929,0.000000,-0.011881
0.302058,-0.129381,0.060953,0.980242,0.000000,0.197804
-0.043215,-0.165460,-0.141879,0.291376,0.000000,0.956609
0.138903,0.155508,0.275064,0.450770,0.000000,0.892640
-0.138885,-0.081690,0.052038,0.936426,0.000000,-0.350865
0.211555,-0.205080,0.198230,0.000000,-1.000000,0.000000
-0.133436,0.057464,0.064745,0.899686,0.000000,-0.436537
-0.287805,0.078005,0.110104,-0.933986,0.000000,0.357310
-0.086892,0.205080,-0.273412,0.000000,1.000000,0.000000
0.298841,-0.089618,0.075156,0.969801,0.000000,0.243897
-0.191280,-0.052064,0.241591,-0.620742,0.000000,0.784015
0.069447,-0.205080,-0.144037,0.000000,-1.000000,0.000000
0.131453,-0.205080,-0.125587,0.000000,-1.000000,0.000000
-0.267279,0.067298,-0.153350,-0.867376,0.000000,-0.497653
-0.070653,-0.009494,-0.130405,0.476372,0.000000,0.879244
0.006768,0.086968,0.308072,0.021964,0.000000,0.999759
0.148268,-0.019930,-0.003702,-0.999689,0.000000,0.024958
0.030284,-0.066971,-0.145190,-0.204187,0.000000,0.978932
0.056323,0.121390,-0.137204,-0.379757,0.000000,0.925086
-0.199310,-0.205080,0.091344,0.000000,-1.000000,0.000000
0.131697,-0.153158,0.068213,-0.887959,0.000000,-0.459923
-0.062561,-0.196332,0.301729,-0.203024,0.000000,0.979174
0.101044,0.155543,0.291109,0.327908,0.000000,0.944710
0.122314,-0.172193,-0.282831,0.396936,0.000000,-0.917846
0.102106,-0.078139,0.107571,-0.688443,0.000000,-0.725291
0.107822,0.140595,-0.101841,-0.726984,0.000000,0.686654
-0.046505,-0.205080,-0.297701,0.000000,-1.000000,0.000000
-0.029613,-0.095388,-0.145328,0.199661,0.000000,0.979865
0.060501,0.141203,0.135413,-0.407925,0.000000,-0.913015
-0.086784,0.075360,0.295674,-0.281631,0.000000,0.959523
-0.305199,0.185984,0.042517,-0.990436,0.000000,0.137976
0.008039,-0.155157,-0.148096,-0.054199,0.000000,0.998530
0.176134,0.184789,-0.252846,0.571593,0.000000,-0.820537
0.054913,-0.205080,-0.243881,0.000000,-1.000000,0.000000
-0.256836,-0.205080,0.156302,0.000000,-1.000000,0.000000
0.270448,-0.016520,0.147690,0.877659,0.000000,0.479286
0.231216,0.041940,-0.203700,0.750344,0.000000,-0.661048
-0.020234,0.151642,0.146928,0.136425,0.000000,-0.990650
0.146607,-0.040786,0.022442,-0.988486,0.000000,-0.151312
-0.174843,0.205080,-0.081756,0.000000,1.000000,0.000000
-0.157757,-0.205080,-0.106624,0.000000,-1.000000,0.000000
-0.141021,0.124400,-0.045937,0.950826,0.000000,0.309724
0.190982,0.205080,-0.187430,0.000000,1.000000,0.000000
-0.101861,-0.205080,0.271178,0.000000,-1.000000,0.000000
-0.134997,0.058179,0.061424,0.910208,0.000000,-0.414151
0.056592,-0.205080,0.213158,0.000000,-1.000000,0.000000
-0.225011,0.007595,-0.210534,-0.730206,0.000000,-0.683227
-0.158125,-0.205080,-0.092582,0.000000,-1.000000,0.000000
-0.026319,0.163070,-0.145960,0.177455,0.000000,0.984129
0.142077,0.205080,-0.095524,0.000000,1.000000,0.000000
0.123288,-0.120377,-0.282408,0.400094,0.000000,-0.916474
0.094275,0.205080,-0.127615,0.000000,1.000000,0.000000
0.128768,0.205080,0.095634,0.000000,1.000000,0.000000
0.268174,0.205080,0.077606,0.000000,1.000000,0.000000
0.146713,-0.052159,0.021739,-0.989200,0.000000,-0.146574
0.147331,0.152850,0.270643,0.478120,0.000000,0.878295
0.035958,-0.178020,-0.143889,-0.242443,0.000000,0.970166
0.209405,0.058862,-0.226062,0.679562,0.000000,-0.733619
0.159271,0.205080,-0.047804,0.000000,1.000000,0.000000
-0.215757,-0.125993,-0.220008,-0.700175,0.000000,-0.713971
-0.258667,0.129599,-0.167469,-0.839428,0.000000,-0.543471
-0.253955,-0.136076,-0.174532,-0.824136,0.000000,-0.566392
0.100633,-0.205080,0.123205,0.000000,-1.000000,0.000000
-0.147555,-0.059412,-0.014988,0.994881,0.000000,0.101058
-0.099388,0.205080,-0.276562,0.000000,1.000000,0.000000
-0.079451,0.001273,-0.297728,-0.257835,0.000000,-0.966189
0.193752,0.205080,-0.154652,0.000000,1.000000,0.000000
0.305722,0.065269,0.038581,0.992131,0.000000,0.125205
-0.240024,0.205080,-0.097738,0.000000,1.000000,0.000000
-0.005774,-0.061862,0.148202,0.038933,0.000000,-0.999242
0.138323,0.205080,-0.179364,0.000000,1.000000,0.000000
-0.135227,0.205080,0.188195,0.000000,1.000000,0.000000
-0.006029,-0.196933,0.148192,0.040650,0.000000,-0.999173
-0.135686,0.205080,-0.145488,0.000000,1.000000,0.000000
-0.236123,0.205080,0.077674,0.000000,1.000000,0.000000
0.258169,0.159133,0.168236,0.837812,0.000000,0.545959
0.138710,0.036663,-0.052505,-0.935242,0.000000,0.354010
0.190071,0.205080,-0.228985,0.000000,1.000000,0.000000
0.252428,-0.148929,0.176732,0.819183,0.000000,0.573532
-0.237728,-0.205080,-0.146863,0.000000,-1.000000,0.000000
0.215830,-0.205080,0.088788,0.000000,-1.000000,0.000000
-0.135725,0.100112,-0.059798,0.915120,0.000000,0.403181
-0.002407,0.032514,-0.308137,-0.007813,0.000000,-0.999969
-0.305972,0.100274,-0.036545,-0.992943,0.000000,-0.118595
0.100504,-0.040989,-0.109069,-0.677640,0.000000,0.735394
-0.305972,0.100274,-0.036545,-0.992943,0.000000,-0.118595
-0.025131,-0.085757,0.307120,-0.081556,0.000000,0.996669
0.056922,-0.205080,-0.178410,0.000000,-1.000000,0.000000
0.036433,0.023402,0.143770,-0.245645,0.000000,-0.969360
0.084834,-0.205080,-0.209689,0.000000,-1.000000,0.000000
0.137411,0.086486,0.055815,-0.926485,0.000000,-0.376331
0.134446,0.015964,-0.062621,-0.906494,0.000000,0.422218
0.147488,0.192667,0.015637,-0.994427,0.000000,-0.105430
-0.147653,0.007800,0.013988,0.995543,0.000000,-0.094312
0.084886,-0.000599,-0.121621,-0.572336,0.000000,0.820019
0.224241,-0.069372,0.211354,0.727707,0.000000,0.685888
0.129894,-0.082294,0.071588,-0.875799,0.000000,-0.482676
-0.258667,0.129599,-0.167469,-0.839428,0.000000,-0.543471
-0.002277,-0.141096,0.148297,0.015353,0.000000,-0.999882
-0.306877,-0.117980,-0.027943,-0.995880,0.000000,-0.090680
-0.299527,0.161964,-0.072375,-0.972026,0.000000,-0.234872
0.283592,0.018864,-0.120539,0.920316,0.000000,-0.391175
-0.011518,0.205080,0.158115,0.000000,1.000000,0.000000
-0.048962,0.064549,0.140000,0.330122,0.000000,-0.943938
0.202414,-0.205080,0.171756,0.000000,-1.000000,0.000000
-0.308135,0.159291,-0.002704,-0.999962,0.000000,-0.008773
0.031686,0.158142,0.144890,-0.213637,0.000000,-0.976913
0.147903,-0.031639,0.011045,-0.997223,0.000000,-0.074470
-0.302763,-0.017079,-0.057346,-0.982531,0.000000,-0.186101
-0.058393,0.085406,-0.302563,-0.189499,0.000000,-0.981881
0.125434,-0.077830,0.079142,-0.845729,0.000000,-0.533612
-0.178045,-0.007481,-0.251504,-0.577795,0.000000,-0.816182
-0.062698,0.134655,-0.134410,0.422736,0.000000,0.906253
-0.158427,0.205080,-0.187392,0.000000,1.000000,0.000000
-0.263029,-0.029151,0.160530,-0.853585,0.000000,0.520954
0.194160,0.205080,0.185716,0.000000,1.000000,0.000000
-0.129884,-0.101889,0.071605,0.875735,0.000000,-0.482793
-0.144599,-0.054229,-0.032988,0.974951,0.000000,0.222419
-0.144638,-0.106898,-0.032818,0.975212,0.000000,0.221272
-0.138836,-0.180607,0.052170,0.936094,0.000000,-0.351751
-0.251482,0.205080,-0.075355,0.000000,1.000000,0.000000
-0.146745,0.169636,0.021516,0.989421,0.000000,-0.145070
0.148313,-0.144748,0.000686,-0.999989,0.000000,-0.004627
-0.138924,-0.205080,-0.069855,0.000000,-1.000000,0.000000
-0.030160,0.075032,0.145215,0.203355,0.000000,-0.979105
0.101021,-0.205080,0.135327,0.000000,-1.000000,0.000000
0.141622,0.031039,0.044049,-0.954879,0.000000,-0.296996
-0.196077,0.205080,-0.080995,0.000000,1.000000,0.000000
-0.002214,0.114115,0.148298,0.014931,0.000000,-0.999889
-0.265414,-0.104689,-0.156556,-0.861324,0.000000,-0.508056
-0.170227,0.205080,-0.201336,0.000000,1.000000,0.000000
0.012872,-0.094885,0.147755,-0.086790,0.000000,-0.996227
0.116492,-0.146479,-0.091798,-0.785437,0.000000,0.618942
0.141622,0.031039,0.044049,-0.954879,0.000000,-0.296996
0.170317,0.205080,-0.007180,0.000000,1.000000,0.000000
0.107185,-0.179729,0.102511,-0.722687,0.000000,-0.691175
-0.011881,0.159462,0.147838,0.080108,0.000000,-0.996786
0.138670,0.205080,-0.179636,0.000000,1.000000,0.000000
-0.038441,0.165461,-0.143246,0.259184,0.000000,0.965828
-0.075806,0.205080,-0.131709,0.000000,1.000000,0.000000
0.147690,-0.190983,0.013598,-0.995788,0.000000,-0.091683
0.086165,0.015993,-0.120718,-0.580959,0.000000,0.813933
0.147488,0.192667,0.015637,-0.994427,0.000000,-0.105430
-0.074458,0.159656,-0.128270,0.502028,0.000000,0.864851
0.305981,-0.157606,0.036465,0.992973,0.000000,0.118337
-0.148540,0.044011,0.269982,-0.482042,0.000000,0.876148
-0.193212,0.049091,0.240049,-0.627013,0.000000,0.779009
-0.160670,-0.205080,0.055790,0.000000,-1.000000,0.000000
0.117522,0.177459,-0.090475,-0.792387,0.000000,0.610019
-0.094429,-0.076846,-0.293321,-0.306443,0.000000,-0.951889
0.070631,-0.060480,0.130416,-0.476227,0.000000,-0.879323
-0.293606,0.020091,-0.093541,-0.952812,0.000000,-0.303561
-0.023146,0.205080,-0.221471,0.000000,1.000000,0.000000
0.108463,-0.085273,-0.101158,-0.731304,0.000000,0.682052
-0.208400,-0.205080,-0.216959,0.000000,-1.000000,0.000000
0.305729,0.005378,-0.038527,0.992153,0.000000,-0.125029
0.114256,0.076344,0.094566,-0.770363,0.000000,-0.637606
-0.231895,-0.095305,0.202926,-0.752547,0.000000,0.658538
-0.028170,0.203906,0.145615,0.189933,0.000000,-0.981797
0.014918,-0.148362,-0.307785,0.048413,0.000000,-0.998827
-0.066542,-0.111187,0.132549,0.448654,0.000000,-0.893705
0.283592,0.018864,-0.120539,0.920316,0.000000,-0.391175
0.093814,0.119963,0.114874,-0.632535,0.000000,-0.774532
0.014918,-0.148362,-0.307785,0.048413,0.000000,-0.998827
-0.223970,-0.205080,-0.119361,0.000000,-1.000000,0.000000
0.147690,-0.190983,0.013598,-0.995788,0.000000,-0.091683
-0.141302,0.096823,-0.045066,0.952719,0.000000,0.303852
0.296525,0.205080,-0.040755,0.000000,1.000000,0.000000
0.059617,-0.113504,-0.302325,0.193470,0.000000,-0.981106
0.148293,-0.029510,-0.002504,-0.999857,0.000000,0.016883
-0.144117,0.122518,-0.035034,0.971701,0.000000,0.236216
0.215830,-0.205080,0.088788,0.000000,-1.000000,0.000000
0.272784,-0.119928,0.143329,0.885241,0.000000,0.465133
-0.017577,0.144723,0.307645,-0.057040,0.000000,0.998372
-0.274219,-0.143684,-0.140564,-0.889897,0.000000,-0.456161
0.307241,0.197087,0.023604,0.997062,0.000000,0.076599
0.110626,0.078230,0.098787,-0.745891,0.000000,-0.666067
0.143811,-0.036101,0.036269,-0.969639,0.000000,-0.244541
-0.040671,-0.205080,-0.299260,0.000000,-1.000000,0.000000
-0.308126,0.129669,0.003570,-0.999933,0.000000,0.011584
0.174255,-0.100704,-0.254145,0.565494,0.000000,-0.824753
-0.079730,0.078136,0.297653,-0.258741,0.000000,0.965947
0.065229,0.205080,0.190306,0.000000,1.000000,0.000000
0.177468,0.205080,-0.037180,0.000000,1.000000,0.000000
-0.107236,0.200389,-0.102457,0.723035,0.000000,0.690812
0.240263,0.199405,0.192946,0.779703,0.000000,0.626149
-0.143576,0.014474,0.037190,0.968051,0.000000,-0.250754
0.007488,-0.081735,0.308056,0.024299,0.000000,0.999705
-0.123111,0.008948,0.282485,-0.399522,0.000000,0.916723
-0.308041,-0.151078,-0.008048,-0.999659,0.000000,-0.026119
0.272777,-0.028058,0.143343,0.885217,0.000000,0.465178
0.230901,0.093102,0.204056,0.749323,0.000000,0.662205
-0.160012,0.205080,-0.112540,0.000000,1.000000,0.000000
0.142736,-0.205080,-0.254883,0.000000,-1.000000,0.000000
0.037549,0.138148,-0.143483,-0.253170,0.000000,0.967422
-0.027253,0.187642,-0.306939,-0.088442,0.000000,-0.996081
0.090394,0.205080,0.139880,0.000000,1.000000,0.000000
0.145174,-0.092215,-0.030360,-0.978825,0.000000,0.204698
0.304186,0.108417,-0.049247,0.987147,0.000000,-0.159817
-0.145790,-0.133144,0.027250,0.982977,0.000000,-0.183729
0.300772,-0.093987,0.067011,0.976068,0.000000,0.217464
0.148243,0.007790,0.004594,-0.999520,0.000000,-0.030976
-0.145790,-0.133144,0.027250,0.982977,0.000000,-0.183729
0.134872,-0.172160,-0.061699,-0.909363,0.000000,0.416004
-0.307382,-0.090444,0.021692,-0.997519,0.000000,0.070394
0.118010,0.024062,-0.284654,0.382968,0.000000,-0.923762
-0.123111,0.008948,0.282485,-0.399522,0.000000,0.916723
0.094426,-0.205080,0.210912,0.000000,-1.000000,0.000000
0.146583,-0.122407,0.022598,-0.988324,0.000000,-0.152366
0.246464,-0.205080,-0.059786,0.000000,-1.000000,0.000000
0.091058,0.017607,0.294386,0.295501,0.000000,0.955342
0.193752,0.205080,-0.154652,0.000000,1.000000,0.000000
0.077885,0.123666,0.298141,0.252754,0.000000,0.967531
0.272777,-0.028058,0.143343,0.885217,0.000000,0.465178
-0.141968,-0.089788,0.273495,-0.460716,0.000000,0.887548
-0.137325,-0.001769,0.056027,0.925905,0.000000,-0.377757
0.131453,-0.205080,-0.125587,0.000000,-1.000000,0.000000
-0.086772,-0.085922,0.120282,0.585052,0.000000,-0.810996
0.124040,-0.182071,-0.081309,-0.836332,0.000000,0.548224
0.200995,0.109507,-0.233571,0.652270,0.000000,-0.757987
-0.147029,0.167682,-0.019487,0.991331,0.000000,0.131388
-0.098106,-0.108306,0.111231,0.661475,0.000000,-0.749967
-0.004532,-0.197731,0.148245,0.030559,0.000000,-0.999533
0.196276,0.205080,-0.067867,0.000000,1.000000,0.000000
-0.099539,0.016571,-0.109951,0.671136,0.000000,0.741334
0.136340,-0.181677,-0.058383,-0.919262,0.000000,0.393647
0.129821,0.156186,0.071719,-0.875309,0.000000,-0.483563
0.189260,0.014351,0.243177,0.614189,0.000000,0.789159
0.189260,0.014351,0.243177,0.614189,0.000000,0.789159
0.023318,-0.009196,0.146470,-0.157221,0.000000,-0.987563
0.032208,-0.028012,0.144775,-0.217158,0.000000,-0.976137
-0.206582,-0.205080,0.194365,0.000000,-1.000000,0.000000
-0.178045,-0.007481,-0.251504,-0.577795,0.000000,-0.816182
0.201437,-0.203769,0.233190,0.653705,0.000000,0.756750
0.214261,-0.048733,0.221465,0.695322,0.000000,0.718699
0.306330,-0.159572,-0.033413,0.994104,0.000000,-0.108431
-0.279251,-0.070957,0.130281,-0.906227,0.000000,0.422790
-0.107606,-0.205080,0.128863,0.000000,-1.000000,0.000000
-0.111695,0.205080,-0.255901,0.000000,1.000000,0.000000
0.010491,-0.014653,0.147943,-0.070737,0.000000,-0.997495
-0.286355,0.164567,0.113821,-0.929281,0.000000,0.369374
0.056393,0.173538,0.137175,-0.380224,0.000000,-0.924895
0.303326,-0.197221,-0.054293,0.984356,0.000000,-0.176193
-0.030736,0.006882,-0.306610,-0.099743,0.000000,-0.995013
0.230204,-0.126775,0.204842,0.747060,0.000000,0.664757
-0.050154,0.170123,-0.304038,-0.162759,0.000000,-0.986666
0.011195,-0.015799,0.147891,-0.075479,0.000000,-0.997147
-0.184505,-0.205080,0.047938,0.000000,-1.000000,0.000000
0.196276,0.205080,-0.067867,0.000000,1.000000,0.000000
-0.030712,-0.008034,-0.306612,-0.099667,0.000000,-0.995021
-0.069552,-0.194356,-0.130995,0.468951,0.000000,0.883224
-0.180017,-0.205080,0.171253,0.000000,-1.000000,0.000000
0.257060,0.205080,0.133612,0.000000,1.000000,0.000000
-0.090453,0.205080,0.154788,0.000000,1.000000,0.000000
0.148304,0.180273,0.001762,-0.999929,0.000000,-0.011881
-0.231895,-0.095305,0.202926,-0.752547,0.000000,0.658538
0.195852,0.205080,-0.155116,0.000000,1.000000,0.000000
0.091058,0.017607,0.294386,0.295501,0.000000,0.955342
0.307944,-0.193418,-0.011165,0.999343,0.000000,-0.036231
-0.000950,0.013126,0.148311,0.006408,0.000000,-0.999979
-0.108164,-0.205080,0.104329,0.000000,-1.000000,0.000000
0.148313,-0.144748,0.000686,-0.999989,0.000000,-0.004627
-0.037281,-0.205080,0.228450,0.000000,-1.000000,0.000000
-0.028833,-0.205080,0.219462,0.000000,-1.000000,0.000000
-0.302436,-0.134391,0.059047,-0.981469,0.000000,0.191621
-0.097727,0.205080,-0.225301,0.000000,1.000000,0.000000
-0.139437,0.088028,0.050541,0.940148,0.000000,-0.340768
-0.236123,0.205080,0.077674,0.000000,1.000000,0.000000
-0.118961,0.049999,-0.088574,0.802089,0.000000,0.597204
0.306220,-0.010427,0.034401,0.993749,0.000000,0.111639
-0.193127,-0.008890,0.240117,-0.626737,0.000000,0.779231
0.307306,-0.185893,0.022740,0.997273,0.000000,0.073796
0.117268,0.061296,0.090804,-0.790672,0.000000,-0.612241
0.064023,-0.028848,-0.133784,-0.431672,0.000000,0.902031
0.194294,0.177812,0.239174,0.630523,0.000000,0.776171
0.087487,0.146036,0.295466,0.283915,0.000000,0.958850
-0.273440,0.205080,0.066135,0.000000,1.000000,0.000000
0.141622,0.031039,0.044049,-0.954879,0.000000,-0.296996
-0.074613,0.087867,0.298977,-0.242136,0.000000,0.970242
0.220478,-0.069826,0.215277,0.715496,0.000000,0.698617
-0.091656,0.053223,-0.116603,0.617987,0.000000,0.786189
-0.169596,0.205080,-0.091882,0.000000,1.000000,0.000000
0.138071,-0.205080,0.075084,0.000000,-1.000000,0.000000
0.139940,0.195451,0.049131,-0.943540,0.000000,-0.331260
-0.133436,0.057464,0.064745,0.899686,0.000000,-0.436537
0.117522,0.177459,-0.090475,-0.792387,0.000000,0.610019
0.008612,-0.205080,-0.251057,0.000000,-1.000000,0.000000
0.033120,-0.070617,0.144569,-0.223312,0.000000,-0.974747
0.003184,0.019955,0.308130,0.010333,0.000000,0.999947
0.061237,-0.141790,0.135082,-0.412886,0.000000,-0.910783
0.101106,-0.004589,-0.108511,-0.681702,0.000000,0.731630
0.052645,0.190978,-0.138657,-0.354955,0.000000,0.934883
0.143117,0.108671,0.038918,-0.964959,0.000000,-0.262400
0.054789,0.205080,-0.205391,0.000000,1.000000,0.000000
-0.144521,-0.167366,-0.033328,0.974425,0.000000,0.224712
0.215613,-0.205080,0.200120,0.000000,-1.000000,0.000000
-0.140341,0.204563,0.047974,0.946240,0.000000,-0.323465
0.147957,0.192029,0.010296,-0.997588,0.000000,-0.069417
-0.101232,-0.196154,-0.108394,0.682548,0.000000,0.730841
0.274923,-0.120136,0.139182,0.892182,0.000000,0.451676
-0.028265,-0.080966,-0.306848,-0.091726,0.000000,-0.995784
-0.072639,-0.146987,0.129309,0.489764,0.000000,-0.871855
0.054139,-0.096496,0.303353,0.175693,0.000000,0.984445
0.297476,-0.185743,-0.080389,0.965371,0.000000,-0.260880
0.120722,0.185079,-0.086159,-0.813959,0.000000,0.580922
-0.210611,0.121233,0.224939,-0.683477,0.000000,0.729972
0.133056,0.205080,-0.183834,0.000000,1.000000,0.000000
0.214555,0.205080,0.010613,0.000000,1.000000,0.000000
0.214866,0.154161,0.220877,0.697287,0.000000,0.716792
-0.185368,0.205080,-0.120495,0.000000,1.000000,0.000000
-0.126830,0.101430,0.280835,-0.411591,0.000000,0.911369
-0.041977,-0.095654,0.142250,0.283026,0.000000,-0.959112
-0.306559,0.038169,0.031243,-0.994847,0.000000,0.101391
-0.129884,-0.101889,0.071605,0.875735,0.000000,-0.482793
0.272784,-0.119928,0.143329,0.885241,0.000000,0.465133
0.270156,-0.157255,0.148223,0.876713,0.000000,0.481014
-0.041059,0.157969,0.142518,0.276840,0.000000,-0.960916
-0.136978,0.037315,0.056870,0.923563,0.000000,-0.383446
0.079897,0.064201,0.297609,0.259282,0.000000,0.965802
0.241279,-0.046904,0.191673,0.783002,0.000000,0.622019
-0.293080,0.179413,-0.095176,-0.951106,0.000000,-0.308865
-0.156424,0.205080,0.206467,0.000000,1.000000,0.000000
0.236338,-0.181277,-0.197733,0.766967,0.000000,-0.641686
-0.192462,0.135884,-0.240651,-0.624578,0.000000,-0.780962
-0.002014,0.205080,-0.188554,0.000000,1.000000,0.000000
0.147786,-0.158103,0.012504,-0.996440,0.000000,-0.084309
0.233371,-0.160561,-0.201227,0.757337,0.000000,-0.653024
-0.072446,0.205080,-0.217836,0.000000,1.000000,0.000000
0.132558,0.139897,0.066525,-0.893762,0.000000,-0.448542
0.305729,0.005378,-0.038527,0.992153,0.000000,-0.125029
0.147903,-0.031639,0.011045,-0.997223,0.000000,-0.074470
-0.029677,0.205080,-0.288955,0.000000,1.000000,0.000000
0.234090,0.205080,0.062150,0.000000,1.000000,0.000000
-0.188245,-0.205080,0.093980,0.000000,-1.000000,0.000000
0.144105,-0.157855,-0.035085,-0.971617,0.000000,0.236560
0.222243,0.037041,-0.213454,0.721224,0.000000,-0.692702
-0.218642,0.205080,-0.053050,0.000000,1.000000,0.000000
0.115461,-0.160390,0.093091,-0.778485,0.000000,-0.627663
0.147957,0.192029,0.010296,-0.997588,0.000000,-0.069417
0.065229,0.205080,0.190306,0.000000,1.000000,0.000000
0.145781,-0.178558,0.027297,-0.982917,0.000000,-0.184048
0.148063,-0.056218,0.008634,-0.998304,0.000000,-0.058212
0.134716,-0.078022,0.062037,-0.908317,0.000000,-0.418283
0.187076,0.153340,0.244861,0.607100,0.000000,0.794626
-0.126178,0.170568,0.281129,-0.409475,0.000000,0.912321
0.091304,0.077392,-0.116879,-0.615613,0.000000,0.788048
0.097957,0.082984,-0.292162,0.317890,0.000000,-0.948128
-0.270938,-0.092657,0.146788,-0.879252,0.000000,0.476357
0.004841,0.074039,0.148235,-0.032640,0.000000,-0.999467
0.180736,0.205080,-0.091492,0.000000,1.000000,0.000000
-0.179026,-0.205080,0.085151,0.000000,-1.000000,0.000000
0.146790,-0.146768,-0.021207,-0.989725,0.000000,0.142984
0.086316,-0.084248,-0.120610,-0.581981,0.000000,0.813202
0.101688,-0.139933,0.290885,0.330000,0.000000,0.943981
0.258425,-0.205080,0.059416,0.000000,-1.000000,0.000000
0.077885,0.123666,0.298141,0.252754,0.000000,0.967531
-0.049357,-0.124341,-0.139861,0.332789,0.000000,0.943001
0.003030,-0.035098,0.148283,-0.020431,0.000000,-0.999791
-0.027253,0.187642,-0.306939,-0.088442,0.000000,-0.996081
0.106868,-0.162261,0.102842,-0.720550,0.000000,-0.693403
-0.122804,0.073340,0.083165,0.827995,0.000000,-0.560735
0.148304,0.180273,0.001762,-0.999929,0.000000,-0.011881
0.197884,-0.205080,-0.221979,0.000000,-1.000000,0.000000
-0.129864,-0.193879,0.071641,0.875600,0.000000,-0.483037
0.147210,-0.135643,-0.018064,-0.992555,0.000000,0.121798
0.012960,-0.205080,-0.251966,0.000000,-1.000000,0.000000
0.264602,0.080370,-0.157924,0.858690,0.000000,-0.512495
-0.232830,0.013228,0.201852,-0.755583,0.000000,0.655053
-0.191280,-0.052064,0.241591,-0.620742,0.000000,0.784015
0.152153,-0.205080,0.011587,0.000000,-1.000000,0.000000
-0.097530,0.032523,0.111737,0.657588,0.000000,-0.753377
-0.078909,0.174081,-0.297872,-0.256075,0.000000,-0.966657
0.021026,-0.186277,0.146816,-0.141766,0.000000,-0.989900
-0.205300,-0.196971,-0.229796,-0.666241,0.000000,-0.745737
0.213820,0.025566,0.221890,0.693892,0.000000,0.720079
0.127841,-0.195875,-0.075193,-0.861957,0.000000,0.506981
-0.047544,-0.054463,0.140487,0.320561,0.000000,-0.947228
0.087419,-0.015171,0.119813,-0.589417,0.000000,-0.807829
0.080877,0.205080,-0.196423,0.000000,1.000000,0.000000
-0.148308,0.042628,-0.001387,0.999956,0.000000,0.009350
-0.005841,0.125054,0.308091,-0.018955,0.000000,0.999820
0.149754,-0.205080,-0.200921,0.000000,-1.000000,0.000000
-0.199952,-0.151110,-0.234465,-0.648885,0.000000,-0.760886
0.108463,-0.085273,-0.101158,-0.731304,0.000000,0.682052
0.268464,0.167378,0.151266,0.871222,0.000000,0.490889
0.131453,-0.205080,-0.125587,0.000000,-1.000000,0.000000
0.202250,-0.119826,0.232485,0.656343,0.000000,0.754463
0.139387,-0.144146,0.050679,-0.939809,0.000000,-0.341700
0.307921,0.005148,0.011801,0.999266,0.000000,0.038298
0.116084,0.205080,0.208425,0.000000,1.000000,0.000000
-0.142070,0.047812,-0.042582,0.957899,0.000000,0.287107
-0.001582,-0.183754,0.148306,0.010668,0.000000,-0.999943
0.054789,0.205080,-0.205391,0.000000,1.000000,0.000000
0.009254,0.160047,0.148025,-0.062396,0.000000,-0.998051
0.131453,-0.205080,-0.125587,0.000000,-1.000000,0.000000
-0.024042,0.134282,0.307207,-0.078021,0.000000,0.996952
-0.018141,-0.182875,0.307612,-0.058870,0.000000,0.998266
0.138829,0.016694,-0.052188,-0.936048,0.000000,0.351872
-0.290986,0.030913,0.101397,-0.944311,0.000000,0.329055
-0.144599,-0.054229,-0.032988,0.974951,0.000000,0.222419
0.283275,0.137225,0.121284,0.919286,0.000000,0.393591
0.255120,-0.205080,0.046267,0.000000,-1.000000,0.000000
-0.082341,0.203645,-0.296942,-0.267214,0.000000,-0.963637
0.281541,0.196221,0.125255,0.913661,0.000000,0.406477
-0.083594,0.156490,-0.122512,0.563630,0.000000,0.826027
-0.278196,0.182741,0.132519,-0.902804,0.000000,0.430052
-0.230653,0.205080,0.060064,0.000000,1.000000,0.000000
-0.141294,0.111302,-0.045090,0.952667,0.000000,0.304015
0.284083,-0.007189,0.119378,0.921908,0.000000,0.387408
0.307292,0.169281,0.022939,0.997225,0.000000,0.074442
-0.081892,-0.041936,-0.297066,-0.265756,0.000000,-0.964040
-0.282106,0.159055,-0.123979,-0.915491,0.000000,-0.402338
0.101688,-0.139933,0.290885,0.330000,0.000000,0.943981
-0.101861,-0.205080,0.271178,0.000000,-1.000000,0.000000
0.264602,0.080370,-0.157924,0.858690,0.000000,-0.512495
0.215770,0.205080,0.160543,0.000000,1.000000,0.000000
-0.296183,0.145603,0.085029,-0.961176,0.000000,0.275936
-0.123111,0.008948,0.282485,-0.399522,0.000000,0.916723
-0.193212,0.049091,0.240049,-0.627013,0.000000,0.779009
0.157797,-0.065306,-0.264678,0.512085,0.000000,-0.858935
-0.145921,0.205080,0.102566,0.000000,1.000000,0.000000
-0.252521,-0.070915,-0.176599,-0.819485,0.000000,-0.573101
0.043759,-0.134651,-0.141712,-0.295044,0.000000,0.955484
0.128787,0.205080,0.224612,0.000000,1.000000,0.000000
0.306005,0.135009,-0.036270,0.993049,0.000000,-0.117704
-0.009811,-0.128830,0.147990,0.066148,0.000000,-0.997810
0.211153,-0.106646,-0.224430,0.685236,0.000000,-0.728321
0.148063,-0.056218,0.008634,-0.998304,0.000000,-0.058212
0.148087,-0.135378,-0.008214,-0.998465,0.000000,0.055381
0.144982,-0.158704,-0.031261,-0.977535,0.000000,0.210774
0.069447,-0.205080,-0.144037,0.000000,-1.000000,0.000000
0.060962,0.006772,0.302056,0.197834,0.000000,0.980235
-0.084626,-0.007892,-0.121802,0.570583,0.000000,0.821240
-0.287865,-0.142247,-0.109945,-0.934183,0.000000,-0.356793
0.307292,0.169281,0.022939,0.997225,0.000000,0.074442
0.098168,-0.150217,-0.111177,-0.661890,0.000000,0.749601
0.146790,-0.146768,-0.021207,-0.989725,0.000000,0.142984
0.112863,-0.101733,-0.096225,-0.760969,0.000000,0.648788
0.306220,-0.010427,0.034401,0.993749,0.000000,0.111639
0.306220,-0.010427,0.034401,0.993749,0.000000,0.111639
0.120259,0.061702,0.086803,-0.810842,0.000000,-0.585266
0.285955,-0.205080,0.054114,0.000000,-1.000000,0.000000
0.056922,-0.205080,-0.178410,0.000000,-1.000000,0.000000
0.183671,-0.205080,0.212544,0.000000,-1.000000,0.000000
0.073747,-0.052159,0.299192,0.239326,0.000000,0.970939
-0.224781,-0.154733,-0.210779,-0.729461,0.000000,-0.684022
0.305243,0.039327,-0.042201,0.990578,0.000000,-0.136952
-0.101168,-0.069338,0.108454,0.682116,0.000000,-0.731244
-0.041548,-0.205080,-0.291174,0.000000,-1.000000,0.000000
0.042944,-0.034018,-0.141961,-0.289549,0.000000,0.957163
0.131284,-0.025306,-0.069005,-0.885174,0.000000,0.465261
0.147507,-0.024415,0.015453,-0.994558,0.000000,-0.104188
-0.072692,-0.190440,-0.129279,0.490122,0.000000,0.871654
-0.267219,-0.205080,0.064175,0.000000,-1.000000,0.000000
-0.106349,-0.164092,-0.289213,-0.345124,0.000000,-0.938557
0.041388,-0.024708,0.142422,-0.279059,0.000000,-0.960274
0.003184,0.019955,0.308130,0.010333,0.000000,0.999947
0.139387,-0.144146,0.050679,-0.939809,0.000000,-0.341700
0.215019,0.205080,-0.141505,0.000000,1.000000,0.000000
0.120969,0.172548,0.283409,0.392569,0.000000,0.919723
-0.291740,-0.087783,0.099206,-0.946759,0.000000,0.321944
0.203812,-0.198065,-0.231117,0.661413,0.000000,-0.750022
-0.070984,-0.008820,-0.130224,0.478605,0.000000,0.878030
-0.303762,0.197715,0.051795,-0.985772,0.000000,0.168086
0.268464,0.167378,0.151266,0.871222,0.000000,0.490889
-0.275074,0.157092,-0.138884,-0.892671,0.000000,-0.450709
0.215613,-0.205080,0.200120,0.000000,-1.000000,0.000000
0.056922,-0.205080,-0.178410,0.000000,-1.000000,0.000000
0.093528,0.122804,0.115107,-0.630605,0.000000,-0.776104
0.145926,0.145842,0.026511,-0.983895,0.000000,-0.178749
0.107818,-0.190667,-0.288669,0.349892,0.000000,-0.936790
-0.136103,0.191319,-0.058934,0.917664,0.000000,0.397356
0.141650,-0.157546,0.273660,0.459683,0.000000,0.888083
0.145176,-0.205080,-0.077757,0.000000,-1.000000,0.000000
-0.146030,-0.133602,0.025930,0.984598,0.000000,-0.174835
-0.148301,0.062371,0.001966,0.999912,0.000000,-0.013255
-0.111695,0.205080,-0.255901,0.000000,1.000000,0.000000
-0.146091,-0.205080,-0.034997,0.000000,-1.000000,0.000000
0.169117,0.205080,0.098304,0.000000,1.000000,0.000000
-0.055478,-0.157746,0.137547,0.374060,0.000000,-0.927405
0.284472,-0.026162,0.118449,0.923171,0.000000,0.384390
0.139644,-0.184655,-0.049967,-0.941540,0.000000,0.336901
-0.251839,0.077445,-0.177571,-0.817269,0.000000,-0.576256
-0.307469,0.146213,0.020428,-0.997800,0.000000,0.066295
