x,y,z,nx,ny,nz
55.891426,4.926137,-0.591372,0.555498,0.831364,-0.016006
47.023497,0.324413,-16.999809,0.000000,0.000000,-1.000000
53.422193,0.000000,-12.189943,0.000000,-1.000000,0.000000
57.277032,3.835978,0.525941,0.831232,0.555410,0.023951
53.466633,1.703913,-14.321031,-0.290285,0.956940,0.000000
57.962798,0.000000,3.099193,0.000000,-1.000000,0.000000
48.390370,3.723908,5.446034,-0.831231,0.555410,-0.023951
53.945235,0.000000,-7.972514,0.000000,-1.000000,0.000000
57.450020,3.333697,-6.169989,0.831231,0.555412,-0.023951
47.211833,1.285742,-5.315174,-0.980394,0.195012,0.028249
55.574719,2.074403,-16.999809,0.000000,0.000000,-1.000000
57.524006,2.849207,11.391203,0.826825,0.557840,0.071935
57.238909,0.000000,14.551386,0.000000,-1.000000,0.000000
56.232701,0.000000,-1.773089,0.000000,-1.000000,0.000000
58.033712,0.000000,-4.449916,0.000000,-1.000000,0.000000
50.311626,2.876293,6.426741,0.773009,0.634396,-0.000000
47.074541,2.811900,-15.281627,-0.826826,0.557839,0.071935
49.634524,0.000000,15.019323,0.000000,-1.000000,0.000000
49.640518,4.910586,-9.518723,-0.551219,0.832981,0.047957
49.222704,1.219733,-16.999809,0.000000,0.000000,-1.000000
49.809853,5.405360,-16.271203,-0.193255,0.981005,0.016813
55.982362,4.702610,-9.045580,0.555499,0.831363,-0.016006
49.189758,0.000000,-6.280077,0.000000,-1.000000,0.000000
48.098328,0.000000,-0.354593,0.000000,-1.000000,0.000000
50.464086,0.000000,4.033042,-0.000000,-1.000000,0.000000
47.367371,2.208695,6.288619,-0.980394,0.195012,-0.028249
52.978279,1.630349,-4.795204,-0.098017,0.995185,0.000000
51.887086,1.751723,12.722130,0.290284,0.956941,0.000000
47.301110,1.359379,-2.725121,-0.980394,0.195012,0.028249
47.959203,3.482975,-10.317302,-0.826826,0.557839,0.071935
58.065818,2.644886,-0.771511,0.831232,0.555410,-0.023951
55.705931,3.677273,16.999809,0.000000,-0.000000,1.000000
49.937733,3.595728,9.220050,0.956941,0.290282,0.000000
47.321265,1.788539,-4.988266,-0.980394,0.195012,0.028249
47.916488,0.000000,-0.732268,0.000000,-1.000000,0.000000
49.935540,3.602956,-4.944866,0.956941,0.290282,0.000000
46.495986,1.464605,-15.695217,-0.976873,0.196202,0.084990
52.993710,1.631868,1.476968,-0.098017,0.995185,0.000000
57.256492,3.495443,-9.135631,0.831231,0.555412,-0.023951
49.749447,4.624513,16.021188,0.995187,-0.097998,0.000000
46.854811,2.198552,-13.265215,-0.976873,0.196202,0.084989
56.272469,0.915628,-16.999809,0.000000,0.000000,-1.000000
50.470790,2.682352,-1.263667,0.773009,0.634396,0.000000
49.843792,0.000000,4.815617,-0.000000,-1.000000,0.000000
47.276539,1.589366,-5.165547,-0.980394,0.195012,0.028249
54.999197,0.000000,-12.065560,0.000000,-1.000000,0.000000
57.754117,1.551875,15.070490,0.976873,0.196202,0.084990
55.354994,3.130122,-0.129889,-0.881921,0.471396,0.000000
55.318033,0.000000,2.889234,0.000000,-1.000000,0.000000
56.392251,0.000000,-16.614606,0.000000,-1.000000,0.000000
57.464619,0.000000,-10.013830,0.000000,-1.000000,0.000000
57.139295,3.030262,-14.409062,0.826826,0.557839,-0.071935
52.144622,1.028693,-16.999809,0.000000,0.000000,-1.000000
58.435344,1.695250,-1.130573,0.980394,0.195012,-0.028249
58.283427,1.416987,8.323988,0.980394,0.195012,0.028249
52.914536,1.624070,-7.186071,-0.098017,0.995185,0.000000
49.371260,0.000000,5.226178,-0.000000,-1.000000,0.000000
57.851550,0.842279,15.588726,0.976873,0.196202,0.084990
48.115259,0.000000,-1.975408,0.000000,-1.000000,0.000000
57.693781,2.443065,-12.589349,0.826826,0.557839,-0.071935
52.015424,1.712792,-6.159750,0.290284,0.956941,0.000000
57.940671,2.358417,-10.408008,0.826826,0.557839,-0.071935
53.077244,1.640096,14.911844,-0.098017,0.995185,0.000000
51.022849,0.000000,0.260489,0.000000,-1.000000,0.000000
57.989954,2.416554,8.699367,0.831231,0.555412,0.023951
47.003391,0.574706,7.640757,-0.980394,0.195012,-0.028249
47.758114,0.000000,-11.504868,0.000000,-1.000000,0.000000
49.309864,0.000000,-8.679443,0.000000,-1.000000,0.000000
48.753333,3.327434,-16.999809,0.000000,0.000000,-1.000000
55.744042,0.000000,-7.514827,0.000000,-1.000000,0.000000
49.406780,2.351363,-16.999809,0.000000,0.000000,-1.000000
51.211530,2.047582,11.720980,0.471398,0.881921,0.000000
54.621173,2.275125,-4.644840,-0.634391,0.773012,0.000000
49.876423,3.797842,16.515161,0.956941,0.290282,0.000000
47.472209,0.000000,-12.418035,0.000000,-1.000000,0.000000
55.771178,0.000000,-3.759638,0.000000,-1.000000,0.000000
51.308190,1.995916,-13.616859,0.471398,0.881921,-0.000000
48.793958,4.487180,16.999809,0.000000,-0.000000,1.000000
47.563321,3.558396,-15.452465,-0.826826,0.557839,0.071935
56.852548,3.739265,12.206777,0.826826,0.557839,0.071935
48.223370,0.000000,7.349683,-0.000000,-1.000000,0.000000
49.542825,5.120730,-14.291649,-0.551221,0.832980,0.047957
47.690787,2.678585,-5.484955,-0.831231,0.555410,0.023951
49.554132,4.958779,-11.348712,-0.551219,0.832981,0.047957
47.568112,0.705090,-16.999809,0.000000,0.000000,-1.000000
57.379550,0.707107,16.999809,0.000000,-0.000000,1.000000
55.729846,4.281338,-2.776662,-0.995185,0.098018,0.000000
57.545184,2.848181,11.155742,0.826825,0.557840,0.071935
46.568351,1.393694,-16.999809,0.000000,0.000000,-1.000000
58.267110,0.000000,-2.108140,0.000000,-1.000000,0.000000
47.837197,0.000000,2.718728,-0.000000,-1.000000,0.000000
55.351154,3.122938,-16.151929,-0.881921,0.471396,0.000000
57.095123,3.884791,5.707235,0.831232,0.555410,0.023951
49.542606,4.987112,11.973331,-0.551220,0.832980,-0.047958
47.465292,2.061828,-1.876349,-0.980394,0.195012,0.028249
47.944389,0.000000,-1.634643,0.000000,-1.000000,0.000000
47.643573,3.679636,15.470227,-0.826826,0.557839,-0.071935
49.975026,3.472787,-11.294287,0.956941,0.290282,0.000000
48.771907,0.000000,6.801449,-0.000000,-1.000000,0.000000
50.759791,2.382108,-13.810852,0.634394,0.773010,-0.000000
49.545639,4.742938,6.457943,-0.555498,0.831364,-0.016006
50.865321,2.295502,-5.938555,0.634394,0.773010,-0.000000
55.731628,4.299435,13.155022,-0.995185,0.098017,-0.000000
57.676761,0.000000,1.528020,0.000000,-1.000000,0.000000
48.517789,3.911629,5.377042,-0.831231,0.555410,-0.023951
49.874940,3.802732,-14.681348,0.956941,0.290282,-0.000000
51.034982,0.000000,4.950037,-0.000000,-1.000000,0.000000
48.924801,0.000000,9.981363,0.000000,-1.000000,0.000000
47.938348,0.000000,-2.798408,0.000000,-1.000000,0.000000
54.246600,0.000000,16.706676,0.000000,-1.000000,0.000000
56.619196,3.653674,-15.552696,0.826826,0.557839,-0.071935
56.444287,0.000000,-2.426534,0.000000,-1.000000,0.000000
46.571980,0.403517,-12.372179,-0.976873,0.196202,0.084990
57.567981,1.785369,-16.670921,0.976873,0.196202,-0.084989
49.588498,0.000000,5.990666,-0.000000,-1.000000,0.000000
55.979037,4.758495,-6.258255,0.555499,0.831363,-0.016006
55.773702,4.935149,-4.208960,0.555499,0.831363,-0.016006
54.824633,2.442099,-11.980983,-0.634391,0.773012,0.000000
55.749497,4.480863,4.079333,-0.995185,0.098017,-0.000000
47.311017,1.704542,4.764086,-0.980394,0.195012,-0.028249
53.364961,1.673071,11.174979,-0.290285,0.956940,0.000000
57.701178,2.087187,-14.443185,0.976873,0.196202,-0.084990
53.795567,0.000000,-8.571565,0.000000,-1.000000,0.000000
55.486891,0.000000,12.910259,0.000000,-1.000000,0.000000
53.528555,0.000000,-7.047929,0.000000,-1.000000,0.000000
57.248150,3.845648,-1.304066,0.831232,0.555410,-0.023951
52.717710,0.000000,-1.170874,0.000000,-1.000000,0.000000
57.100951,2.938596,15.560632,0.826826,0.557839,0.071935
47.273610,2.910453,13.757766,-0.826826,0.557839,-0.071935
55.510834,2.544926,16.999809,-0.000000,-0.000000,1.000000
53.144189,1.646689,-14.952060,-0.098017,0.995185,0.000000
53.256962,0.000000,3.563443,0.000000,-1.000000,0.000000
51.527223,1.878840,1.781157,0.471398,0.881921,0.000000
53.078674,1.640237,6.039180,-0.098017,0.995185,0.000000
54.183961,1.985669,-8.099018,-0.471398,0.881921,0.000000
47.213174,0.929612,-2.810143,-0.980394,0.195012,0.028249
47.214610,1.514776,-6.799902,-0.980394,0.195012,0.028249
51.176807,2.066142,-16.113256,0.471398,0.881921,-0.000000
53.150776,1.647338,-15.242723,-0.098017,0.995185,0.000000
56.037274,4.606748,10.315990,0.551220,0.832980,0.047957
55.720712,4.188608,8.217498,-0.995185,0.098018,0.000000
47.220739,1.077530,3.568736,-0.980394,0.195012,-0.028249
49.458354,5.089875,14.726644,-0.551220,0.832981,-0.047957
46.985425,0.395380,7.026298,-0.980394,0.195012,-0.028249
52.703835,1.613527,-16.875712,0.098017,0.995185,-0.000000
47.358705,3.532410,-16.992206,-0.817883,0.562698,0.120157
55.978322,4.182797,16.999809,0.000000,-0.000000,1.000000
52.793605,0.000000,4.744564,0.000000,-1.000000,0.000000
47.810233,3.452361,11.792165,-0.826826,0.557839,-0.071935
51.886749,0.000000,-8.461669,0.000000,-1.000000,0.000000
57.943975,0.000000,-10.967026,0.000000,-1.000000,0.000000
49.762182,4.753805,5.519562,0.995187,-0.097998,0.000000
48.394580,3.660167,-3.821799,-0.831232,0.555410,0.023951
58.314506,1.273207,-8.237944,0.980394,0.195012,-0.028249
55.100157,0.000000,-2.018162,0.000000,-1.000000,0.000000
50.333543,2.849587,5.345901,0.773009,0.634396,-0.000000
55.474656,3.353993,16.626530,-0.881921,0.471396,0.000000
53.937583,0.000000,0.305546,0.000000,-1.000000,0.000000
47.047929,0.000000,-11.927623,0.000000,-1.000000,0.000000
47.072700,0.006907,1.315623,-0.980394,0.195012,-0.028249
54.918853,2.534083,7.832100,-0.773012,0.634392,0.000000
46.414830,1.173399,15.870789,-0.969672,0.198599,-0.142460
51.913655,0.000000,-7.027615,0.000000,-1.000000,0.000000
49.804600,4.046560,-12.322556,0.995185,0.098018,0.000000
57.920847,2.607441,-6.671187,0.831232,0.555410,-0.023951
57.757270,2.683260,9.996938,0.826825,0.557840,0.071935
57.580509,0.000000,-9.279678,0.000000,-1.000000,0.000000
49.922089,3.647300,-15.523698,0.956941,0.290282,-0.000000
49.649736,4.731781,-2.265750,-0.555498,0.831364,0.016006
55.729658,4.951603,0.402067,-0.995182,-0.098042,-0.000000
48.379046,3.557682,-1.984353,-0.831232,0.555410,0.023951
47.332768,3.088575,-14.459102,-0.826826,0.557839,0.071935
49.410976,0.000000,14.170005,0.000000,-1.000000,0.000000
47.000533,0.000000,-10.629680,0.000000,-1.000000,0.000000
52.805737,0.000000,-6.049516,0.000000,-1.000000,0.000000
53.762668,0.000000,-7.305944,0.000000,-1.000000,0.000000
55.726186,4.244186,-14.641571,-0.995185,0.098018,0.000000
51.071743,0.000000,-15.929944,0.000000,-1.000000,0.000000
46.994131,1.145243,-16.999809,0.000000,0.000000,-1.000000
57.211684,0.000000,7.771286,0.000000,-1.000000,0.000000
57.060317,0.000000,4.929674,0.000000,-1.000000,0.000000
49.513600,0.000000,15.220108,0.000000,-1.000000,0.000000
56.003617,4.063757,16.999809,0.000000,-0.000000,1.000000
57.930982,0.147212,-16.280324,0.976873,0.196202,-0.084989
58.268366,0.868425,10.737463,0.976873,0.196202,0.084989
55.743573,4.420723,15.237844,-0.995185,0.098017,-0.000000
52.000760,0.000000,14.850610,0.000000,-1.000000,0.000000
50.875011,0.000000,2.566606,0.000000,-1.000000,0.000000
50.421591,2.742301,-6.350250,0.773009,0.634396,-0.000000
47.809364,0.000000,15.425551,0.000000,-1.000000,0.000000
56.696674,4.383929,0.807410,0.555498,0.831364,0.016006
56.397364,4.513492,-4.465557,0.555498,0.831364,-0.016006
55.755800,4.686195,6.280854,-0.995184,-0.098020,-0.000000
57.773925,1.943186,13.939461,0.976873,0.196202,0.084990
51.833941,1.767844,15.328688,0.290284,0.956941,0.000000
55.707802,4.057525,-8.567539,-0.995185,0.098018,0.000000
57.865151,2.856068,2.838542,0.831232,0.555410,0.023951
58.486895,0.000000,-9.491707,0.000000,-1.000000,0.000000
51.540098,1.871958,-15.833076,0.471398,0.881921,-0.000000
54.231794,2.011236,-10.146709,-0.471398,0.881921,0.000000
49.776200,4.334910,1.778612,0.995185,0.098018,0.000000
50.179924,3.085976,-4.517405,0.881921,0.471396,0.000000
58.734024,0.196811,1.109000,0.980394,0.195012,0.028249
48.251626,0.000000,-8.030403,0.000000,-1.000000,0.000000
47.685428,3.400817,12.826973,-0.826826,0.557839,-0.071935
55.523028,3.444491,-13.797464,-0.881921,0.471396,0.000000
50.453571,2.703334,-9.912439,0.773009,0.634396,-0.000000
49.926429,3.632991,-10.651356,0.956941,0.290282,-0.000000
51.272880,2.014789,11.777129,0.471398,0.881921,0.000000
47.368933,1.808939,-3.474772,-0.980394,0.195012,0.028249
55.424186,0.000000,15.841722,0.000000,-1.000000,0.000000
58.358278,2.192712,-0.371027,0.980394,0.195012,-0.028249
47.235110,1.767192,7.830958,-0.980394,0.195012,-0.028249
47.506761,2.451857,-6.613963,-0.831231,0.555410,0.023951
54.111631,1.896096,-16.999809,0.000000,0.000000,-1.000000
55.524655,0.000000,10.627330,0.000000,-1.000000,0.000000
48.009054,2.573262,-16.999809,0.000000,0.000000,-1.000000
55.827270,0.000000,-14.603599,0.000000,-1.000000,0.000000
50.240323,2.972978,8.133146,0.881921,0.471396,0.000000
54.014115,0.000000,-3.977367,0.000000,-1.000000,0.000000
56.067825,4.241278,-16.312812,0.551219,0.832981,-0.047957
46.586363,1.948521,-15.773564,-0.976873,0.196202,0.084990
57.766581,0.000000,-2.304443,0.000000,-1.000000,0.000000
57.811337,1.904579,-13.598571,0.976873,0.196202,-0.084990
53.713786,0.000000,-14.525179,0.000000,-1.000000,0.000000
47.111016,0.000000,-12.874574,0.000000,-1.000000,0.000000
50.037286,0.000000,-1.921413,0.000000,-1.000000,0.000000
49.505169,5.074952,-13.929329,-0.551221,0.832980,0.047957
51.562269,1.860108,14.213030,0.471398,0.881921,0.000000
46.573555,1.582816,-15.076533,-0.976873,0.196202,0.084990
55.107379,0.328663,16.999809,0.000000,-0.000000,1.000000
50.867579,2.293649,14.704106,0.634394,0.773010,0.000000
54.134188,0.000000,-8.719883,0.000000,-1.000000,0.000000
46.601824,0.016845,11.136503,-0.976873,0.196202,-0.084990
55.746764,4.777938,-4.238248,-0.995184,-0.098020,-0.000000
50.278042,2.917216,7.483856,0.773009,0.634396,-0.000000
55.726697,4.249377,14.634481,-0.995185,0.098017,-0.000000
53.207865,0.000000,2.456241,0.000000,-1.000000,0.000000
49.784195,4.253735,5.059810,0.995185,0.098018,0.000000
56.347001,4.248890,12.971733,0.551220,0.832981,0.047957
47.821713,0.000000,-2.164975,0.000000,-1.000000,0.000000
57.512182,3.428170,-1.821794,0.831232,0.555410,-0.023951
49.794253,5.079431,-14.749973,0.995185,-0.098018,0.000000
49.709240,0.000000,-2.604175,0.000000,-1.000000,0.000000
49.598755,4.923217,10.218154,-0.551219,0.832982,-0.047957
51.334533,0.000000,-12.853762,0.000000,-1.000000,0.000000
48.727005,0.000000,0.297577,0.000000,-1.000000,0.000000
50.024962,3.375891,0.607395,0.881921,0.471396,-0.000000
49.778462,5.076396,10.813207,-0.551220,0.832980,-0.047958
50.273365,0.000000,12.667753,0.000000,-1.000000,0.000000
55.217607,2.898117,11.565142,-0.773012,0.634392,0.000000
55.711829,4.098412,-11.469889,-0.995185,0.098018,0.000000
55.629942,3.781499,11.403160,-0.956941,0.290282,0.000000
53.248636,1.656976,-1.012244,-0.098017,0.995185,0.000000
51.343528,1.977027,-11.078796,0.471398,0.881921,-0.000000
56.524075,0.000000,-14.395260,0.000000,-1.000000,0.000000
57.327179,3.751551,0.743371,0.831232,0.555410,0.023951
49.756524,4.534685,12.155148,0.995185,0.098018,-0.000000
58.717606,0.378844,0.422138,0.980394,0.195012,0.028249
55.917268,0.000000,9.312057,-0.000000,-1.000000,0.000000
56.534681,0.000000,0.145646,0.000000,-1.000000,0.000000
56.668883,3.652581,14.990060,0.826826,0.557839,0.071935
49.539790,5.124031,16.999809,0.000000,-0.000000,1.000000
55.754162,4.528227,-13.843162,-0.995185,0.098018,0.000000
56.783643,0.000000,7.440464,0.000000,-1.000000,0.000000
55.413284,3.239174,-0.884133,-0.881921,0.471396,0.000000
55.391765,3.198915,-12.856511,-0.881921,0.471396,0.000000
52.233305,1.223122,-16.999809,0.000000,0.000000,-1.000000
56.775331,4.276119,3.677353,0.555499,0.831363,0.016006
55.521876,3.442337,3.275043,-0.881921,0.471396,0.000000
51.040041,2.152113,-6.044694,0.634394,0.773010,0.000000
46.886901,2.328396,16.999809,0.000000,-0.000000,1.000000
46.994468,1.754830,10.635634,-0.976873,0.196202,-0.084989
49.420957,4.832577,16.999809,0.000000,0.000000,1.000000
50.961093,2.216904,-14.841358,0.634394,0.773010,-0.000000
52.190076,0.000000,16.236915,0.000000,-1.000000,0.000000
47.574215,2.578101,-7.200506,-0.831231,0.555410,0.023951
48.344384,4.157694,11.339303,-0.551219,0.832981,-0.047957
46.975451,0.000000,7.671170,-0.000000,-1.000000,0.000000
51.541891,1.871000,6.709213,0.471398,0.881921,0.000000
54.392446,2.097106,-14.295737,-0.471398,0.881921,0.000000
56.395462,0.000000,13.164543,0.000000,-1.000000,0.000000
52.907120,1.623340,-1.762067,-0.098017,0.995185,0.000000
46.399266,0.937738,15.590631,-0.976873,0.196202,-0.084989
56.740632,0.000000,1.857379,0.000000,-1.000000,0.000000
55.680621,3.948568,-7.615330,-0.956941,0.290282,0.000000
49.729140,5.163704,12.896582,-0.551220,0.832981,-0.047957
49.579153,5.079414,13.156481,-0.551220,0.832981,-0.047957
49.189759,4.398821,0.935293,-0.555498,0.831364,-0.016006
55.740609,4.390620,0.838092,-0.995185,0.098017,-0.000000
47.038518,1.628610,-9.837939,-0.976873,0.196202,0.084989
56.769647,3.832170,12.439197,0.826826,0.557839,0.071935
51.769455,0.000000,-9.599881,0.000000,-1.000000,0.000000
54.291922,2.043375,-16.138946,-0.471398,0.881921,0.000000
54.227324,2.008847,8.398595,-0.471398,0.881921,0.000000
52.162301,1.668237,-3.427393,0.290284,0.956941,0.000000
50.819574,0.381190,16.999809,0.000000,-0.000000,1.000000
54.693470,0.000000,12.777583,0.000000,-1.000000,0.000000
58.522194,1.233657,-1.302966,0.980394,0.195012,-0.028249
53.384436,0.000000,-5.475499,0.000000,-1.000000,0.000000
57.085871,0.000000,-16.666775,0.000000,-1.000000,0.000000
48.308538,4.290918,14.065336,-0.551219,0.832981,-0.047957
58.059676,0.064274,14.992576,0.976873,0.196202,0.084989
55.435676,0.000000,8.921974,-0.000000,-1.000000,0.000000
48.174210,0.000000,6.445962,-0.000000,-1.000000,0.000000
47.731727,3.790865,15.319535,-0.826826,0.557839,-0.071935
56.597977,0.000000,11.785537,0.000000,-1.000000,0.000000
49.812745,4.007762,-12.428298,0.956941,0.290282,-0.000000
50.599363,2.525687,-11.337808,0.773009,0.634396,0.000000
50.816389,2.335660,-10.577566,0.634394,0.773010,-0.000000
55.757712,4.822577,9.780474,0.551220,0.832980,0.047957
53.535809,1.724898,-16.384392,-0.290285,0.956940,0.000000
58.434077,1.858034,0.050786,0.980394,0.195012,0.028249
58.001695,1.381041,12.619197,0.976873,0.196202,0.084990
53.202946,1.652476,10.052756,-0.098017,0.995185,0.000000
58.290190,2.213523,2.590420,0.980394,0.195012,0.028249
57.997578,0.000000,9.443801,-0.000000,-1.000000,0.000000
46.784397,1.748425,-13.035421,-0.976873,0.196202,0.084989
56.386596,0.000000,-12.990715,0.000000,-1.000000,0.000000
51.284080,0.000000,15.539014,0.000000,-1.000000,0.000000
51.027275,2.162589,-2.632358,0.634394,0.773010,0.000000
58.638553,0.285724,-3.808607,0.980394,0.195012,-0.028249
46.376004,0.000000,-14.850657,0.000000,-1.000000,0.000000
58.074035,0.000000,13.569789,0.000000,-1.000000,0.000000
52.308313,0.000000,8.449083,-0.000000,-1.000000,0.000000
52.547710,0.000000,-14.905803,0.000000,-1.000000,0.000000
55.905540,0.000000,-16.013095,0.000000,-1.000000,0.000000
53.317785,1.663787,-10.968214,-0.098017,0.995185,0.000000
53.133825,0.000000,7.865307,-0.000000,-1.000000,0.000000
56.734268,4.209616,8.556648,0.555499,0.831363,0.016006
52.248498,0.000000,15.017545,0.000000,-1.000000,0.000000
48.366017,4.193413,11.711053,-0.551219,0.832981,-0.047957
58.081813,2.628229,-0.602657,0.831232,0.555410,-0.023951
53.321638,1.664166,-8.685088,-0.098017,0.995185,0.000000
53.861748,0.000000,12.934654,0.000000,-1.000000,0.000000
48.521740,4.244608,-10.810391,-0.551220,0.832981,0.047957
57.705060,0.000000,-0.295478,0.000000,-1.000000,0.000000
57.831177,0.000000,12.547994,0.000000,-1.000000,0.000000
51.657990,0.000000,11.077641,0.000000,-1.000000,0.000000
55.261009,2.954287,6.130163,-0.881921,0.471396,0.000000
56.461432,0.000000,-2.603424,0.000000,-1.000000,0.000000
48.692203,4.628549,15.519899,-0.551220,0.832981,-0.047957
58.317568,2.235215,-1.490495,0.980394,0.195012,-0.028249
57.046485,3.929869,-6.349909,0.831231,0.555412,-0.023951
50.442457,0.000000,-10.021663,0.000000,-1.000000,0.000000
52.583598,1.272857,16.999809,0.000000,-0.000000,1.000000
52.611494,0.068592,16.999809,0.000000,-0.000000,1.000000
47.468095,2.173007,2.546582,-0.980394,0.195012,-0.028249
55.762974,0.000000,9.943603,0.000000,-1.000000,0.000000
52.781281,0.000000,11.561851,0.000000,-1.000000,0.000000
47.822404,0.000000,14.478000,0.000000,-1.000000,0.000000
58.485712,1.221834,2.650708,0.980394,0.195012,0.028249
55.188274,2.862375,-8.882287,-0.773012,0.634392,0.000000
52.338280,0.000000,-11.006510,0.000000,-1.000000,0.000000
57.230481,3.010414,-13.514887,0.826826,0.557839,-0.071935
51.003134,0.000000,7.111363,-0.000000,-1.000000,0.000000
49.423349,0.000000,-0.086382,0.000000,-1.000000,0.000000
58.182373,2.114187,7.018069,0.980394,0.195012,0.028249
50.519767,0.000000,-13.810739,0.000000,-1.000000,0.000000
55.191134,0.126312,-16.999809,0.000000,0.000000,-1.000000
55.965621,0.000000,4.716981,0.000000,-1.000000,0.000000
47.956037,3.756427,-12.474248,-0.826826,0.557839,0.071935
46.884922,0.427400,8.830340,-0.976873,0.196202,-0.084990
49.754377,4.674562,16.322976,0.995185,-0.098018,0.000000
46.388480,1.382237,-16.341285,-0.969672,0.198599,0.142460
47.404375,3.529797,-16.669109,-0.817883,0.562698,0.120157
57.459760,2.942633,-11.405154,0.826825,0.557840,-0.071935
56.755212,0.000000,-7.528371,0.000000,-1.000000,0.000000
56.924537,4.061060,-7.539939,0.831231,0.555412,-0.023951
49.472843,3.418047,-16.999809,0.000000,0.000000,-1.000000
58.501331,0.406294,-7.738688,0.980394,0.195012,-0.028249
58.308297,1.119650,-9.513497,0.980394,0.195012,-0.028249
55.877763,0.000000,-12.001792,0.000000,-1.000000,0.000000
50.868180,0.000000,-16.350708,0.000000,-1.000000,0.000000
56.124212,0.000000,-13.098100,0.000000,-1.000000,0.000000
55.462661,3.331552,2.792546,-0.881921,0.471396,0.000000
55.731926,4.302458,2.905855,-0.995185,0.098017,-0.000000
53.638011,1.755900,-15.652562,-0.290285,0.956940,0.000000
49.061272,0.000000,9.904285,0.000000,-1.000000,0.000000
53.127093,0.000000,-4.283798,0.000000,-1.000000,0.000000
55.861174,0.000000,-1.913454,0.000000,-1.000000,0.000000
54.311286,0.000000,-1.115858,0.000000,-1.000000,0.000000
50.767272,2.375969,-9.541929,0.634394,0.773010,-0.000000
57.724624,1.072493,-16.516159,0.976873,0.196202,-0.084989
50.301455,2.888687,-1.052757,0.773009,0.634396,-0.000000
49.909594,0.000000,14.149130,0.000000,-1.000000,0.000000
50.295861,2.895503,8.485586,0.773009,0.634396,-0.000000
47.629698,0.000000,5.137110,-0.000000,-1.000000,0.000000
50.280210,2.914573,1.020565,0.773009,0.634396,-0.000000
58.244714,0.000000,-10.548193,0.000000,-1.000000,0.000000
50.874558,0.000000,-13.557847,0.000000,-1.000000,0.000000
57.093773,3.081748,14.533020,0.826826,0.557839,0.071935
55.097820,0.000000,13.100087,0.000000,-1.000000,0.000000
55.644772,3.830390,-5.677047,-0.956941,0.290282,0.000000
47.398834,0.000000,-2.192468,0.000000,-1.000000,0.000000
48.776288,4.209228,5.437478,-0.555499,0.831363,-0.016006
48.509995,4.022308,-8.168856,-0.826826,0.557839,0.071935
47.683570,2.475892,1.035071,-0.831232,0.555410,-0.023951
50.833514,2.321606,0.573559,0.634394,0.773010,-0.000000
58.208122,0.000000,-5.343236,0.000000,-1.000000,0.000000
55.700155,4.012964,1.756454,-0.956941,0.290282,0.000000
50.320876,2.865022,16.977647,0.773009,0.634396,0.000000
51.015873,2.171947,1.522533,0.634394,0.773010,0.000000
55.685419,0.000000,6.306290,0.000000,-1.000000,0.000000
49.452752,0.000000,-16.593560,0.000000,-1.000000,0.000000
55.883291,4.763934,9.298673,0.555499,0.831363,0.016006
47.619659,2.386696,-1.184732,-0.831231,0.555410,0.023951
53.996393,0.000000,1.618533,0.000000,-1.000000,0.000000
47.846793,2.796798,2.811989,-0.831232,0.555410,-0.023951
57.301845,0.000000,15.770071,0.000000,-1.000000,0.000000
48.837565,0.000000,-6.966650,0.000000,-1.000000,0.000000
49.767498,4.423263,3.667637,0.995185,0.098018,-0.000000
53.867207,1.825427,2.198730,-0.290285,0.956940,0.000000
48.853407,4.277551,-6.309759,-0.555498,0.831364,0.016006
54.211546,0.000000,-12.776433,0.000000,-1.000000,0.000000
57.962959,0.000000,7.700954,0.000000,-1.000000,0.000000
47.338939,0.000000,2.168736,-0.000000,-1.000000,0.000000
48.508408,4.002675,-7.813922,-0.831231,0.555410,0.023951
55.994128,4.514066,-12.421717,0.551220,0.832981,-0.047957
56.083476,0.000000,16.780568,0.000000,-1.000000,0.000000
48.214126,3.452632,-5.271930,-0.831231,0.555410,0.023951
49.447081,5.127335,15.506858,-0.551220,0.832981,-0.047957
47.502307,3.302686,14.170789,-0.826826,0.557839,-0.071935
54.667300,2.312980,-7.351152,-0.634391,0.773012,0.000000
54.435621,0.000000,6.391956,-0.000000,-1.000000,0.000000
57.012667,4.111942,3.301393,0.831232,0.555410,0.023951
47.031943,0.289042,4.677785,-0.980394,0.195012,-0.028249
54.029651,0.000000,6.494198,-0.000000,-1.000000,0.000000
55.728566,4.268353,16.743422,-0.995185,0.098017,-0.000000
46.828818,0.269367,-9.110380,-0.976873,0.196202,0.084990
53.298421,0.000000,15.114958,0.000000,-1.000000,0.000000
56.673727,0.000000,5.281817,0.000000,-1.000000,0.000000
51.475070,0.000000,10.604993,0.000000,-1.000000,0.000000
48.478410,0.000000,-4.581741,0.000000,-1.000000,0.000000
57.976474,0.292139,15.422871,0.976873,0.196202,0.084989
52.532511,1.630401,-16.032164,0.098017,0.995185,-0.000000
54.302114,0.000000,0.990341,0.000000,-1.000000,0.000000
56.064743,0.000000,6.494279,0.000000,-1.000000,0.000000
51.103752,0.000000,-5.613290,0.000000,-1.000000,0.000000
51.107324,2.103281,11.628571,0.471398,0.881921,-0.000000
49.517163,0.000000,-14.963980,0.000000,-1.000000,0.000000
50.443885,2.715136,4.830702,0.773009,0.634396,0.000000
48.552325,0.000000,13.238139,0.000000,-1.000000,0.000000
57.734071,2.910643,6.122209,0.831231,0.555412,0.023951
58.684551,0.129347,3.291720,0.980394,0.195012,0.028249
58.195053,2.030111,7.158440,0.980394,0.195012,0.028249
48.063574,0.000000,-10.400609,0.000000,-1.000000,0.000000
48.476401,0.000000,14.195368,0.000000,-1.000000,0.000000
50.043382,0.000000,14.140254,0.000000,-1.000000,0.000000
56.996109,4.020153,6.004611,0.831232,0.555410,0.023951
47.189355,2.855526,-14.300250,-0.826826,0.557839,0.071935
48.302673,3.440478,1.917000,-0.831232,0.555410,-0.023951
48.472990,3.782037,-3.926667,-0.831232,0.555410,0.023951
56.750871,0.000000,-14.459570,0.000000,-1.000000,0.000000
52.907135,0.000000,-7.623160,0.000000,-1.000000,0.000000
51.739700,0.000000,-5.093476,0.000000,-1.000000,0.000000
47.356627,1.464223,-1.522159,-0.980394,0.195012,0.028249
52.291543,0.000000,8.198133,-0.000000,-1.000000,0.000000
48.262211,0.000000,-5.007276,0.000000,-1.000000,0.000000
47.341646,1.329546,-1.112335,-0.980394,0.195012,0.028249
47.989601,3.353911,-8.967042,-0.826826,0.557839,0.071935
47.322667,2.181731,7.653966,-0.980394,0.195012,-0.028249
57.967388,0.641034,-14.721864,0.976873,0.196202,-0.084989
47.515115,2.420885,5.605827,-0.831232,0.555410,-0.023951
51.725150,0.000000,13.164412,0.000000,-1.000000,0.000000
50.132705,3.174317,-3.911096,0.881921,0.471396,-0.000000
56.047109,4.248204,16.430626,0.551219,0.832981,0.047957
53.629635,0.000000,-7.907542,0.000000,-1.000000,0.000000
48.441812,3.689983,-2.874026,-0.831232,0.555410,0.023951
49.787846,5.014374,16.019000,0.995185,-0.098018,0.000000
58.228118,1.257073,-10.302867,0.976873,0.196202,-0.084990
49.846916,5.335928,16.379470,0.956939,-0.290290,0.000000
57.366281,3.351701,-8.658666,0.831231,0.555412,-0.023951
51.623104,1.831800,14.904469,0.290284,0.956941,-0.000000
48.994654,0.000000,-4.859755,0.000000,-1.000000,0.000000
57.212953,3.491921,9.982368,0.826825,0.557840,0.071935
47.902456,0.000000,-0.681779,0.000000,-1.000000,0.000000
55.423446,0.569944,-16.999809,0.000000,0.000000,-1.000000
53.116130,0.000000,12.687536,0.000000,-1.000000,0.000000
53.713604,0.000000,15.763246,0.000000,-1.000000,0.000000
46.732415,0.027682,-9.660495,-0.976873,0.196202,0.084990
53.931178,1.850553,16.141595,-0.471398,0.881921,0.000000
57.548256,0.000000,9.271053,-0.000000,-1.000000,0.000000
47.301828,1.952828,6.797011,-0.980394,0.195012,-0.028249
47.983451,3.189159,7.167848,-0.831231,0.555410,-0.023951
49.797154,4.122162,-5.829332,0.995185,0.098018,0.000000
46.398456,0.242547,-13.995058,-0.976873,0.196202,0.084990
54.036222,1.906701,-15.943223,-0.471398,0.881921,0.000000
49.821007,3.980525,-14.754302,0.956941,0.290282,-0.000000
47.128849,2.210718,-10.143492,-0.976873,0.196202,0.084989
51.032295,2.158470,6.281954,0.634394,0.773010,0.000000
49.784008,4.255631,-9.846518,0.995185,0.098018,-0.000000
51.348933,1.974138,-9.081086,0.471398,0.881921,-0.000000
55.974163,4.781544,5.230234,0.555499,0.831363,0.016006
50.253135,2.949008,-15.162294,0.881921,0.471396,0.000000
54.103618,1.942724,15.303866,-0.471398,0.881921,0.000000
55.714738,4.127949,11.206253,-0.995185,0.098018,0.000000
53.846592,0.000000,12.340100,0.000000,-1.000000,0.000000
47.516853,0.000000,4.743486,-0.000000,-1.000000,0.000000
52.134213,0.000000,14.544466,0.000000,-1.000000,0.000000
57.767550,0.667591,-16.957504,0.976873,0.196202,-0.084989
49.569661,0.000000,9.669842,0.000000,-1.000000,0.000000
58.094874,0.113766,-14.473758,0.976873,0.196202,-0.084989
57.125237,0.000000,-7.365236,0.000000,-1.000000,0.000000
49.648607,5.226113,-14.906226,-0.551221,0.832980,0.047957
47.914426,0.000000,-9.585684,0.000000,-1.000000,0.000000
56.975124,3.478501,12.820045,0.826826,0.557839,0.071935
50.026975,0.000000,6.603763,-0.000000,-1.000000,0.000000
47.886588,0.000000,6.202660,-0.000000,-1.000000,0.000000
53.152392,0.000000,8.343025,-0.000000,-1.000000,0.000000
47.570539,0.000000,-1.289395,0.000000,-1.000000,0.000000
54.309212,2.052617,5.583683,-0.471398,0.881921,0.000000
49.035844,0.000000,6.456038,-0.000000,-1.000000,0.000000
57.906264,0.521067,15.701375,0.976873,0.196202,0.084990
49.810071,5.214468,16.558852,0.956939,-0.290290,0.000000
46.944223,0.270920,-7.597069,-0.980394,0.195012,0.028249
58.161776,2.043619,-8.220097,0.980394,0.195012,-0.028249
55.145208,2.809899,-7.564077,-0.773012,0.634392,0.000000
57.007300,3.144953,15.036811,0.826826,0.557839,0.071935
50.882124,2.281712,10.748852,0.634394,0.773010,0.000000
48.919345,0.000000,-5.833617,0.000000,-1.000000,0.000000
58.183314,1.941978,8.174256,0.980394,0.195012,0.028249
50.969907,2.209670,-3.566890,0.634394,0.773010,0.000000
56.832182,3.371847,15.290108,0.826826,0.557839,0.071935
52.277324,1.655535,-12.285610,0.098017,0.995185,-0.000000
56.510343,0.000000,-8.850079,0.000000,-1.000000,0.000000
52.166622,1.666927,-16.044968,0.290284,0.956941,0.000000
51.134018,2.089013,16.466805,0.471398,0.881921,0.000000
58.351861,1.535850,5.128335,0.980394,0.195012,0.028249
50.154723,3.133125,16.506119,0.881921,0.471396,0.000000
55.950092,0.000000,-0.988384,0.000000,-1.000000,0.000000
47.284894,1.418254,-3.694325,-0.980394,0.195012,0.028249
53.479740,1.372399,16.999809,0.000000,-0.000000,1.000000
53.261309,0.000000,4.889051,0.000000,-1.000000,0.000000
48.629906,4.501269,-14.025164,-0.551220,0.832981,0.047957
49.768843,4.409610,4.455858,0.995185,0.098018,-0.000000
49.098557,0.000000,-14.158029,0.000000,-1.000000,0.000000
55.102072,2.757336,-6.769632,-0.773012,0.634392,0.000000
56.852397,4.229547,3.421667,0.555499,0.831363,0.016006
51.316142,1.991665,8.068903,0.471398,0.881921,0.000000
55.425860,3.262702,13.118510,-0.881921,0.471396,0.000000
49.803116,4.061630,-6.047865,0.995185,0.098018,0.000000
56.785320,4.238866,5.265584,0.555499,0.831363,0.016006
48.187437,1.540368,-16.999809,0.000000,0.000000,-1.000000
48.159677,3.159152,0.355973,-0.831232,0.555410,-0.023951
47.182605,0.454825,-0.593434,-0.980394,0.195012,0.028249
56.955218,4.074592,-6.161339,0.831231,0.555412,-0.023951
50.543264,2.594043,2.082662,0.773009,0.634396,0.000000
57.237611,3.059034,13.055881,0.826825,0.557840,0.071935
53.015810,0.000000,-15.299879,0.000000,-1.000000,0.000000
55.752175,4.722997,0.791446,-0.995184,-0.098020,-0.000000
53.906491,1.837358,11.641689,-0.471398,0.881921,0.000000
55.998942,0.000000,10.351908,0.000000,-1.000000,0.000000
53.557045,1.731340,5.621640,-0.290285,0.956940,0.000000
49.756397,4.695070,15.376612,0.995185,-0.098018,0.000000
50.406901,2.760201,-3.331138,0.773009,0.634396,-0.000000
50.977573,2.203379,12.789454,0.634394,0.773010,0.000000
54.293595,0.000000,1.484727,0.000000,-1.000000,0.000000
50.301343,2.888823,-1.850791,0.773009,0.634396,-0.000000
55.951934,0.000000,15.376280,0.000000,-1.000000,0.000000
54.570543,0.000000,-3.892329,0.000000,-1.000000,0.000000
54.499235,0.000000,14.727786,0.000000,-1.000000,0.000000
49.873286,0.000000,1.864506,0.000000,-1.000000,0.000000
53.697714,0.000000,15.755842,0.000000,-1.000000,0.000000
57.236981,2.944315,13.952747,0.826825,0.557840,0.071935
56.973817,3.673872,11.320007,0.826825,0.557840,0.071935
56.763850,4.066790,-10.686397,0.826825,0.557840,-0.071935
48.625178,0.000000,-10.384175,0.000000,-1.000000,0.000000
52.414273,1.642047,7.171411,0.098017,0.995185,0.000000
48.605898,4.179874,-8.718681,-0.551220,0.832981,0.047957
48.650638,3.984489,-2.456031,-0.831232,0.555410,0.023951
56.028697,0.000000,9.865867,0.000000,-1.000000,0.000000
54.786626,2.410907,-11.464200,-0.634391,0.773012,0.000000
56.729790,4.142597,10.418156,0.551220,0.832981,0.047957
49.862045,3.845242,3.406509,0.956941,0.290282,-0.000000
50.154364,3.133796,-14.413185,0.881921,0.471396,-0.000000
50.520448,0.000000,4.732085,-0.000000,-1.000000,0.000000
52.577100,1.626010,-8.379485,0.098017,0.995185,-0.000000
46.533138,0.378779,12.761517,-0.976873,0.196202,-0.084990
47.192656,1.824670,8.518886,-0.976873,0.196202,-0.084990
57.374583,3.699837,-0.297433,0.831232,0.555410,-0.023951
52.661878,0.000000,-8.898904,0.000000,-1.000000,0.000000
48.594560,4.388280,-12.468891,-0.551220,0.832981,0.047957
52.460571,1.637487,-11.999405,0.098017,0.995185,-0.000000
54.486979,2.164995,-10.655582,-0.634391,0.773012,0.000000
51.598575,0.000000,9.593681,0.000000,-1.000000,0.000000
58.513859,0.535332,6.413073,0.980394,0.195012,0.028249
55.377852,3.172886,14.208291,-0.881921,0.471396,0.000000
51.932312,0.000000,8.131834,-0.000000,-1.000000,0.000000
55.093828,0.000000,13.026472,0.000000,-1.000000,0.000000
47.107365,2.497396,-12.465443,-0.826826,0.557839,0.071935
56.755639,0.000000,15.922374,0.000000,-1.000000,0.000000
48.059885,3.905375,12.435657,-0.826826,0.557839,-0.071935
57.288203,3.633191,-4.840797,0.831231,0.555412,-0.023951
51.547614,0.000000,6.132544,-0.000000,-1.000000,0.000000
48.278650,0.000000,14.190929,0.000000,-1.000000,0.000000
58.284094,0.112917,12.300800,0.976873,0.196202,0.084989
55.644036,3.827963,6.125984,-0.956941,0.290282,0.000000
58.066261,2.377879,-6.947923,0.831232,0.555410,-0.023951
48.612525,4.522056,-14.585995,-0.551220,0.832981,0.047957
51.066343,0.000000,-8.268362,0.000000,-1.000000,0.000000
50.705585,0.000000,-4.806560,0.000000,-1.000000,0.000000
47.135269,0.414520,-1.958031,-0.980394,0.195012,0.028249
57.660295,1.780574,-15.620924,0.976873,0.196202,-0.084989
58.670973,0.000000,-3.157360,0.000000,-1.000000,0.000000
49.771450,4.383135,-6.615847,0.995185,0.098018,-0.000000
47.485573,2.391144,-5.941424,-0.831231,0.555410,0.023951
55.711695,4.097058,-12.756259,-0.995185,0.098018,0.000000
51.161752,0.000000,-10.360250,0.000000,-1.000000,0.000000
47.086369,1.749904,-9.567947,-0.976873,0.196202,0.084989
58.717043,0.383485,0.409642,0.980394,0.195012,0.028249
58.598447,0.917504,-0.839069,0.980394,0.195012,-0.028249
48.267715,3.847573,9.598611,-0.826826,0.557839,-0.071935
57.294589,3.366911,-10.013462,0.826825,0.557840,-0.071935
50.218958,3.012949,-14.749312,0.881921,0.471396,-0.000000
54.151201,0.000000,3.603014,0.000000,-1.000000,0.000000
46.156607,0.231121,16.314820,-0.969672,0.198599,-0.142458
55.662288,0.000000,8.350390,-0.000000,-1.000000,0.000000
58.297195,0.919204,-10.288879,0.976873,0.196202,-0.084990
47.443727,2.630227,9.629354,-0.826826,0.557839,-0.071935
56.314516,0.000000,-10.529272,0.000000,-1.000000,0.000000
47.040566,0.000000,13.946757,0.000000,-1.000000,0.000000
53.673973,0.000000,-11.243210,0.000000,-1.000000,0.000000
50.101709,0.000000,1.581442,0.000000,-1.000000,0.000000
49.176356,0.000000,4.631419,-0.000000,-1.000000,0.000000
47.231254,0.778291,-1.138057,-0.980394,0.195012,0.028249
55.050171,2.694094,11.517159,-0.773012,0.634392,0.000000
50.252359,2.950461,-4.512248,0.881921,0.471396,0.000000
52.981141,0.000000,-14.532529,0.000000,-1.000000,0.000000
53.365354,0.000000,3.107265,0.000000,-1.000000,0.000000
47.158870,2.928930,15.219880,-0.826826,0.557839,-0.071935
47.042211,0.779563,7.707669,-0.980394,0.195012,-0.028249
53.553058,1.730130,0.386433,-0.290285,0.956940,0.000000
55.753078,4.713831,2.263894,-0.995184,-0.098020,-0.000000
53.389934,0.000000,-11.283420,0.000000,-1.000000,0.000000
57.989125,2.552998,-5.564045,0.831232,0.555410,-0.023951
49.125239,4.342937,-0.271850,-0.555498,0.831364,0.016006
53.874527,1.827647,5.091121,-0.290285,0.956940,0.000000
55.652577,3.856118,5.528107,-0.956941,0.290282,0.000000
46.787409,2.256866,-14.277787,-0.826826,0.557839,0.071935
48.435979,4.549372,16.827076,-0.542628,0.836182,-0.079719
47.245705,0.000000,2.164061,-0.000000,-1.000000,0.000000
47.523732,2.255118,1.462718,-0.831232,0.555410,-0.023951
51.325696,1.986559,2.946712,0.471398,0.881921,0.000000
56.177878,0.000000,9.205236,-0.000000,-1.000000,0.000000
51.763493,1.789214,-15.300577,0.290284,0.956941,-0.000000
48.258554,4.245156,-13.844980,-0.551220,0.832981,0.047957
48.527552,4.073837,8.366652,-0.826826,0.557839,-0.071935
48.104475,0.000000,-7.160368,0.000000,-1.000000,0.000000
47.452300,2.352934,6.210129,-0.831232,0.555410,-0.023951
49.071633,0.000000,13.290107,0.000000,-1.000000,0.000000
49.725652,5.370275,-16.524663,-0.551221,0.832980,0.047957
57.551240,3.245664,4.698463,0.831232,0.555410,0.023951
47.732824,2.698219,-4.481356,-0.831231,0.555410,0.023951
58.162516,0.712186,12.314794,0.976873,0.196202,0.084989
56.613950,0.000000,12.925701,0.000000,-1.000000,0.000000
49.806245,5.201180,-16.428154,0.995185,-0.098018,0.000000
55.886370,0.000000,-1.153023,0.000000,-1.000000,0.000000
54.659230,2.306357,9.794355,-0.634391,0.773012,0.000000
48.364323,2.275490,-16.999809,0.000000,0.000000,-1.000000
57.357108,3.575264,3.792666,0.831232,0.555410,0.023951
46.612169,0.000000,-11.232429,0.000000,-1.000000,0.000000
52.922457,0.000000,-6.995875,0.000000,-1.000000,0.000000
57.392579,2.874550,12.705308,0.826825,0.557840,0.071935
50.611743,2.510602,-2.664882,0.773009,0.634396,0.000000
58.599316,0.814071,1.522966,0.980394,0.195012,0.028249
57.058788,1.878755,16.999809,0.000000,-0.000000,1.000000
49.529059,5.163082,-15.185506,-0.551221,0.832980,0.047957
57.654590,2.066651,15.026078,0.976873,0.196202,0.084990
49.443695,0.000000,5.728772,-0.000000,-1.000000,0.000000
57.515401,0.000000,-14.293169,0.000000,-1.000000,0.000000
50.086841,3.260123,4.730541,0.881921,0.471396,0.000000
57.362995,3.533702,4.552145,0.831232,0.555410,0.023951
51.609980,1.835781,-5.691343,0.290284,0.956941,-0.000000
53.203140,1.652495,-14.469779,-0.098017,0.995185,0.000000
46.805371,0.000000,9.136676,0.000000,-1.000000,0.000000
58.567132,0.327602,-5.998218,0.980394,0.195012,-0.028249
56.533319,0.000000,-15.677169,0.000000,-1.000000,0.000000
57.886913,2.436989,10.416588,0.826825,0.557840,0.071935
47.417383,1.915868,-2.531462,-0.980394,0.195012,0.028249
47.077547,0.013856,1.195370,-0.980394,0.195012,-0.028249
53.672456,1.766350,-16.046519,-0.290285,0.956940,0.000000
55.752000,4.724775,-5.326730,-0.995184,-0.098020,-0.000000
58.357582,0.000000,-5.106463,0.000000,-1.000000,0.000000
57.583195,0.000000,11.902594,0.000000,-1.000000,0.000000
49.935920,3.601705,-7.683085,0.956941,0.290282,0.000000
47.504763,0.000000,4.780461,-0.000000,-1.000000,0.000000
49.802354,4.069372,1.202531,0.995185,0.098018,0.000000
49.542687,0.000000,-13.526702,0.000000,-1.000000,0.000000
53.006094,1.633088,-4.899379,-0.098017,0.995185,0.000000
47.482635,0.000000,16.048360,0.000000,-1.000000,0.000000
57.927579,1.276075,13.713406,0.976873,0.196202,0.084990
55.751955,0.000000,-2.439123,0.000000,-1.000000,0.000000
53.122798,0.000000,4.863931,0.000000,-1.000000,0.000000
52.596399,0.000000,-15.700320,0.000000,-1.000000,0.000000
52.565433,0.000000,-13.709705,0.000000,-1.000000,0.000000
58.554471,1.089892,1.175235,0.980394,0.195012,0.028249
57.092200,1.348072,-16.999809,0.000000,0.000000,-1.000000
57.960136,0.834090,14.359538,0.976873,0.196202,0.084990
49.772835,4.369073,-9.342534,0.995185,0.098018,-0.000000
58.408467,1.392955,-4.150240,0.980394,0.195012,-0.028249
51.613039,1.834854,5.120016,0.290284,0.956941,-0.000000
54.446526,2.131796,-3.177229,-0.634391,0.773012,0.000000
48.077909,3.842091,-11.737739,-0.826826,0.557839,0.071935
46.271763,0.144266,15.224389,-0.976873,0.196202,-0.084989
57.542984,3.305285,-3.602462,0.831232,0.555410,-0.023951
50.570648,2.560676,15.061356,0.773009,0.634396,0.000000
49.222006,0.000000,-11.164301,0.000000,-1.000000,0.000000
57.665108,0.000000,14.819759,0.000000,-1.000000,0.000000
48.544046,3.935083,5.009661,-0.831231,0.555410,-0.023951
47.226115,0.000000,1.524302,-0.000000,-1.000000,0.000000
49.006836,0.000000,-8.062581,0.000000,-1.000000,0.000000
57.011222,0.000000,6.927246,0.000000,-1.000000,0.000000
55.252069,2.940109,10.322944,-0.773012,0.634392,0.000000
47.210944,0.000000,13.287666,0.000000,-1.000000,0.000000
47.500372,2.439333,6.545275,-0.831232,0.555410,-0.023951
51.045388,2.147724,-7.990563,0.634394,0.773010,0.000000
54.360882,2.080235,-2.049709,-0.471398,0.881921,0.000000
46.599037,0.735868,-12.828427,-0.976873,0.196202,0.084990
49.914755,3.671476,-15.338803,0.956941,0.290282,-0.000000
49.041289,4.542683,10.016049,-0.551219,0.832981,-0.047957
49.966304,3.501542,11.550857,0.956941,0.290282,0.000000
51.245430,0.000000,12.668453,0.000000,-1.000000,0.000000
57.731556,1.162485,16.228736,0.976873,0.196202,0.084990
49.794945,4.144593,-3.410407,0.995185,0.098018,0.000000
58.167220,2.341067,4.297730,0.831231,0.555412,0.023951
50.823128,2.330129,3.342138,0.634394,0.773010,0.000000
53.223612,1.654512,10.535534,-0.098017,0.995185,0.000000
47.704768,2.669450,4.787904,-0.831232,0.555410,-0.023951
47.437751,0.000000,3.853261,-0.000000,-1.000000,0.000000
46.878412,0.368791,-8.769871,-0.976873,0.196202,0.084989
46.894037,0.254713,-16.999809,0.000000,0.000000,-1.000000
55.145599,0.000000,5.276491,0.000000,-1.000000,0.000000
47.851716,0.000000,8.962283,0.000000,-1.000000,0.000000
47.139518,0.255984,0.716133,-0.980394,0.195012,-0.028249
55.316981,2.017748,16.999809,0.000000,-0.000000,1.000000
58.186161,1.986293,-7.769518,0.980394,0.195012,-0.028249
47.451668,2.536278,8.809525,-0.826826,0.557839,-0.071935
54.660347,0.000000,4.543222,0.000000,-1.000000,0.000000
57.457599,0.000000,-11.460958,0.000000,-1.000000,0.000000
47.860255,3.669664,-12.902340,-0.826826,0.557839,0.071935
49.889934,3.753302,-7.378900,0.956941,0.290282,-0.000000
54.730378,0.000000,-1.200528,0.000000,-1.000000,0.000000
57.641628,1.331607,-16.871944,0.976873,0.196202,-0.084989
54.631803,2.283848,4.638454,-0.634391,0.773012,0.000000
56.211798,0.389378,16.999809,0.000000,-0.000000,1.000000
55.106230,2.762403,-9.473918,-0.773012,0.634392,0.000000
49.250086,0.000000,-6.857855,0.000000,-1.000000,0.000000
56.037583,4.695545,-7.496044,0.555499,0.831363,-0.016006
46.962451,1.845520,16.999809,0.000000,-0.000000,1.000000
52.323283,1.651008,-6.863992,0.098017,0.995185,-0.000000
58.270729,2.194441,-3.397555,0.980394,0.195012,-0.028249
50.545435,2.591398,-9.368509,0.773009,0.634396,0.000000
55.715488,4.135570,-1.426057,-0.995185,0.098018,0.000000
47.654399,3.454660,-13.601163,-0.826826,0.557839,0.071935
49.508013,4.667561,3.848614,-0.555499,0.831363,-0.016006
49.802047,4.072482,8.101858,0.995185,0.098018,0.000000
50.149496,3.142904,5.608752,0.881921,0.471396,0.000000
50.861563,2.298586,-3.453283,0.634394,0.773010,-0.000000
55.196560,2.872471,3.241386,-0.773012,0.634392,0.000000
56.102423,4.681065,5.997848,0.555499,0.831363,0.016006
51.568538,1.856757,3.559446,0.471398,0.881921,0.000000
51.025249,2.164253,16.980729,0.634394,0.773010,0.000000
53.023640,0.000000,-5.370854,0.000000,-1.000000,0.000000
49.332797,4.842084,-11.865828,-0.551219,0.832981,0.047957
54.027885,0.000000,9.763684,0.000000,-1.000000,0.000000
56.783394,3.994101,11.025440,0.826826,0.557839,0.071935
50.612636,2.509514,5.027456,0.773009,0.634396,0.000000
48.223527,0.000000,-1.349298,0.000000,-1.000000,0.000000
56.291664,2.603211,16.999809,-0.000000,-0.000000,1.000000
46.610976,0.000000,11.780271,0.000000,-1.000000,0.000000
48.559722,4.000914,-5.992231,-0.831232,0.555410,0.023951
50.018744,3.387523,-5.546253,0.881921,0.471396,-0.000000
54.958151,0.000000,-2.156851,0.000000,-1.000000,0.000000
52.919043,0.000000,-9.081424,0.000000,-1.000000,0.000000
50.328734,2.855447,12.934037,0.773009,0.634396,0.000000
55.627906,0.000000,2.973582,0.000000,-1.000000,0.000000
57.520692,2.537020,-13.850242,0.826826,0.557839,-0.071935
54.323452,2.060229,-5.516664,-0.471398,0.881921,0.000000
56.838895,4.201855,5.328580,0.555499,0.831363,0.016006
54.025510,0.000000,6.345618,-0.000000,-1.000000,0.000000
46.520327,1.252916,-14.926747,-0.976873,0.196202,0.084990
47.550260,2.631195,8.412366,-0.826826,0.557839,-0.071935
53.445078,1.697375,7.688936,-0.290285,0.956940,0.000000
55.136568,2.799370,11.938301,-0.773012,0.634392,0.000000
48.010048,0.000000,4.930135,-0.000000,-1.000000,0.000000
55.620341,3.749849,-7.721697,-0.956941,0.290282,0.000000
48.845068,0.000000,6.364430,-0.000000,-1.000000,0.000000
57.953401,0.643848,14.876141,0.976873,0.196202,0.084989
58.267502,1.693582,6.967236,0.980394,0.195012,0.028249
47.643582,3.943071,16.976247,-0.817883,0.562698,-0.120159
58.469171,1.417705,-1.872605,0.980394,0.195012,-0.028249
58.048651,2.357307,-8.036171,0.831232,0.555410,-0.023951
51.531101,0.158883,-16.999809,0.000000,0.000000,-1.000000
50.179396,3.086964,6.282789,0.881921,0.471396,0.000000
52.470550,0.000000,8.574253,-0.000000,-1.000000,0.000000
47.998601,0.000000,-1.506545,0.000000,-1.000000,0.000000
55.621073,3.752262,-10.497006,-0.956941,0.290282,0.000000
46.927459,0.000000,-15.207186,0.000000,-1.000000,0.000000
56.085997,0.000000,15.781064,0.000000,-1.000000,0.000000
47.640708,2.787713,-8.586501,-0.826826,0.557839,0.071935
57.601005,0.000000,-16.834872,0.000000,-1.000000,0.000000
47.320199,1.567537,-3.499609,-0.980394,0.195012,0.028249
53.991492,0.000000,-11.398944,0.000000,-1.000000,0.000000
56.156982,0.000000,10.339358,0.000000,-1.000000,0.000000
46.590422,1.274591,-14.171114,-0.976873,0.196202,0.084990
48.792215,0.000000,9.236659,0.000000,-1.000000,0.000000
56.905165,0.000000,15.672232,0.000000,-1.000000,0.000000
57.129591,3.718431,-8.368804,0.831231,0.555412,-0.023951
47.871880,0.000000,-2.438018,0.000000,-1.000000,0.000000
54.003631,0.000000,14.508234,0.000000,-1.000000,0.000000
50.561668,0.000000,-12.406787,0.000000,-1.000000,0.000000
50.794646,2.353504,9.081184,0.634394,0.773010,0.000000
53.443185,0.000000,-2.011950,0.000000,-1.000000,0.000000
49.849059,5.342998,14.685795,0.956956,-0.290232,-0.000004
58.611606,0.000000,-3.600981,0.000000,-1.000000,0.000000
56.521470,0.000000,4.733605,0.000000,-1.000000,0.000000
56.680822,4.115694,11.261493,0.826826,0.557839,0.071935
53.027388,1.635185,-10.866993,-0.098017,0.995185,0.000000
54.249024,0.000000,-7.472641,0.000000,-1.000000,0.000000
55.235483,0.000000,9.042615,-0.000000,-1.000000,0.000000
58.195889,0.457853,-12.518331,0.976873,0.196202,-0.084989
50.399314,2.769445,13.811872,0.773009,0.634396,0.000000
48.862276,4.493330,-11.216400,-0.551220,0.832981,0.047957
55.730924,0.000000,-15.114845,0.000000,-1.000000,0.000000
49.483935,4.638093,-3.153712,-0.555498,0.831364,0.016006
49.726444,5.029750,-10.600874,-0.551219,0.832981,0.047957
57.647687,1.990895,-15.280303,0.976873,0.196202,-0.084990
58.248454,2.282430,2.838195,0.831231,0.555412,0.023951
52.009446,0.000000,-8.015488,0.000000,-1.000000,0.000000
47.690483,3.422921,-12.940278,-0.826826,0.557839,0.071935
55.231663,2.915244,2.391595,-0.773012,0.634392,0.000000
51.137240,2.087291,11.204880,0.471398,0.881921,-0.000000
46.643667,0.000000,12.568141,0.000000,-1.000000,0.000000
49.811718,4.011148,-16.883991,0.956941,0.290282,-0.000000
54.910412,2.523798,-0.111317,-0.773012,0.634392,0.000000
58.509142,1.290187,-1.365689,0.980394,0.195012,-0.028249
47.464880,1.888373,0.693222,-0.980394,0.195012,-0.028249
46.690617,1.611584,-13.797434,-0.976873,0.196202,0.084990
54.867462,0.143855,-16.999809,0.000000,0.000000,-1.000000
52.040958,1.705046,-9.528864,0.290284,0.956941,-0.000000
56.331474,0.000000,-13.719420,0.000000,-1.000000,0.000000
