x,y,z,nx,ny,nz
0.047159,-0.555141,-0.039985,0.708185,0.371391,-0.600452
0.389073,-0.027600,0.115004,0.866025,0.000000,0.500000
0.238766,-0.068682,-0.375344,0.866025,0.000000,-0.500000
0.137574,-0.160488,-0.097307,0.816421,0.000000,-0.577457
0.383149,-0.061138,0.125264,0.866025,0.000000,0.500000
0.074570,-0.520237,0.094838,0.573888,0.371391,0.729878
-0.128897,-0.280642,-0.108540,-0.764926,0.000000,-0.644118
-0.012728,-0.185915,0.168028,-0.075535,0.000000,0.997143
0.007232,0.086588,-0.026618,0.000000,1.000000,0.000000
-0.113309,-0.508671,0.082456,-0.750736,0.371391,0.546318
-0.030001,-0.565547,-0.032586,-0.628886,0.371391,-0.683061
-0.415023,-0.078423,-0.070058,-0.866025,0.000000,-0.500000
-0.336908,-0.015255,0.205357,-0.866025,0.000000,0.500000
0.139225,-0.232176,-0.094930,0.826216,0.000000,-0.563353
0.138716,-0.506263,0.039359,0.893217,0.371391,0.253440
0.130024,-0.051424,0.394449,0.000000,0.000000,1.000000
-0.311802,0.076450,-0.248841,-0.866025,0.000000,-0.500000
-0.415655,-0.046794,-0.068962,-0.866025,0.000000,-0.500000
-0.162157,-0.262048,0.045831,-0.962304,0.000000,0.271978
-0.366231,0.012228,0.154568,-0.866025,0.000000,0.500000
0.038814,-0.557016,0.043995,0.614258,0.371391,0.696244
-0.236425,-0.063050,0.379398,-0.866025,0.000000,0.500000
-0.245559,0.027417,0.363578,-0.866025,0.000000,0.500000
-0.164522,-0.323683,0.036437,-0.976342,0.000000,0.216234
-0.061910,-0.544468,0.050371,-0.720211,0.371391,0.585973
0.120995,-0.519725,0.011150,0.924559,0.371391,0.085200
0.106470,0.018803,-0.394449,-0.000000,0.000000,-1.000000
-0.168037,-0.147947,-0.012599,-0.997201,0.000000,-0.074767
-0.002094,-0.238283,-0.168496,-0.012429,0.000000,-0.999923
-0.054716,-0.518941,-0.109968,-0.413609,0.371391,-0.831262
-0.031357,-0.278766,0.165566,-0.186087,0.000000,0.982533
-0.157509,-0.163414,0.059886,-0.934720,0.000000,0.355385
-0.338950,-0.023613,0.201820,-0.866025,0.000000,0.500000
-0.052827,-0.439522,-0.160014,-0.313498,0.000000,-0.949589
-0.168505,-0.424310,0.001230,-0.999973,0.000000,0.007302
-0.060976,-0.551760,-0.029012,-0.838418,0.371391,-0.398905
-0.404687,-0.055739,-0.087960,-0.866025,0.000000,-0.500000
0.008509,-0.247280,0.168294,0.050493,0.000000,0.998724
0.085080,-0.541270,0.004564,0.927144,0.371391,0.049730
-0.025052,-0.086588,-0.321569,0.000000,-1.000000,0.000000
0.364987,-0.051152,-0.156722,0.866025,0.000000,-0.500000
0.165539,-0.364080,-0.031499,0.982374,0.000000,-0.186928
0.093540,-0.030574,-0.394449,-0.000000,0.000000,-1.000000
-0.162801,-0.089602,-0.043487,-0.966127,0.000000,-0.258068
-0.008826,-0.086588,0.280648,0.000000,-1.000000,0.000000
0.114110,-0.211514,0.123993,0.677171,0.000000,0.735825
-0.103000,0.083024,-0.394449,-0.000000,0.000000,-1.000000
0.405698,0.036574,-0.086209,0.866025,0.000000,-0.500000
0.046619,-0.530472,0.092291,0.418623,0.371391,0.828748
0.173399,0.076093,0.394449,0.000000,0.000000,1.000000
-0.074804,-0.396116,-0.150996,-0.443916,0.000000,-0.896068
0.013400,-0.557419,-0.056419,0.214552,0.371391,-0.903347
0.067911,-0.546572,-0.034711,0.826744,0.371391,-0.422567
-0.160120,-0.168240,-0.052505,-0.950218,0.000000,-0.311586
-0.196606,-0.076631,-0.394449,-0.000000,0.000000,-1.000000
-0.001067,-0.315871,0.168506,-0.006333,0.000000,0.999980
0.102143,-0.257195,-0.134023,0.606154,0.000000,-0.795347
0.101899,-0.303596,-0.134209,0.604708,0.000000,-0.796448
0.165622,-0.493475,-0.006311,0.927803,0.371391,-0.035354
-0.154729,-0.146561,0.066740,-0.918223,0.000000,0.396064
-0.344391,-0.018069,0.192396,-0.866025,0.000000,0.500000
0.133263,-0.325584,-0.103133,0.790835,0.000000,-0.612029
-0.027911,-0.510960,-0.133389,-0.190160,0.371391,-0.908795
-0.299597,-0.032954,-0.269980,-0.866025,0.000000,-0.500000
-0.151246,-0.245671,0.074296,-0.897557,0.000000,0.440899
0.007487,0.068133,0.394449,0.000000,0.000000,1.000000
-0.098951,0.027485,-0.394449,-0.000000,0.000000,-1.000000
0.066749,-0.158736,-0.154725,0.396114,0.000000,-0.918201
0.106463,-0.169814,0.130618,0.631794,0.000000,0.775137
0.273444,-0.046909,0.315280,0.866025,0.000000,0.500000
-0.104968,-0.499872,0.113995,-0.628933,0.371391,0.683017
0.100797,-0.399796,0.135038,0.598168,0.000000,0.801371
-0.167302,-0.428802,0.020136,-0.992834,0.000000,0.119498
-0.023398,-0.058800,0.394449,0.000000,0.000000,1.000000
-0.233687,-0.001840,0.384141,-0.866025,0.000000,0.500000
-0.289027,-0.086588,-0.150802,0.000000,-1.000000,0.000000
-0.115265,-0.178092,0.122919,-0.684031,0.000000,0.729453
0.103120,-0.264210,0.133272,0.611957,0.000000,0.790891
-0.167955,-0.359869,-0.013660,-0.996709,0.000000,-0.081064
-0.403302,0.080320,0.090359,-0.866025,0.000000,0.500000
-0.033297,0.086588,-0.202308,0.000000,1.000000,0.000000
0.113429,-0.485017,-0.124616,0.673135,0.000000,-0.739520
0.323428,-0.086588,-0.149052,0.000000,-1.000000,0.000000
0.278643,-0.054249,0.306274,0.866025,0.000000,0.500000
-0.168488,-0.171835,-0.002699,-0.999872,0.000000,-0.016016
-0.312072,-0.036790,0.248373,-0.866025,0.000000,0.500000
0.273363,0.068922,-0.315420,0.866025,0.000000,-0.500000
-0.386348,0.048725,-0.119724,-0.866025,0.000000,-0.500000
0.404404,0.032261,-0.088451,0.866025,0.000000,-0.500000
-0.026476,-0.086588,0.006274,0.000000,-1.000000,0.000000
-0.300601,-0.083932,-0.268242,-0.866025,0.000000,-0.500000
-0.121367,-0.516530,-0.037032,-0.888058,0.371391,-0.270964
0.155435,0.029619,0.394449,0.000000,0.000000,1.000000
0.325339,-0.007440,-0.225395,0.866025,0.000000,-0.500000
-0.094762,-0.064286,0.394449,0.000000,0.000000,1.000000
0.144027,-0.406909,0.087474,0.854711,0.000000,0.519103
-0.083156,-0.086588,-0.064885,0.000000,-1.000000,0.000000
-0.276876,-0.014463,-0.309334,-0.866025,0.000000,-0.500000
-0.455398,0.078873,-0.000126,-0.866025,0.000000,-0.500000
-0.304709,-0.029617,0.261127,-0.866025,0.000000,0.500000
0.283329,-0.014012,0.298159,0.866025,0.000000,0.500000
0.142858,-0.506742,0.012290,0.925060,0.371391,0.079581
-0.040952,0.086588,0.007110,0.000000,1.000000,0.000000
0.151731,-0.237202,0.073301,0.900432,0.000000,0.434997
-0.137901,-0.038110,-0.394449,-0.000000,0.000000,-1.000000
-0.061747,-0.028116,-0.394449,-0.000000,0.000000,-1.000000
0.086388,-0.066895,0.394449,0.000000,0.000000,1.000000
-0.145415,0.010152,0.394449,0.000000,0.000000,1.000000
-0.090505,-0.279006,0.142141,-0.537093,0.000000,0.843523
0.028264,-0.086588,0.102518,0.000000,-1.000000,0.000000
-0.037713,-0.124842,0.164235,-0.223804,0.000000,0.974634
0.436002,-0.015446,-0.033720,0.866025,0.000000,-0.500000
-0.357198,-0.086588,-0.055531,0.000000,-1.000000,0.000000
0.417771,0.071323,-0.065297,0.866025,0.000000,-0.500000
-0.134510,-0.172894,-0.101501,-0.798233,0.000000,-0.602349
-0.157088,-0.272010,-0.060980,-0.932225,0.000000,-0.361880
-0.047566,-0.543757,-0.065577,-0.545153,0.371391,-0.751583
0.072530,-0.031618,-0.394449,-0.000000,0.000000,-1.000000
-0.408257,0.025843,0.081777,-0.866025,0.000000,0.500000
-0.051868,-0.521102,0.107309,-0.404054,0.371391,0.835948
-0.106133,-0.497877,-0.117482,-0.622410,0.371391,-0.688966
0.244517,0.083859,0.365382,0.866025,0.000000,0.500000
0.029401,-0.569465,-0.023583,0.724271,0.371391,-0.580948
-0.052847,-0.357776,-0.160008,-0.313614,0.000000,-0.949550
-0.177292,-0.035637,0.394449,0.000000,0.000000,1.000000
0.045675,-0.053448,-0.394449,-0.000000,0.000000,-1.000000
0.407268,0.070698,0.083489,0.866025,0.000000,0.500000
0.162600,-0.229122,-0.044233,0.964932,0.000000,-0.262498
-0.047283,-0.562950,-0.011537,-0.902012,0.371391,-0.220099
-0.417482,0.003830,-0.065799,-0.866025,0.000000,-0.500000
0.128851,-0.023738,-0.394449,-0.000000,0.000000,-1.000000
0.376219,-0.081475,-0.137268,0.866025,0.000000,-0.500000
-0.122661,-0.137154,0.115540,-0.727921,0.000000,0.685661
0.006539,-0.121663,0.168382,0.038805,0.000000,0.999247
0.064809,-0.160169,-0.155548,0.384600,0.000000,-0.923083
-0.256404,0.014771,-0.344794,-0.866025,0.000000,-0.500000
0.446272,0.028859,0.015932,0.866025,0.000000,0.500000
-0.085285,-0.452172,0.145333,-0.506115,0.000000,0.862466
-0.042114,-0.400756,0.163162,-0.249923,0.000000,0.968266
-0.015447,-0.525398,-0.110877,-0.128117,0.371391,-0.919595
-0.040475,-0.551962,0.053625,-0.559347,0.371391,0.741080
0.168242,-0.474697,0.009480,0.998416,0.000000,0.056260
0.334624,-0.042110,-0.209312,0.866025,0.000000,-0.500000
0.026869,-0.544664,-0.074804,0.313869,0.371391,-0.873816
-0.249939,-0.071891,0.355992,-0.866025,0.000000,0.500000
-0.138035,-0.396803,0.096652,-0.819154,0.000000,0.573573
0.083371,-0.272997,0.146440,0.494758,0.000000,0.869031
0.006278,-0.426517,-0.168392,0.037256,0.000000,-0.999306
0.032389,-0.523352,0.110756,0.260607,0.371391,0.891152
0.129214,-0.479879,-0.108162,0.766808,0.000000,-0.641877
0.093583,-0.247602,0.140134,0.555361,0.000000,0.831609
-0.332171,-0.034905,-0.213562,-0.866025,0.000000,-0.500000
0.005575,-0.228178,0.168417,0.033083,0.000000,0.999453
0.019718,-0.557454,0.054473,0.316017,0.371391,0.873042
0.215295,0.085013,-0.394449,-0.000000,0.000000,-1.000000
0.066069,-0.488155,-0.155017,0.392081,0.000000,-0.919931
-0.075485,-0.287681,-0.150656,-0.447959,0.000000,-0.894054
-0.096728,-0.520071,-0.072571,-0.742689,0.371391,-0.557209
0.014557,-0.553890,-0.062257,0.211398,0.371391,-0.904091
-0.133797,-0.159964,-0.102439,-0.794002,0.000000,-0.607915
0.138775,-0.186242,0.095587,0.823545,0.000000,0.567250
0.063818,-0.219061,-0.155957,0.378724,0.000000,-0.925510
0.233860,-0.042893,-0.383841,0.866025,0.000000,-0.500000
-0.139063,-0.334002,-0.095167,-0.825255,0.000000,-0.564760
0.017806,-0.054603,0.394449,0.000000,0.000000,1.000000
-0.365892,0.006153,0.155155,-0.866025,0.000000,0.500000
-0.167726,-0.247282,0.016227,-0.995352,0.000000,0.096299
0.019835,-0.459589,-0.167338,0.117709,0.000000,-0.993048
0.437843,-0.026605,-0.030532,0.866025,0.000000,-0.500000
0.160983,-0.240155,0.049797,0.955339,0.000000,0.295512
0.432486,0.026838,0.039810,0.866025,0.000000,0.500000
-0.063727,-0.507422,-0.127165,-0.415980,0.371391,-0.830078
0.017586,-0.562513,0.046171,0.330485,0.371391,0.867669
-0.136128,-0.509927,-0.022760,-0.915765,0.371391,-0.153114
-0.130903,-0.323313,0.106111,-0.776833,0.000000,0.629707
0.420280,0.021404,-0.060952,0.866025,0.000000,-0.500000
0.106314,-0.020598,-0.394449,-0.000000,0.000000,-1.000000
0.323258,-0.074267,0.228999,0.866025,0.000000,0.500000
0.159488,-0.231648,-0.054395,0.946467,0.000000,-0.322800
-0.134050,-0.511068,0.023502,-0.914527,0.371391,0.160339
-0.005300,-0.455126,-0.168426,-0.031453,0.000000,-0.999505
-0.043427,-0.255794,-0.162817,-0.257715,0.000000,-0.966221
-0.108790,-0.151721,0.128686,-0.645602,0.000000,0.763674
0.029475,0.032131,-0.394449,-0.000000,0.000000,-1.000000
-0.281234,0.070762,0.301787,-0.866025,0.000000,0.500000
-0.061180,-0.223510,-0.157011,-0.363066,0.000000,-0.931763
-0.115261,-0.218730,0.122923,-0.684006,0.000000,0.729477
0.230054,0.003306,-0.390433,0.866025,0.000000,-0.500000
-0.105833,-0.219144,-0.131128,-0.628057,0.000000,-0.778167
-0.041988,-0.565844,0.012439,-0.890235,0.371391,0.263724
0.131017,-0.417727,-0.105971,0.777506,0.000000,-0.628876
-0.448635,0.011727,-0.011839,-0.866025,0.000000,-0.500000
0.122690,-0.189983,-0.115510,0.728089,0.000000,-0.685483
0.378998,-0.071408,0.132454,0.866025,0.000000,0.500000
-0.005388,-0.088861,0.168423,-0.031974,0.000000,0.999489
0.147455,-0.256479,-0.081563,0.875055,0.000000,-0.484024
-0.076110,-0.420944,0.150341,-0.451669,0.000000,0.892185
-0.040448,0.017894,-0.394449,-0.000000,0.000000,-1.000000
-0.051079,-0.068043,-0.394449,-0.000000,0.000000,-1.000000
0.023238,-0.096726,-0.166899,0.137901,0.000000,-0.990446
-0.002913,-0.522018,0.117607,-0.022993,0.371391,0.928192
0.005462,-0.318741,-0.168421,0.032412,0.000000,-0.999475
-0.017600,-0.553860,0.061519,-0.255381,0.371391,0.892664
-0.048511,-0.086588,-0.061612,0.000000,-1.000000,0.000000
0.021521,-0.336099,-0.167129,0.127717,0.000000,-0.991811
0.154356,-0.156627,-0.067598,0.916011,0.000000,-0.401153
-0.003713,0.006079,0.394449,0.000000,0.000000,1.000000
-0.163361,-0.089583,-0.041333,-0.969451,0.000000,-0.245284
-0.053288,-0.255738,-0.159862,-0.316231,0.000000,-0.948682
-0.140516,-0.182361,-0.093009,-0.833876,0.000000,-0.551951
0.064443,-0.425152,0.155700,0.382432,0.000000,0.923984
0.069968,-0.510595,0.117660,0.474563,0.371391,0.798034
-0.038499,-0.149102,-0.164052,-0.228470,0.000000,-0.973551
0.091573,-0.002220,0.394449,0.000000,0.000000,1.000000
0.006877,-0.569634,-0.036769,0.170692,0.371391,-0.912652
-0.150172,-0.156879,-0.076443,-0.891183,0.000000,-0.453644
-0.139388,-0.205317,0.094691,-0.827182,0.000000,0.561934
0.044675,-0.313560,-0.162479,0.265121,0.000000,-0.964215
0.027869,-0.467585,-0.166188,0.165388,0.000000,-0.986229
0.145072,-0.499123,0.057965,0.862200,0.371391,0.344501
0.137655,-0.155614,-0.097193,0.816898,0.000000,-0.576783
-0.040956,-0.567255,-0.006148,-0.918189,0.371391,-0.137834
0.074518,-0.431539,0.151137,0.442219,0.000000,0.896907
-0.103075,-0.506754,0.099644,-0.667551,0.371391,0.645325
0.034697,0.027362,0.394449,0.000000,0.000000,1.000000
-0.081554,-0.293633,0.147459,-0.483976,0.000000,0.875081
-0.104439,0.086588,-0.229110,0.000000,1.000000,0.000000
0.399888,-0.079714,0.096271,0.866025,0.000000,0.500000
0.120823,-0.027911,0.394449,0.000000,0.000000,1.000000
-0.144404,-0.377877,0.086849,-0.856952,0.000000,0.515396
-0.254417,-0.084860,-0.348234,-0.866025,0.000000,-0.500000
-0.137732,-0.143051,0.097083,-0.817358,0.000000,0.576130
-0.056183,-0.086588,-0.241657,0.000000,-1.000000,0.000000
-0.394546,0.031692,-0.105525,-0.866025,0.000000,-0.500000
-0.066645,-0.544412,-0.044088,-0.774366,0.371391,-0.512275
-0.050749,-0.090386,0.160686,-0.301162,0.000000,0.953573
-0.151380,-0.206291,-0.074024,-0.898347,0.000000,-0.439286
-0.319736,-0.067133,-0.235099,-0.866025,0.000000,-0.500000
0.164743,-0.300192,-0.035429,0.977648,0.000000,-0.210249
0.444430,0.057398,0.019123,0.866025,0.000000,0.500000
0.196904,0.075483,-0.394449,-0.000000,0.000000,-1.000000
0.091159,-0.211033,-0.141723,0.540972,0.000000,-0.841041
-0.082631,-0.382500,-0.146859,-0.490364,0.000000,-0.871518
-0.151398,-0.108008,0.073987,-0.898454,0.000000,0.439069
-0.050360,-0.548036,0.053949,-0.633572,0.371391,0.678716
-0.107173,-0.174786,-0.130036,-0.636005,0.000000,-0.771685
-0.018517,-0.550677,-0.066832,-0.247906,0.371391,-0.894769
-0.144081,-0.147007,0.087384,-0.855034,0.000000,0.518572
-0.051988,-0.560726,-0.006690,-0.920884,0.371391,-0.118497
-0.161882,-0.184573,0.046794,-0.960669,0.000000,0.277695
-0.010101,-0.420975,0.168206,-0.059946,0.000000,0.998202
-0.301569,0.038800,-0.266565,-0.866025,0.000000,-0.500000
-0.037660,-0.567758,-0.015079,-0.861949,0.371391,-0.345128
-0.203709,0.086588,0.072659,0.000000,1.000000,0.000000
-0.422811,0.065752,0.056568,-0.866025,0.000000,0.500000
-0.120330,-0.137946,-0.117967,-0.714084,0.000000,-0.700060
0.039359,-0.086588,0.361258,0.000000,-1.000000,0.000000
-0.337128,-0.006099,0.204975,-0.866025,0.000000,0.500000
0.070446,-0.260030,0.153077,0.418057,0.000000,0.908421
0.059181,-0.519698,-0.106173,0.452052,0.371391,-0.810998
-0.159956,-0.086588,0.342731,0.000000,-1.000000,0.000000
-0.128775,-0.359208,0.108685,-0.764200,0.000000,0.644979
0.080335,-0.281997,0.148127,0.476742,0.000000,0.879043
-0.358937,-0.061433,-0.167200,-0.866025,0.000000,-0.500000
-0.065851,-0.533661,-0.072610,-0.623739,0.371391,-0.687764
-0.137666,-0.162778,0.097176,-0.816967,0.000000,0.576684
0.442925,0.013265,-0.021729,0.866025,0.000000,-0.500000
0.091772,-0.132766,-0.141327,0.544609,0.000000,-0.838690
0.030575,-0.487633,-0.165712,0.181442,0.000000,-0.983402
-0.043860,-0.522372,0.108518,-0.347925,0.371391,0.860824
-0.065542,-0.126906,-0.155240,-0.388952,0.000000,-0.921258
0.417643,0.048767,-0.065519,0.866025,0.000000,-0.500000
0.427828,0.019979,0.047879,0.866025,0.000000,0.500000
0.021956,-0.221996,-0.167073,0.130299,0.000000,-0.991475
0.089484,-0.201535,-0.142786,0.531033,0.000000,-0.847351
0.064980,-0.533272,0.074263,0.611407,0.371391,0.698749
-0.037038,-0.051384,-0.394449,-0.000000,0.000000,-1.000000
-0.138610,-0.407357,-0.095826,-0.822566,0.000000,-0.568669
-0.071351,-0.040233,0.394449,0.000000,0.000000,1.000000
-0.111739,-0.459458,-0.126134,-0.663103,0.000000,-0.748528
0.267199,0.062037,0.326097,0.866025,0.000000,0.500000
0.019443,-0.186902,0.167384,0.115383,0.000000,0.993321
0.021884,-0.443141,0.167082,0.129871,0.000000,0.991531
-0.108738,-0.166233,-0.128730,-0.645296,0.000000,-0.763932
0.049127,-0.094065,-0.161189,0.291539,0.000000,-0.956559
-0.067093,-0.519817,0.101118,-0.513337,0.371391,0.773663
-0.091323,-0.197762,0.141617,-0.541948,0.000000,0.840412
0.067213,-0.531357,0.076598,0.612385,0.371391,0.697892
0.118715,-0.085743,-0.394449,-0.000000,0.000000,-1.000000
0.088417,-0.385992,-0.143450,0.524701,0.000000,-0.851287
-0.120455,-0.391219,-0.117839,-0.714826,0.000000,-0.699303
0.085252,-0.306486,0.145352,0.505922,0.000000,0.862579
-0.133265,-0.377903,0.103130,-0.790845,0.000000,0.612017
-0.268313,0.026942,0.324166,-0.866025,0.000000,0.500000
-0.098587,0.030861,-0.394449,-0.000000,0.000000,-1.000000
-0.021544,0.064900,0.394449,0.000000,0.000000,1.000000
0.163105,-0.386457,-0.042331,0.967932,0.000000,-0.251212
0.114661,-0.086588,0.001361,0.000000,-1.000000,0.000000
0.161156,-0.356606,-0.049234,0.956366,0.000000,-0.292172
0.133707,-0.077768,0.394449,0.000000,0.000000,1.000000
-0.235357,-0.086588,-0.282855,0.000000,-1.000000,0.000000
-0.110358,-0.375194,-0.127344,-0.654910,0.000000,-0.755707
0.057118,-0.543371,-0.058362,0.649425,0.371391,-0.663563
-0.167232,-0.479598,-0.020704,-0.992423,0.000000,-0.122869
0.038067,-0.086588,0.030649,0.000000,-1.000000,0.000000
-0.346368,-0.071062,-0.188972,-0.866025,0.000000,-0.500000
-0.015348,-0.274713,0.167809,-0.091080,0.000000,0.995844
-0.355264,0.071624,-0.173563,-0.866025,0.000000,-0.500000
0.137926,-0.420996,0.096808,0.818507,0.000000,0.574496
-0.265949,0.047634,0.328260,-0.866025,0.000000,0.500000
-0.451619,-0.029025,-0.006671,-0.866025,0.000000,-0.500000
-0.039969,-0.123605,0.163700,-0.237193,0.000000,0.971463
0.111790,-0.024683,-0.394449,-0.000000,0.000000,-1.000000
-0.116206,-0.487045,0.122031,-0.689611,0.000000,0.724180
-0.159521,-0.391044,-0.054298,-0.946663,0.000000,-0.322224
-0.108825,0.086588,-0.023580,0.000000,1.000000,0.000000
0.148527,-0.354418,0.079592,0.881421,0.000000,0.472331
-0.429048,0.020801,-0.045765,-0.866025,0.000000,-0.500000
0.076595,-0.237524,0.150095,0.454545,0.000000,0.890724
-0.194026,0.057629,-0.394449,-0.000000,0.000000,-1.000000
0.271556,0.046840,0.318549,0.866025,0.000000,0.500000
-0.185072,0.015467,-0.394449,-0.000000,0.000000,-1.000000
-0.141608,-0.055960,-0.394449,-0.000000,0.000000,-1.000000
-0.065613,-0.386045,0.155211,-0.389371,0.000000,0.921081
0.235202,0.043160,-0.381517,0.866025,0.000000,-0.500000
0.010768,0.086588,-0.016088,0.000000,1.000000,0.000000
-0.075595,-0.234109,0.150601,-0.448608,0.000000,0.893729
0.143031,-0.463327,-0.089093,0.848801,0.000000,-0.528712
0.167941,-0.208768,-0.013829,0.996627,0.000000,-0.082068
0.050266,-0.528452,0.094234,0.436980,0.371391,0.819218
-0.009662,-0.525122,0.111998,-0.079800,0.371391,0.925041
0.324787,0.086588,-0.023638,0.000000,1.000000,0.000000
0.286990,0.037645,-0.291816,0.866025,0.000000,-0.500000
-0.280194,-0.037519,-0.303588,-0.866025,0.000000,-0.500000
0.145399,-0.391378,-0.085174,0.862854,0.000000,-0.505454
-0.051201,-0.268754,0.160542,-0.303845,0.000000,0.952721
-0.002830,-0.546709,0.075984,-0.034552,0.371391,0.927834
-0.097248,-0.487146,-0.137616,-0.577110,0.000000,-0.816666
0.012473,-0.544118,0.079429,0.144036,0.371391,0.917236
0.078548,-0.537921,-0.045641,0.802795,0.371391,-0.466465
-0.045289,-0.401888,-0.162309,-0.268764,0.000000,-0.963206
0.077230,-0.534061,0.059266,0.736585,0.371391,0.565253
0.417903,-0.032182,-0.065069,0.866025,0.000000,-0.500000
-0.017319,-0.399628,0.167617,-0.102775,0.000000,0.994705
0.273493,0.086588,0.150609,0.000000,1.000000,0.000000
0.167704,0.067415,-0.394449,-0.000000,0.000000,-1.000000
0.127887,-0.317128,0.109728,0.758932,0.000000,0.651170
0.383740,0.082553,0.124241,0.866025,0.000000,0.500000
0.011629,-0.420939,-0.168107,0.069009,0.000000,-0.997616
0.402959,0.013006,0.090953,0.866025,0.000000,0.500000
-0.396688,-0.068376,0.101814,-0.866025,0.000000,0.500000
-0.272711,-0.080502,0.316549,-0.866025,0.000000,0.500000
0.253784,-0.043616,-0.349331,0.866025,0.000000,-0.500000
0.139508,-0.503262,0.053034,0.867882,0.371391,0.329924
0.097846,-0.457781,-0.137192,0.580655,0.000000,-0.814150
0.013519,-0.521807,-0.117222,0.106372,0.371391,-0.922363
0.168091,-0.418341,0.011861,0.997520,0.000000,0.070387
0.142850,-0.237999,-0.089383,0.847728,0.000000,-0.530431
0.027432,-0.317943,-0.166261,0.162790,0.000000,-0.986661
0.347631,0.012453,0.186783,0.866025,0.000000,0.500000
-0.074109,0.038774,-0.394449,-0.000000,0.000000,-1.000000
0.290903,-0.054231,0.285040,0.866025,0.000000,0.500000
0.110270,-0.296486,-0.127420,0.654383,0.000000,-0.756163
0.229976,-0.018252,0.390568,0.866025,0.000000,0.500000
-0.162867,-0.365636,0.043241,-0.966515,0.000000,0.256612
0.130873,-0.133034,-0.106149,0.776654,0.000000,-0.629928
-0.145629,0.022733,0.394449,0.000000,0.000000,1.000000
0.168443,-0.393510,0.004703,0.999610,0.000000,0.027912
-0.032750,-0.092080,0.165296,-0.194350,0.000000,0.980932
0.094445,-0.531294,0.038558,0.859598,0.371391,0.350941
0.088320,-0.404767,0.143509,0.524127,0.000000,0.851640
-0.088252,-0.290502,0.143551,-0.523722,0.000000,0.851889
0.075340,-0.514666,-0.105983,0.537955,0.371391,-0.756752
-0.051810,-0.524106,-0.101686,-0.421506,0.371391,-0.827286
-0.168359,0.001426,0.394449,0.000000,0.000000,1.000000
0.167457,-0.355108,0.018804,0.993755,0.000000,0.111588
-0.047445,-0.548384,0.055760,-0.601684,0.371391,0.707139
-0.124074,-0.241868,-0.114022,-0.736304,0.000000,-0.676651
0.131770,-0.456406,0.105034,0.781973,0.000000,0.623313
-0.128713,0.003925,0.394449,0.000000,0.000000,1.000000
0.354718,-0.017141,0.174509,0.866025,0.000000,0.500000
0.044003,-0.261477,-0.162662,0.261130,0.000000,-0.965304
0.148972,-0.086588,0.032801,0.000000,-1.000000,0.000000
-0.402797,-0.025278,0.091233,-0.866025,0.000000,0.500000
-0.043772,-0.086588,-0.095502,0.000000,-1.000000,0.000000
-0.069626,0.077983,-0.394449,-0.000000,0.000000,-1.000000
0.004062,-0.314315,-0.168460,0.024103,0.000000,-0.999709
0.333179,-0.059035,-0.211815,0.866025,0.000000,-0.500000
-0.027598,0.041254,0.394449,0.000000,0.000000,1.000000
-0.302633,0.069062,0.264722,-0.866025,0.000000,0.500000
0.134623,-0.167641,-0.101351,0.798906,0.000000,-0.601456
0.290348,-0.071714,-0.286000,0.866025,0.000000,-0.500000
-0.048899,-0.086588,0.126119,0.000000,-1.000000,0.000000
0.421642,0.081500,-0.058594,0.866025,0.000000,-0.500000
0.164704,0.083485,0.394449,0.000000,0.000000,1.000000
-0.138069,-0.500873,0.066561,-0.836362,0.371391,0.403196
-0.071361,0.086588,0.034461,0.000000,1.000000,0.000000
-0.012987,-0.142176,0.168008,-0.077069,0.000000,0.997026
0.020426,-0.007534,0.394449,0.000000,0.000000,1.000000
-0.003822,0.086588,0.003913,0.000000,1.000000,0.000000
-0.345897,-0.041294,0.189788,-0.866025,0.000000,0.500000
0.165333,-0.124434,-0.032562,0.981153,0.000000,-0.193233
-0.287089,-0.008371,0.291645,-0.866025,0.000000,0.500000
0.016103,-0.086588,0.015179,0.000000,-1.000000,0.000000
0.022810,-0.293825,-0.166958,0.135361,0.000000,-0.990796
0.131800,-0.334273,0.104996,0.782154,0.000000,0.623085
0.166451,-0.446452,-0.026254,0.987789,0.000000,-0.155799
-0.129931,-0.191112,0.107300,-0.771060,0.000000,0.636763
-0.109896,-0.086318,0.394449,0.000000,0.000000,1.000000
-0.128846,-0.446568,0.108600,-0.764625,0.000000,0.644475
0.158850,0.029115,0.394449,0.000000,0.000000,1.000000
-0.151611,-0.498361,0.042697,-0.893712,0.371391,0.251689
-0.102067,-0.519728,-0.065917,-0.779961,0.371391,-0.503717
0.160849,-0.119731,-0.050228,0.954542,0.000000,-0.298075
0.167452,-0.250457,-0.018847,0.993726,0.000000,-0.111844
0.053312,-0.086588,-0.169140,0.000000,-1.000000,0.000000
-0.134964,-0.312190,0.100896,-0.800931,0.000000,0.598756
0.034155,-0.493573,0.162015,0.191527,0.371391,0.908508
-0.148436,-0.096993,-0.079763,-0.880878,0.000000,-0.473343
0.012363,-0.211462,0.168055,0.073366,0.000000,0.997305
0.135571,-0.510527,0.019781,0.918748,0.371391,0.134053
-0.068728,-0.149750,-0.153856,-0.407861,0.000000,-0.913044
-0.009820,-0.353787,-0.168223,-0.058275,0.000000,-0.998301
0.010472,-0.106988,-0.168183,0.062143,0.000000,-0.998067
-0.168475,-0.460737,0.003403,-0.999796,0.000000,0.020193
-0.154155,-0.209038,0.068055,-0.914819,0.000000,0.403864
-0.005217,-0.561021,0.051657,-0.093291,0.371391,0.923778
-0.325333,-0.086588,0.009742,0.000000,-1.000000,0.000000
-0.101437,-0.485200,0.134558,-0.601965,0.000000,0.798522
0.010458,0.014308,-0.394449,-0.000000,0.000000,-1.000000
-0.010783,0.086588,-0.013668,0.000000,1.000000,0.000000
0.202096,-0.013362,-0.394449,-0.000000,0.000000,-1.000000
-0.453108,0.010642,-0.004093,-0.866025,0.000000,-0.500000
0.138897,-0.386860,-0.095410,0.824268,0.000000,-0.566201
0.373856,-0.086588,0.086668,0.000000,-1.000000,0.000000
-0.054830,0.086588,-0.389060,0.000000,1.000000,0.000000
-0.016911,-0.086588,0.020451,0.000000,-1.000000,0.000000
0.142095,-0.506722,0.019445,0.919903,0.371391,0.125885
0.416299,-0.044475,0.067847,0.866025,0.000000,0.500000
0.136598,-0.134179,-0.098673,0.810626,0.000000,-0.585564
-0.029663,-0.180740,-0.165878,-0.176033,0.000000,-0.984384
0.225091,-0.058626,0.394449,0.000000,0.000000,1.000000
0.188866,-0.084870,0.394449,0.000000,0.000000,1.000000
-0.414756,0.025680,0.070520,-0.866025,0.000000,0.500000
0.156834,-0.324088,-0.061633,0.930712,0.000000,-0.365752
-0.396207,-0.064284,0.102648,-0.866025,0.000000,0.500000
0.072988,-0.530217,-0.073843,0.652700,0.371391,-0.660342
0.016881,-0.086588,-0.004513,0.000000,-1.000000,0.000000
-0.131353,-0.512925,-0.020652,-0.917209,0.371391,-0.144210
0.068550,-0.349632,-0.153936,0.406803,0.000000,-0.913516
-0.241574,0.026796,0.370479,-0.866025,0.000000,0.500000
0.166813,-0.459053,0.023848,0.989935,0.000000,0.141521
0.430782,-0.053323,-0.042761,0.866025,0.000000,-0.500000
-0.104766,-0.529638,-0.002822,-0.928140,0.371391,-0.025001
0.143423,-0.239718,0.088460,0.851129,0.000000,0.524956
0.130001,-0.256945,0.107215,0.771476,0.000000,0.636259
0.128496,-0.499221,-0.088561,0.764491,0.371391,-0.526899
-0.243886,0.053098,0.366475,-0.866025,0.000000,0.500000
-0.158014,-0.051290,-0.394449,-0.000000,0.000000,-1.000000
-0.009868,-0.269361,-0.168220,-0.058560,0.000000,-0.998284
-0.074336,-0.108187,-0.151227,-0.441137,0.000000,-0.897440
0.167664,-0.467014,0.016851,0.994987,0.000000,0.100003
0.129674,-0.027769,0.394449,0.000000,0.000000,1.000000
0.000557,-0.180359,-0.168508,0.003304,0.000000,-0.999995
0.045970,-0.399942,0.162118,0.272803,0.000000,0.962070
0.167996,-0.307372,-0.013139,0.996956,0.000000,-0.077970
0.008926,0.086588,-0.271412,0.000000,1.000000,0.000000
-0.117108,-0.323954,0.121166,-0.694963,0.000000,0.719046
-0.385126,-0.084187,-0.121841,-0.866025,0.000000,-0.500000
-0.013396,-0.146992,-0.167976,-0.079494,0.000000,-0.996835
-0.052524,-0.368875,-0.160114,-0.311700,0.000000,-0.950180
-0.112039,-0.332988,0.125868,-0.664881,0.000000,0.746949
0.028009,-0.086588,-0.002138,0.000000,-1.000000,0.000000
-0.071419,-0.128283,-0.152626,-0.423829,0.000000,-0.905742
-0.151276,-0.429883,-0.074236,-0.897730,0.000000,-0.440547
0.274989,0.022491,-0.312603,0.866025,0.000000,-0.500000
-0.140952,-0.116539,-0.092347,-0.836464,0.000000,-0.548021
0.269381,0.000688,0.322316,0.866025,0.000000,0.500000
-0.161359,-0.361118,0.048567,-0.957565,0.000000,0.288216
0.070829,-0.075273,0.394449,0.000000,0.000000,1.000000
-0.051006,-0.138489,-0.160604,-0.302687,0.000000,-0.953090
-0.340883,0.017967,-0.198472,-0.866025,0.000000,-0.500000
-0.324245,0.051223,0.227289,-0.866025,0.000000,0.500000
0.139748,-0.099574,-0.094159,0.829319,0.000000,-0.558776
0.251039,0.014781,-0.354086,0.866025,0.000000,-0.500000
-0.317239,0.055002,0.239424,-0.866025,0.000000,0.500000
0.168433,-0.378582,0.005055,0.999550,0.000000,0.029997
-0.168484,-0.469730,0.002898,-0.999852,0.000000,0.017197
-0.055253,-0.504290,-0.136778,-0.347766,0.371391,-0.860888
0.008805,-0.426089,0.168279,0.052250,0.000000,0.998634
0.156072,-0.368616,0.063536,0.926194,0.000000,0.377048
-0.104035,-0.387240,-0.132560,-0.617383,0.000000,-0.786663
-0.312440,0.053072,-0.247736,-0.866025,0.000000,-0.500000
0.139721,0.062115,-0.394449,-0.000000,0.000000,-1.000000
0.168462,-0.130098,-0.004003,0.999718,0.000000,-0.023756
0.103850,-0.248057,0.132705,0.616285,0.000000,0.787523
0.135243,-0.171451,-0.100522,0.802587,0.000000,-0.596535
-0.446665,0.085951,-0.015251,-0.866025,0.000000,-0.500000
0.282277,-0.035576,0.299979,0.866025,0.000000,0.500000
0.022034,-0.086588,-0.022243,0.000000,-1.000000,0.000000
0.032260,-0.256321,-0.165392,0.191444,0.000000,-0.981504
0.002331,0.086588,-0.001920,0.000000,1.000000,0.000000
0.167220,-0.094821,0.020808,0.992347,0.000000,0.123481
0.119453,-0.518826,0.029420,0.901537,0.371391,0.222037
-0.399062,0.083828,-0.097702,-0.866025,0.000000,-0.500000
0.452654,-0.085057,-0.004879,0.866025,0.000000,-0.500000
-0.030623,-0.325187,-0.165703,-0.181731,0.000000,-0.983348
0.123091,-0.218269,0.115083,0.730468,0.000000,0.682947
-0.083474,-0.429792,0.146381,-0.495365,0.000000,0.868685
-0.428393,0.077597,0.046900,-0.866025,0.000000,0.500000
-0.012771,-0.237250,-0.168024,-0.075790,0.000000,-0.997124
0.180080,0.011502,-0.394449,-0.000000,0.000000,-1.000000
0.156617,-0.268943,-0.062181,0.929426,0.000000,-0.369008
0.001282,0.086588,0.041987,0.000000,1.000000,0.000000
0.093392,-0.000093,-0.394449,-0.000000,0.000000,-1.000000
-0.083815,-0.298974,0.146186,-0.497393,0.000000,0.867525
-0.023293,0.086588,-0.247236,0.000000,1.000000,0.000000
0.233004,-0.052514,0.385323,0.866025,0.000000,0.500000
0.138916,-0.086588,0.037274,0.000000,-1.000000,0.000000
-0.375433,0.044762,0.138628,-0.866025,0.000000,0.500000
0.096023,-0.526968,0.052217,0.815673,0.371391,0.443560
-0.118402,-0.511601,0.065264,-0.813131,0.371391,0.448203
-0.036797,0.086588,0.039787,0.000000,1.000000,0.000000
0.132867,-0.096544,0.103642,0.788485,0.000000,0.615054
-0.107216,0.014076,0.394449,0.000000,0.000000,1.000000
-0.398561,-0.069099,-0.098571,-0.866025,0.000000,-0.500000
0.024051,-0.538697,-0.086248,0.249403,0.371391,-0.894353
-0.398894,-0.066337,-0.097994,-0.866025,0.000000,-0.500000
-0.291856,-0.076044,-0.283388,-0.866025,0.000000,-0.500000
-0.168270,-0.142615,-0.008977,-0.998580,0.000000,-0.053271
0.028339,-0.570999,-0.020720,0.749503,0.371391,-0.548009
0.168286,-0.237294,-0.008672,0.998675,0.000000,-0.051465
0.011314,0.054914,-0.394449,-0.000000,0.000000,-1.000000
0.127168,-0.484846,0.110560,0.754668,0.000000,0.656107
0.163667,-0.334807,-0.040106,0.971264,0.000000,-0.238006
-0.124767,-0.086588,-0.315211,0.000000,-1.000000,0.000000
0.160307,-0.195326,0.051934,0.951323,0.000000,0.308196
-0.108620,-0.001310,0.394449,0.000000,0.000000,1.000000
0.309787,-0.013100,0.252332,0.866025,0.000000,0.500000
-0.096885,-0.145055,-0.137872,-0.574952,0.000000,-0.818187
0.158019,-0.338168,0.058527,0.937746,0.000000,0.347322
0.419433,-0.084494,0.062419,0.866025,0.000000,0.500000
-0.079843,-0.070271,0.394449,0.000000,0.000000,1.000000
0.287094,-0.054772,0.291637,0.866025,0.000000,0.500000
0.168260,-0.116909,0.009161,0.998521,0.000000,0.054366
0.382432,-0.068259,-0.126507,0.866025,0.000000,-0.500000
0.069563,-0.117681,-0.153481,0.412816,0.000000,-0.910814
0.157766,-0.248539,0.059205,0.936246,0.000000,0.351345
-0.159047,-0.311917,0.055671,-0.943851,0.000000,0.330372
0.163536,-0.094464,0.040636,0.970488,0.000000,0.241151
0.369459,-0.016336,-0.148977,0.866025,0.000000,-0.500000
-0.335386,0.007564,0.207993,-0.866025,0.000000,0.500000
0.159866,-0.496515,0.015534,0.924125,0.371391,0.089793
-0.118175,-0.178228,0.120125,-0.701298,0.000000,0.712868
0.143414,-0.089555,-0.088475,0.851075,0.000000,-0.525044
-0.000055,-0.086588,-0.393191,0.000000,-1.000000,0.000000
0.164051,-0.143599,0.038505,0.973544,0.000000,0.228501
-0.168255,-0.131570,-0.009253,-0.998491,0.000000,-0.054913
0.166526,-0.390831,-0.025779,0.988228,0.000000,-0.152986
0.026110,0.086588,0.247036,0.000000,1.000000,0.000000
0.137990,-0.255021,0.096716,0.818888,0.000000,0.573954
-0.045931,-0.086588,0.000420,0.000000,-1.000000,0.000000
0.126849,-0.318985,-0.110926,0.752773,0.000000,-0.658280
0.036124,-0.513788,0.126452,0.255037,0.371391,0.892763
0.014362,-0.569172,0.035382,0.349208,0.371391,0.860304
-0.400905,-0.048414,0.094510,-0.866025,0.000000,0.500000
-0.147387,-0.494830,-0.070681,-0.837187,0.371391,-0.401480
-0.027956,-0.526979,0.105647,-0.237515,0.371391,0.897583
0.161870,-0.215935,-0.046834,0.960601,0.000000,-0.277931
0.073176,-0.534487,-0.063110,0.703112,0.371391,-0.606384
-0.005491,-0.051892,0.394449,0.000000,0.000000,1.000000
-0.367549,0.036113,0.152284,-0.866025,0.000000,0.500000
0.090181,0.086588,-0.070944,0.000000,1.000000,0.000000
0.160103,-0.177934,-0.052559,0.950113,0.000000,-0.311906
-0.009992,-0.379347,-0.168213,-0.059296,0.000000,-0.998240
-0.250191,-0.011283,0.355555,-0.866025,0.000000,0.500000
-0.111214,-0.164372,0.126597,-0.659986,0.000000,0.751278
-0.136326,-0.222698,-0.099048,-0.809012,0.000000,-0.587791
0.147274,-0.086588,0.099654,0.000000,-1.000000,0.000000
-0.249242,-0.086588,0.001934,0.000000,-1.000000,0.000000
0.013190,-0.519665,0.120891,0.100705,0.371391,0.922999
0.133848,-0.307324,-0.102373,0.794305,0.000000,-0.607520
0.004175,-0.305178,-0.168457,0.024776,0.000000,-0.999693
0.145751,-0.086588,-0.029327,0.000000,-1.000000,0.000000
0.291099,-0.059815,-0.284700,0.866025,0.000000,-0.500000
-0.404672,-0.063962,0.087986,-0.866025,0.000000,0.500000
-0.370897,0.036352,0.146485,-0.866025,0.000000,0.500000
0.203423,0.000357,-0.394449,-0.000000,0.000000,-1.000000
0.135480,-0.117523,0.100203,0.803989,0.000000,0.594644
0.067475,-0.402875,0.154410,0.400423,0.000000,0.916331
-0.168271,-0.177018,0.008949,-0.998589,0.000000,0.053107
0.277274,-0.016644,-0.308646,0.866025,0.000000,-0.500000
0.375564,-0.060408,0.138403,0.866025,0.000000,0.500000
0.012756,-0.197465,0.168026,0.075702,0.000000,0.997131
-0.434649,-0.035922,-0.036063,-0.866025,0.000000,-0.500000
-0.334498,0.039870,-0.209531,-0.866025,0.000000,-0.500000
-0.167869,-0.100125,-0.014672,-0.996202,0.000000,-0.087071
-0.067764,-0.541451,-0.051143,-0.741096,0.371391,-0.559325
-0.014167,-0.070752,0.394449,0.000000,0.000000,1.000000
-0.069734,-0.390577,0.153403,-0.413829,0.000000,0.910355
0.162816,-0.259810,-0.043433,0.966212,0.000000,-0.257748
0.089240,-0.467736,-0.142939,0.529584,0.000000,-0.848257
0.004676,-0.529241,-0.105368,0.041162,0.371391,-0.927564
-0.116645,0.086588,0.043196,0.000000,1.000000,0.000000
-0.205847,-0.086588,-0.183436,0.000000,-1.000000,0.000000
-0.446807,0.072990,0.015006,-0.866025,0.000000,0.500000
-0.013086,-0.525722,-0.110631,-0.109067,0.371391,-0.922048
0.020625,-0.558612,0.052041,0.342088,0.371391,0.863160
0.243930,-0.011568,-0.366398,0.866025,0.000000,-0.500000
0.037508,-0.424583,0.164282,0.222589,0.000000,0.974912
0.020462,-0.555301,0.058058,0.308626,0.371391,0.875682
0.377212,0.025542,0.135548,0.866025,0.000000,0.500000
-0.072645,-0.286173,-0.152046,-0.431102,0.000000,-0.902303
0.099931,-0.528932,0.035331,0.875376,0.371391,0.309493
-0.240106,0.069289,0.373022,-0.866025,0.000000,0.500000
0.109657,-0.235090,0.127948,0.650750,0.000000,0.759292
0.134454,-0.511907,0.007829,0.926907,0.371391,0.053969
-0.272301,0.040727,-0.317260,-0.866025,0.000000,-0.500000
0.370570,-0.022767,0.147052,0.866025,0.000000,0.500000
-0.032031,-0.223118,0.165437,-0.190087,0.000000,0.981767
-0.055931,-0.554701,-0.028048,-0.829966,0.371391,-0.416204
-0.048334,-0.556609,-0.034450,-0.756081,0.371391,-0.538898
0.352573,-0.039755,-0.178224,0.866025,0.000000,-0.500000
-0.143244,-0.166701,-0.088750,-0.850065,0.000000,-0.526678
-0.341600,-0.083244,0.197229,-0.866025,0.000000,0.500000
-0.242255,-0.070608,0.369300,-0.866025,0.000000,0.500000
0.096325,-0.196504,-0.138264,0.571629,0.000000,-0.820512
-0.168373,-0.388869,-0.006760,-0.999195,0.000000,-0.040119
0.152461,-0.071978,0.394449,0.000000,0.000000,1.000000
0.173446,0.086588,0.334843,0.000000,1.000000,0.000000
0.028265,-0.086588,-0.126615,0.000000,-1.000000,0.000000
0.170911,-0.024627,0.394449,0.000000,0.000000,1.000000
0.049579,-0.556627,0.032577,0.775964,0.371391,0.509852
-0.168390,-0.367750,0.006347,-0.999290,0.000000,0.037664
0.434453,-0.081623,0.036404,0.866025,0.000000,0.500000
0.003612,-0.528048,0.107421,0.031205,0.371391,0.927952
-0.192503,0.068903,0.394449,0.000000,0.000000,1.000000
-0.001577,0.086588,-0.001026,0.000000,1.000000,0.000000
-0.025197,-0.180851,-0.166615,-0.149530,0.000000,-0.988757
0.238946,0.070882,0.375031,0.866025,0.000000,0.500000
-0.044134,-0.563957,-0.016083,-0.872355,0.371391,-0.317909
-0.131139,-0.444452,-0.105820,-0.778230,0.000000,-0.627979
-0.455294,0.046152,0.000305,-0.866025,0.000000,0.500000
-0.117216,-0.362461,-0.121061,-0.695606,0.000000,-0.718424
0.074786,-0.539998,0.045126,0.794966,0.371391,0.479685
-0.159754,-0.312271,-0.053609,-0.948044,0.000000,-0.318139
-0.371958,-0.065471,-0.144649,-0.866025,0.000000,-0.500000
-0.106728,0.086588,0.029036,0.000000,1.000000,0.000000
0.371966,0.006260,-0.144633,0.866025,0.000000,-0.500000
0.103933,-0.308307,0.132640,0.616778,0.000000,0.787137
0.441605,0.031701,0.024017,0.866025,0.000000,0.500000
0.163853,-0.181279,-0.039338,0.972369,0.000000,-0.233449
-0.393122,0.023158,0.107991,-0.866025,0.000000,0.500000
-0.358543,0.017927,-0.167884,-0.866025,0.000000,-0.500000
0.147810,-0.218729,0.080917,0.877161,0.000000,0.480196
0.141398,-0.250343,-0.091662,0.839113,0.000000,-0.543957
-0.213431,-0.086588,0.191500,0.000000,-1.000000,0.000000
-0.143682,-0.482157,-0.088039,-0.852665,0.000000,-0.522459
0.371154,-0.003962,0.146041,0.866025,0.000000,0.500000
0.230377,0.086588,-0.245256,0.000000,1.000000,0.000000
-0.330488,0.060296,0.216476,-0.866025,0.000000,0.500000
0.132203,-0.167921,-0.104487,0.784548,0.000000,-0.620069
0.065205,-0.548222,-0.033892,0.823837,0.371391,-0.428207
0.140832,-0.328490,-0.092529,0.835756,0.000000,-0.549102
-0.090737,-0.175027,0.141993,-0.538472,0.000000,0.842644
0.120691,-0.498580,0.100629,0.713120,0.371391,0.594582
0.137741,-0.222817,-0.097071,0.817407,0.000000,-0.576061
-0.020085,-0.048710,-0.394449,-0.000000,0.000000,-1.000000
0.325420,0.031242,0.225254,0.866025,0.000000,0.500000
-0.230690,0.026794,-0.389332,-0.866025,0.000000,-0.500000
0.167917,-0.319995,-0.014112,0.996487,0.000000,-0.083744
-0.391443,0.007981,-0.110899,-0.866025,0.000000,-0.500000
0.382609,-0.033895,-0.126201,0.866025,0.000000,-0.500000
0.091638,-0.416436,0.141413,0.543817,0.000000,0.839204
-0.142191,-0.173503,0.090427,-0.843816,0.000000,0.536632
0.137455,0.086588,-0.011678,0.000000,1.000000,0.000000
0.316511,0.021085,-0.240684,0.866025,0.000000,-0.500000
-0.375324,0.082406,-0.138818,-0.866025,0.000000,-0.500000
-0.107549,-0.176303,-0.129725,-0.638241,0.000000,-0.769837
-0.360352,-0.068185,-0.164750,-0.866025,0.000000,-0.500000
-0.001481,-0.540276,0.086864,-0.015825,0.371391,0.928342
0.452765,0.036242,0.004687,0.866025,0.000000,0.500000
-0.150598,-0.502461,-0.000257,-0.928475,0.371391,-0.001586
-0.177599,0.015201,-0.394449,-0.000000,0.000000,-1.000000
-0.162635,-0.473408,-0.044105,-0.965140,0.000000,-0.261735
0.214886,0.033108,-0.394449,-0.000000,0.000000,-1.000000
-0.103618,-0.475751,-0.132886,-0.614909,0.000000,-0.788598
0.039125,0.086588,0.033175,0.000000,1.000000,0.000000
0.260472,-0.086588,0.253916,0.000000,-1.000000,0.000000
-0.236662,-0.021107,-0.378989,-0.866025,0.000000,-0.500000
-0.051586,-0.114290,0.160419,-0.306134,0.000000,0.951988
0.164105,-0.296906,0.038272,0.973866,0.000000,0.227124
0.065551,-0.224625,-0.155237,0.389004,0.000000,-0.921236
-0.000550,-0.563136,-0.048353,-0.010567,0.371391,-0.928417
0.102134,-0.419147,0.134030,0.606102,0.000000,0.795387
-0.052951,-0.152398,0.159974,-0.314230,0.000000,0.949347
-0.306255,0.061777,-0.258449,-0.866025,0.000000,-0.500000
0.167207,-0.144968,-0.020909,0.992272,0.000000,-0.124080
-0.013015,-0.481725,-0.168006,-0.077235,0.000000,-0.997013
0.419255,0.074111,0.062727,0.866025,0.000000,0.500000
0.051823,-0.432680,0.160342,0.307539,0.000000,0.951536
-0.382904,-0.067075,0.125689,-0.866025,0.000000,0.500000
-0.168502,-0.107075,0.001595,-0.999955,0.000000,0.009463
0.247012,-0.012553,0.361061,0.866025,0.000000,0.500000
-0.231543,-0.042320,-0.387854,-0.866025,0.000000,-0.500000
0.385886,-0.050387,-0.120524,0.866025,0.000000,-0.500000
-0.154359,-0.428769,0.067592,-0.916026,0.000000,0.401119
0.098142,-0.441310,0.136980,0.582414,0.000000,0.812892
-0.108381,-0.381447,0.129030,-0.643179,0.000000,0.765716
-0.083382,-0.539691,0.027701,-0.881126,0.371391,0.292723
-0.006164,-0.537826,-0.090797,-0.062886,0.371391,-0.926345
-0.083253,-0.511502,0.106736,-0.571037,0.371391,0.732111
-0.420218,0.049810,0.061060,-0.866025,0.000000,0.500000
-0.306906,-0.026405,0.257322,-0.866025,0.000000,0.500000
-0.137948,-0.178648,0.096777,-0.818636,0.000000,0.574312
-0.018787,-0.569270,0.033054,-0.458788,0.371391,0.807207
-0.045171,-0.081506,0.394449,0.000000,0.000000,1.000000
0.154069,-0.431651,0.068249,0.914309,0.000000,0.405017
-0.335392,-0.040464,0.207982,-0.866025,0.000000,0.500000
0.342992,0.086588,-0.024248,0.000000,1.000000,0.000000
-0.367944,0.044744,0.151600,-0.866025,0.000000,0.500000
0.370647,-0.071740,0.146918,0.866025,0.000000,0.500000
-0.331243,0.003461,0.215168,-0.866025,0.000000,0.500000
0.161846,-0.162850,0.046917,0.960458,0.000000,0.278424
0.087743,-0.492364,0.142813,0.486041,0.371391,0.791096
0.154825,-0.489222,-0.066517,0.918792,0.000000,-0.394741
0.045381,-0.537549,-0.079421,0.460633,0.371391,-0.806155
0.021393,-0.086588,-0.105058,0.000000,-1.000000,0.000000
-0.313084,0.039334,0.246621,-0.866025,0.000000,0.500000
0.406827,0.067224,0.084253,0.866025,0.000000,0.500000
-0.069646,-0.533882,0.068449,-0.662198,0.371391,0.650817
0.071236,-0.531940,0.071491,0.655361,0.371391,0.657701
0.422239,-0.067317,0.057559,0.866025,0.000000,0.500000
-0.285876,-0.030462,-0.293747,-0.866025,0.000000,-0.500000
-0.206416,0.021514,0.394449,0.000000,0.000000,1.000000
-0.164123,-0.205344,0.038198,-0.973968,0.000000,0.226684
-0.081243,-0.389327,-0.147631,-0.482128,0.000000,-0.876101
-0.118567,-0.489763,0.119738,-0.703625,0.000000,0.710571
0.163946,-0.494327,0.010860,0.926446,0.371391,0.061368
-0.001890,-0.068453,-0.394449,-0.000000,0.000000,-1.000000
0.065205,-0.396984,-0.155382,0.386950,0.000000,-0.922101
-0.240283,0.031937,-0.372716,-0.866025,0.000000,-0.500000
0.445485,0.071741,0.017295,0.866025,0.000000,0.500000
-0.035288,-0.565327,-0.027378,-0.733580,0.371391,-0.569148
0.307223,-0.086588,0.178147,0.000000,-1.000000,0.000000
0.071407,-0.190994,0.152632,0.423757,0.000000,0.905776
-0.427354,0.042473,0.048699,-0.866025,0.000000,0.500000
-0.016352,0.086588,0.047720,0.000000,1.000000,0.000000
0.139057,-0.232520,0.095176,0.825221,0.000000,0.564809
-0.292359,-0.057650,-0.282517,-0.866025,0.000000,-0.500000
0.091796,-0.086588,0.024562,0.000000,-1.000000,0.000000
-0.171495,0.086588,-0.245020,0.000000,1.000000,0.000000
0.429500,-0.006527,0.044982,0.866025,0.000000,0.500000
0.053095,-0.496262,-0.152040,0.306113,0.371391,-0.876564
0.025969,-0.468369,0.166496,0.154108,0.000000,0.988054
-0.162566,-0.139488,-0.044356,-0.964734,0.000000,-0.263227
-0.210222,0.005282,-0.394449,-0.000000,0.000000,-1.000000
-0.034072,-0.560670,-0.039958,-0.602435,0.371391,-0.706499
0.258164,0.086588,0.025801,0.000000,1.000000,0.000000
-0.094486,-0.521048,0.072800,-0.735485,0.371391,0.566684
-0.069518,-0.524407,0.089868,-0.568100,0.371391,0.734392
0.003512,-0.535586,0.094714,0.034406,0.371391,0.927839
0.233319,0.014810,0.384777,0.866025,0.000000,0.500000
0.103068,-0.196397,0.133313,0.611647,0.000000,0.791131
0.399495,-0.059966,-0.096953,0.866025,0.000000,-0.500000
0.400344,0.071437,0.095482,0.866025,0.000000,0.500000
0.178099,0.070561,0.394449,0.000000,0.000000,1.000000
0.094319,-0.418803,0.139640,0.559725,0.000000,0.828679
0.062774,-0.138380,-0.156380,0.372525,0.000000,-0.928022
-0.112406,-0.252627,0.125539,-0.667064,0.000000,0.745001
-0.299914,0.011762,-0.269432,-0.866025,0.000000,-0.500000
0.024899,0.015346,0.394449,0.000000,0.000000,1.000000
0.399657,-0.027582,-0.096671,0.866025,0.000000,-0.500000
-0.145345,-0.221065,0.085265,-0.862537,0.000000,0.505995
-0.061100,0.050711,-0.394449,-0.000000,0.000000,-1.000000
-0.168265,-0.328235,0.009062,-0.998553,0.000000,0.053777
-0.008907,-0.534605,-0.096021,-0.085759,0.371391,-0.924508
-0.412126,-0.004099,-0.075074,-0.866025,0.000000,-0.500000
-0.314761,-0.014822,-0.243716,-0.866025,0.000000,-0.500000
-0.244186,0.073472,-0.365955,-0.866025,0.000000,-0.500000
0.156551,-0.337767,0.062348,0.929034,0.000000,0.369996
0.080668,-0.535152,0.051138,0.784181,0.371391,0.497121
0.312326,0.041211,0.247934,0.866025,0.000000,0.500000
-0.095345,-0.235293,0.138941,-0.565817,0.000000,0.824531
0.047124,-0.413410,-0.161786,0.279653,0.000000,-0.960101
-0.443238,0.043970,-0.021187,-0.866025,0.000000,-0.500000
-0.038189,-0.314451,0.164125,-0.226630,0.000000,0.973981
-0.085943,-0.512832,0.101663,-0.599421,0.371391,0.709058
0.149506,-0.007245,-0.394449,-0.000000,0.000000,-1.000000
0.117120,-0.207289,0.121154,0.695035,0.000000,0.718976
0.001137,-0.086588,-0.019177,0.000000,-1.000000,0.000000
0.114605,-0.094163,-0.123536,0.680110,0.000000,-0.733110
0.265056,0.071200,0.329807,0.866025,0.000000,0.500000
0.205576,0.041247,0.394449,0.000000,0.000000,1.000000
-0.002469,-0.568282,0.039607,-0.057775,0.371391,0.926677
-0.167756,0.060674,-0.394449,-0.000000,0.000000,-1.000000
0.132059,-0.102768,-0.104669,0.783693,0.000000,-0.621148
0.071540,0.033573,0.394449,0.000000,0.000000,1.000000
0.040890,-0.334477,-0.163473,0.242655,0.000000,-0.970113
-0.094607,0.023582,0.394449,0.000000,0.000000,1.000000
0.138941,-0.399072,0.095346,0.824528,0.000000,0.565821
-0.180861,-0.086588,-0.268292,0.000000,-1.000000,0.000000
0.126799,0.084808,0.394449,0.000000,0.000000,1.000000
0.061466,-0.220340,-0.156899,0.364761,0.000000,-0.931101
-0.221829,-0.074357,-0.394449,-0.000000,0.000000,-1.000000
0.157110,-0.051293,-0.394449,-0.000000,0.000000,-1.000000
-0.162965,-0.061321,-0.394449,-0.000000,0.000000,-1.000000
0.048172,-0.444980,-0.161477,0.285873,0.000000,-0.958268
0.157268,-0.179352,-0.060517,0.933288,0.000000,-0.359129
0.018679,0.055482,0.394449,0.000000,0.000000,1.000000
-0.142405,0.021730,0.394449,0.000000,0.000000,1.000000
-0.043300,-0.086588,0.008458,0.000000,-1.000000,0.000000
0.360567,-0.067176,0.164378,0.866025,0.000000,0.500000
-0.029132,-0.110971,-0.165972,-0.172881,0.000000,-0.984943
-0.050307,-0.123794,-0.160825,-0.298542,0.000000,-0.954397
0.151006,-0.484995,-0.074783,0.896129,0.000000,-0.443793
-0.258640,-0.071557,0.340921,-0.866025,0.000000,0.500000
0.303083,0.086588,-0.123749,0.000000,1.000000,0.000000
0.139870,0.049131,-0.394449,-0.000000,0.000000,-1.000000
0.007897,-0.542136,0.083370,0.087556,0.371391,0.924339
0.114130,-0.367449,0.123975,0.677291,0.000000,0.735715
0.335193,0.017985,-0.208327,0.866025,0.000000,-0.500000
-0.096910,-0.346647,0.137854,-0.575103,0.000000,0.818081
0.126904,-0.454571,0.110863,0.753099,0.000000,0.657907
0.276121,-0.001833,0.310642,0.866025,0.000000,0.500000
-0.184326,0.051843,-0.394449,-0.000000,0.000000,-1.000000
0.411856,0.004766,-0.075544,0.866025,0.000000,-0.500000
0.080291,-0.086588,0.065188,0.000000,-1.000000,0.000000
0.454207,-0.014100,-0.002188,0.866025,0.000000,-0.500000
-0.046073,-0.401786,-0.162088,-0.273414,0.000000,-0.961896
-0.106385,-0.086588,0.151745,0.000000,-1.000000,0.000000
0.132016,-0.391260,0.104723,0.783438,0.000000,0.621470
0.151283,-0.182099,-0.074220,0.897776,0.000000,-0.440453
0.148079,-0.347001,0.080424,0.878759,0.000000,0.477266
0.442141,0.025268,0.023087,0.866025,0.000000,0.500000
-0.318705,-0.035556,-0.236885,-0.866025,0.000000,-0.500000
0.040325,-0.086588,0.021031,0.000000,-1.000000,0.000000
0.126008,-0.287898,-0.111880,0.747784,0.000000,-0.663943
0.053664,-0.504726,0.136621,0.339454,0.371391,0.864199
-0.158689,-0.240236,0.056684,-0.941724,0.000000,0.336387
-0.031480,-0.568741,0.022870,-0.751170,0.371391,0.545722
0.153303,0.033169,-0.394449,-0.000000,0.000000,-1.000000
-0.430378,-0.022313,-0.043462,-0.866025,0.000000,-0.500000
-0.141976,-0.403962,0.090764,-0.842544,0.000000,0.538627
-0.101888,-0.497025,0.123052,-0.592147,0.371391,0.715144
