x,y,z,nx,ny,nz
-0.126029,0.021582,0.080328,0.000000,1.000000,0.000000
0.322032,0.021582,-0.169300,0.000000,1.000000,0.000000
-0.179157,-0.021582,0.001490,0.000000,-1.000000,0.000000
-0.252433,0.021582,0.047638,0.000000,1.000000,0.000000
-0.092958,0.021582,-0.131554,0.000000,1.000000,0.000000
0.192652,0.021582,0.002457,0.000000,1.000000,0.000000
-0.090547,0.021582,-0.108331,0.000000,1.000000,0.000000
-0.385758,0.000811,-0.140598,-0.939541,0.000000,-0.342436
-0.099767,-0.021582,0.286036,0.000000,-1.000000,0.000000
0.382031,0.021582,-0.101229,0.000000,1.000000,0.000000
0.031625,0.021582,0.228992,0.000000,1.000000,0.000000
-0.196545,-0.021582,0.035078,0.000000,-1.000000,0.000000
0.190452,-0.021582,-0.212554,0.000000,-1.000000,0.000000
0.065392,0.021582,0.125263,0.000000,1.000000,0.000000
0.232145,-0.021582,0.129280,0.000000,-1.000000,0.000000
0.251219,-0.021582,-0.096985,0.000000,-1.000000,0.000000
0.197351,-0.021582,-0.196449,0.000000,-1.000000,0.000000
-0.154701,-0.021582,-0.351899,0.000000,-1.000000,0.000000
-0.400565,-0.002577,0.090139,-0.975603,0.000000,0.219541
-0.202692,0.021582,0.068280,0.000000,1.000000,0.000000
-0.325643,0.010522,0.250068,-0.793126,0.000000,0.609058
0.209942,-0.021582,-0.155363,0.000000,-1.000000,0.000000
0.165697,0.021582,-0.239688,0.000000,1.000000,0.000000
-0.269076,0.021582,0.275900,0.000000,1.000000,0.000000
-0.329837,0.021582,0.130040,0.000000,1.000000,0.000000
-0.142324,-0.021582,0.243289,0.000000,-1.000000,0.000000
0.159198,-0.021582,0.024998,0.000000,-1.000000,0.000000
0.065627,-0.021582,0.135157,0.000000,-1.000000,0.000000
0.110421,0.021582,-0.218537,0.000000,1.000000,0.000000
-0.346612,-0.021582,0.085478,0.000000,-1.000000,0.000000
0.226578,0.021582,-0.007562,0.000000,1.000000,0.000000
-0.174267,0.021582,-0.096896,0.000000,1.000000,0.000000
-0.201599,0.021582,0.039972,0.000000,1.000000,0.000000
-0.002742,0.021582,-0.397110,0.000000,1.000000,0.000000
-0.092958,0.021582,-0.131554,0.000000,1.000000,0.000000
-0.381747,0.020361,-0.151149,-0.929773,0.000000,-0.368134
-0.152168,0.021582,-0.278987,0.000000,1.000000,0.000000
-0.331813,-0.021582,-0.064894,0.000000,-1.000000,0.000000
0.285954,-0.021582,-0.253037,0.000000,-1.000000,0.000000
-0.212900,-0.021582,-0.020551,0.000000,-1.000000,0.000000
-0.123715,-0.021582,0.101360,0.000000,-1.000000,0.000000
0.355535,0.021582,-0.025859,0.000000,1.000000,0.000000
-0.075233,-0.021582,0.278439,0.000000,-1.000000,0.000000
0.066027,0.021582,-0.129040,0.000000,1.000000,0.000000
0.094622,-0.021582,-0.122700,0.000000,-1.000000,0.000000
-0.239525,-0.021582,-0.000075,0.000000,-1.000000,0.000000
-0.163255,-0.021582,0.040225,0.000000,-1.000000,0.000000
0.235871,-0.021582,-0.278273,0.000000,-1.000000,0.000000
0.248285,-0.021582,-0.154732,0.000000,-1.000000,0.000000
0.183856,-0.018937,0.367116,0.447794,0.000000,0.894137
-0.390962,-0.021582,0.111241,0.000000,-1.000000,0.000000
0.222462,0.021582,0.241398,0.000000,1.000000,0.000000
0.057124,-0.021582,-0.278137,0.000000,-1.000000,0.000000
0.293547,0.021582,0.139483,0.000000,1.000000,0.000000
0.152003,0.021582,-0.254044,0.000000,1.000000,0.000000
-0.075897,-0.021582,0.128729,0.000000,-1.000000,0.000000
-0.204452,-0.021582,0.053743,0.000000,-1.000000,0.000000
-0.076807,0.021582,-0.163336,0.000000,1.000000,0.000000
0.126493,-0.021582,-0.124051,0.000000,-1.000000,0.000000
-0.397472,0.021582,-0.085401,0.000000,1.000000,0.000000
-0.224625,-0.021582,0.197921,0.000000,-1.000000,0.000000
-0.178859,-0.021582,-0.165275,0.000000,-1.000000,0.000000
0.302669,0.021582,-0.011977,0.000000,1.000000,0.000000
0.165697,0.021582,-0.239688,0.000000,1.000000,0.000000
0.204327,-0.021582,-0.346027,0.000000,-1.000000,0.000000
-0.179157,-0.021582,0.001490,0.000000,-1.000000,0.000000
0.331647,0.021582,0.019166,0.000000,1.000000,0.000000
-0.064846,-0.021582,0.229003,0.000000,-1.000000,0.000000
-0.254625,-0.021582,-0.019182,0.000000,-1.000000,0.000000
0.255117,0.021582,0.011325,0.000000,1.000000,0.000000
-0.312102,0.021582,0.219183,0.000000,1.000000,0.000000
-0.310968,-0.021582,0.085904,0.000000,-1.000000,0.000000
0.180629,0.021582,-0.284746,0.000000,1.000000,0.000000
-0.073219,-0.002221,0.119446,0.522617,0.000000,-0.852568
0.065627,-0.021582,0.135157,0.000000,-1.000000,0.000000
-0.202692,0.021582,0.068280,0.000000,1.000000,0.000000
-0.245775,0.021582,0.217965,0.000000,1.000000,0.000000
0.026274,0.021582,-0.344084,0.000000,1.000000,0.000000
0.087695,-0.021582,-0.167793,0.000000,-1.000000,0.000000
0.030997,0.021582,0.172015,0.000000,1.000000,0.000000
0.095586,0.021582,0.335627,0.000000,1.000000,0.000000
-0.039888,0.021582,-0.210348,0.000000,1.000000,0.000000
0.005063,-0.009522,0.140010,-0.036138,0.000000,-0.999347
-0.145760,-0.021582,0.164710,0.000000,-1.000000,0.000000
0.236887,-0.021582,0.090514,0.000000,-1.000000,0.000000
0.256550,-0.021582,-0.261109,0.000000,-1.000000,0.000000
-0.073709,-0.021582,-0.160621,0.000000,-1.000000,0.000000
0.063511,0.021582,-0.279126,0.000000,1.000000,0.000000
-0.084603,-0.021582,0.126356,0.000000,-1.000000,0.000000
0.092884,0.021582,-0.305235,0.000000,1.000000,0.000000
0.086756,0.021582,-0.385764,0.000000,1.000000,0.000000
-0.254628,-0.021582,-0.167432,0.000000,-1.000000,0.000000
0.259491,0.021582,0.224624,0.000000,1.000000,0.000000
0.226915,-0.021582,-0.314495,0.000000,-1.000000,0.000000
-0.062240,-0.021582,-0.252338,0.000000,-1.000000,0.000000
0.303564,0.021582,-0.205955,0.000000,1.000000,0.000000
0.239823,0.021582,-0.053009,0.000000,1.000000,0.000000
0.276826,0.021582,-0.198793,0.000000,1.000000,0.000000
-0.249164,-0.021582,0.299060,0.000000,-1.000000,0.000000
0.205411,-0.021582,-0.102415,0.000000,-1.000000,0.000000
-0.177541,0.021582,0.342307,0.000000,1.000000,0.000000
0.383529,0.021582,-0.026335,0.000000,1.000000,0.000000
-0.138599,0.021582,-0.113159,0.000000,1.000000,0.000000
0.019721,-0.009453,-0.410108,0.048031,0.000000,-0.998846
-0.390275,-0.013080,-0.127526,-0.950542,0.000000,-0.310597
-0.385140,-0.021582,-0.011410,0.000000,-1.000000,0.000000
-0.341253,-0.021582,0.047618,0.000000,-1.000000,0.000000
-0.143285,0.021582,0.165895,0.000000,1.000000,0.000000
0.142738,0.021582,-0.063949,0.000000,1.000000,0.000000
0.097159,-0.021582,0.114763,0.000000,-1.000000,0.000000
-0.085195,-0.021582,-0.335498,0.000000,-1.000000,0.000000
-0.247275,-0.021582,0.013480,0.000000,-1.000000,0.000000
-0.386406,-0.021582,-0.045164,0.000000,-1.000000,0.000000
0.036065,0.021582,0.192601,0.000000,1.000000,0.000000
-0.160812,-0.021582,-0.293431,0.000000,-1.000000,0.000000
-0.103777,0.003292,0.094121,0.740728,0.000000,-0.671805
0.196326,-0.021582,0.018606,0.000000,-1.000000,0.000000
0.257463,0.021582,-0.004329,0.000000,1.000000,0.000000
-0.385758,0.000811,-0.140598,-0.939541,0.000000,-0.342436
-0.218422,-0.021582,-0.124965,0.000000,-1.000000,0.000000
-0.103777,0.003292,0.094121,0.740728,0.000000,-0.671805
-0.401914,-0.021582,-0.028591,0.000000,-1.000000,0.000000
0.105282,0.021582,0.321502,0.000000,1.000000,0.000000
-0.397472,0.021582,-0.085401,0.000000,1.000000,0.000000
-0.133118,-0.021582,0.057251,0.000000,-1.000000,0.000000
-0.062240,-0.021582,-0.252338,0.000000,-1.000000,0.000000
-0.196938,-0.021582,-0.287156,0.000000,-1.000000,0.000000
-0.113382,0.021582,0.371561,0.000000,1.000000,0.000000
0.063056,0.018796,-0.125109,-0.450074,0.000000,0.892991
0.139944,0.002708,-0.006647,-0.998874,0.000000,0.047442
-0.069753,-0.021582,0.180262,0.000000,-1.000000,0.000000
-0.401914,-0.021582,-0.028591,0.000000,-1.000000,0.000000
-0.101573,-0.021582,0.200628,0.000000,-1.000000,0.000000
0.373434,-0.021582,-0.143525,0.000000,-1.000000,0.000000
-0.043933,0.021582,-0.157242,0.000000,1.000000,0.000000
0.152806,0.021582,0.336698,0.000000,1.000000,0.000000
-0.069277,-0.021582,0.149592,0.000000,-1.000000,0.000000
0.201330,0.021582,0.301438,0.000000,1.000000,0.000000
0.141407,-0.006291,0.385462,0.344408,0.000000,0.938820
-0.373328,0.021582,-0.045257,0.000000,1.000000,0.000000
-0.140015,0.021582,0.153771,0.000000,1.000000,0.000000
-0.201771,-0.021582,-0.086863,0.000000,-1.000000,0.000000
0.030247,0.021582,0.394732,0.000000,1.000000,0.000000
0.091148,-0.000290,0.106398,-0.650587,0.000000,-0.759432
0.149062,0.021582,-0.108469,0.000000,1.000000,0.000000
0.294929,-0.021582,-0.152054,0.000000,-1.000000,0.000000
-0.007851,-0.021582,0.161089,0.000000,-1.000000,0.000000
0.337024,0.021582,-0.121256,0.000000,1.000000,0.000000
0.306277,0.021582,-0.251621,0.000000,1.000000,0.000000
0.033605,0.021582,0.198385,0.000000,1.000000,0.000000
-0.119453,-0.021582,0.247406,0.000000,-1.000000,0.000000
-0.133243,-0.010135,0.043299,0.951045,0.000000,-0.309052
0.166094,-0.021582,0.026299,0.000000,-1.000000,0.000000
0.074398,0.021582,0.169697,0.000000,1.000000,0.000000
0.171193,-0.021582,-0.274680,0.000000,-1.000000,0.000000
0.029371,-0.021582,-0.361118,0.000000,-1.000000,0.000000
0.205068,0.021582,0.097463,0.000000,1.000000,0.000000
-0.017898,-0.021582,0.274984,0.000000,-1.000000,0.000000
-0.135107,0.021582,-0.150187,0.000000,1.000000,0.000000
0.187188,0.021582,-0.178943,0.000000,1.000000,0.000000
0.042157,0.021582,-0.252143,0.000000,1.000000,0.000000
-0.130930,0.021582,0.167967,0.000000,1.000000,0.000000
0.135060,0.021582,0.326850,0.000000,1.000000,0.000000
-0.015231,-0.004156,-0.139271,0.108711,0.000000,0.994073
0.033455,-0.021582,0.311596,0.000000,-1.000000,0.000000
-0.116986,0.003761,-0.077089,0.835007,0.000000,0.550239
0.272218,-0.021582,0.301643,0.000000,-1.000000,0.000000
-0.073173,0.021582,-0.268130,0.000000,1.000000,0.000000
0.075552,0.018711,-0.117984,-0.539267,0.000000,0.842135
0.045553,-0.005927,-0.132489,-0.325141,0.000000,0.945666
0.134072,-0.021582,-0.159270,0.000000,-1.000000,0.000000
-0.394326,-0.004688,0.114387,-0.960408,0.000000,0.278598
0.040888,0.021582,0.154754,0.000000,1.000000,0.000000
-0.201254,-0.021582,-0.246256,0.000000,-1.000000,0.000000
0.312517,-0.021582,0.231607,0.000000,-1.000000,0.000000
0.213009,-0.018718,-0.351005,0.518798,0.000000,-0.854897
-0.191335,0.021582,0.242357,0.000000,1.000000,0.000000
-0.028033,0.021582,-0.146861,0.000000,1.000000,0.000000
-0.103677,-0.021582,-0.153739,0.000000,-1.000000,0.000000
0.015252,-0.021582,0.280566,0.000000,-1.000000,0.000000
-0.129763,-0.021582,0.206453,0.000000,-1.000000,0.000000
0.135079,-0.021582,-0.060005,0.000000,-1.000000,0.000000
0.173055,-0.021582,0.116402,0.000000,-1.000000,0.000000
-0.086516,-0.004093,0.401363,-0.210717,0.000000,0.977547
-0.133479,-0.021582,0.360325,0.000000,-1.000000,0.000000
0.140362,-0.021582,0.103016,0.000000,-1.000000,0.000000
-0.214052,-0.021582,0.114432,0.000000,-1.000000,0.000000
-0.050480,0.021582,0.221550,0.000000,1.000000,0.000000
-0.296743,-0.021582,0.173062,0.000000,-1.000000,0.000000
-0.405928,-0.006884,0.061640,-0.988667,0.000000,0.150128
0.303000,-0.021582,0.108471,0.000000,-1.000000,0.000000
0.199874,0.021582,-0.165491,0.000000,1.000000,0.000000
0.195888,0.021582,-0.213820,0.000000,1.000000,0.000000
-0.208817,-0.021582,0.273380,0.000000,-1.000000,0.000000
-0.184980,-0.021582,0.266429,0.000000,-1.000000,0.000000
-0.095909,-0.016504,-0.102127,0.684566,0.000000,0.728951
0.128503,-0.021582,-0.382775,0.000000,-1.000000,0.000000
-0.219992,-0.021582,0.131065,0.000000,-1.000000,0.000000
-0.083306,-0.021582,0.115024,0.000000,-1.000000,0.000000
-0.346612,-0.021582,0.085478,0.000000,-1.000000,0.000000
-0.275418,-0.021582,0.234785,0.000000,-1.000000,0.000000
-0.099767,-0.021582,0.286036,0.000000,-1.000000,0.000000
-0.256299,0.021582,-0.156901,0.000000,1.000000,0.000000
0.130737,0.021582,-0.163636,0.000000,1.000000,0.000000
0.405755,0.021582,0.051609,0.000000,1.000000,0.000000
0.223944,-0.021582,-0.133880,0.000000,-1.000000,0.000000
0.017666,0.021582,0.252276,0.000000,1.000000,0.000000
0.065041,-0.021582,-0.271882,0.000000,-1.000000,0.000000
0.120514,0.021582,0.384738,0.000000,1.000000,0.000000
-0.189928,0.014987,-0.364012,-0.462582,0.000000,-0.886576
-0.256513,-0.021582,-0.217934,0.000000,-1.000000,0.000000
-0.253801,0.021582,-0.083369,0.000000,1.000000,0.000000
0.089056,0.021582,-0.387037,0.000000,1.000000,0.000000
-0.103013,-0.021582,0.121996,0.000000,-1.000000,0.000000
0.267041,0.021582,0.145522,0.000000,1.000000,0.000000
0.391252,-0.004832,0.124496,0.952921,0.000000,0.303218
0.360934,0.021582,-0.015594,0.000000,1.000000,0.000000
-0.295800,0.021582,0.106105,0.000000,1.000000,0.000000
0.111314,-0.021582,-0.132407,0.000000,-1.000000,0.000000
0.138523,0.014097,-0.020972,-0.988733,0.000000,0.149692
0.033605,0.021582,0.198385,0.000000,1.000000,0.000000
0.102930,-0.021582,0.232064,0.000000,-1.000000,0.000000
-0.108260,-0.021582,-0.270453,0.000000,-1.000000,0.000000
0.117765,-0.021582,-0.308941,0.000000,-1.000000,0.000000
0.038115,0.021582,-0.288354,0.000000,1.000000,0.000000
-0.156256,0.021582,0.039169,0.000000,1.000000,0.000000
-0.075233,-0.021582,0.278439,0.000000,-1.000000,0.000000
-0.196545,-0.021582,0.035078,0.000000,-1.000000,0.000000
-0.140015,0.021582,0.153771,0.000000,1.000000,0.000000
0.113036,0.021582,-0.358312,0.000000,1.000000,0.000000
0.319502,-0.021582,0.080203,0.000000,-1.000000,0.000000
-0.295800,0.021582,0.106105,0.000000,1.000000,0.000000
0.054842,0.021582,-0.384127,0.000000,1.000000,0.000000
-0.291254,0.017021,0.289393,-0.709370,0.000000,0.704836
0.021972,-0.021582,-0.295965,0.000000,-1.000000,0.000000
0.102930,-0.021582,0.232064,0.000000,-1.000000,0.000000
-0.011914,0.021582,0.234855,0.000000,1.000000,0.000000
0.048287,0.021582,0.192716,0.000000,1.000000,0.000000
0.228944,-0.012153,0.340825,0.557610,0.000000,0.830103
0.141555,0.021582,-0.038219,0.000000,1.000000,0.000000
0.221246,0.021582,0.052452,0.000000,1.000000,0.000000
-0.341253,-0.021582,0.047618,0.000000,-1.000000,0.000000
-0.229577,-0.021582,-0.150686,0.000000,-1.000000,0.000000
-0.128983,0.020012,-0.054698,0.920639,0.000000,0.390416
-0.263373,-0.021582,-0.048885,0.000000,-1.000000,0.000000
0.124774,0.021582,0.320417,0.000000,1.000000,0.000000
0.112046,-0.009141,0.084108,-0.799749,0.000000,-0.600335
-0.115315,0.021582,0.167642,0.000000,1.000000,0.000000
-0.390275,-0.013080,-0.127526,-0.950542,0.000000,-0.310597
0.259649,-0.021582,-0.048520,0.000000,-1.000000,0.000000
0.068666,-0.021582,0.265525,0.000000,-1.000000,0.000000
-0.138349,-0.021582,0.088286,0.000000,-1.000000,0.000000
0.089711,-0.021582,-0.334991,0.000000,-1.000000,0.000000
0.144198,0.021582,-0.040390,0.000000,1.000000,0.000000
0.385608,-0.021582,-0.074740,0.000000,-1.000000,0.000000
0.177634,-0.021582,-0.160473,0.000000,-1.000000,0.000000
0.132678,0.021582,-0.052623,0.000000,1.000000,0.000000
0.017666,0.021582,0.252276,0.000000,1.000000,0.000000
0.093249,-0.021582,0.147091,0.000000,-1.000000,0.000000
0.170364,-0.021582,-0.042227,0.000000,-1.000000,0.000000
-0.011586,-0.021582,-0.197400,0.000000,-1.000000,0.000000
-0.019090,-0.021582,-0.244588,0.000000,-1.000000,0.000000
-0.315989,0.021582,-0.123110,0.000000,1.000000,0.000000
-0.193607,0.021582,0.078519,0.000000,1.000000,0.000000
0.167097,0.021582,0.087424,0.000000,1.000000,0.000000
0.089856,-0.000786,0.107491,-0.641361,0.000000,-0.767239
-0.015524,-0.021582,0.151140,0.000000,-1.000000,0.000000
0.134072,-0.021582,-0.159270,0.000000,-1.000000,0.000000
-0.338772,-0.021582,-0.049835,0.000000,-1.000000,0.000000
0.032323,-0.021582,-0.379847,0.000000,-1.000000,0.000000
0.180190,0.021582,-0.081107,0.000000,1.000000,0.000000
0.110554,-0.021582,-0.253507,0.000000,-1.000000,0.000000
-0.376819,-0.021582,0.101814,0.000000,-1.000000,0.000000
-0.198972,0.021582,0.165683,0.000000,1.000000,0.000000
0.139528,0.021582,-0.278436,0.000000,1.000000,0.000000
-0.074189,0.021582,-0.319243,0.000000,1.000000,0.000000
0.014985,0.004279,-0.410308,0.036498,0.000000,-0.999334
-0.176774,0.021582,0.143646,0.000000,1.000000,0.000000
0.245297,0.021582,0.265498,0.000000,1.000000,0.000000
-0.166949,-0.021582,0.301558,0.000000,-1.000000,0.000000
-0.127913,-0.021582,-0.092278,0.000000,-1.000000,0.000000
0.287976,0.021582,0.099812,0.000000,1.000000,0.000000
-0.249439,-0.021582,-0.096377,0.000000,-1.000000,0.000000
0.166094,-0.021582,0.026299,0.000000,-1.000000,0.000000
-0.310197,-0.021582,0.017491,0.000000,-1.000000,0.000000
0.223462,0.021582,0.128814,0.000000,1.000000,0.000000
-0.175520,-0.021582,-0.088928,0.000000,-1.000000,0.000000
-0.278862,0.021582,-0.176402,0.000000,1.000000,0.000000
0.253135,0.021582,0.198632,0.000000,1.000000,0.000000
-0.024077,0.021582,0.149017,0.000000,1.000000,0.000000
-0.089169,0.021582,0.349517,0.000000,1.000000,0.000000
0.114021,-0.021582,0.191184,0.000000,-1.000000,0.000000
0.272937,-0.021582,0.107376,0.000000,-1.000000,0.000000
-0.410165,-0.007496,0.018487,-0.998986,0.000000,0.045027
0.243042,-0.021582,-0.043975,0.000000,-1.000000,0.000000
-0.171929,0.021582,0.326997,0.000000,1.000000,0.000000
0.122156,0.021582,0.232234,0.000000,1.000000,0.000000
0.000223,0.021582,0.341512,0.000000,1.000000,0.000000
0.331647,0.021582,0.019166,0.000000,1.000000,0.000000
-0.077653,0.021582,-0.230413,0.000000,1.000000,0.000000
0.226578,0.021582,-0.007562,0.000000,1.000000,0.000000
0.018083,-0.021582,-0.184376,0.000000,-1.000000,0.000000
0.265163,0.021582,-0.026640,0.000000,1.000000,0.000000
0.240167,0.021582,0.069703,0.000000,1.000000,0.000000
-0.002742,0.021582,-0.397110,0.000000,1.000000,0.000000
-0.076807,0.021582,-0.163336,0.000000,1.000000,0.000000
-0.113904,-0.021582,0.094871,0.000000,-1.000000,0.000000
0.028118,0.021582,0.198446,0.000000,1.000000,0.000000
-0.291254,0.017021,0.289393,-0.709370,0.000000,0.704836
-0.158162,-0.021582,-0.246034,0.000000,-1.000000,0.000000
0.064856,-0.021582,-0.283991,0.000000,-1.000000,0.000000
-0.028033,0.021582,-0.146861,0.000000,1.000000,0.000000
-0.317115,-0.021582,0.034948,0.000000,-1.000000,0.000000
-0.071195,-0.004315,0.120664,0.508165,0.000000,-0.861260
0.166094,-0.021582,0.026299,0.000000,-1.000000,0.000000
0.043641,-0.021582,-0.250633,0.000000,-1.000000,0.000000
0.160748,-0.021582,-0.281122,0.000000,-1.000000,0.000000
0.104136,-0.021582,-0.217850,0.000000,-1.000000,0.000000
-0.142308,-0.021582,-0.055201,0.000000,-1.000000,0.000000
0.126087,-0.021582,-0.292236,0.000000,-1.000000,0.000000
0.066027,0.021582,-0.129040,0.000000,1.000000,0.000000
-0.287141,-0.021582,-0.290759,0.000000,-1.000000,0.000000
-0.324380,-0.021582,0.245515,0.000000,-1.000000,0.000000
0.360934,0.021582,-0.015594,0.000000,1.000000,0.000000
0.095586,0.021582,0.335627,0.000000,1.000000,0.000000
0.015252,-0.021582,0.280566,0.000000,-1.000000,0.000000
0.183026,-0.021582,0.278623,0.000000,-1.000000,0.000000
0.135002,0.021582,0.169558,0.000000,1.000000,0.000000
0.231301,-0.021582,-0.224647,0.000000,-1.000000,0.000000
0.123087,-0.001157,0.066918,-0.878556,0.000000,-0.477640
0.259491,0.021582,0.224624,0.000000,1.000000,0.000000
-0.257794,-0.021582,-0.147079,0.000000,-1.000000,0.000000
-0.118107,0.021582,0.193775,0.000000,1.000000,0.000000
0.063511,0.021582,-0.279126,0.000000,1.000000,0.000000
0.395166,-0.021582,-0.083709,0.000000,-1.000000,0.000000
0.139486,0.012462,0.013122,-0.995604,0.000000,-0.093658
0.057702,0.010718,-0.127667,-0.411862,0.000000,0.911246
0.220273,-0.021582,-0.177443,0.000000,-1.000000,0.000000
0.375894,-0.021582,0.150861,0.000000,-1.000000,0.000000
0.205068,0.021582,0.097463,0.000000,1.000000,0.000000
-0.193988,-0.021582,0.296098,0.000000,-1.000000,0.000000
-0.152198,-0.021582,0.228099,0.000000,-1.000000,0.000000
0.152112,0.021582,0.015442,0.000000,1.000000,0.000000
-0.172315,0.021582,-0.043706,0.000000,1.000000,0.000000
-0.211113,-0.021582,-0.132636,0.000000,-1.000000,0.000000
0.304766,-0.021582,0.212267,0.000000,-1.000000,0.000000
0.228669,-0.021582,-0.221160,0.000000,-1.000000,0.000000
-0.206859,-0.021582,0.003212,0.000000,-1.000000,0.000000
-0.058244,0.021582,0.307922,0.000000,1.000000,0.000000
-0.153243,0.021582,0.072918,0.000000,1.000000,0.000000
0.206549,-0.021582,-0.100411,0.000000,-1.000000,0.000000
-0.212031,-0.021582,-0.055639,0.000000,-1.000000,0.000000
-0.208055,-0.021582,0.100234,0.000000,-1.000000,0.000000
-0.156415,-0.021582,-0.162088,0.000000,-1.000000,0.000000
0.093603,-0.021582,-0.259119,0.000000,-1.000000,0.000000
0.316050,0.021582,0.128304,0.000000,1.000000,0.000000
0.224679,0.021582,0.140743,0.000000,1.000000,0.000000
-0.142324,-0.021582,0.243289,0.000000,-1.000000,0.000000
-0.298025,-0.021582,-0.066124,0.000000,-1.000000,0.000000
0.199874,0.021582,-0.165491,0.000000,1.000000,0.000000
-0.128021,-0.021582,0.210098,0.000000,-1.000000,0.000000
-0.048001,0.021582,0.211221,0.000000,1.000000,0.000000
-0.264997,-0.021582,-0.278593,0.000000,-1.000000,0.000000
-0.307182,-0.011309,-0.272427,-0.748163,0.000000,-0.663515
0.086756,0.021582,-0.385764,0.000000,1.000000,0.000000
-0.355009,-0.021582,0.119526,0.000000,-1.000000,0.000000
0.396673,-0.007667,-0.105962,0.966124,0.000000,-0.258079
0.170881,-0.021582,0.013728,0.000000,-1.000000,0.000000
-0.103777,0.003292,0.094121,0.740728,0.000000,-0.671805
0.184053,0.021582,-0.092800,0.000000,1.000000,0.000000
-0.404672,-0.006723,-0.069410,-0.985607,0.000000,-0.169053
-0.165305,0.021582,-0.303940,0.000000,1.000000,0.000000
0.193292,0.021582,-0.321994,0.000000,1.000000,0.000000
-0.384423,0.021485,0.144209,-0.936289,0.000000,0.351231
0.058192,-0.021582,-0.280638,0.000000,-1.000000,0.000000
-0.128618,-0.021582,-0.147178,0.000000,-1.000000,0.000000
-0.168525,-0.021582,0.019582,0.000000,-1.000000,0.000000
-0.142308,-0.021582,-0.055201,0.000000,-1.000000,0.000000
0.126637,0.021582,0.115056,0.000000,1.000000,0.000000
-0.145096,-0.021582,0.137967,0.000000,-1.000000,0.000000
-0.260207,-0.021582,-0.003841,0.000000,-1.000000,0.000000
0.299537,-0.021582,0.250469,0.000000,-1.000000,0.000000
-0.324987,0.021582,0.238025,0.000000,1.000000,0.000000
-0.002742,0.021582,-0.397110,0.000000,1.000000,0.000000
-0.281599,0.021582,-0.280250,0.000000,1.000000,0.000000
-0.230033,0.021582,0.241799,0.000000,1.000000,0.000000
0.023696,-0.021582,0.221832,0.000000,-1.000000,0.000000
-0.066184,0.021582,0.350975,0.000000,1.000000,0.000000
-0.118660,0.021582,-0.296729,0.000000,1.000000,0.000000
0.136752,-0.021582,0.050031,0.000000,-1.000000,0.000000
0.296502,0.021582,-0.097341,0.000000,1.000000,0.000000
0.319176,0.021582,-0.120705,0.000000,1.000000,0.000000
-0.290427,-0.021582,0.128907,0.000000,-1.000000,0.000000
0.077171,0.015603,0.116932,-0.550821,0.000000,-0.834624
-0.396216,0.000933,0.107659,-0.965011,0.000000,0.262210
0.218427,0.021582,-0.072805,0.000000,1.000000,0.000000
0.152309,-0.021582,-0.018954,0.000000,-1.000000,0.000000
-0.128936,0.021582,0.302072,0.000000,1.000000,0.000000
-0.196938,-0.021582,-0.287156,0.000000,-1.000000,0.000000
-0.401914,-0.021582,-0.028591,0.000000,-1.000000,0.000000
0.100363,-0.021582,0.127977,0.000000,-1.000000,0.000000
0.003448,-0.021582,0.154580,0.000000,-1.000000,0.000000
0.055691,0.021582,-0.178903,0.000000,1.000000,0.000000
0.122156,0.021582,0.232234,0.000000,1.000000,0.000000
0.276826,0.021582,-0.198793,0.000000,1.000000,0.000000
0.255908,0.021582,0.108494,0.000000,1.000000,0.000000
0.218721,0.021582,-0.089098,0.000000,1.000000,0.000000
0.223081,0.021582,-0.073683,0.000000,1.000000,0.000000
-0.143751,-0.021582,0.091547,0.000000,-1.000000,0.000000
0.225558,0.021582,-0.222864,0.000000,1.000000,0.000000
0.248864,-0.021582,0.194010,0.000000,-1.000000,0.000000
0.112046,-0.009141,0.084108,-0.799749,0.000000,-0.600335
-0.029304,0.006556,0.409534,-0.071371,0.000000,0.997450
-0.118660,0.021582,-0.296729,0.000000,1.000000,0.000000
-0.245221,0.021582,-0.291477,0.000000,1.000000,0.000000
0.180050,0.021582,0.078743,0.000000,1.000000,0.000000
0.050018,0.021582,0.205630,0.000000,1.000000,0.000000
0.032304,0.021582,0.397221,0.000000,1.000000,0.000000
-0.243061,-0.021582,-0.208522,0.000000,-1.000000,0.000000
0.297939,-0.021582,0.171171,0.000000,-1.000000,0.000000
-0.301329,0.021582,-0.013351,0.000000,1.000000,0.000000
0.201923,0.021582,0.347120,0.000000,1.000000,0.000000
-0.128618,-0.021582,-0.147178,0.000000,-1.000000,0.000000
0.259093,-0.021582,0.313859,0.000000,-1.000000,0.000000
-0.124832,-0.021582,-0.163793,0.000000,-1.000000,0.000000
-0.119638,0.021582,0.175748,0.000000,1.000000,0.000000
-0.085209,-0.021582,0.399283,0.000000,-1.000000,0.000000
-0.145143,-0.021582,0.048776,0.000000,-1.000000,0.000000
0.107567,-0.021582,0.292000,0.000000,-1.000000,0.000000
-0.159458,-0.021582,0.061026,0.000000,-1.000000,0.000000
-0.127436,-0.021582,-0.316081,0.000000,-1.000000,0.000000
0.267365,-0.005300,0.311598,0.651186,0.000000,0.758918
0.410489,0.017501,-0.008725,0.999774,0.000000,-0.021251
-0.114481,-0.021582,-0.110318,0.000000,-1.000000,0.000000
-0.050080,-0.021582,-0.375277,0.000000,-1.000000,0.000000
0.180050,0.021582,0.078743,0.000000,1.000000,0.000000
0.220439,-0.021582,0.163298,0.000000,-1.000000,0.000000
-0.359226,-0.004082,-0.198831,-0.874921,0.000000,-0.484266
-0.182654,-0.021582,0.127444,0.000000,-1.000000,0.000000
0.235553,0.021582,-0.218886,0.000000,1.000000,0.000000
0.354854,0.021582,0.114265,0.000000,1.000000,0.000000
0.385608,-0.021582,-0.074740,0.000000,-1.000000,0.000000
-0.203942,0.021582,-0.117808,0.000000,1.000000,0.000000
-0.091003,-0.021582,0.128949,0.000000,-1.000000,0.000000
-0.078850,-0.021582,-0.385287,0.000000,-1.000000,0.000000
0.156121,-0.021582,0.031710,0.000000,-1.000000,0.000000
0.212855,-0.021582,-0.334294,0.000000,-1.000000,0.000000
0.096891,0.021582,0.160040,0.000000,1.000000,0.000000
0.180496,-0.021582,-0.246894,0.000000,-1.000000,0.000000
-0.062240,-0.021582,-0.252338,0.000000,-1.000000,0.000000
0.050202,-0.020711,-0.407501,0.122271,0.000000,-0.992497
-0.161905,-0.021582,-0.073143,0.000000,-1.000000,0.000000
0.220065,0.021582,0.094132,0.000000,1.000000,0.000000
-0.024631,0.021582,-0.168895,0.000000,1.000000,0.000000
-0.123008,0.009693,-0.067063,0.877993,0.000000,0.478673
0.005375,0.021582,-0.267861,0.000000,1.000000,0.000000
-0.203942,0.021582,-0.117808,0.000000,1.000000,0.000000
-0.066184,0.021582,0.350975,0.000000,1.000000,0.000000
0.100363,-0.021582,0.127977,0.000000,-1.000000,0.000000
-0.115315,0.021582,0.167642,0.000000,1.000000,0.000000
-0.245653,-0.021582,-0.297835,0.000000,-1.000000,0.000000
-0.056703,0.008048,0.128114,0.404725,0.000000,-0.914439
0.265163,0.021582,-0.026640,0.000000,1.000000,0.000000
-0.223847,0.021582,0.020215,0.000000,1.000000,0.000000
0.253763,0.021582,-0.066184,0.000000,1.000000,0.000000
-0.159458,-0.021582,0.061026,0.000000,-1.000000,0.000000
0.370159,0.021582,0.027653,0.000000,1.000000,0.000000
-0.141495,-0.021582,0.040245,0.000000,-1.000000,0.000000
-0.172061,0.021582,-0.285033,0.000000,1.000000,0.000000
0.051817,-0.021582,-0.141960,0.000000,-1.000000,0.000000
-0.171720,0.021582,-0.368950,0.000000,1.000000,0.000000
0.249010,-0.021582,-0.034794,0.000000,-1.000000,0.000000
0.273035,0.021582,-0.108165,0.000000,1.000000,0.000000
0.205770,-0.021582,0.200769,0.000000,-1.000000,0.000000
0.302580,-0.021582,-0.214684,0.000000,-1.000000,0.000000
0.216197,-0.021582,0.209340,0.000000,-1.000000,0.000000
-0.188982,0.021582,-0.122279,0.000000,1.000000,0.000000
0.091082,0.010627,-0.106455,-0.650111,0.000000,0.759839
-0.379505,0.005573,0.156694,-0.924312,0.000000,0.381639
0.087695,-0.021582,-0.167793,0.000000,-1.000000,0.000000
-0.384423,0.021485,0.144209,-0.936289,0.000000,0.351231
0.143486,-0.021582,-0.160373,0.000000,-1.000000,0.000000
-0.346612,-0.021582,0.085478,0.000000,-1.000000,0.000000
-0.386406,-0.021582,-0.045164,0.000000,-1.000000,0.000000
-0.171929,0.021582,0.326997,0.000000,1.000000,0.000000
0.324472,-0.021582,0.224275,0.000000,-1.000000,0.000000
-0.152168,0.021582,-0.278987,0.000000,1.000000,0.000000
0.242698,-0.021582,-0.232794,0.000000,-1.000000,0.000000
0.056919,-0.021582,0.172275,0.000000,-1.000000,0.000000
-0.172061,0.021582,-0.285033,0.000000,1.000000,0.000000
-0.154701,-0.021582,-0.351899,0.000000,-1.000000,0.000000
-0.283007,0.021582,0.124160,0.000000,1.000000,0.000000
-0.174109,-0.021582,0.110362,0.000000,-1.000000,0.000000
-0.063958,-0.019449,-0.124651,0.456515,0.000000,0.889716
0.135002,0.021582,0.169558,0.000000,1.000000,0.000000
-0.069159,-0.021582,0.341107,0.000000,-1.000000,0.000000
0.086502,-0.021582,-0.138886,0.000000,-1.000000,0.000000
0.167097,0.021582,0.087424,0.000000,1.000000,0.000000
0.102767,-0.003217,-0.397512,0.250297,0.000000,-0.968169
-0.035698,0.014988,-0.135477,0.254802,0.000000,0.966993
0.124774,0.021582,0.320417,0.000000,1.000000,0.000000
-0.016375,0.010361,-0.410255,-0.039882,0.000000,-0.999204
-0.113382,0.021582,0.371561,0.000000,1.000000,0.000000
-0.130925,-0.021582,-0.187148,0.000000,-1.000000,0.000000
-0.136179,-0.018985,0.032919,0.972003,0.000000,-0.234968
0.226578,0.021582,-0.007562,0.000000,1.000000,0.000000
-0.163928,-0.021582,0.367429,0.000000,-1.000000,0.000000
0.193781,0.021582,0.235483,0.000000,1.000000,0.000000
-0.314342,0.021582,0.010512,0.000000,1.000000,0.000000
-0.069753,-0.021582,0.180262,0.000000,-1.000000,0.000000
0.251219,-0.021582,-0.096985,0.000000,-1.000000,0.000000
0.316103,0.021582,-0.069696,0.000000,1.000000,0.000000
0.321073,-0.021582,-0.145383,0.000000,-1.000000,0.000000
0.209042,0.021582,0.239579,0.000000,1.000000,0.000000
-0.122451,0.002334,-0.068076,0.874013,0.000000,0.485903
0.251918,-0.021582,0.198639,0.000000,-1.000000,0.000000
0.167416,-0.021582,-0.166241,0.000000,-1.000000,0.000000
-0.193865,0.021582,-0.194682,0.000000,1.000000,0.000000
0.238843,0.021582,-0.098409,0.000000,1.000000,0.000000
-0.278862,0.021582,-0.176402,0.000000,1.000000,0.000000
0.226956,-0.021582,0.101051,0.000000,-1.000000,0.000000
-0.128618,-0.021582,-0.147178,0.000000,-1.000000,0.000000
-0.128983,0.020012,-0.054698,0.920639,0.000000,0.390416
-0.123388,-0.021582,-0.148092,0.000000,-1.000000,0.000000
0.342851,-0.021582,0.145598,0.000000,-1.000000,0.000000
0.094622,-0.021582,-0.122700,0.000000,-1.000000,0.000000
0.186248,0.021582,-0.148102,0.000000,1.000000,0.000000
-0.119453,-0.021582,0.247406,0.000000,-1.000000,0.000000
0.065020,0.021582,0.380007,0.000000,1.000000,0.000000
-0.128839,-0.021582,-0.297290,0.000000,-1.000000,0.000000
-0.161905,-0.021582,-0.073143,0.000000,-1.000000,0.000000
0.159198,-0.021582,0.024998,0.000000,-1.000000,0.000000
-0.011586,-0.021582,-0.197400,0.000000,-1.000000,0.000000
0.375894,-0.021582,0.150861,0.000000,-1.000000,0.000000
0.254136,-0.021582,-0.284557,0.000000,-1.000000,0.000000
0.225080,-0.021582,-0.295457,0.000000,-1.000000,0.000000
-0.280956,-0.021582,0.149675,0.000000,-1.000000,0.000000
0.159065,0.021582,-0.011932,0.000000,1.000000,0.000000
0.052781,0.021582,0.339220,0.000000,1.000000,0.000000
0.033605,0.021582,0.198385,0.000000,1.000000,0.000000
0.209942,-0.021582,-0.155363,0.000000,-1.000000,0.000000
-0.074804,-0.021582,0.325074,0.000000,-1.000000,0.000000
-0.201771,-0.021582,-0.086863,0.000000,-1.000000,0.000000
-0.032935,0.021582,-0.190722,0.000000,1.000000,0.000000
-0.067468,0.021582,-0.238309,0.000000,1.000000,0.000000
-0.197386,0.021582,-0.246192,0.000000,1.000000,0.000000
0.254808,0.021582,0.082792,0.000000,1.000000,0.000000
0.223081,0.021582,-0.073683,0.000000,1.000000,0.000000
0.128919,-0.019440,0.054849,-0.920181,0.000000,-0.391493
-0.160812,-0.021582,-0.293431,0.000000,-1.000000,0.000000
-0.307602,-0.021582,0.086297,0.000000,-1.000000,0.000000
-0.074934,0.021582,-0.292692,0.000000,1.000000,0.000000
-0.096122,0.021582,-0.123670,0.000000,1.000000,0.000000
0.016082,-0.021582,-0.399760,0.000000,-1.000000,0.000000
-0.327099,-0.021582,-0.066342,0.000000,-1.000000,0.000000
0.132924,-0.021582,0.133766,0.000000,-1.000000,0.000000
0.204182,0.021582,0.169585,0.000000,1.000000,0.000000
-0.349045,0.021582,0.201948,0.000000,1.000000,0.000000
-0.071074,-0.021582,-0.230263,0.000000,-1.000000,0.000000
-0.286362,0.021582,-0.238600,0.000000,1.000000,0.000000
-0.176150,0.021582,-0.011695,0.000000,1.000000,0.000000
0.142713,0.021582,-0.226073,0.000000,1.000000,0.000000
-0.304560,0.021582,-0.069037,0.000000,1.000000,0.000000
0.220270,-0.021582,0.231347,0.000000,-1.000000,0.000000
0.204811,-0.021582,-0.274002,0.000000,-1.000000,0.000000
-0.128923,-0.019803,-0.054838,0.920213,0.000000,0.391417
-0.164065,0.021582,-0.284253,0.000000,1.000000,0.000000
-0.016959,0.021582,-0.163891,0.000000,1.000000,0.000000
0.139842,-0.021582,0.136184,0.000000,-1.000000,0.000000
0.324477,0.021582,-0.065706,0.000000,1.000000,0.000000
0.226915,-0.021582,-0.314495,0.000000,-1.000000,0.000000
-0.196938,-0.021582,-0.287156,0.000000,-1.000000,0.000000
0.191612,-0.021582,-0.190980,0.000000,-1.000000,0.000000
0.142195,-0.021582,-0.353604,0.000000,-1.000000,0.000000
0.135006,-0.021582,0.304106,0.000000,-1.000000,0.000000
0.290533,-0.021582,-0.123139,0.000000,-1.000000,0.000000
0.375894,-0.021582,0.150861,0.000000,-1.000000,0.000000
-0.161905,-0.021582,-0.073143,0.000000,-1.000000,0.000000
-0.273251,0.021582,0.281305,0.000000,1.000000,0.000000
-0.231148,0.021582,-0.241569,0.000000,1.000000,0.000000
0.128503,-0.021582,-0.382775,0.000000,-1.000000,0.000000
0.315125,-0.021582,0.178210,0.000000,-1.000000,0.000000
0.087695,-0.021582,-0.167793,0.000000,-1.000000,0.000000
0.192267,0.021582,0.051783,0.000000,1.000000,0.000000
-0.057335,-0.021582,0.252520,0.000000,-1.000000,0.000000
0.183026,-0.021582,0.278623,0.000000,-1.000000,0.000000
-0.291409,-0.021582,0.113559,0.000000,-1.000000,0.000000
-0.139777,-0.003497,0.009527,0.997685,0.000000,-0.068002
-0.273642,-0.021582,-0.281503,0.000000,-1.000000,0.000000
-0.385758,0.000811,-0.140598,-0.939541,0.000000,-0.342436
0.345437,-0.021582,-0.079410,0.000000,-1.000000,0.000000
-0.196024,-0.021582,-0.164354,0.000000,-1.000000,0.000000
-0.122541,0.021582,-0.174958,0.000000,1.000000,0.000000
0.009895,0.021582,-0.399759,0.000000,1.000000,0.000000
0.370159,0.021582,0.027653,0.000000,1.000000,0.000000
0.201947,0.021582,-0.268646,0.000000,1.000000,0.000000
-0.123388,-0.021582,-0.148092,0.000000,-1.000000,0.000000
0.081592,-0.021582,0.141575,0.000000,-1.000000,0.000000
-0.110737,-0.021582,0.141303,0.000000,-1.000000,0.000000
-0.085195,-0.021582,-0.335498,0.000000,-1.000000,0.000000
0.242865,-0.010708,0.331050,0.591514,0.000000,0.806294
0.089711,-0.021582,-0.334991,0.000000,-1.000000,0.000000
0.353739,0.021582,-0.127438,0.000000,1.000000,0.000000
-0.277636,-0.021582,-0.252261,0.000000,-1.000000,0.000000
0.192652,0.021582,0.002457,0.000000,1.000000,0.000000
-0.404672,-0.006723,-0.069410,-0.985607,0.000000,-0.169053
-0.059741,0.010928,0.126726,0.426415,0.000000,-0.904528
-0.193865,0.021582,-0.194682,0.000000,1.000000,0.000000
0.378299,-0.021582,-0.038702,0.000000,-1.000000,0.000000
-0.144974,-0.021582,0.063194,0.000000,-1.000000,0.000000
0.266982,-0.021582,0.081223,0.000000,-1.000000,0.000000
-0.098029,-0.021582,0.136635,0.000000,-1.000000,0.000000
-0.158162,-0.021582,-0.246034,0.000000,-1.000000,0.000000
-0.045677,-0.021582,0.386160,0.000000,-1.000000,0.000000
-0.041370,-0.021582,-0.221894,0.000000,-1.000000,0.000000
0.109669,-0.021582,-0.241729,0.000000,-1.000000,0.000000
-0.202763,0.021582,-0.063884,0.000000,1.000000,0.000000
-0.208055,-0.021582,0.100234,0.000000,-1.000000,0.000000
0.158396,-0.021582,0.274508,0.000000,-1.000000,0.000000
0.226578,0.021582,-0.007562,0.000000,1.000000,0.000000
0.265163,0.021582,-0.026640,0.000000,1.000000,0.000000
-0.188982,0.021582,-0.122279,0.000000,1.000000,0.000000
-0.206263,-0.021582,0.181998,0.000000,-1.000000,0.000000
-0.112604,0.019570,0.083359,0.803733,0.000000,-0.594990
0.038386,0.021582,0.150399,0.000000,1.000000,0.000000
-0.097033,0.021582,0.261389,0.000000,1.000000,0.000000
0.167097,0.021582,0.087424,0.000000,1.000000,0.000000
0.220270,-0.021582,0.231347,0.000000,-1.000000,0.000000
0.024721,-0.005568,0.409837,0.060209,0.000000,0.998186
0.315369,0.021582,0.235897,0.000000,1.000000,0.000000
-0.129750,0.021582,-0.234971,0.000000,1.000000,0.000000
-0.112604,0.019570,0.083359,0.803733,0.000000,-0.594990
-0.128391,-0.021582,0.190503,0.000000,-1.000000,0.000000
-0.103441,-0.021582,0.307258,0.000000,-1.000000,0.000000
-0.032215,-0.021582,0.369344,0.000000,-1.000000,0.000000
0.152806,0.021582,0.336698,0.000000,1.000000,0.000000
0.280022,0.021582,-0.068368,0.000000,1.000000,0.000000
0.018922,-0.021582,0.282350,0.000000,-1.000000,0.000000
-0.024104,0.021582,0.339829,0.000000,1.000000,0.000000
-0.267192,0.021582,-0.204299,0.000000,1.000000,0.000000
0.124811,-0.021582,0.303638,0.000000,-1.000000,0.000000
-0.190789,-0.021582,0.091046,0.000000,-1.000000,0.000000
-0.327815,-0.021582,0.057208,0.000000,-1.000000,0.000000
-0.106147,-0.021582,-0.181942,0.000000,-1.000000,0.000000
-0.072613,-0.005632,-0.119816,0.518285,0.000000,0.855208
-0.408382,-0.020375,0.042441,-0.994643,0.000000,0.103368
0.267041,0.021582,0.145522,0.000000,1.000000,0.000000
-0.375792,0.009696,0.165402,-0.915267,0.000000,0.402848
-0.390962,-0.021582,0.111241,0.000000,-1.000000,0.000000
-0.135206,0.021582,-0.238300,0.000000,1.000000,0.000000
-0.337631,-0.021582,-0.128058,0.000000,-1.000000,0.000000
0.020503,-0.021582,-0.248126,0.000000,-1.000000,0.000000
0.041133,0.021582,0.284551,0.000000,1.000000,0.000000
0.135216,-0.021582,-0.239827,0.000000,-1.000000,0.000000
-0.130434,0.021582,-0.078222,0.000000,1.000000,0.000000
0.105282,0.021582,0.321502,0.000000,1.000000,0.000000
-0.031409,0.021582,0.185310,0.000000,1.000000,0.000000
-0.096122,0.021582,-0.123670,0.000000,1.000000,0.000000
-0.065688,0.021582,0.173720,0.000000,1.000000,0.000000
0.396673,-0.007667,-0.105962,0.966124,0.000000,-0.258079
-0.159458,-0.021582,0.061026,0.000000,-1.000000,0.000000
0.285452,-0.021582,-0.080456,0.000000,-1.000000,0.000000
-0.050480,0.021582,0.221550,0.000000,1.000000,0.000000
-0.215890,0.021582,0.209948,0.000000,1.000000,0.000000
-0.070495,0.021582,0.210899,0.000000,1.000000,0.000000
-0.338466,0.021582,-0.035267,0.000000,1.000000,0.000000
0.155749,-0.021582,-0.253001,0.000000,-1.000000,0.000000
0.039412,0.021582,0.380523,0.000000,1.000000,0.000000
-0.285562,-0.021582,0.140765,0.000000,-1.000000,0.000000
0.256352,0.021582,0.083298,0.000000,1.000000,0.000000
0.023188,-0.021582,-0.264525,0.000000,-1.000000,0.000000
-0.124328,0.021582,-0.370783,0.000000,1.000000,0.000000
0.044178,-0.021582,-0.143401,0.000000,-1.000000,0.000000
0.172531,-0.021582,0.091607,0.000000,-1.000000,0.000000
0.260476,0.021582,0.112096,0.000000,1.000000,0.000000
0.133105,-0.011853,0.043722,-0.950059,0.000000,-0.312070
0.034297,-0.013064,-0.135839,-0.244800,0.000000,0.969574
-0.073219,-0.002221,0.119446,0.522617,0.000000,-0.852568
-0.029747,0.021582,-0.175282,0.000000,1.000000,0.000000
0.001086,-0.021582,-0.371373,0.000000,-1.000000,0.000000
-0.128839,-0.021582,-0.297290,0.000000,-1.000000,0.000000
0.113317,0.004117,0.394634,0.275992,0.000000,0.961160
0.157339,0.021582,-0.364506,0.000000,1.000000,0.000000
-0.077620,0.021582,-0.275940,0.000000,1.000000,0.000000
0.089856,-0.000786,0.107491,-0.641361,0.000000,-0.767239
-0.056804,-0.021582,-0.181001,0.000000,-1.000000,0.000000
-0.278862,0.021582,-0.176402,0.000000,1.000000,0.000000
0.118562,-0.021582,0.185822,0.000000,-1.000000,0.000000
0.117324,0.021582,0.204279,0.000000,1.000000,0.000000
-0.256299,0.021582,-0.156901,0.000000,1.000000,0.000000
0.063767,0.021582,0.231949,0.000000,1.000000,0.000000
0.111314,-0.021582,-0.132407,0.000000,-1.000000,0.000000
0.003448,-0.021582,0.154580,0.000000,-1.000000,0.000000
-0.059081,-0.021582,-0.189308,0.000000,-1.000000,0.000000
-0.077695,0.016920,-0.116585,0.554560,0.000000,0.832143
-0.117002,0.021582,-0.082043,0.000000,1.000000,0.000000
0.410436,-0.004871,0.010920,0.999646,0.000000,0.026598
-0.103013,-0.021582,0.121996,0.000000,-1.000000,0.000000
-0.068493,-0.021582,-0.158567,0.000000,-1.000000,0.000000
0.114639,0.021582,0.163846,0.000000,1.000000,0.000000
-0.324367,0.021582,0.117136,0.000000,1.000000,0.000000
-0.070969,-0.021582,0.305841,0.000000,-1.000000,0.000000
-0.167859,0.021582,0.272629,0.000000,1.000000,0.000000
0.300985,0.021582,-0.255093,0.000000,1.000000,0.000000
0.152806,0.021582,0.336698,0.000000,1.000000,0.000000
-0.168178,0.021582,0.254984,0.000000,1.000000,0.000000
0.190820,0.021582,-0.332568,0.000000,1.000000,0.000000
-0.059784,-0.021582,0.157518,0.000000,-1.000000,0.000000
-0.377601,-0.021582,-0.023563,0.000000,-1.000000,0.000000
-0.335739,-0.021582,-0.117094,0.000000,-1.000000,0.000000
0.175593,0.003072,0.371139,0.427668,0.000000,0.903936
-0.152406,-0.021582,-0.119372,0.000000,-1.000000,0.000000
-0.267745,-0.021582,0.069175,0.000000,-1.000000,0.000000
0.039744,0.005411,-0.408653,0.096800,0.000000,-0.995304
0.039583,-0.021582,-0.167060,0.000000,-1.000000,0.000000
0.067936,-0.021582,-0.370053,0.000000,-1.000000,0.000000
0.198178,0.021582,-0.076427,0.000000,1.000000,0.000000
0.085400,-0.021582,0.288034,0.000000,-1.000000,0.000000
-0.041615,0.021582,-0.184884,0.000000,1.000000,0.000000
0.243042,-0.021582,-0.043975,0.000000,-1.000000,0.000000
0.113317,0.004117,0.394634,0.275992,0.000000,0.961160
0.127777,0.021582,0.057800,0.000000,1.000000,0.000000
0.160053,0.021582,0.138199,0.000000,1.000000,0.000000
0.158212,0.021582,-0.085638,0.000000,1.000000,0.000000
-0.197359,-0.021582,0.049718,0.000000,-1.000000,0.000000
0.111314,-0.021582,-0.132407,0.000000,-1.000000,0.000000
0.223282,-0.021582,0.226457,0.000000,-1.000000,0.000000
-0.073913,0.021582,-0.351427,0.000000,1.000000,0.000000
-0.015598,0.021582,0.288454,0.000000,1.000000,0.000000
-0.160460,-0.021582,0.195030,0.000000,-1.000000,0.000000
-0.113904,-0.021582,0.094871,0.000000,-1.000000,0.000000
0.230829,0.021582,-0.093416,0.000000,1.000000,0.000000
-0.120039,-0.021582,-0.123301,0.000000,-1.000000,0.000000
0.200040,0.021582,-0.120486,0.000000,1.000000,0.000000
0.329734,-0.021582,-0.196503,0.000000,-1.000000,0.000000
-0.231295,-0.021582,-0.043624,0.000000,-1.000000,0.000000
0.039867,0.021582,0.227049,0.000000,1.000000,0.000000
-0.241006,-0.021582,0.166331,0.000000,-1.000000,0.000000
0.032087,0.021582,0.272149,0.000000,1.000000,0.000000
0.190672,0.021582,0.114402,0.000000,1.000000,0.000000
-0.158162,-0.021582,-0.246034,0.000000,-1.000000,0.000000
0.152112,0.021582,0.015442,0.000000,1.000000,0.000000
-0.341980,0.021582,-0.194657,0.000000,1.000000,0.000000
-0.147287,-0.021582,-0.022046,0.000000,-1.000000,0.000000
-0.211008,0.021582,-0.000968,0.000000,1.000000,0.000000
-0.182427,-0.021582,-0.349831,0.000000,-1.000000,0.000000
0.316103,0.021582,-0.069696,0.000000,1.000000,0.000000
0.354544,0.021582,-0.145682,0.000000,1.000000,0.000000
0.011322,-0.021582,0.293751,0.000000,-1.000000,0.000000
-0.249439,-0.021582,-0.096377,0.000000,-1.000000,0.000000
0.087695,-0.021582,-0.167793,0.000000,-1.000000,0.000000
0.389999,0.021582,-0.015168,0.000000,1.000000,0.000000
-0.192421,0.021582,0.148709,0.000000,1.000000,0.000000
-0.224625,-0.021582,0.197921,0.000000,-1.000000,0.000000
-0.242016,-0.021582,0.136520,0.000000,-1.000000,0.000000
0.349823,-0.021582,0.110200,0.000000,-1.000000,0.000000
-0.111957,-0.014067,-0.084227,0.799111,0.000000,0.601184
0.354544,0.021582,-0.145682,0.000000,1.000000,0.000000
-0.207819,0.021582,-0.020519,0.000000,1.000000,0.000000
-0.265195,-0.021582,-0.100398,0.000000,-1.000000,0.000000
0.194728,-0.021582,-0.133571,0.000000,-1.000000,0.000000
-0.410165,-0.007496,0.018487,-0.998986,0.000000,0.045027
0.197351,-0.021582,-0.196449,0.000000,-1.000000,0.000000
0.314080,0.021582,-0.149952,0.000000,1.000000,0.000000
0.209696,0.021582,-0.052160,0.000000,1.000000,0.000000
-0.165305,0.021582,-0.303940,0.000000,1.000000,0.000000
-0.269206,0.021582,0.064624,0.000000,1.000000,0.000000
-0.337914,0.021582,-0.045490,0.000000,1.000000,0.000000
0.197825,0.021582,0.018158,0.000000,1.000000,0.000000
-0.239499,-0.021582,-0.021442,0.000000,-1.000000,0.000000
-0.312357,0.021582,-0.105519,0.000000,1.000000,0.000000
-0.204007,-0.021582,-0.134307,0.000000,-1.000000,0.000000
0.038602,-0.012729,-0.408763,0.094018,0.000000,-0.995571
0.322032,0.021582,-0.169300,0.000000,1.000000,0.000000
-0.015598,0.021582,0.288454,0.000000,1.000000,0.000000
0.352733,-0.021582,0.128030,0.000000,-1.000000,0.000000
-0.285562,-0.021582,0.140765,0.000000,-1.000000,0.000000
-0.374358,-0.021582,0.128330,0.000000,-1.000000,0.000000
0.320596,-0.021582,-0.091979,0.000000,-1.000000,0.000000
-0.152244,0.021582,-0.083757,0.000000,1.000000,0.000000
0.391734,-0.021582,0.040930,0.000000,-1.000000,0.000000
-0.207819,0.021582,-0.020519,0.000000,1.000000,0.000000
0.324575,-0.021582,-0.127543,0.000000,-1.000000,0.000000
0.160939,-0.021582,0.002564,0.000000,-1.000000,0.000000
-0.129750,0.021582,-0.234971,0.000000,1.000000,0.000000
0.039583,-0.021582,-0.167060,0.000000,-1.000000,0.000000
0.222208,0.021582,0.223244,0.000000,1.000000,0.000000
-0.151345,0.021582,-0.101343,0.000000,1.000000,0.000000
0.241285,-0.021582,0.060654,0.000000,-1.000000,0.000000
-0.176463,-0.021582,0.005381,0.000000,-1.000000,0.000000
-0.287226,0.021582,0.005132,0.000000,1.000000,0.000000
-0.099203,0.012250,-0.098930,0.708081,0.000000,0.706131
0.034146,0.021582,-0.136633,0.000000,1.000000,0.000000
0.237614,-0.021582,-0.111518,0.000000,-1.000000,0.000000
0.155707,0.021582,-0.074315,0.000000,1.000000,0.000000
-0.158719,-0.021582,-0.257389,0.000000,-1.000000,0.000000
0.126628,-0.021582,0.153587,0.000000,-1.000000,0.000000
0.222462,0.021582,0.241398,0.000000,1.000000,0.000000
0.164829,-0.021582,0.152122,0.000000,-1.000000,0.000000
-0.325643,0.010522,0.250068,-0.793126,0.000000,0.609058
0.175663,0.021582,-0.140098,0.000000,1.000000,0.000000
-0.166798,-0.021582,-0.256627,0.000000,-1.000000,0.000000
-0.335948,0.021582,0.113230,0.000000,1.000000,0.000000
0.294319,0.021582,0.018825,0.000000,1.000000,0.000000
-0.031661,-0.005284,0.136477,0.225989,0.000000,-0.974130
-0.015920,-0.011914,0.410273,-0.038774,0.000000,0.999248
0.296964,0.021582,0.010240,0.000000,1.000000,0.000000
-0.112789,0.021582,-0.212083,0.000000,1.000000,0.000000
0.138860,0.021582,0.025708,0.000000,1.000000,0.000000
0.057124,-0.021582,-0.278137,0.000000,-1.000000,0.000000
0.100363,-0.021582,0.127977,0.000000,-1.000000,0.000000
-0.339979,-0.021582,-0.211708,0.000000,-1.000000,0.000000
-0.145338,-0.021582,0.331125,0.000000,-1.000000,0.000000
0.170871,0.021582,-0.001132,0.000000,1.000000,0.000000
-0.295800,0.021582,0.106105,0.000000,1.000000,0.000000
-0.130434,0.021582,-0.078222,0.000000,1.000000,0.000000
-0.181648,-0.021582,0.276659,0.000000,-1.000000,0.000000
0.098695,-0.021582,0.237812,0.000000,-1.000000,0.000000
0.109314,0.021582,0.302449,0.000000,1.000000,0.000000
0.093249,-0.021582,0.147091,0.000000,-1.000000,0.000000
0.155707,0.021582,-0.074315,0.000000,1.000000,0.000000
0.305400,-0.021582,-0.036282,0.000000,-1.000000,0.000000
0.341716,-0.021582,-0.110155,0.000000,-1.000000,0.000000
0.235871,-0.021582,-0.278273,0.000000,-1.000000,0.000000
0.284083,-0.020687,-0.296435,0.691905,0.000000,-0.721989
-0.093556,-0.021582,-0.192988,0.000000,-1.000000,0.000000
0.134465,0.021582,-0.076048,0.000000,1.000000,0.000000
-0.156256,0.021582,0.039169,0.000000,1.000000,0.000000
-0.254661,0.021582,-0.307914,0.000000,1.000000,0.000000
-0.041370,-0.021582,-0.221894,0.000000,-1.000000,0.000000
-0.331813,-0.021582,-0.064894,0.000000,-1.000000,0.000000
0.173055,-0.021582,0.116402,0.000000,-1.000000,0.000000
-0.287141,-0.021582,-0.290759,0.000000,-1.000000,0.000000
-0.179677,0.021582,0.050648,0.000000,1.000000,0.000000
0.057702,0.010718,-0.127667,-0.411862,0.000000,0.911246
-0.128792,0.021582,-0.064598,0.000000,1.000000,0.000000
-0.302590,-0.021582,0.128608,0.000000,-1.000000,0.000000
0.080816,-0.021582,0.314884,0.000000,-1.000000,0.000000
-0.285871,0.005083,-0.294712,-0.696258,0.000000,-0.717791
0.142403,-0.021582,0.289830,0.000000,-1.000000,0.000000
-0.113634,0.015697,0.081950,0.811083,0.000000,-0.584931
-0.275599,-0.021582,-0.040205,0.000000,-1.000000,0.000000
0.063453,-0.021582,-0.281128,0.000000,-1.000000,0.000000
0.247143,-0.021582,0.044202,0.000000,-1.000000,0.000000
0.380450,0.021582,-0.002113,0.000000,1.000000,0.000000
0.097156,-0.021582,-0.113514,0.000000,-1.000000,0.000000
-0.261879,0.021582,-0.155615,0.000000,1.000000,0.000000
-0.097004,-0.021582,-0.318432,0.000000,-1.000000,0.000000
0.136569,0.021582,-0.084989,0.000000,1.000000,0.000000
0.172531,-0.021582,0.091607,0.000000,-1.000000,0.000000
-0.129679,0.021582,0.352451,0.000000,1.000000,0.000000
-0.176956,0.021582,-0.058937,0.000000,1.000000,0.000000
0.132155,0.021582,0.086498,0.000000,1.000000,0.000000
-0.261285,-0.021582,0.159450,0.000000,-1.000000,0.000000
