x,y,z,nx,ny,nz
-50.061979,-37.227168,0.819880,-0.793353,-0.608762,-0.000000
33.778493,36.432070,3.489626,0.000000,-0.000000,1.000000
48.356909,22.696460,-3.489626,0.000000,-0.000000,-1.000000
37.822321,32.892354,-3.489626,0.000000,0.000000,-1.000000
-37.037723,6.793857,3.489626,-0.000000,-0.000000,1.000000
11.561506,-28.192998,-3.489626,0.000000,0.000000,-1.000000
40.934984,14.560556,3.489626,0.000000,-0.000000,1.000000
-32.560264,-27.261931,-3.489626,0.000000,0.000000,-1.000000
-31.289026,28.564545,3.489626,-0.000000,-0.000000,1.000000
48.742745,24.357839,3.489626,0.000000,-0.000000,1.000000
4.690611,-31.215457,3.489626,-0.000000,-0.000000,1.000000
-18.834241,-55.855744,-3.489626,0.000000,-0.000000,-1.000000
-19.583312,-39.108243,3.489626,0.000000,-0.000000,1.000000
55.453241,-28.568956,-3.169245,0.887011,-0.461749,0.000000
-26.466322,-56.547803,-2.642272,-0.461749,-0.887011,0.000000
18.274142,-59.644699,-0.769854,0.300705,-0.953717,0.000000
44.319177,-41.916298,-3.489626,0.000000,-0.000000,-1.000000
43.073414,-35.074812,3.489626,-0.000000,0.000000,1.000000
32.750709,50.750519,-3.489626,0.000000,0.000000,-1.000000
23.531213,9.105570,3.489626,0.000000,-0.000000,1.000000
-10.283503,21.698427,3.489626,0.000000,-0.000000,1.000000
50.684070,-7.883675,-3.489626,0.000000,0.000000,-1.000000
17.083179,-25.957925,3.489626,0.000000,0.000000,1.000000
29.070239,47.637826,-2.098620,-0.881922,-0.471396,0.000000
52.170841,-34.205980,-3.450953,0.843392,-0.537299,0.000000
-45.664061,-16.179091,3.489626,0.000000,-0.000000,1.000000
41.882131,5.956015,-3.489626,0.000000,0.000000,-1.000000
-40.457188,-5.202996,3.489626,0.000000,-0.000000,1.000000
9.428166,-37.911932,3.489626,0.000000,-0.000000,1.000000
-31.296542,22.186285,3.489626,-0.000000,0.000000,1.000000
32.387116,7.364960,-3.489626,0.000000,0.000000,-1.000000
-32.263485,53.408347,-1.475790,-0.537299,0.843392,0.000000
36.506515,16.515919,3.489626,0.000000,-0.000000,1.000000
22.452899,8.848838,3.489626,0.000000,-0.000000,1.000000
-26.926300,4.111613,3.489626,-0.000000,0.000000,1.000000
18.949473,31.615348,3.489626,0.000000,-0.000000,1.000000
41.606331,-21.690251,-3.489626,0.000000,-0.000000,-1.000000
-21.569214,34.762811,3.489626,0.000000,0.000000,1.000000
-55.922773,5.607731,3.489626,-0.000000,-0.000000,1.000000
37.429280,-45.842351,-3.489626,0.000000,-0.000000,-1.000000
1.845791,43.566369,-3.489626,0.000000,0.000000,-1.000000
4.349335,27.953647,3.489626,-0.000000,0.000000,1.000000
-24.182608,29.808855,-3.489626,0.000000,0.000000,-1.000000
21.637661,10.392532,3.489626,-0.000000,0.000000,1.000000
-49.676813,16.298423,-3.489626,0.000000,0.000000,-1.000000
-3.343794,43.003387,3.489626,-0.000000,-0.000000,1.000000
7.718378,-41.474949,3.489626,0.000000,-0.000000,1.000000
37.837630,-0.061956,-3.489626,0.000000,0.000000,-1.000000
-50.130770,12.262911,-3.489626,0.000000,0.000000,-1.000000
-19.473328,-46.626789,3.489626,-0.000000,0.000000,1.000000
5.829018,46.166421,-3.489626,0.000000,0.000000,-1.000000
18.911566,13.455182,1.712357,-0.773011,-0.634393,0.000000
55.632070,28.225429,0.966495,0.887011,0.461749,-0.000000
-17.589905,-38.810655,3.489626,0.000000,-0.000000,1.000000
-15.896260,-34.872508,-3.489626,0.000000,0.000000,-1.000000
-40.575463,-24.477494,3.489626,0.000000,-0.000000,1.000000
6.455915,22.238233,2.243311,-0.290285,-0.956940,0.000000
-8.382540,-37.837213,-3.489626,0.000000,-0.000000,-1.000000
10.400014,43.363784,3.489626,0.000000,-0.000000,1.000000
-25.202098,21.563274,-3.489626,0.000000,-0.000000,-1.000000
20.998077,21.726423,3.489626,0.000000,-0.000000,1.000000
38.682270,-48.945439,-1.937596,0.608762,-0.793353,0.000000
-53.125341,-27.626807,-3.489626,0.000000,-0.000000,-1.000000
9.112892,-21.383912,2.364964,-0.471397,0.881921,0.000000
-40.409146,43.517073,3.489626,-0.000000,-0.000000,1.000000
31.900775,5.084785,3.489626,0.000000,-0.000000,1.000000
35.713730,-10.093157,-3.489626,0.000000,-0.000000,-1.000000
42.198660,37.440009,3.489626,0.000000,-0.000000,1.000000
-2.751952,-41.231589,3.489626,0.000000,-0.000000,1.000000
59.114430,-19.955942,-0.469558,0.953717,-0.300705,0.000000
42.601067,-29.129777,-3.489626,0.000000,-0.000000,-1.000000
22.875902,-34.281017,3.489626,0.000000,0.000000,1.000000
47.895878,-11.735906,-3.489626,0.000000,-0.000000,-1.000000
-24.917778,39.294697,-3.489626,0.000000,0.000000,-1.000000
-28.269698,-14.632432,-3.489626,0.000000,0.000000,-1.000000
-17.984152,43.441728,-3.489626,0.000000,0.000000,-1.000000
10.132290,-29.311773,-3.489626,0.000000,0.000000,-1.000000
-41.460119,-46.616448,2.377465,-0.675590,-0.737277,0.000000
43.899776,17.641912,3.489626,0.000000,-0.000000,1.000000
14.364089,45.429154,3.489626,0.000000,-0.000000,1.000000
-47.976751,9.473390,-3.489626,0.000000,0.000000,-1.000000
48.108437,24.902103,3.489626,0.000000,-0.000000,1.000000
3.295142,-49.385663,-3.489626,0.000000,0.000000,-1.000000
-9.728299,-48.451008,3.489626,-0.000000,0.000000,1.000000
-26.693211,-35.271609,3.489626,0.000000,-0.000000,1.000000
-13.612880,49.181333,3.489626,0.000000,0.000000,1.000000
-47.949117,10.760138,-3.489626,0.000000,0.000000,-1.000000
27.943726,-16.694716,3.489626,-0.000000,0.000000,1.000000
26.545394,-56.506641,1.099873,0.461749,-0.887011,0.000000
-61.348625,5.868213,3.489626,-0.000000,-0.000000,1.000000
-60.344194,-16.011418,-1.064614,-0.976296,-0.216440,0.000000
-27.305776,49.344423,-3.489626,0.000000,-0.000000,-1.000000
15.755490,59.901150,-3.489626,0.000000,0.000000,-1.000000
24.599692,-5.076619,-3.489626,0.000000,-0.000000,-1.000000
62.254573,4.217846,-1.854281,0.999048,0.043619,-0.000000
58.365506,-22.098176,-2.463549,0.923880,-0.382684,0.000000
31.368766,-53.978345,2.438742,0.537299,-0.843392,0.000000
41.715090,7.106837,3.489626,0.000000,-0.000000,1.000000
-10.533945,-46.410661,-3.489626,0.000000,-0.000000,-1.000000
61.703493,9.221837,2.862401,0.991445,0.130526,-0.000000
31.428635,-53.940205,0.704001,0.537299,-0.843392,0.000000
48.793974,5.784875,3.489626,0.000000,-0.000000,1.000000
28.801065,-47.970359,2.210581,-0.773009,0.634395,0.000000
7.062764,-28.441280,-3.489626,0.000000,0.000000,-1.000000
-60.903783,4.303982,3.489626,0.000000,-0.000000,1.000000
-22.989708,-23.670086,3.489626,0.000000,-0.000000,1.000000
40.442041,13.955338,3.489626,0.000000,-0.000000,1.000000
-57.075462,25.212617,2.748703,-0.923880,0.382684,0.000000
1.298089,-39.673453,3.489626,0.000000,-0.000000,1.000000
30.986014,-48.165812,3.489626,0.000000,0.000000,1.000000
22.838373,-4.349395,-2.467350,-0.995185,0.098017,0.000000
-29.480670,15.763569,-3.489626,0.000000,-0.000000,-1.000000
36.363797,-43.981578,3.489626,-0.000000,0.000000,1.000000
18.247578,-14.264254,1.226082,-0.773011,0.634393,0.000000
-13.280444,60.492681,-3.489626,0.000000,0.000000,-1.000000
-49.084043,-22.066826,3.489626,0.000000,-0.000000,1.000000
-39.523349,27.089876,3.489626,-0.000000,-0.000000,1.000000
-49.051833,11.299640,-3.489626,0.000000,0.000000,-1.000000
10.308115,54.255471,-3.489626,0.000000,0.000000,-1.000000
-44.315858,15.680933,3.489626,-0.000000,-0.000000,1.000000
-25.559847,56.877262,3.489626,0.000000,0.000000,1.000000
47.904733,9.823249,-3.489626,0.000000,0.000000,-1.000000
-22.782322,-11.628347,3.489626,0.000000,-0.000000,1.000000
33.030560,-16.052619,3.489626,-0.000000,-0.000000,1.000000
-3.724568,-34.759362,-3.489626,0.000000,0.000000,-1.000000
-36.489804,-39.472332,3.489626,0.000000,-0.000000,1.000000
22.060814,16.760662,3.489626,0.000000,-0.000000,1.000000
-39.837558,41.971637,3.489626,-0.000000,-0.000000,1.000000
-36.596768,-7.156329,-3.489626,0.000000,0.000000,-1.000000
31.927272,-53.622538,-2.350308,0.537299,-0.843392,0.000000
42.110277,-6.700294,-3.489626,0.000000,0.000000,-1.000000
25.698624,-39.172739,-3.489626,-0.000000,-0.000000,-1.000000
-34.521110,10.080717,-3.489626,0.000000,-0.000000,-1.000000
-39.186889,-32.722640,3.489626,0.000000,-0.000000,1.000000
35.044256,-46.371168,3.489626,-0.000000,0.000000,1.000000
-31.957343,36.397795,-3.489626,0.000000,0.000000,-1.000000
46.410277,7.203637,3.489626,0.000000,-0.000000,1.000000
-29.948511,2.440493,-3.489626,0.000000,-0.000000,-1.000000
-30.597420,32.548192,3.489626,-0.000000,-0.000000,1.000000
-39.947271,47.974769,-0.234402,-0.608762,0.793353,0.000000
7.181918,-55.202659,-3.489626,0.000000,0.000000,-1.000000
-19.833609,-12.013306,-2.432197,0.881921,0.471397,-0.000000
12.726082,33.316214,-3.489626,0.000000,-0.000000,-1.000000
-18.794215,35.335979,-3.489626,0.000000,0.000000,-1.000000
-30.955030,11.871197,-3.489626,0.000000,-0.000000,-1.000000
55.729639,28.038000,-3.069894,0.887011,0.461749,0.000000
-8.864795,-44.927402,3.489626,-0.000000,0.000000,1.000000
-10.662740,-32.911822,-3.489626,0.000000,0.000000,-1.000000
-39.312379,-11.210872,-3.489626,0.000000,0.000000,-1.000000
56.884745,16.587564,3.489626,0.000000,-0.000000,1.000000
46.622102,29.270789,3.489626,0.000000,-0.000000,1.000000
-30.180614,9.148396,-3.489626,0.000000,-0.000000,-1.000000
31.851823,3.075803,-3.489626,0.000000,0.000000,-1.000000
44.127789,12.102425,3.489626,0.000000,-0.000000,1.000000
-3.041224,-38.859283,3.489626,0.000000,-0.000000,1.000000
-50.114300,-17.305051,-3.489626,0.000000,0.000000,-1.000000
-14.569305,-41.378601,3.489626,-0.000000,0.000000,1.000000
-4.903891,52.358836,-3.489626,0.000000,0.000000,-1.000000
-35.230427,-0.377457,3.489626,0.000000,-0.000000,1.000000
-47.309802,22.162693,3.489626,-0.000000,0.000000,1.000000
26.496459,-29.043439,3.489626,-0.000000,0.000000,1.000000
9.044778,-25.160448,3.489626,0.000000,0.000000,1.000000
44.835455,-24.146416,3.489626,-0.000000,0.000000,1.000000
44.324881,-26.021848,-3.489626,0.000000,0.000000,-1.000000
-21.004719,-30.880860,3.489626,0.000000,0.000000,1.000000
42.671623,5.963939,-3.489626,0.000000,0.000000,-1.000000
6.717463,-46.231890,3.489626,-0.000000,-0.000000,1.000000
47.920314,-27.360034,-3.489626,0.000000,0.000000,-1.000000
-50.043205,-0.093959,-1.398918,-0.995185,0.098015,0.000000
-45.719630,-27.843632,-3.489626,0.000000,0.000000,-1.000000
-10.627048,23.197868,-3.489626,0.000000,0.000000,-1.000000
-43.339817,16.693181,3.489626,-0.000000,-0.000000,1.000000
-39.742062,-21.991427,3.489626,0.000000,-0.000000,1.000000
28.386439,53.157979,-3.489626,0.000000,0.000000,-1.000000
22.124466,7.079544,3.489626,0.000000,-0.000000,1.000000
28.912738,-54.895440,-3.489626,0.000000,0.000000,-1.000000
39.271339,-6.352159,3.489626,-0.000000,0.000000,1.000000
58.036968,5.415569,3.489626,0.000000,-0.000000,1.000000
25.018364,-6.222440,3.489626,-0.000000,-0.000000,1.000000
33.369332,43.631480,3.489626,0.000000,-0.000000,1.000000
-7.404907,-51.482077,-3.489626,0.000000,-0.000000,-1.000000
33.220428,-36.946251,3.489626,-0.000000,0.000000,1.000000
47.817880,31.329626,-3.489626,0.000000,0.000000,-1.000000
-21.873687,-7.657661,-2.483243,0.956940,0.290285,-0.000000
-44.611654,19.622192,3.489626,-0.000000,-0.000000,1.000000
-12.579208,51.002421,3.489626,0.000000,0.000000,1.000000
21.084720,58.758528,-2.113535,0.300705,0.953717,0.000000
27.395824,48.862236,-3.062207,-0.290280,-0.956942,0.000000
43.900000,43.062608,3.489626,0.000000,-0.000000,1.000000
55.809213,-23.973751,-3.489626,0.000000,-0.000000,-1.000000
26.987402,52.538153,3.489626,-0.000000,-0.000000,1.000000
16.655792,16.203851,-0.527594,-0.773011,-0.634393,0.000000
20.145038,11.430664,2.792433,-0.881921,-0.471397,0.000000
58.623300,-1.960215,3.489626,-0.000000,0.000000,1.000000
-29.201085,-13.764903,3.489626,-0.000000,0.000000,1.000000
19.267621,50.639731,-3.489626,0.000000,0.000000,-1.000000
37.647343,-4.099902,3.489626,-0.000000,-0.000000,1.000000
-19.801665,-40.118874,-3.489626,0.000000,0.000000,-1.000000
-37.303721,-38.123781,-3.489626,0.000000,0.000000,-1.000000
-55.143813,-29.163361,2.353545,-0.887011,-0.461749,0.000000
3.995507,32.532327,3.489626,-0.000000,0.000000,1.000000
-32.213818,-33.890543,3.489626,0.000000,-0.000000,1.000000
-42.018086,-0.370852,3.489626,0.000000,-0.000000,1.000000
20.268171,18.983506,-3.489626,0.000000,0.000000,-1.000000
12.569542,27.652129,-3.489626,0.000000,-0.000000,-1.000000
10.817202,20.472940,2.296905,-0.471397,-0.881921,0.000000
31.647900,-14.591276,3.489626,-0.000000,-0.000000,1.000000
61.117768,5.201021,3.489626,0.000000,0.000000,1.000000
15.169618,-45.091103,-3.489626,0.000000,0.000000,-1.000000
-28.329123,35.138770,-3.489626,0.000000,0.000000,-1.000000
29.508782,8.995603,-3.489626,0.000000,0.000000,-1.000000
46.733872,16.390719,-3.489626,0.000000,0.000000,-1.000000
-38.688046,-2.334842,-3.489626,0.000000,0.000000,-1.000000
46.320662,-35.914489,-3.489626,0.000000,-0.000000,-1.000000
59.897165,-17.473422,-1.601957,0.953717,-0.300705,0.000000
34.584632,-19.966512,3.489626,-0.000000,0.000000,1.000000
-49.343721,-24.384493,-3.489626,0.000000,-0.000000,-1.000000
24.558580,57.346373,3.076204,0.382684,0.923880,-0.000000
22.487791,-31.381535,-3.489626,0.000000,0.000000,-1.000000
22.216277,6.528291,-3.353639,-0.956940,-0.290285,0.000000
8.940564,-21.476023,-1.570665,-0.471397,0.881921,0.000000
18.555429,50.580857,-3.489626,0.000000,-0.000000,-1.000000
-41.400829,-24.517846,3.489626,0.000000,-0.000000,1.000000
-33.962160,0.952949,3.489626,0.000000,0.000000,1.000000
38.753368,-4.995159,-3.489626,0.000000,0.000000,-1.000000
3.400667,-61.474571,3.489626,0.000000,-0.000000,1.000000
-12.132648,49.253748,3.489626,0.000000,0.000000,1.000000
-22.515897,-46.340879,-3.489626,0.000000,0.000000,-1.000000
29.200989,10.062794,3.489626,0.000000,-0.000000,1.000000
13.261335,44.181387,-3.489626,0.000000,0.000000,-1.000000
5.999372,-62.127737,-0.396007,0.130526,-0.991445,0.000000
-5.935851,38.322631,3.489626,0.000000,-0.000000,1.000000
43.064124,-23.241097,3.489626,-0.000000,0.000000,1.000000
52.381063,4.490538,3.489626,0.000000,-0.000000,1.000000
-13.594081,-60.880106,2.220688,-0.216440,-0.976296,0.000000
47.482351,28.363329,3.489626,0.000000,-0.000000,1.000000
-33.301952,-52.746770,-1.410228,-0.537299,-0.843392,0.000000
9.770585,-41.078147,3.489626,0.000000,-0.000000,1.000000
20.867488,-54.093821,3.489626,0.000000,-0.000000,1.000000
22.776989,-58.084332,1.872945,0.382684,-0.923880,0.000000
11.156837,-61.420431,1.781511,0.216440,-0.976296,0.000000
-49.197963,-0.522593,-3.489626,0.000000,0.000000,-1.000000
-44.635287,16.030595,3.489626,-0.000000,-0.000000,1.000000
41.352555,-13.967834,3.489626,-0.000000,0.000000,1.000000
-21.521186,39.230618,-3.489626,0.000000,0.000000,-1.000000
23.090945,33.940367,3.489626,0.000000,-0.000000,1.000000
-48.856114,36.634967,3.489626,-0.000000,-0.000000,1.000000
49.409070,35.835850,-3.489626,0.000000,0.000000,-1.000000
36.223672,-0.608791,3.489626,0.000000,0.000000,1.000000
-38.948870,39.334472,-3.489626,0.000000,0.000000,-1.000000
-11.649592,33.890355,-3.489626,0.000000,0.000000,-1.000000
46.402299,16.504679,-3.489626,0.000000,0.000000,-1.000000
-34.718012,10.857988,-3.489626,0.000000,-0.000000,-1.000000
-43.966749,14.362771,3.489626,-0.000000,-0.000000,1.000000
-32.582222,-16.767055,3.489626,0.000000,-0.000000,1.000000
-51.528695,4.801609,-3.489626,0.000000,0.000000,-1.000000
-46.391747,41.705337,-0.612375,-0.737277,0.675590,0.000000
-43.224463,-39.534449,-3.489626,0.000000,-0.000000,-1.000000
-4.618817,-50.635562,3.489626,0.000000,-0.000000,1.000000
-16.930765,50.280084,-3.489626,0.000000,0.000000,-1.000000
-35.759462,36.136860,-3.489626,0.000000,0.000000,-1.000000
6.634297,29.026641,-3.489626,0.000000,0.000000,-1.000000
30.837956,-38.639032,-3.489626,0.000000,-0.000000,-1.000000
1.684767,26.342741,3.489626,-0.000000,0.000000,1.000000
45.454470,11.469882,3.489626,0.000000,-0.000000,1.000000
-46.449358,-0.466732,-3.489626,0.000000,0.000000,-1.000000
44.109777,-9.339352,-3.489626,0.000000,-0.000000,-1.000000
-18.134439,-48.405153,-3.489626,0.000000,-0.000000,-1.000000
32.228582,-10.485624,-3.489626,0.000000,0.000000,-1.000000
-9.489982,53.443680,3.489626,0.000000,-0.000000,1.000000
39.837541,24.581429,3.489626,0.000000,-0.000000,1.000000
40.596624,-29.671909,3.489626,-0.000000,-0.000000,1.000000
-10.312507,49.446074,3.489626,0.000000,0.000000,1.000000
55.672334,26.894950,-3.489626,0.000000,0.000000,-1.000000
-35.342280,44.843770,3.489626,-0.000000,-0.000000,1.000000
-12.946533,-19.329003,-2.051985,0.634393,0.773011,0.000000
-27.119507,-50.493273,3.489626,0.000000,0.000000,1.000000
28.535428,-7.422956,3.489626,-0.000000,-0.000000,1.000000
-11.291139,-21.093412,3.489626,0.000000,-0.000000,1.000000
49.085420,38.499843,2.706780,0.793353,0.608762,-0.000000
6.859842,45.853223,-3.489626,0.000000,-0.000000,-1.000000
20.368846,50.198060,3.489626,0.000000,-0.000000,1.000000
-27.615206,43.129307,-2.577416,0.290286,0.956940,-0.000000
-46.955992,37.362825,3.489626,-0.000000,-0.000000,1.000000
-34.801166,20.062577,3.489626,-0.000000,-0.000000,1.000000
-12.044756,-19.816799,-0.146197,0.471397,0.881921,-0.000000
-40.894998,25.433498,-3.489626,0.000000,0.000000,-1.000000
-21.661925,39.872831,-3.489626,0.000000,0.000000,-1.000000
-36.145270,19.671462,-3.489626,0.000000,-0.000000,-1.000000
-37.699494,-49.699550,-2.011310,-0.608762,-0.793353,0.000000
45.641975,-17.666244,3.489626,-0.000000,0.000000,1.000000
-61.918331,5.608556,-3.489626,0.000000,0.000000,-1.000000
-14.248689,42.977466,3.489626,0.000000,-0.000000,1.000000
-16.033433,-54.051582,3.489626,-0.000000,0.000000,1.000000
-2.283931,49.999677,3.489626,-0.000000,0.000000,1.000000
-42.547299,31.519627,3.489626,-0.000000,-0.000000,1.000000
-24.585794,-10.140783,-3.489626,0.000000,0.000000,-1.000000
-8.016131,-21.764946,0.740139,0.290285,0.956940,-0.000000
26.608670,42.930639,-2.709923,-0.098015,0.995185,0.000000
5.274922,-55.953869,-3.489626,0.000000,0.000000,-1.000000
-4.429174,49.168091,3.489626,-0.000000,-0.000000,1.000000
26.334981,22.209499,3.489626,0.000000,-0.000000,1.000000
43.989881,22.193013,3.489626,0.000000,-0.000000,1.000000
-50.062143,9.284987,3.489626,-0.000000,-0.000000,1.000000
59.522877,-3.418279,-3.489626,0.000000,0.000000,-1.000000
43.714351,21.645795,3.489626,0.000000,-0.000000,1.000000
9.680742,-41.493893,-3.489626,0.000000,0.000000,-1.000000
-47.987918,-36.261036,3.489626,0.000000,-0.000000,1.000000
3.533198,22.918761,2.457595,-0.098017,-0.995185,0.000000
30.910653,-53.336548,3.489626,0.000000,-0.000000,1.000000
-31.481263,-45.480219,-3.489626,0.000000,-0.000000,-1.000000
-33.282165,38.476863,-3.489626,0.000000,0.000000,-1.000000
36.690523,1.334190,3.489626,0.000000,0.000000,1.000000
9.378241,56.282336,3.489626,0.000000,-0.000000,1.000000
19.800559,47.049314,3.489626,0.000000,-0.000000,1.000000
-30.364807,-47.258868,-3.489626,0.000000,0.000000,-1.000000
30.923483,-36.960774,-3.489626,0.000000,-0.000000,-1.000000
14.520694,19.939142,-3.489626,0.000000,-0.000000,-1.000000
30.114044,36.326937,-3.489626,0.000000,-0.000000,-1.000000
-2.657091,41.789100,-3.489626,0.000000,0.000000,-1.000000
-42.367246,-40.980004,-3.489626,0.000000,-0.000000,-1.000000
-37.793142,19.268419,-3.489626,0.000000,0.000000,-1.000000
42.482383,20.346148,3.489626,0.000000,-0.000000,1.000000
-33.540061,3.722516,3.489626,-0.000000,0.000000,1.000000
34.739380,9.762686,-3.489626,0.000000,0.000000,-1.000000
10.364272,58.257729,3.489626,0.000000,-0.000000,1.000000
31.117311,3.229476,3.489626,0.000000,-0.000000,1.000000
32.205280,4.618364,-3.489626,0.000000,0.000000,-1.000000
-52.404958,-33.838491,1.488283,-0.843392,-0.537299,0.000000
-36.874618,-45.432985,3.489626,-0.000000,0.000000,1.000000
-14.850479,-38.543313,-3.489626,0.000000,-0.000000,-1.000000
-47.409302,33.927344,3.489626,-0.000000,-0.000000,1.000000
5.081971,-62.216845,-1.223373,0.043619,-0.999048,0.000000
54.230855,10.756397,3.489626,0.000000,-0.000000,1.000000
-4.445137,-62.244649,-0.099530,-0.043619,-0.999048,0.000000
37.555218,-25.573933,3.489626,-0.000000,0.000000,1.000000
0.926378,-28.847509,-3.489626,0.000000,0.000000,-1.000000
-53.163100,26.233335,3.489626,-0.000000,-0.000000,1.000000
-6.586681,46.085781,3.489626,0.000000,-0.000000,1.000000
27.132884,42.865149,-3.489626,0.000000,0.000000,-1.000000
-31.723697,2.783019,-3.489626,0.000000,-0.000000,-1.000000
-22.933927,3.379213,-2.870689,0.995185,-0.098017,0.000000
-43.568522,44.684452,0.617488,-0.675590,0.737277,0.000000
34.610602,27.837902,-3.489626,0.000000,0.000000,-1.000000
49.207866,38.340268,1.060876,0.793353,0.608762,-0.000000
-26.373551,29.145255,-3.489626,0.000000,0.000000,-1.000000
-11.593166,34.663717,3.489626,0.000000,-0.000000,1.000000
19.240421,-13.054471,0.514938,-0.773011,0.634393,0.000000
-1.342789,28.291669,3.489626,-0.000000,-0.000000,1.000000
-1.321043,33.255924,3.489626,-0.000000,0.000000,1.000000
-10.452048,26.232897,3.489626,0.000000,-0.000000,1.000000
-46.100078,-24.342657,3.489626,-0.000000,0.000000,1.000000
61.741269,8.934898,1.868281,0.991445,0.130526,-0.000000
-1.165825,-41.420806,-3.489626,0.000000,-0.000000,-1.000000
22.127361,-49.005571,3.489626,0.000000,-0.000000,1.000000
15.167755,42.199873,-3.489626,0.000000,-0.000000,-1.000000
-38.040563,-24.725785,-3.489626,0.000000,0.000000,-1.000000
34.404398,-48.356125,-3.489626,0.000000,-0.000000,-1.000000
-61.197970,-12.160294,2.976545,-0.976296,-0.216440,0.000000
-20.529426,10.804971,3.489626,-0.000000,0.000000,1.000000
-15.599085,42.243163,3.489626,0.000000,-0.000000,1.000000
-22.349170,6.090202,-1.847284,0.956940,-0.290285,0.000000
-28.949966,-4.989815,3.489626,0.000000,-0.000000,1.000000
37.047709,2.014867,-3.489626,0.000000,0.000000,-1.000000
-6.315915,58.437990,-3.489626,0.000000,0.000000,-1.000000
-1.403058,-61.297472,-3.489626,0.000000,-0.000000,-1.000000
-53.295637,9.976841,-3.489626,0.000000,0.000000,-1.000000
28.299793,-11.984896,3.489626,-0.000000,0.000000,1.000000
23.772806,-11.699481,3.489626,-0.000000,-0.000000,1.000000
58.979973,20.382387,-0.402825,0.953717,0.300705,-0.000000
-25.697241,22.537966,3.489626,-0.000000,-0.000000,1.000000
-35.484680,36.813004,3.489626,-0.000000,-0.000000,1.000000
36.036851,-3.808817,-3.489626,0.000000,0.000000,-1.000000
-19.174140,40.010817,3.489626,0.000000,0.000000,1.000000
27.301418,-2.316183,-3.489626,0.000000,0.000000,-1.000000
5.913152,-39.330607,-3.489626,0.000000,0.000000,-1.000000
31.458623,-45.494123,-3.489626,-0.000000,-0.000000,-1.000000
20.511065,-40.260299,-3.489626,0.000000,0.000000,-1.000000
16.593574,-53.352228,3.489626,0.000000,-0.000000,1.000000
-55.551073,-28.381022,0.536468,-0.887011,-0.461749,0.000000
-20.261357,11.213046,-2.628880,0.881921,-0.471397,0.000000
-54.641843,30.127635,-0.876632,-0.887011,0.461749,0.000000
33.067014,15.232882,3.489626,0.000000,-0.000000,1.000000
-26.819925,7.952518,3.489626,-0.000000,0.000000,1.000000
-44.340441,-24.862079,-3.489626,0.000000,-0.000000,-1.000000
-14.401607,-37.194080,-3.489626,0.000000,-0.000000,-1.000000
-57.322494,19.759355,3.489626,-0.000000,-0.000000,1.000000
26.509007,-9.102347,-3.489626,0.000000,0.000000,-1.000000
-47.427631,40.574869,-2.449030,-0.737277,0.675590,0.000000
-19.831215,51.629105,-3.489626,0.000000,0.000000,-1.000000
29.747770,-3.147701,-3.489626,0.000000,0.000000,-1.000000
8.261414,22.394216,3.489626,-0.000000,0.000000,1.000000
-35.974025,9.799391,3.489626,-0.000000,0.000000,1.000000
19.930878,55.838262,-3.489626,0.000000,0.000000,-1.000000
-48.031115,-34.252167,-3.489626,0.000000,0.000000,-1.000000
32.864784,-22.089464,-3.489626,0.000000,-0.000000,-1.000000
-20.748545,36.588947,3.489626,0.000000,-0.000000,1.000000
-23.245743,-0.213294,-1.841914,0.995185,0.098017,-0.000000
9.406916,-21.226753,0.399436,-0.471397,0.881921,0.000000
-41.443534,-1.446392,3.489626,0.000000,-0.000000,1.000000
-41.121449,-25.328851,-3.489626,0.000000,0.000000,-1.000000
-33.067435,-21.078854,3.489626,0.000000,-0.000000,1.000000
2.171719,-25.695812,3.489626,-0.000000,-0.000000,1.000000
9.869280,-25.295628,-3.489626,0.000000,0.000000,-1.000000
-21.934421,14.476267,3.489626,-0.000000,-0.000000,1.000000
-18.137934,36.654360,-3.489626,0.000000,0.000000,-1.000000
57.985157,7.141837,3.489626,0.000000,-0.000000,1.000000
33.154105,50.892810,-3.489626,0.000000,0.000000,-1.000000
27.351704,43.049374,1.230798,-0.290286,0.956940,0.000000
19.847078,-20.519442,-3.489626,0.000000,-0.000000,-1.000000
-23.982033,50.216592,-3.489626,0.000000,0.000000,-1.000000
-21.512833,-8.847236,0.341174,0.956940,0.290285,0.000000
-32.691490,48.561174,3.489626,-0.000000,0.000000,1.000000
-9.213463,-53.395832,-3.489626,0.000000,0.000000,-1.000000
-59.011354,-7.997224,3.489626,0.000000,-0.000000,1.000000
28.094962,15.097406,-3.489626,0.000000,-0.000000,-1.000000
-23.344651,57.849199,2.124839,-0.382684,0.923880,0.000000
32.193471,22.095575,-3.489626,0.000000,0.000000,-1.000000
49.410167,-5.229631,3.489626,-0.000000,0.000000,1.000000
-60.822722,13.852923,0.073077,-0.976296,0.216440,0.000000
-3.326712,29.548884,3.489626,0.000000,-0.000000,1.000000
-29.240555,51.132875,3.489626,0.000000,-0.000000,1.000000
-57.710792,5.631328,-3.489626,0.000000,0.000000,-1.000000
33.387437,-7.789049,3.489626,-0.000000,0.000000,1.000000
46.115589,13.655013,-3.489626,0.000000,0.000000,-1.000000
15.108152,39.743018,-3.489626,0.000000,0.000000,-1.000000
-47.233939,10.139662,3.489626,-0.000000,-0.000000,1.000000
-51.424246,30.935611,-3.489626,0.000000,0.000000,-1.000000
18.105815,14.436993,-0.739119,-0.773011,-0.634393,0.000000
8.016485,-29.278559,-3.489626,0.000000,0.000000,-1.000000
22.381089,-5.984980,-1.493122,-0.956940,0.290285,0.000000
44.700353,30.068322,-3.489626,0.000000,0.000000,-1.000000
-51.371336,-7.443036,3.489626,0.000000,-0.000000,1.000000
-14.608871,-21.625534,-3.489626,0.000000,-0.000000,-1.000000
-25.678621,43.062295,-0.665698,-0.290286,0.956940,0.000000
47.403726,-21.293521,3.489626,-0.000000,0.000000,1.000000
9.909076,-51.766824,3.489626,0.000000,-0.000000,1.000000
3.510207,62.285469,0.942796,0.043619,0.999048,0.000000
40.071991,-46.915996,-3.489626,0.000000,-0.000000,-1.000000
39.213604,14.921582,3.489626,0.000000,-0.000000,1.000000
18.761897,55.724541,3.489626,0.000000,-0.000000,1.000000
6.129129,48.887157,3.489626,0.000000,-0.000000,1.000000
43.602822,-15.209293,3.489626,-0.000000,0.000000,1.000000
-19.597797,40.090597,3.489626,0.000000,0.000000,1.000000
-29.054352,-47.661729,0.830511,0.773009,0.634395,-0.000000
-10.935277,-20.409827,-2.054462,0.471397,0.881921,-0.000000
-30.975227,9.941033,-3.489626,0.000000,-0.000000,-1.000000
9.756093,-61.633157,-3.425039,0.130526,-0.991445,0.000000
41.131447,-26.024632,3.489626,-0.000000,0.000000,1.000000
-39.862545,-37.663242,3.489626,-0.000000,0.000000,1.000000
6.131127,-27.190827,3.489626,0.000000,-0.000000,1.000000
17.231300,53.280072,3.489626,0.000000,-0.000000,1.000000
60.539606,-14.705273,3.489626,-0.000000,0.000000,1.000000
4.420138,38.460743,-3.489626,0.000000,-0.000000,-1.000000
-56.780784,23.056831,3.489626,-0.000000,-0.000000,1.000000
34.104536,31.910339,-3.489626,0.000000,0.000000,-1.000000
-40.541693,-33.559062,3.489626,0.000000,-0.000000,1.000000
-42.151229,24.940433,3.489626,-0.000000,-0.000000,1.000000
46.496808,-9.381450,-3.489626,0.000000,-0.000000,-1.000000
-60.700771,6.918094,-3.489626,0.000000,0.000000,-1.000000
-41.753576,-39.965494,3.489626,-0.000000,0.000000,1.000000
22.305966,-15.915086,-3.489626,0.000000,0.000000,-1.000000
40.310671,13.178495,-3.489626,0.000000,0.000000,-1.000000
26.678048,24.567134,3.489626,0.000000,-0.000000,1.000000
-39.400541,48.394290,2.175619,-0.608762,0.793353,0.000000
32.070435,-29.910622,-3.489626,0.000000,-0.000000,-1.000000
30.839252,-27.187015,3.489626,-0.000000,0.000000,1.000000
5.975793,36.730535,3.489626,0.000000,-0.000000,1.000000
59.676858,1.572520,-3.489626,0.000000,0.000000,-1.000000
-10.115822,29.969855,3.489626,0.000000,-0.000000,1.000000
41.449158,-17.460259,3.489626,-0.000000,0.000000,1.000000
-41.739292,-40.048699,3.489626,-0.000000,0.000000,1.000000
-8.383270,-61.813892,-0.098166,-0.130526,-0.991445,0.000000
-18.238732,34.313345,-3.489626,0.000000,0.000000,-1.000000
0.328335,-54.448447,-3.489626,0.000000,0.000000,-1.000000
17.851136,-46.216523,-3.489626,0.000000,0.000000,-1.000000
-16.594125,-30.980421,-3.489626,0.000000,0.000000,-1.000000
-54.130411,-11.835271,3.489626,0.000000,-0.000000,1.000000
-9.214610,46.448482,3.489626,0.000000,0.000000,1.000000
-20.906286,42.080118,-3.489626,0.000000,0.000000,-1.000000
-14.794528,-23.162207,3.489626,-0.000000,0.000000,1.000000
33.551916,36.526007,3.489626,0.000000,-0.000000,1.000000
31.784065,51.114049,3.489626,0.000000,-0.000000,1.000000
38.275098,-46.542041,3.489626,-0.000000,0.000000,1.000000
-7.087211,-44.943210,-3.489626,0.000000,0.000000,-1.000000
-14.476343,57.660908,-3.489626,0.000000,0.000000,-1.000000
-37.602317,-27.515100,3.489626,0.000000,-0.000000,1.000000
-55.722800,-5.125929,-3.489626,0.000000,0.000000,-1.000000
16.316110,-34.309781,-3.489626,0.000000,0.000000,-1.000000
20.745352,-11.691572,3.489626,-0.000000,-0.000000,1.000000
-46.438024,-36.998574,-3.489626,0.000000,0.000000,-1.000000
-9.611602,-30.200717,-3.489626,0.000000,0.000000,-1.000000
-13.568295,-48.799857,-3.489626,0.000000,-0.000000,-1.000000
-23.771914,11.554332,3.489626,-0.000000,0.000000,1.000000
22.993542,-51.280715,3.489626,0.000000,-0.000000,1.000000
-53.138659,-26.878790,3.489626,-0.000000,0.000000,1.000000
13.457631,-32.584518,3.489626,0.000000,-0.000000,1.000000
18.804120,-58.134370,-3.489626,0.000000,0.000000,-1.000000
31.317338,-38.766223,-3.489626,0.000000,-0.000000,-1.000000
-48.936812,10.664949,3.489626,-0.000000,-0.000000,1.000000
2.826174,49.633858,-3.489626,0.000000,0.000000,-1.000000
-41.039048,-19.646815,-3.489626,0.000000,0.000000,-1.000000
-26.620782,24.535384,-3.489626,0.000000,0.000000,-1.000000
-20.889904,10.037116,2.913414,0.881921,-0.471397,0.000000
49.910479,37.424605,2.488390,0.793353,0.608762,-0.000000
1.687843,62.365035,1.069302,0.043619,0.999048,-0.000000
-14.589928,17.980304,0.382820,0.634393,-0.773011,0.000000
30.716634,-33.210900,3.489626,-0.000000,0.000000,1.000000
20.687792,-20.200740,-3.489626,0.000000,-0.000000,-1.000000
-1.970084,-32.207911,-3.489626,0.000000,-0.000000,-1.000000
29.826724,-50.962967,3.489626,0.000000,-0.000000,1.000000
-49.164232,29.636163,-3.489626,0.000000,0.000000,-1.000000
-30.247163,0.053856,-3.489626,0.000000,0.000000,-1.000000
-16.670673,-51.993462,-3.489626,0.000000,-0.000000,-1.000000
7.755012,60.333018,-3.489626,0.000000,0.000000,-1.000000
-8.911232,60.052432,3.489626,-0.000000,-0.000000,1.000000
-47.066314,-37.159904,-3.489626,0.000000,0.000000,-1.000000
-0.782216,-59.945520,3.489626,-0.000000,0.000000,1.000000
-35.412928,-5.251635,-3.489626,0.000000,0.000000,-1.000000
-40.743885,-40.237288,-3.489626,0.000000,-0.000000,-1.000000
-39.140454,-9.413127,-3.489626,0.000000,0.000000,-1.000000
-0.856232,23.182419,0.153715,0.098017,-0.995185,-0.000000
10.634317,-46.545522,-3.489626,0.000000,0.000000,-1.000000
27.969269,48.625904,3.217670,-0.471401,-0.881919,0.000000
24.819429,-6.824086,-3.489626,0.000000,0.000000,-1.000000
-53.347539,27.321284,3.489626,-0.000000,-0.000000,1.000000
-32.222706,-25.956868,3.489626,0.000000,-0.000000,1.000000
50.995057,2.482631,-3.489626,0.000000,-0.000000,-1.000000
20.097893,29.015046,3.489626,-0.000000,0.000000,1.000000
-23.918431,7.485056,-3.489626,0.000000,-0.000000,-1.000000
-9.929642,-59.171119,-3.489626,0.000000,-0.000000,-1.000000
50.085047,37.197104,1.625934,0.793353,0.608762,-0.000000
56.236700,-16.438128,-3.489626,0.000000,-0.000000,-1.000000
2.971266,-42.337023,3.489626,-0.000000,0.000000,1.000000
-53.081533,-4.181764,3.489626,0.000000,-0.000000,1.000000
33.634101,13.808645,3.489626,0.000000,-0.000000,1.000000
-12.544936,50.112447,-3.489626,0.000000,0.000000,-1.000000
-42.686275,-2.005630,-3.489626,0.000000,0.000000,-1.000000
23.261745,-33.666372,3.489626,-0.000000,0.000000,1.000000
22.412825,17.752216,3.489626,0.000000,-0.000000,1.000000
-16.729012,49.829026,3.489626,0.000000,0.000000,1.000000
30.976127,36.152922,-3.489626,0.000000,-0.000000,-1.000000
-7.830856,47.801593,-3.489626,0.000000,0.000000,-1.000000
25.590199,20.865973,-3.489626,0.000000,0.000000,-1.000000
1.747212,23.671293,3.489626,-0.000000,0.000000,1.000000
-13.173908,26.290296,3.489626,0.000000,-0.000000,1.000000
-37.496812,32.766700,3.489626,-0.000000,-0.000000,1.000000
30.165762,10.609109,3.489626,0.000000,-0.000000,1.000000
-18.757535,-39.471150,-3.489626,0.000000,0.000000,-1.000000
33.908291,52.360490,3.373037,0.537299,0.843392,-0.000000
-55.375850,10.056778,-3.489626,0.000000,0.000000,-1.000000
5.521608,-44.087108,-3.489626,0.000000,0.000000,-1.000000
-6.605055,62.047998,1.769671,-0.130526,0.991445,0.000000
24.557499,-4.572116,-3.489626,0.000000,0.000000,-1.000000
43.880041,-7.635889,3.489626,-0.000000,0.000000,1.000000
5.331767,-40.332622,3.489626,-0.000000,-0.000000,1.000000
24.087852,43.870269,-3.489626,0.000000,0.000000,-1.000000
1.054245,-43.710637,3.489626,0.000000,-0.000000,1.000000
-44.208041,24.782252,3.489626,-0.000000,-0.000000,1.000000
-15.081716,-46.570210,-3.489626,0.000000,-0.000000,-1.000000
21.051723,20.308945,3.489626,0.000000,-0.000000,1.000000
36.460636,38.045748,3.489626,0.000000,-0.000000,1.000000
-24.121435,20.409646,3.489626,-0.000000,0.000000,1.000000
-21.699289,-8.232573,0.935556,0.956940,0.290285,0.000000
-34.330658,33.891551,-3.489626,0.000000,0.000000,-1.000000
-20.287926,-56.806173,3.489626,-0.000000,0.000000,1.000000
-48.394767,26.539374,3.489626,-0.000000,-0.000000,1.000000
4.654597,27.354719,-3.489626,0.000000,-0.000000,-1.000000
-30.694621,-48.172617,3.489626,0.000000,-0.000000,1.000000
-30.132077,-13.417740,3.489626,-0.000000,0.000000,1.000000
-38.254224,1.812865,-3.489626,-0.000000,-0.000000,-1.000000
-47.214184,0.806826,-3.489626,0.000000,0.000000,-1.000000
-29.588270,-35.167999,3.489626,-0.000000,0.000000,1.000000
21.149329,11.349922,3.489626,-0.000000,0.000000,1.000000
-57.418343,5.620249,-3.489626,0.000000,0.000000,-1.000000
62.208540,5.095054,3.489626,-0.000000,-0.000000,1.000000
9.246316,46.342197,-3.489626,0.000000,0.000000,-1.000000
-44.320395,23.530190,-3.489626,0.000000,0.000000,-1.000000
-22.104778,-31.214492,3.489626,0.000000,-0.000000,1.000000
-11.263296,-47.512020,3.489626,-0.000000,0.000000,1.000000
36.183587,-27.911246,-3.489626,0.000000,-0.000000,-1.000000
-0.779070,57.330796,3.489626,-0.000000,0.000000,1.000000
-61.968256,-7.210754,0.313897,-0.991445,-0.130526,-0.000000
56.109025,0.029075,3.058040,-0.995185,-0.098015,0.000000
55.198303,-2.168158,3.201135,-0.634391,0.773012,0.000000
0.000267,-33.096297,-3.489626,0.000000,0.000000,-1.000000
-56.577514,17.525702,3.489626,-0.000000,-0.000000,1.000000
-26.374871,0.889665,-3.489626,0.000000,-0.000000,-1.000000
16.837665,16.688303,3.489626,0.000000,-0.000000,1.000000
27.882902,-16.868113,-3.489626,0.000000,0.000000,-1.000000
-40.747994,-25.503291,3.489626,0.000000,-0.000000,1.000000
7.141841,23.915086,3.489626,-0.000000,0.000000,1.000000
41.183502,33.910673,-3.489626,0.000000,0.000000,-1.000000
56.633455,-12.883063,-3.489626,0.000000,-0.000000,-1.000000
-33.447582,-42.983073,3.489626,-0.000000,0.000000,1.000000
-22.789687,30.231143,-3.489626,0.000000,-0.000000,-1.000000
33.209046,-12.415657,3.489626,-0.000000,0.000000,1.000000
-60.753847,-14.091048,3.489626,0.000000,-0.000000,1.000000
-37.921426,-20.092135,-3.489626,0.000000,-0.000000,-1.000000
5.806293,29.795340,-3.489626,0.000000,0.000000,-1.000000
-23.172087,54.836881,3.489626,0.000000,0.000000,1.000000
16.286761,-42.137350,3.489626,0.000000,-0.000000,1.000000
56.300350,-13.139789,-3.489626,0.000000,-0.000000,-1.000000
7.629765,-36.558620,3.489626,0.000000,-0.000000,1.000000
36.778689,50.406109,1.875714,0.608762,0.793353,-0.000000
23.317422,-35.970335,3.489626,0.000000,0.000000,1.000000
-23.767519,21.856854,-3.489626,0.000000,-0.000000,-1.000000
-9.481311,-29.786931,-3.489626,0.000000,0.000000,-1.000000
37.932159,49.521019,-0.278804,0.608762,0.793353,0.000000
-8.845053,-43.154748,3.489626,-0.000000,0.000000,1.000000
27.523815,-4.539623,-3.489626,0.000000,0.000000,-1.000000
-45.212875,-18.365970,-3.489626,0.000000,0.000000,-1.000000
31.285046,-15.113466,3.489626,-0.000000,-0.000000,1.000000
-45.830893,-27.517507,3.489626,0.000000,-0.000000,1.000000
-8.173730,-38.416029,-3.489626,0.000000,-0.000000,-1.000000
39.114532,3.840130,3.489626,0.000000,-0.000000,1.000000
-3.747904,-56.997488,3.489626,-0.000000,0.000000,1.000000
15.140286,-42.466526,3.489626,0.000000,0.000000,1.000000
-44.345460,-12.495891,3.489626,0.000000,-0.000000,1.000000
20.583094,-50.372765,3.489626,0.000000,-0.000000,1.000000
4.212929,-54.143682,3.489626,0.000000,-0.000000,1.000000
16.386353,32.941315,3.489626,-0.000000,0.000000,1.000000
-24.770255,48.425423,-1.093456,-0.634391,-0.773012,0.000000
23.355192,-21.056788,3.489626,-0.000000,0.000000,1.000000
-23.540630,-50.417857,-3.489626,0.000000,0.000000,-1.000000
8.007182,55.631202,3.489626,0.000000,-0.000000,1.000000
-2.989745,56.198168,3.489626,-0.000000,0.000000,1.000000
-46.833381,16.738155,3.489626,-0.000000,-0.000000,1.000000
2.520457,35.016162,3.489626,-0.000000,0.000000,1.000000
-0.274789,-62.426731,-0.507125,-0.043619,-0.999048,0.000000
51.681854,-5.199688,3.489626,-0.000000,-0.000000,1.000000
30.651019,40.528676,3.489626,0.000000,-0.000000,1.000000
49.623401,-5.167484,3.489626,-0.000000,0.000000,1.000000
22.458063,-31.385159,3.489626,-0.000000,0.000000,1.000000
28.606013,-25.162040,-3.489626,0.000000,0.000000,-1.000000
-51.246108,-31.623228,-3.489626,0.000000,0.000000,-1.000000
-6.641229,-58.192469,-3.489626,0.000000,-0.000000,-1.000000
4.424931,-39.316453,3.489626,-0.000000,0.000000,1.000000
3.543800,-38.623465,-3.489626,0.000000,0.000000,-1.000000
31.013285,23.240846,3.489626,0.000000,-0.000000,1.000000
-18.612257,-28.921440,3.489626,0.000000,0.000000,1.000000
-28.212185,52.692610,-3.489626,0.000000,0.000000,-1.000000
5.432867,55.650960,3.489626,0.000000,-0.000000,1.000000
18.136052,-29.557127,-3.489626,0.000000,-0.000000,-1.000000
40.928889,30.564480,3.489626,0.000000,-0.000000,1.000000
29.075234,-36.423823,3.489626,-0.000000,0.000000,1.000000
-7.890561,-22.782845,3.489626,0.000000,-0.000000,1.000000
31.227921,-0.860029,-3.489626,-0.000000,-0.000000,-1.000000
30.978097,29.947231,-3.489626,0.000000,0.000000,-1.000000
31.023779,-38.452539,-3.489626,0.000000,-0.000000,-1.000000
-32.697288,53.131984,-1.231365,-0.537299,0.843392,0.000000
52.141964,-11.783765,-3.489626,0.000000,-0.000000,-1.000000
19.679305,-12.301989,-2.321525,-0.881921,0.471397,0.000000
7.229818,-22.003471,-1.252106,-0.290285,0.956940,0.000000
-4.711685,28.158687,3.489626,0.000000,-0.000000,1.000000
45.519931,-26.216025,3.489626,-0.000000,0.000000,1.000000
8.580987,21.593598,3.293478,-0.290285,-0.956940,0.000000
20.028253,17.570973,-3.489626,0.000000,0.000000,-1.000000
-54.581768,-22.820910,3.489626,0.000000,-0.000000,1.000000
-15.776060,39.871995,3.489626,0.000000,0.000000,1.000000
17.441134,-15.775203,-3.489626,0.000000,0.000000,-1.000000
-9.776542,-57.742028,-3.489626,0.000000,-0.000000,-1.000000
56.932426,25.456103,3.489626,0.000000,-0.000000,1.000000
-3.945652,60.911341,3.489626,-0.000000,0.000000,1.000000
-34.654771,-28.483253,3.489626,0.000000,-0.000000,1.000000
26.984428,19.880534,3.489626,0.000000,-0.000000,1.000000
28.620260,-2.857607,3.489626,-0.000000,-0.000000,1.000000
-9.831168,46.967269,3.489626,0.000000,0.000000,1.000000
-60.477946,12.860205,-3.489626,0.000000,0.000000,-1.000000
55.896426,14.044021,3.489626,0.000000,-0.000000,1.000000
49.743023,34.708386,3.489626,0.000000,-0.000000,1.000000
-29.260592,26.936581,-3.489626,0.000000,0.000000,-1.000000
57.914366,3.725702,3.489626,-0.000000,0.000000,1.000000
7.943700,-38.322943,3.489626,0.000000,-0.000000,1.000000
50.959681,-29.454875,3.489626,-0.000000,0.000000,1.000000
13.241774,21.522296,-3.489626,0.000000,-0.000000,-1.000000
28.233714,43.001601,-3.489626,0.000000,0.000000,-1.000000
-60.048881,-16.992238,-2.553059,-0.953717,-0.300705,-0.000000
-10.360945,31.614707,-3.489626,0.000000,0.000000,-1.000000
33.319188,-52.735790,-3.055402,0.537299,-0.843392,0.000000
10.048290,-43.185396,3.489626,0.000000,-0.000000,1.000000
-14.308126,42.836723,-3.489626,0.000000,0.000000,-1.000000
-18.419105,17.781132,3.489626,-0.000000,-0.000000,1.000000
45.030326,15.589546,3.489626,0.000000,-0.000000,1.000000
30.894507,30.971179,-3.489626,0.000000,0.000000,-1.000000
-14.576918,-42.929828,3.489626,-0.000000,0.000000,1.000000
-17.981774,49.825103,-3.489626,0.000000,0.000000,-1.000000
11.360612,-42.548301,-3.489626,0.000000,0.000000,-1.000000
50.206146,0.968034,0.525470,0.956940,-0.290286,0.000000
-19.574085,33.462043,3.489626,0.000000,-0.000000,1.000000
-34.662440,51.880045,2.449828,-0.537299,0.843392,0.000000
-7.134943,-31.201080,3.489626,-0.000000,0.000000,1.000000
-21.874422,-52.060874,3.489626,-0.000000,0.000000,1.000000
-35.418703,39.089846,-3.489626,0.000000,0.000000,-1.000000
-25.954125,20.522318,3.489626,-0.000000,0.000000,1.000000
-50.735363,-28.219398,3.489626,-0.000000,0.000000,1.000000
44.848165,-43.389861,-3.374339,0.737277,-0.675590,0.000000
26.264337,-15.997664,-3.489626,0.000000,0.000000,-1.000000
59.954232,4.685158,3.489626,-0.000000,0.000000,1.000000
35.550152,16.284441,-3.489626,0.000000,-0.000000,-1.000000
36.860110,-4.235522,-3.489626,0.000000,0.000000,-1.000000
37.694974,-10.770014,-3.489626,0.000000,-0.000000,-1.000000
-25.021086,57.154796,1.567475,-0.382684,0.923880,0.000000
-23.412688,11.228045,3.489626,-0.000000,0.000000,1.000000
-18.003001,-17.006073,3.489626,0.000000,-0.000000,1.000000
-6.996584,48.049382,3.489626,-0.000000,-0.000000,1.000000
44.647963,28.857478,3.489626,0.000000,-0.000000,1.000000
28.485619,28.467173,-3.489626,0.000000,0.000000,-1.000000
10.983845,48.441101,-3.489626,0.000000,0.000000,-1.000000
38.963529,-24.923746,3.489626,-0.000000,0.000000,1.000000
-28.481369,23.044550,3.489626,-0.000000,0.000000,1.000000
3.907934,-48.684692,3.489626,-0.000000,0.000000,1.000000
29.513773,35.524330,-3.489626,0.000000,-0.000000,-1.000000
6.707765,-62.034476,-0.378635,0.130526,-0.991445,0.000000
58.973054,-10.301345,-3.489626,0.000000,0.000000,-1.000000
10.882545,50.484964,-3.489626,0.000000,0.000000,-1.000000
37.936226,-3.283667,-3.489626,0.000000,0.000000,-1.000000
31.081860,-31.323783,3.489626,-0.000000,0.000000,1.000000
35.989699,-51.011522,2.354877,0.608762,-0.793353,0.000000
-35.949321,5.686032,3.489626,-0.000000,-0.000000,1.000000
-28.799953,-55.332991,-1.587730,-0.461749,-0.887011,-0.000000
-52.134936,-34.262341,-0.819349,-0.843392,-0.537299,0.000000
53.183391,-29.352283,-3.489626,0.000000,-0.000000,-1.000000
-1.424270,-47.110066,3.489626,-0.000000,0.000000,1.000000
32.491009,1.109752,3.489626,0.000000,0.000000,1.000000
20.483884,-51.802509,-3.489626,0.000000,0.000000,-1.000000
-4.393445,50.398993,-3.489626,0.000000,0.000000,-1.000000
-3.043677,-28.488885,-3.489626,0.000000,0.000000,-1.000000
7.147561,34.971217,-3.489626,0.000000,0.000000,-1.000000
53.157379,-7.994817,3.489626,-0.000000,0.000000,1.000000
24.081219,-57.544102,-1.628477,0.382684,-0.923880,0.000000
30.950276,-51.745184,3.489626,0.000000,-0.000000,1.000000
49.103884,34.930789,-3.489626,0.000000,0.000000,-1.000000
-8.823908,-56.517151,3.489626,-0.000000,0.000000,1.000000
33.760991,1.756799,-3.489626,0.000000,0.000000,-1.000000
37.322697,21.197945,3.489626,-0.000000,0.000000,1.000000
36.192931,50.855576,-1.629830,0.608762,0.793353,-0.000000
-60.326351,-16.091898,1.063682,-0.976296,-0.216440,0.000000
-4.561142,-42.948095,-3.489626,0.000000,-0.000000,-1.000000
-43.448400,-44.794524,0.490309,-0.675590,-0.737277,-0.000000
-34.494171,49.054942,-3.489626,0.000000,-0.000000,-1.000000
25.505318,-48.810128,1.568185,0.290280,0.956942,-0.000000
-48.863822,-30.543748,-3.489626,0.000000,0.000000,-1.000000
24.446388,20.660102,-3.489626,0.000000,0.000000,-1.000000
38.417873,-19.913701,-3.489626,0.000000,-0.000000,-1.000000
47.713097,12.667752,3.489626,0.000000,-0.000000,1.000000
42.589283,33.507614,3.489626,0.000000,-0.000000,1.000000
-49.188543,-19.551901,-3.489626,0.000000,0.000000,-1.000000
-37.960176,-49.499521,2.508249,-0.608762,-0.793353,0.000000
-51.970212,-33.877682,3.489626,0.000000,-0.000000,1.000000
-11.337813,39.374995,-3.489626,0.000000,0.000000,-1.000000
49.625455,28.727867,-3.489626,0.000000,0.000000,-1.000000
19.388174,52.502544,-3.489626,0.000000,0.000000,-1.000000
6.989803,31.889697,-3.489626,0.000000,0.000000,-1.000000
29.365901,-31.705622,-3.489626,0.000000,-0.000000,-1.000000
-60.849288,8.102163,-3.489626,0.000000,0.000000,-1.000000
-4.200069,36.422780,3.489626,0.000000,-0.000000,1.000000
-24.463397,-4.306350,3.489626,0.000000,-0.000000,1.000000
31.680839,10.128701,-3.489626,0.000000,0.000000,-1.000000
27.183315,33.412310,3.489626,0.000000,-0.000000,1.000000
21.665616,17.693336,-3.489626,0.000000,0.000000,-1.000000
-12.522841,30.271029,-3.489626,0.000000,0.000000,-1.000000
37.195301,-4.255466,3.489626,-0.000000,-0.000000,1.000000
59.687324,-18.138954,-2.364598,0.953717,-0.300705,0.000000
-39.150946,37.535545,-3.489626,0.000000,0.000000,-1.000000
-24.704322,-7.865275,3.489626,0.000000,-0.000000,1.000000
-13.012344,-61.009074,-0.804822,-0.216440,-0.976296,0.000000
4.522797,62.241259,3.183637,0.043619,0.999048,-0.000000
30.268142,54.568700,3.345743,0.461749,0.887011,-0.000000
15.823110,-40.156972,-3.489626,0.000000,0.000000,-1.000000
-22.340307,30.274498,-3.489626,0.000000,-0.000000,-1.000000
18.109232,26.163250,-3.489626,0.000000,0.000000,-1.000000
42.406969,45.748820,-3.230130,0.675590,0.737277,0.000000
31.431783,34.831534,-3.489626,0.000000,0.000000,-1.000000
35.625537,15.106290,-3.489626,0.000000,0.000000,-1.000000
42.266211,45.877801,2.235548,0.675590,0.737277,-0.000000
29.176358,19.023250,-3.489626,0.000000,0.000000,-1.000000
-53.719087,9.909236,3.489626,-0.000000,-0.000000,1.000000
30.800622,-21.289673,3.489626,-0.000000,-0.000000,1.000000
-59.854676,8.676874,-3.489626,0.000000,0.000000,-1.000000
-49.699920,24.381680,3.489626,-0.000000,-0.000000,1.000000
1.677052,33.512198,3.489626,-0.000000,0.000000,1.000000
-50.009601,20.940002,3.489626,-0.000000,-0.000000,1.000000
25.750617,9.980373,3.489626,0.000000,-0.000000,1.000000
-19.653240,-12.350753,2.416747,0.881921,0.471397,0.000000
22.044436,7.094775,3.462834,-0.956940,-0.290285,0.000000
-18.342425,44.420536,3.489626,0.000000,0.000000,1.000000
-10.172473,-58.358164,3.489626,-0.000000,0.000000,1.000000
-15.343566,60.492253,0.214950,-0.216440,0.976296,0.000000
-2.527392,-51.503893,-3.489626,0.000000,-0.000000,-1.000000
29.920478,52.134066,-3.489626,0.000000,-0.000000,-1.000000
24.616183,-43.626013,-0.570930,0.634395,-0.773009,0.000000
-46.331338,4.619877,-3.489626,0.000000,0.000000,-1.000000
-26.336044,-48.981729,1.084198,-0.098021,0.995184,0.000000
-34.750714,49.935701,3.489626,-0.000000,-0.000000,1.000000
-13.099343,-22.612408,3.489626,0.000000,-0.000000,1.000000
40.605568,-25.032419,3.489626,-0.000000,0.000000,1.000000
-6.206083,50.695745,3.489626,-0.000000,-0.000000,1.000000
8.322326,-36.574612,3.489626,0.000000,-0.000000,1.000000
38.334733,20.684070,3.489626,-0.000000,0.000000,1.000000
-54.941374,-19.075584,3.489626,0.000000,-0.000000,1.000000
43.077458,1.147550,-3.489626,0.000000,-0.000000,-1.000000
-31.291271,34.936091,-3.489626,0.000000,0.000000,-1.000000
-1.189542,-43.184164,-3.489626,0.000000,-0.000000,-1.000000
55.301373,-14.045730,3.489626,-0.000000,0.000000,1.000000
-17.089806,-28.282308,-3.489626,0.000000,0.000000,-1.000000
59.414173,-13.517830,3.489626,-0.000000,0.000000,1.000000
24.059570,44.213305,3.155146,0.773009,0.634395,0.000000
-58.774991,21.032506,-2.971468,-0.953717,0.300705,0.000000
-0.165805,-32.976018,-3.489626,0.000000,-0.000000,-1.000000
-61.072795,10.769454,-3.489626,0.000000,-0.000000,-1.000000
-23.608125,-27.563780,3.489626,-0.000000,0.000000,1.000000
-5.487078,52.996040,3.489626,-0.000000,-0.000000,1.000000
37.894802,24.512064,3.489626,0.000000,-0.000000,1.000000
48.135569,-39.240359,3.489626,-0.000000,0.000000,1.000000
17.503116,59.887802,1.968468,0.300705,0.953717,-0.000000
26.587284,-42.928532,-0.297377,-0.098015,-0.995185,0.000000
-19.982211,23.094799,3.489626,-0.000000,0.000000,1.000000
16.022970,-21.324100,3.489626,-0.000000,-0.000000,1.000000
-58.654829,-3.351738,3.489626,0.000000,-0.000000,1.000000
36.867578,-31.049552,3.489626,-0.000000,0.000000,1.000000
30.375043,-8.001452,3.489626,-0.000000,-0.000000,1.000000
