x,y,z,nx,ny,nz
-12.710540,-27.226504,-3.945206,0.000000,-0.000000,-1.000000
29.618393,0.834491,-3.491389,-0.956941,-0.290283,0.000000
24.249470,-6.037875,-3.945206,0.000000,-0.000000,-1.000000
-3.386747,-25.586781,-1.713360,0.956940,-0.290285,0.000000
10.925476,-22.640909,-3.945206,0.000000,0.000000,-1.000000
16.552996,26.782436,-3.945206,0.000000,0.000000,-1.000000
23.107396,-18.875224,-3.945206,0.000000,0.000000,-1.000000
2.571500,17.190360,3.945206,0.000000,0.000000,1.000000
-12.570831,-32.666755,0.747573,-0.336890,-0.941544,0.000000
-5.466853,-24.178280,3.945206,0.000000,-0.000000,1.000000
-21.689851,-20.060669,2.536983,0.881922,0.471396,0.000000
-5.434790,-31.113128,-3.945206,0.000000,0.000000,-1.000000
-7.463126,11.362339,-3.677392,0.471397,-0.881921,0.000000
-1.464167,34.962444,0.652856,-0.049068,0.998795,0.000000
16.718888,-1.635622,-3.945206,0.000000,0.000000,-1.000000
-19.844054,27.975820,-3.945206,0.000000,0.000000,-1.000000
10.772440,-28.656975,-3.945206,0.000000,0.000000,-1.000000
0.550022,-32.938743,-3.945206,0.000000,0.000000,-1.000000
13.178733,3.195213,-1.201775,-0.956940,-0.290285,0.000000
-29.707779,0.259633,-1.620656,0.995185,-0.098018,0.000000
-18.805506,14.178823,-3.945206,0.000000,0.000000,-1.000000
-8.638481,-27.776546,3.945206,-0.000000,0.000000,1.000000
10.275000,20.989082,3.945206,0.000000,-0.000000,1.000000
-14.472434,8.860981,-3.945206,0.000000,-0.000000,-1.000000
-21.276010,-16.441190,2.908714,0.773010,-0.634394,0.000000
-20.809453,27.152569,3.945206,-0.000000,-0.000000,1.000000
10.308636,8.780198,2.049847,-0.773011,-0.634393,0.000000
30.445072,-2.858619,-3.945206,0.000000,0.000000,-1.000000
9.091319,14.808040,3.945206,-0.000000,0.000000,1.000000
3.726862,13.017458,-1.483845,-0.290285,-0.956940,0.000000
-20.129987,-26.102437,-3.945206,0.000000,-0.000000,-1.000000
-2.087147,-18.962293,3.945206,0.000000,-0.000000,1.000000
29.677615,-0.565887,0.383542,-0.995185,0.098018,0.000000
30.214875,4.638178,-3.945206,0.000000,-0.000000,-1.000000
-21.968689,-17.897902,-2.760338,0.956940,-0.290286,0.000000
16.033672,-20.901292,3.070897,0.773010,0.634393,0.000000
-13.563293,0.416263,-2.613482,0.995185,-0.098017,0.000000
-21.835585,-27.371173,-3.611719,-0.595699,-0.803208,0.000000
-13.152148,-3.282851,1.308964,0.956940,0.290285,-0.000000
-16.007398,-15.014614,-3.945206,0.000000,-0.000000,-1.000000
0.573249,-35.006212,-0.423279,0.049068,-0.998795,0.000000
-4.895795,-12.662867,-0.620928,0.290285,0.956940,-0.000000
-27.031649,21.036490,3.945206,-0.000000,-0.000000,1.000000
15.391296,27.774540,-3.945206,0.000000,0.000000,-1.000000
8.386071,10.632087,-1.113921,-0.634393,-0.773011,0.000000
24.455546,18.208545,3.945206,0.000000,-0.000000,1.000000
-13.883530,10.321504,3.945206,-0.000000,-0.000000,1.000000
-9.370157,29.592109,3.945206,0.000000,0.000000,1.000000
-2.908644,28.133505,2.232769,0.881921,-0.471398,0.000000
8.517586,33.939700,-3.168139,0.242980,0.970031,0.000000
-0.594039,-29.674843,0.306151,0.098018,0.995185,-0.000000
21.863668,12.319876,-3.945206,0.000000,0.000000,-1.000000
-28.411773,19.320264,3.945206,-0.000000,-0.000000,1.000000
-33.074280,-4.454251,3.945206,0.000000,-0.000000,1.000000
-16.560827,-22.095884,-3.945206,0.000000,0.000000,-1.000000
-22.625127,26.719803,-1.591159,-0.671559,0.740951,0.000000
34.982197,1.062093,0.192525,0.998795,0.049068,0.000000
-5.827709,-34.510596,-2.421347,-0.146730,-0.989177,0.000000
-29.264794,1.707366,2.976721,0.881920,-0.471398,0.000000
17.719275,6.328167,-3.945206,0.000000,0.000000,-1.000000
-18.821195,-29.344860,-3.945206,0.000000,-0.000000,-1.000000
-24.478383,-7.915151,3.945206,0.000000,-0.000000,1.000000
-13.620960,15.423832,3.945206,-0.000000,0.000000,1.000000
13.374484,2.333262,3.169330,-0.995185,-0.098017,0.000000
30.218643,-14.146059,-3.945206,0.000000,-0.000000,-1.000000
-5.752160,-26.744416,3.945206,0.000000,-0.000000,1.000000
-20.734800,24.407372,3.945206,0.000000,-0.000000,1.000000
4.697456,21.326602,-3.945206,0.000000,0.000000,-1.000000
-4.976269,-34.636895,-1.871434,-0.146730,-0.989177,0.000000
-10.157445,14.094264,3.945206,0.000000,0.000000,1.000000
9.906970,10.151915,3.945206,-0.000000,0.000000,1.000000
-23.752974,-2.349906,-3.083080,-0.773011,0.634393,0.000000
28.547498,13.653989,-3.945206,0.000000,0.000000,-1.000000
12.858284,30.287003,-3.945206,0.000000,0.000000,-1.000000
-23.261450,-23.342671,3.945206,0.000000,-0.000000,1.000000
-20.199414,12.276848,-3.945206,0.000000,-0.000000,-1.000000
-9.625164,-14.015606,3.945206,0.000000,-0.000000,1.000000
1.796175,-18.832300,3.945206,0.000000,-0.000000,1.000000
-11.760615,-32.956655,0.776763,-0.336890,-0.941544,0.000000
22.192042,-13.728149,-3.945206,0.000000,0.000000,-1.000000
34.519180,-5.769841,0.571308,0.989177,-0.146730,0.000000
1.357065,-23.099529,-3.112177,-0.471396,-0.881922,0.000000
-23.635910,17.403586,-3.945206,0.000000,0.000000,-1.000000
34.063759,-8.022313,-3.583536,0.970031,-0.242980,0.000000
7.512607,34.191434,0.572320,0.242980,0.970031,-0.000000
-22.710647,-26.642292,-1.913374,-0.671559,-0.740951,0.000000
-3.352088,-25.472527,-3.583179,0.956940,-0.290285,0.000000
19.296619,-29.230376,-1.068820,0.514103,-0.857729,0.000000
-11.500747,19.119689,3.945206,-0.000000,0.000000,1.000000
-15.597911,27.436613,-3.945206,0.000000,0.000000,-1.000000
13.437558,14.848074,3.945206,0.000000,-0.000000,1.000000
-15.498837,-27.723827,-3.945206,0.000000,-0.000000,-1.000000
15.709177,20.505894,2.052445,0.773010,-0.634393,0.000000
19.718552,1.947624,-3.945206,0.000000,-0.000000,-1.000000
-15.341535,17.401249,-1.650056,-0.956940,0.290284,0.000000
-8.277760,-27.136130,-3.945206,0.000000,-0.000000,-1.000000
11.919360,22.720281,3.945206,-0.000000,0.000000,1.000000
-15.960900,-30.537276,3.945206,-0.000000,0.000000,1.000000
12.074821,32.844230,1.470260,0.336890,0.941544,-0.000000
23.252354,23.075971,-3.945206,0.000000,0.000000,-1.000000
-15.756926,31.256145,1.785023,-0.427555,0.903989,0.000000
-19.589291,21.869304,-2.756572,0.290286,-0.956940,0.000000
-3.531061,13.694971,3.945206,0.000000,-0.000000,1.000000
-22.929863,0.823594,1.833461,-0.956940,-0.290286,0.000000
5.371288,-13.770019,-3.945206,0.000000,0.000000,-1.000000
-23.033195,-3.204694,-3.945206,0.000000,0.000000,-1.000000
-21.452155,20.503743,3.215832,0.773011,-0.634393,0.000000
-1.528377,34.959289,-1.995155,-0.049068,0.998795,0.000000
2.872294,29.840238,-3.945206,0.000000,0.000000,-1.000000
-27.226748,-12.449028,-3.945206,0.000000,0.000000,-1.000000
9.956502,32.624348,-3.945206,0.000000,0.000000,-1.000000
-15.525622,-14.826988,3.945206,-0.000000,0.000000,1.000000
11.065663,-17.626607,3.945206,-0.000000,-0.000000,1.000000
-23.787436,5.952920,-3.945206,0.000000,0.000000,-1.000000
-13.014741,5.723442,-3.945206,0.000000,-0.000000,-1.000000
-28.052822,-20.916486,2.724178,-0.803208,-0.595699,0.000000
-9.423503,-23.389197,3.945206,-0.000000,0.000000,1.000000
10.780392,-23.903015,-3.945206,0.000000,0.000000,-1.000000
14.181849,-32.001101,1.939811,0.427555,-0.903989,0.000000
24.505091,-15.433698,-3.945206,0.000000,-0.000000,-1.000000
-17.422076,-22.718975,-3.945206,0.000000,0.000000,-1.000000
-27.757584,-3.678870,3.945206,0.000000,-0.000000,1.000000
-19.068048,21.989263,-0.401031,0.098015,-0.995185,0.000000
4.460561,-25.610929,3.945206,-0.000000,-0.000000,1.000000
18.053737,-0.791812,3.945206,0.000000,-0.000000,1.000000
-33.491587,1.669235,-3.945206,0.000000,0.000000,-1.000000
16.905679,-2.504798,-3.945206,0.000000,0.000000,-1.000000
-9.762917,-25.010741,3.945206,-0.000000,0.000000,1.000000
5.168398,34.608395,2.611998,0.146730,0.989177,-0.000000
5.921091,-17.765951,3.945206,0.000000,0.000000,1.000000
6.866386,-11.681304,2.661473,-0.471397,0.881921,0.000000
-31.292948,11.635079,-3.945206,0.000000,0.000000,-1.000000
2.799971,22.658892,-3.945206,0.000000,0.000000,-1.000000
28.837083,9.014574,3.945206,0.000000,-0.000000,1.000000
23.394479,-1.908878,-1.546624,0.881922,0.471396,0.000000
-34.628616,5.032080,-1.890427,-0.989177,0.146730,0.000000
-25.918204,3.422351,2.926000,-0.098017,-0.995185,0.000000
24.876017,-15.974755,3.945206,-0.000000,0.000000,1.000000
-15.593379,-11.537807,3.945206,0.000000,0.000000,1.000000
-20.622122,3.595817,-3.945206,-0.000000,-0.000000,-1.000000
18.118815,15.167614,0.576179,0.098017,0.995185,-0.000000
15.300583,-28.817008,-3.945206,0.000000,0.000000,-1.000000
3.736164,19.817989,-3.945206,0.000000,0.000000,-1.000000
17.407253,29.425916,3.945206,0.000000,-0.000000,1.000000
1.355213,-34.967796,-1.590570,0.049068,-0.998795,0.000000
12.562978,14.201771,-3.945206,0.000000,-0.000000,-1.000000
15.437868,20.001090,3.005177,0.881921,-0.471397,0.000000
-29.546810,-18.768680,1.134992,-0.857729,-0.514103,0.000000
13.399049,22.249704,-3.945206,0.000000,0.000000,-1.000000
-10.985414,31.252948,-3.945206,0.000000,0.000000,-1.000000
16.041514,7.361589,3.945206,0.000000,-0.000000,1.000000
-30.875466,13.595807,3.945206,-0.000000,-0.000000,1.000000
5.317298,-12.509309,2.727681,-0.471397,0.881921,0.000000
-17.856805,7.025956,-3.945206,0.000000,-0.000000,-1.000000
30.242395,-17.087328,-3.945206,0.000000,-0.000000,-1.000000
-15.988157,16.313733,-1.689440,-0.773009,0.634395,0.000000
23.527749,-25.901714,3.757580,0.671559,-0.740951,0.000000
-11.989473,32.874768,-2.850169,-0.336890,0.941544,0.000000
-19.759781,21.817587,0.312677,0.290286,-0.956940,0.000000
-22.010099,18.303081,-2.105493,0.995185,0.098015,-0.000000
-10.837404,18.585742,-3.945206,0.000000,0.000000,-1.000000
-10.468898,-8.584918,2.875028,0.773011,0.634393,0.000000
4.076779,26.678757,3.945206,0.000000,-0.000000,1.000000
-9.954360,9.211885,3.808654,0.773011,-0.634393,0.000000
5.154739,20.013448,3.945206,-0.000000,0.000000,1.000000
18.751791,13.854724,-3.945206,0.000000,0.000000,-1.000000
-24.056249,3.749094,-3.945206,-0.000000,-0.000000,-1.000000
-5.881594,19.574271,-3.945206,0.000000,0.000000,-1.000000
18.969484,21.998970,3.568750,-0.098015,-0.995185,0.000000
-33.577553,9.963356,0.080650,-0.970031,0.242980,0.000000
33.197396,-11.087787,0.242670,0.941544,-0.336890,0.000000
27.468111,7.922172,3.945206,0.000000,-0.000000,1.000000
-3.110791,34.318884,3.945206,0.000000,-0.000000,1.000000
-33.990706,-5.354246,3.945206,0.000000,-0.000000,1.000000
30.038679,15.088368,3.945206,0.000000,-0.000000,1.000000
-17.712740,-26.006853,-3.945206,0.000000,0.000000,-1.000000
-28.851722,13.555912,-3.945206,0.000000,0.000000,-1.000000
33.949033,8.480327,-3.664287,0.970031,0.242980,0.000000
16.953186,-29.856661,-3.945206,0.000000,0.000000,-1.000000
30.928213,4.956295,3.945206,-0.000000,0.000000,1.000000
0.399532,35.014746,-3.888674,0.049068,0.998795,0.000000
13.405329,32.368167,-3.158316,0.336890,0.941544,0.000000
-16.541519,25.383911,-3.945206,0.000000,0.000000,-1.000000
-19.813286,21.801356,-0.431624,0.290286,-0.956940,0.000000
29.117586,11.446323,3.945206,0.000000,-0.000000,1.000000
13.181673,3.185519,0.779308,-0.956940,-0.290285,0.000000
13.573177,-32.288982,2.840069,0.427555,-0.903989,0.000000
-24.218147,-5.208718,-3.945206,0.000000,0.000000,-1.000000
24.494738,2.949631,2.464850,0.471396,-0.881921,0.000000
-0.495420,-33.010993,3.945206,-0.000000,-0.000000,1.000000
-2.409716,34.915992,0.943113,-0.049068,0.998795,0.000000
-0.883163,-34.990987,-0.704068,-0.049068,-0.998795,0.000000
30.599052,-10.549060,-3.945206,0.000000,-0.000000,-1.000000
14.064583,-23.090889,3.945206,0.000000,-0.000000,1.000000
-10.501428,33.407199,0.192828,-0.336890,0.941544,0.000000
6.031617,-23.504742,3.945206,0.000000,-0.000000,1.000000
11.797341,6.649295,3.275361,-0.881921,-0.471397,0.000000
3.894749,-15.063823,-3.945206,0.000000,0.000000,-1.000000
4.852745,-28.831725,-3.945206,0.000000,0.000000,-1.000000
-0.328232,-13.571963,0.609121,0.098017,0.995185,0.000000
-16.860880,-23.938668,-3.945206,0.000000,0.000000,-1.000000
16.184623,-25.444445,3.945206,0.000000,-0.000000,1.000000
19.591135,-21.868745,-2.109830,-0.290286,0.956940,0.000000
0.589435,16.513968,3.945206,-0.000000,-0.000000,1.000000
23.261061,-5.125427,3.945206,-0.000000,-0.000000,1.000000
12.379772,-32.077387,-3.945206,0.000000,0.000000,-1.000000
2.610940,31.291634,-3.945206,0.000000,-0.000000,-1.000000
11.690148,6.849839,1.352312,-0.881921,-0.471397,0.000000
18.193620,-4.269190,-3.945206,0.000000,-0.000000,-1.000000
-23.144249,26.249298,-3.414874,-0.671559,0.740951,0.000000
18.706331,1.845885,3.945206,0.000000,-0.000000,1.000000
-23.660213,-2.236876,2.689247,-0.773011,0.634393,0.000000
-18.270197,-22.006861,3.508039,-0.098015,0.995185,0.000000
-25.445261,-12.656077,3.945206,0.000000,-0.000000,1.000000
-25.978312,-18.449932,3.945206,0.000000,0.000000,1.000000
-30.584821,-17.036862,-1.381376,-0.857729,-0.514103,-0.000000
18.412720,23.483383,3.945206,0.000000,-0.000000,1.000000
-15.373494,-17.295893,-1.222100,-0.956940,-0.290284,0.000000
27.507030,-3.906685,-3.945206,0.000000,0.000000,-1.000000
28.781089,2.371228,-0.700750,-0.773011,-0.634393,0.000000
9.184655,32.560607,3.945206,0.000000,-0.000000,1.000000
21.858036,-19.626439,-0.768523,-0.956940,0.290286,0.000000
-12.710984,-17.988008,3.945206,0.000000,-0.000000,1.000000
-11.677396,-14.382788,-3.945206,0.000000,0.000000,-1.000000
-25.240187,3.281608,-2.791739,-0.290285,-0.956940,0.000000
10.626548,-8.392822,3.816399,-0.773011,0.634393,0.000000
32.705880,-12.461485,1.005751,0.941544,-0.336890,0.000000
-34.712817,-4.464446,3.509498,-0.989177,-0.146730,0.000000
7.323943,-17.590514,-3.945206,0.000000,0.000000,-1.000000
-10.262049,-33.492850,-3.551671,-0.336890,-0.941544,0.000000
21.753931,-19.940783,0.328071,-0.881922,0.471396,0.000000
3.401935,25.710913,-1.130134,-0.995185,0.098017,0.000000
-13.519121,-0.864742,0.195821,0.995185,0.098017,-0.000000
-15.197864,-19.284700,2.128197,-0.956940,0.290285,0.000000
-7.169502,27.108325,-3.945206,0.000000,0.000000,-1.000000
18.934044,14.130197,-3.945206,0.000000,0.000000,-1.000000
-29.320269,1.603578,0.591282,0.881920,-0.471398,0.000000
7.677503,-24.718670,3.945206,0.000000,-0.000000,1.000000
-18.441528,-14.488815,3.945206,0.000000,0.000000,1.000000
-18.434265,-15.136546,2.414920,-0.098017,-0.995185,0.000000
-9.653388,-27.610755,3.945206,-0.000000,0.000000,1.000000
-10.288683,27.493006,-3.945206,0.000000,0.000000,-1.000000
-22.115376,5.366616,3.945206,-0.000000,0.000000,1.000000
-21.887533,-19.697585,-3.945206,0.000000,0.000000,-1.000000
-12.759272,-7.489791,-3.945206,0.000000,0.000000,-1.000000
6.078619,-12.102374,-3.891117,-0.471397,0.881921,0.000000
16.314526,-21.172060,0.861512,0.634394,0.773010,-0.000000
13.568182,-0.366621,-3.122530,-0.995185,0.098017,0.000000
18.706101,-6.482832,3.945206,-0.000000,0.000000,1.000000
-5.337211,-34.583354,1.361852,-0.146730,-0.989177,0.000000
28.622190,-10.738330,-3.945206,0.000000,-0.000000,-1.000000
-19.866546,-15.374365,2.794294,0.290285,-0.956940,0.000000
15.020562,-8.226110,-3.945206,0.000000,0.000000,-1.000000
19.131246,25.344881,3.945206,0.000000,-0.000000,1.000000
19.015299,27.567738,3.945206,0.000000,0.000000,1.000000
21.199112,-5.001935,-3.945206,0.000000,-0.000000,-1.000000
5.016580,-34.630915,-0.681001,0.146730,-0.989177,0.000000
25.813636,15.709438,3.945206,0.000000,-0.000000,1.000000
10.441306,31.749572,-3.945206,0.000000,0.000000,-1.000000
-7.130928,11.539903,3.526446,0.471397,-0.881921,0.000000
-34.995831,0.784555,3.404314,-0.998795,0.049068,0.000000
-10.315832,8.771430,0.276179,0.773011,-0.634393,0.000000
-22.029403,-10.758886,3.945206,0.000000,-0.000000,1.000000
31.309588,1.980553,-3.945206,0.000000,-0.000000,-1.000000
29.494247,-1.243747,-3.574282,-0.956941,0.290283,0.000000
-2.223111,34.925159,0.024684,-0.049068,0.998795,0.000000
-27.641878,4.189303,-3.945206,-0.000000,-0.000000,-1.000000
-1.710479,14.753982,-3.945206,0.000000,0.000000,-1.000000
20.679358,-21.308031,2.169327,-0.634393,0.773011,0.000000
31.384869,-15.484761,-0.631081,0.903989,-0.427555,0.000000
-21.630947,16.988693,-2.165710,0.881922,0.471396,-0.000000
-31.948712,-12.652135,3.945206,0.000000,-0.000000,1.000000
27.115756,-4.590377,-3.945206,0.000000,0.000000,-1.000000
-5.960493,19.400034,-3.945206,0.000000,0.000000,-1.000000
27.793342,16.018428,3.945206,0.000000,-0.000000,1.000000
-8.776638,16.567161,-3.945206,0.000000,0.000000,-1.000000
21.826086,27.378217,-1.390449,0.595699,0.803208,0.000000
-21.623357,-20.185071,-3.546928,0.881922,0.471396,-0.000000
23.190157,3.203113,-3.945206,0.000000,-0.000000,-1.000000
-8.840866,10.258847,-2.204046,0.634393,-0.773011,0.000000
12.036403,32.857976,3.394646,0.336890,0.941544,-0.000000
23.813605,-21.902670,3.945206,0.000000,-0.000000,1.000000
1.543416,15.394189,-3.945206,0.000000,0.000000,-1.000000
-1.622451,-19.628540,-3.945206,0.000000,0.000000,-1.000000
-12.535257,-9.063629,3.945206,-0.000000,0.000000,1.000000
33.714355,9.417212,3.010733,0.970031,0.242980,-0.000000
-28.649401,20.112093,2.914598,-0.803208,0.595699,0.000000
22.336827,-26.981102,-2.685771,0.671559,-0.740951,0.000000
18.061059,-24.026063,-3.945206,0.000000,0.000000,-1.000000
-24.896443,16.601083,3.945206,-0.000000,-0.000000,1.000000
-27.740672,4.436315,3.945206,0.000000,0.000000,1.000000
-19.257794,29.253647,1.598188,-0.514103,0.857729,0.000000
30.953829,16.396119,-0.700885,0.903989,0.427555,-0.000000
0.109770,-21.468520,-3.945206,0.000000,0.000000,-1.000000
3.883214,34.799034,3.765229,0.146730,0.989177,-0.000000
-20.694827,-13.732385,3.945206,0.000000,-0.000000,1.000000
5.503457,27.261133,3.945206,-0.000000,0.000000,1.000000
-9.484425,-33.697519,3.143019,-0.242980,-0.970031,0.000000
-8.842282,-26.883842,-3.945206,0.000000,-0.000000,-1.000000
-29.217645,7.059731,-3.945206,0.000000,0.000000,-1.000000
-29.808626,6.941857,-3.945206,0.000000,0.000000,-1.000000
31.696790,10.368653,-3.945206,0.000000,0.000000,-1.000000
-26.095237,23.314230,3.616027,-0.740951,0.671559,0.000000
34.664086,4.792961,2.394690,0.989177,0.146730,-0.000000
-24.340934,21.496079,3.945206,-0.000000,-0.000000,1.000000
20.136331,-22.902024,3.945206,0.000000,0.000000,1.000000
-30.829935,-16.627915,1.808796,-0.857729,-0.514103,-0.000000
7.144148,-31.605613,-3.945206,0.000000,0.000000,-1.000000
-0.037681,-29.729639,2.301766,0.098018,0.995185,0.000000
-11.097020,33.194093,3.875836,-0.336890,0.941544,0.000000
-34.238443,7.324935,-3.151461,-0.970031,0.242980,0.000000
-18.735674,-0.931218,3.945206,0.000000,-0.000000,1.000000
22.283249,-17.684702,-3.945206,0.000000,0.000000,-1.000000
-0.849388,-22.756467,3.945206,0.000000,0.000000,1.000000
-8.304787,12.655500,-3.945206,0.000000,0.000000,-1.000000
-3.672092,34.830351,0.296016,-0.146730,0.989177,0.000000
33.651807,-9.666920,-3.432220,0.970031,-0.242980,0.000000
32.891872,5.865229,-3.945206,0.000000,0.000000,-1.000000
-7.563184,11.307414,-2.955348,0.634393,-0.773011,0.000000
12.340838,5.632485,-2.106423,-0.881921,-0.471397,0.000000
9.376192,22.733053,3.945206,0.000000,-0.000000,1.000000
-30.801519,2.245930,3.945206,-0.000000,0.000000,1.000000
10.724927,15.360041,3.945206,0.000000,0.000000,1.000000
27.145558,3.331908,-1.429028,-0.290284,-0.956940,0.000000
8.101518,16.260788,3.945206,-0.000000,0.000000,1.000000
15.948216,-31.128642,3.945206,0.000000,-0.000000,1.000000
-5.340967,34.355958,-3.945206,0.000000,0.000000,-1.000000
-29.631037,0.792811,-0.933998,0.956941,-0.290283,0.000000
34.792902,-3.924555,3.435586,0.989177,-0.146730,0.000000
-2.789522,-34.897333,-0.519807,-0.049068,-0.998795,0.000000
-13.793461,-16.198439,3.945206,0.000000,-0.000000,1.000000
8.002683,-20.927930,-3.945206,0.000000,0.000000,-1.000000
11.130687,-7.778526,2.429535,-0.773011,0.634393,0.000000
2.497640,31.001425,3.945206,-0.000000,0.000000,1.000000
12.774357,4.528262,-2.575525,-0.956940,-0.290285,0.000000
12.083762,-6.113439,-0.380853,-0.881921,0.471397,0.000000
-3.882620,-32.539118,-3.945206,0.000000,-0.000000,-1.000000
1.193309,16.702431,3.945206,-0.000000,-0.000000,1.000000
7.640187,-28.972741,-3.945206,0.000000,0.000000,-1.000000
-26.334566,-16.141438,3.945206,0.000000,-0.000000,1.000000
26.848598,4.638621,3.945206,0.000000,0.000000,1.000000
-33.683043,4.030886,-3.945206,0.000000,0.000000,-1.000000
17.921817,11.261155,-3.945206,0.000000,0.000000,-1.000000
24.964289,-9.448246,3.945206,-0.000000,0.000000,1.000000
-4.240308,-22.303055,-3.945206,0.000000,-0.000000,-1.000000
-4.867188,-12.671545,-2.977469,0.290285,0.956940,-0.000000
-8.951258,30.781249,3.945206,0.000000,0.000000,1.000000
11.490630,-13.150311,3.945206,-0.000000,-0.000000,1.000000
0.628998,-22.880162,-3.814674,-0.098018,-0.995185,0.000000
27.642141,-21.470225,1.552343,0.803208,-0.595699,0.000000
35.020948,-0.273293,0.297163,0.998795,-0.049068,0.000000
-24.400777,-2.899408,0.470425,-0.471396,0.881921,0.000000
18.247160,-29.237938,-3.945206,0.000000,0.000000,-1.000000
7.170651,-34.277089,-2.826750,0.242980,-0.970031,0.000000
-25.611046,23.778143,3.945206,-0.000000,-0.000000,1.000000
-30.383391,5.483042,3.945206,0.000000,0.000000,1.000000
-15.165256,-18.142765,-0.142584,-0.995185,-0.098017,0.000000
26.740246,22.324223,-3.945206,0.000000,0.000000,-1.000000
0.680758,-35.000931,-3.390531,0.049068,-0.998795,0.000000
26.417824,20.354922,-3.945206,0.000000,0.000000,-1.000000
19.700022,15.323851,3.763009,-0.290285,0.956940,0.000000
17.976339,9.976276,3.945206,0.000000,-0.000000,1.000000
-14.538236,-26.350816,-3.945206,0.000000,-0.000000,-1.000000
2.752457,-33.896695,-3.945206,0.000000,0.000000,-1.000000
28.759513,-19.372712,3.945206,0.000000,0.000000,1.000000
23.691266,12.738469,-3.945206,0.000000,0.000000,-1.000000
17.643167,30.221417,0.686866,0.514103,0.857729,-0.000000
-14.390760,-26.099160,3.945206,-0.000000,0.000000,1.000000
-9.830522,31.198869,3.945206,0.000000,0.000000,1.000000
24.328156,-2.852950,0.320123,0.634393,0.773011,0.000000
-34.603670,5.200256,-0.278519,-0.989177,0.146730,0.000000
-13.056038,-3.599684,-1.263414,0.956940,0.290285,-0.000000
-10.867541,32.687057,3.945206,0.000000,0.000000,1.000000
11.866076,-18.888327,-3.945206,0.000000,0.000000,-1.000000
17.865213,1.051110,-3.945206,0.000000,0.000000,-1.000000
-28.945578,-19.712745,-0.804042,-0.803208,-0.595699,-0.000000
15.919580,-27.294099,3.945206,0.000000,-0.000000,1.000000
17.715457,29.167582,3.945206,0.000000,-0.000000,1.000000
-1.108561,23.016307,-3.333902,0.290286,0.956940,-0.000000
-5.586458,-22.445528,3.945206,0.000000,-0.000000,1.000000
-15.913831,9.910314,3.945206,-0.000000,-0.000000,1.000000
9.892108,-20.016850,3.945206,0.000000,-0.000000,1.000000
-33.996759,8.289793,0.733479,-0.970031,0.242980,0.000000
0.131758,13.591314,0.222398,-0.098017,-0.995185,0.000000
11.636848,31.973158,3.945206,0.000000,-0.000000,1.000000
9.497754,-28.029855,-3.945206,0.000000,0.000000,-1.000000
15.224675,-4.160892,-3.945206,0.000000,0.000000,-1.000000
-18.196339,-2.038227,3.945206,-0.000000,-0.000000,1.000000
-17.604141,-10.997474,-3.945206,0.000000,0.000000,-1.000000
-27.301745,21.929197,-3.108777,-0.803208,0.595699,0.000000
-12.592326,6.269165,-3.945206,0.000000,-0.000000,-1.000000
-16.129673,-7.423207,-3.945206,0.000000,0.000000,-1.000000
11.898732,-22.216058,3.945206,0.000000,-0.000000,1.000000
-30.889741,-8.583713,3.945206,0.000000,-0.000000,1.000000
31.515465,14.859759,-3.945206,0.000000,0.000000,-1.000000
-27.054244,22.256128,-0.088424,-0.740951,0.671559,0.000000
-6.195844,34.455988,2.854176,-0.146730,0.989177,0.000000
29.044941,19.346005,-3.945206,0.000000,0.000000,-1.000000
-29.031763,-2.065781,-1.606527,0.773011,0.634393,-0.000000
-13.565336,-0.395512,0.886647,0.995185,0.098017,-0.000000
-9.571004,23.750935,-3.945206,0.000000,0.000000,-1.000000
9.787380,-25.214498,3.945206,0.000000,0.000000,1.000000
-2.115494,16.026841,-3.945206,0.000000,0.000000,-1.000000
-20.069023,15.474179,-3.640483,0.471397,0.881921,-0.000000
20.439205,-21.910799,3.945206,0.000000,0.000000,1.000000
32.829814,-12.115110,-1.629524,0.941544,-0.336890,0.000000
16.025661,31.129042,1.897344,0.427555,0.903989,0.000000
13.307780,2.769799,-1.293521,-0.956940,-0.290285,0.000000
-4.977610,-29.379908,-3.945206,0.000000,-0.000000,-1.000000
18.617745,12.766851,-3.945206,0.000000,0.000000,-1.000000
-28.833200,4.881156,3.945206,0.000000,0.000000,1.000000
3.471544,-32.852157,-3.945206,0.000000,0.000000,-1.000000
7.761754,-17.447192,3.945206,0.000000,-0.000000,1.000000
-23.768699,-5.527228,-3.945206,0.000000,0.000000,-1.000000
24.610852,15.478342,-3.945206,0.000000,0.000000,-1.000000
-13.294865,6.337298,-3.945206,0.000000,-0.000000,-1.000000
-13.406811,-2.005045,-2.621630,0.995185,0.098017,-0.000000
16.044465,-16.245123,-2.110544,0.773009,-0.634395,0.000000
18.287057,-15.151044,3.212781,0.098017,-0.995185,0.000000
25.260413,-17.193321,3.945206,0.000000,0.000000,1.000000
11.253855,-29.027240,3.945206,0.000000,-0.000000,1.000000
-10.274203,31.416059,-3.945206,0.000000,0.000000,-1.000000
-8.910874,-23.046280,3.945206,-0.000000,0.000000,1.000000
9.371108,28.437948,-3.945206,0.000000,0.000000,-1.000000
4.492844,-30.758525,-3.945206,0.000000,0.000000,-1.000000
14.699399,2.581476,-3.945206,0.000000,-0.000000,-1.000000
-15.248149,-24.332179,-3.945206,0.000000,-0.000000,-1.000000
-21.910313,19.454105,-0.572504,0.956940,-0.290286,0.000000
-6.883429,24.455398,-3.945206,0.000000,0.000000,-1.000000
-34.919339,-2.341576,-2.528454,-0.998795,-0.049068,-0.000000
-9.963979,-15.901617,3.945206,-0.000000,0.000000,1.000000
-25.798153,-3.410527,-1.293484,-0.098017,0.995185,0.000000
33.126417,11.286162,-3.834769,0.941544,0.336890,0.000000
27.596745,-3.195042,2.037531,-0.290284,0.956940,0.000000
5.662487,-12.324801,-1.427438,-0.471397,0.881921,0.000000
10.390138,-25.992198,3.945206,0.000000,0.000000,1.000000
6.314391,34.438404,0.590366,0.146730,0.989177,0.000000
-14.941723,31.641707,-3.143193,-0.427555,0.903989,0.000000
11.854015,32.923236,3.780961,0.336890,0.941544,-0.000000
-22.000862,18.209286,-2.212735,0.995185,0.098015,-0.000000
-1.273189,-31.199868,-3.945206,0.000000,0.000000,-1.000000
-8.264732,10.731668,-2.438281,0.634393,-0.773011,0.000000
-14.372346,26.341089,3.945206,-0.000000,-0.000000,1.000000
18.023140,-7.143463,-3.945206,0.000000,0.000000,-1.000000
1.731190,34.234729,3.945206,0.000000,-0.000000,1.000000
-22.008545,-18.287300,0.151206,0.995185,-0.098015,0.000000
-12.171672,6.967427,3.945206,-0.000000,0.000000,1.000000
-29.199077,-1.830312,1.470392,0.881920,0.471398,0.000000
-5.229802,-14.426180,-3.945206,0.000000,0.000000,-1.000000
34.936077,2.000882,2.772308,0.998795,0.049068,-0.000000
-26.302896,-22.825329,3.945206,-0.000000,0.000000,1.000000
25.873974,22.916010,-3.945206,0.000000,0.000000,-1.000000
29.681440,-0.527056,-2.980274,-0.995185,0.098018,0.000000
2.524178,-17.603043,-3.945206,0.000000,-0.000000,-1.000000
-34.980555,1.095502,2.632442,-0.998795,0.049068,0.000000
-0.492297,16.020971,3.945206,0.000000,-0.000000,1.000000
5.357147,19.896807,-3.945206,0.000000,0.000000,-1.000000
20.961326,21.755377,3.945206,-0.000000,0.000000,1.000000
16.939770,15.554769,2.183352,0.471397,0.881921,0.000000
-32.111928,-13.947526,-1.829507,-0.903989,-0.427555,-0.000000
-28.525368,-19.753163,3.945206,0.000000,-0.000000,1.000000
21.854346,16.086031,3.945206,0.000000,-0.000000,1.000000
-22.811421,-24.422428,3.945206,0.000000,-0.000000,1.000000
0.337484,-22.851450,-0.089722,-0.098018,-0.995185,0.000000
22.364598,-12.135202,3.945206,-0.000000,-0.000000,1.000000
-10.945377,-30.704131,3.945206,-0.000000,0.000000,1.000000
-5.363053,-12.484852,-1.729189,0.471397,0.881921,0.000000
17.449236,-12.713902,-3.945206,-0.000000,-0.000000,-1.000000
-6.390223,31.256520,-3.945206,0.000000,0.000000,-1.000000
-11.869956,-22.523213,3.945206,0.000000,-0.000000,1.000000
3.188611,23.360941,-3.945206,0.000000,0.000000,-1.000000
33.942299,-8.507207,-3.511142,0.970031,-0.242980,0.000000
14.981370,5.680977,-3.945206,0.000000,0.000000,-1.000000
-23.254687,-10.610671,-3.945206,0.000000,0.000000,-1.000000
8.398141,-23.224015,3.945206,0.000000,0.000000,1.000000
-33.673839,-6.427708,3.945206,0.000000,-0.000000,1.000000
-23.797859,24.586185,-3.945206,0.000000,0.000000,-1.000000
14.764137,-13.907522,3.945206,-0.000000,0.000000,1.000000
-15.244400,-31.498552,2.940960,-0.427555,-0.903989,0.000000
0.597608,-21.719432,3.945206,-0.000000,-0.000000,1.000000
-2.878458,24.361582,-0.327514,0.881921,0.471396,0.000000
0.441860,-13.560772,-1.930524,-0.098017,0.995185,-0.000000
-12.928229,31.293169,-3.945206,0.000000,0.000000,-1.000000
-27.357599,-21.853887,-0.567590,-0.803208,-0.595699,0.000000
28.837138,12.248043,3.945206,0.000000,-0.000000,1.000000
15.143656,18.797496,1.879522,0.995185,-0.098016,0.000000
-26.857689,-4.860367,-3.945206,0.000000,0.000000,-1.000000
16.399125,21.964037,3.945206,0.000000,0.000000,1.000000
-30.746716,-5.661676,3.945206,0.000000,-0.000000,1.000000
-20.199609,-6.115443,3.945206,0.000000,-0.000000,1.000000
31.338465,1.848307,3.945206,-0.000000,0.000000,1.000000
2.747992,28.351297,1.812194,-0.773011,-0.634393,0.000000
-26.470342,-3.438407,-1.866177,0.098017,0.995185,-0.000000
-2.767079,-24.223522,3.906053,0.773011,-0.634393,0.000000
16.010144,-15.713627,-3.945206,0.000000,-0.000000,-1.000000
6.291646,21.112886,-3.945206,0.000000,0.000000,-1.000000
13.950867,-15.202758,3.945206,-0.000000,0.000000,1.000000
-13.445406,-28.465766,3.945206,-0.000000,0.000000,1.000000
15.223916,-6.818980,-3.945206,0.000000,-0.000000,-1.000000
-1.603870,-29.320113,2.730264,0.471398,0.881920,0.000000
-6.537867,-11.856901,-0.075172,0.471397,0.881921,-0.000000
-10.891345,30.589694,-3.945206,0.000000,0.000000,-1.000000
-23.478272,8.567614,3.945206,-0.000000,-0.000000,1.000000
11.672176,6.883462,-1.993692,-0.881921,-0.471397,0.000000
-9.787346,-23.047003,-3.945206,0.000000,-0.000000,-1.000000
25.287474,-3.295953,-2.262353,0.290285,0.956940,-0.000000
19.655845,3.749712,3.945206,0.000000,0.000000,1.000000
13.539621,7.968459,3.945206,0.000000,-0.000000,1.000000
-9.034069,-19.579225,3.945206,-0.000000,0.000000,1.000000
10.409687,19.575291,3.945206,-0.000000,0.000000,1.000000
15.485520,22.931696,-3.945206,0.000000,-0.000000,-1.000000
-24.147987,-20.042834,-3.945206,0.000000,-0.000000,-1.000000
16.801480,-30.725904,-3.484598,0.514103,-0.857729,0.000000
19.827740,28.860291,-3.235194,0.595699,0.803208,0.000000
1.873176,29.176166,-2.269600,-0.471398,-0.881920,0.000000
12.334983,15.788166,3.945206,0.000000,-0.000000,1.000000
-18.811392,29.313940,-3.945206,0.000000,0.000000,-1.000000
-9.840271,32.584368,-3.945206,0.000000,0.000000,-1.000000
4.568332,34.697407,2.487982,0.146730,0.989177,-0.000000
-3.844148,18.547794,-3.945206,0.000000,0.000000,-1.000000
-31.496066,15.249655,-2.828242,-0.903989,0.427555,0.000000
34.932073,2.082382,2.207990,0.998795,0.049068,-0.000000
2.083448,-23.534298,2.159602,-0.634393,-0.773011,0.000000
28.633456,-10.115427,3.945206,-0.000000,0.000000,1.000000
2.168284,-18.680301,3.945206,0.000000,-0.000000,1.000000
-3.327100,27.161408,2.308264,0.956940,-0.290284,0.000000
20.389966,-12.717386,3.945206,-0.000000,0.000000,1.000000
14.447301,14.640577,3.945206,0.000000,-0.000000,1.000000
31.092177,15.154746,3.945206,0.000000,-0.000000,1.000000
10.371782,-8.703254,0.128761,-0.773011,0.634393,0.000000
13.539363,-20.730951,-3.945206,0.000000,0.000000,-1.000000
-21.988268,18.081416,-0.622179,0.995185,0.098015,0.000000
-13.067265,3.562673,2.132388,0.956940,-0.290285,0.000000
-21.936786,17.792732,-2.934726,0.956940,0.290286,-0.000000
-19.667762,-26.740554,-3.945206,0.000000,-0.000000,-1.000000
-4.287393,32.913945,-3.945206,0.000000,0.000000,-1.000000
15.658658,-22.562437,-3.945206,0.000000,0.000000,-1.000000
-10.467508,22.182208,3.945206,0.000000,0.000000,1.000000
-33.997592,-8.286465,2.211906,-0.970031,-0.242980,0.000000
-11.923481,-32.898381,-3.418067,-0.336890,-0.941544,0.000000
-23.145208,26.248430,-3.174506,-0.671559,0.740951,0.000000
-31.955904,9.220204,-3.945206,0.000000,0.000000,-1.000000
-13.120487,25.013504,3.945206,-0.000000,-0.000000,1.000000
33.929969,4.820143,3.945206,0.000000,-0.000000,1.000000
8.099164,27.287731,3.945206,0.000000,-0.000000,1.000000
21.662630,-17.047969,3.924188,-0.881922,-0.471396,0.000000
-7.154212,22.982009,3.945206,0.000000,0.000000,1.000000
16.040059,22.491334,-3.945206,0.000000,-0.000000,-1.000000
-6.445635,-21.988947,3.945206,-0.000000,0.000000,1.000000
17.659162,15.263297,3.265937,0.290284,0.956940,0.000000
2.933116,28.087721,-1.966819,-0.881921,-0.471398,0.000000
-10.414995,-16.851384,-3.945206,0.000000,0.000000,-1.000000
-28.459216,20.368528,-2.346575,-0.803208,0.595699,0.000000
11.674044,-29.764961,-3.945206,0.000000,0.000000,-1.000000
3.401828,-26.841732,-0.160227,-0.995185,0.098017,0.000000
25.666672,-3.397578,-3.779217,0.098017,0.995185,-0.000000
6.362329,34.431293,3.632738,0.146730,0.989177,-0.000000
-32.115443,7.497951,3.945206,-0.000000,-0.000000,1.000000
16.702229,-3.086425,-3.945206,0.000000,0.000000,-1.000000
-9.776879,24.231687,3.945206,0.000000,-0.000000,1.000000
-3.638179,34.835381,-1.739239,-0.146730,0.989177,0.000000
-0.129393,-35.028018,1.908206,-0.049068,-0.998795,0.000000
30.814004,-3.164034,3.945206,-0.000000,-0.000000,1.000000
-27.532868,-18.169449,-3.945206,0.000000,0.000000,-1.000000
4.837184,-23.242321,3.945206,0.000000,-0.000000,1.000000
30.690611,-1.740005,-3.945206,0.000000,0.000000,-1.000000
-32.300858,-12.754413,-3.945206,0.000000,0.000000,-1.000000
17.853952,21.955357,-1.062374,0.290286,-0.956940,0.000000
-30.045384,-12.495953,-3.945206,0.000000,0.000000,-1.000000
2.116944,-16.751559,3.945206,0.000000,-0.000000,1.000000
28.855934,15.416698,-3.945206,0.000000,0.000000,-1.000000
23.476152,-25.948479,1.590090,0.671559,-0.740951,0.000000
20.273237,-28.529889,-1.932961,0.595699,-0.803208,0.000000
4.172112,25.339414,3.945206,0.000000,-0.000000,1.000000
-0.705285,34.749765,-3.945206,0.000000,0.000000,-1.000000
9.881782,33.016742,3.945206,0.000000,-0.000000,1.000000
-1.700307,34.873596,-3.945206,0.000000,0.000000,-1.000000
-9.778644,24.657424,3.945206,0.000000,-0.000000,1.000000
17.958819,-30.032222,-0.415324,0.514103,-0.857729,0.000000
-32.913128,-11.882263,0.339042,-0.941544,-0.336890,0.000000
-6.391228,34.427006,-2.832602,-0.146730,0.989177,0.000000
22.976941,0.978790,-1.452745,0.956940,-0.290286,0.000000
-8.761822,-10.323717,-3.828750,0.634393,0.773011,-0.000000
-10.188242,-25.692407,3.945206,-0.000000,0.000000,1.000000
34.910311,2.525346,2.946198,0.998795,0.049068,-0.000000
28.955417,-19.699479,2.656300,0.803208,-0.595699,0.000000
0.784311,-22.917947,-0.325159,-0.290286,-0.956940,0.000000
-18.077281,25.922063,3.945206,0.000000,0.000000,1.000000
19.637895,2.550689,3.945206,-0.000000,0.000000,1.000000
-23.379867,1.881541,2.377700,-0.881922,-0.471396,0.000000
-18.184763,13.839845,3.945206,-0.000000,-0.000000,1.000000
3.133945,-28.154329,3.945206,-0.000000,-0.000000,1.000000
-34.422080,-5.082073,3.945206,0.000000,-0.000000,1.000000
-9.815774,-9.380752,1.415014,0.773011,0.634393,0.000000
-8.171717,10.808004,3.370612,0.634393,-0.773011,0.000000
6.584606,20.383193,3.945206,0.000000,-0.000000,1.000000
14.828114,-17.420160,-3.945206,0.000000,0.000000,-1.000000
21.068632,-20.971068,-3.257834,-0.773011,0.634393,0.000000
5.243303,13.023613,3.945206,0.000000,-0.000000,1.000000
16.334792,-26.058353,3.945206,0.000000,-0.000000,1.000000
34.658688,4.829349,1.516757,0.989177,0.146730,-0.000000
21.896361,3.398611,3.945206,0.000000,0.000000,1.000000
4.854434,31.574033,-3.945206,0.000000,0.000000,-1.000000
19.770541,-9.901165,3.945206,-0.000000,-0.000000,1.000000
-35.021652,-0.258973,2.366808,-0.998795,-0.049068,-0.000000
2.504611,-28.647858,-0.034434,-0.773011,0.634393,0.000000
3.493142,34.856896,-1.288585,0.146730,0.989177,-0.000000
-21.669853,-2.013839,3.945206,-0.000000,-0.000000,1.000000
-30.700486,-7.464077,-3.945206,0.000000,0.000000,-1.000000
34.921971,-2.288015,1.863792,0.998795,-0.049068,0.000000
18.233313,-28.399324,-3.945206,0.000000,0.000000,-1.000000
-2.106370,20.594582,3.945206,0.000000,-0.000000,1.000000
4.133052,20.571281,3.945206,-0.000000,0.000000,1.000000
-5.270153,24.681926,-3.945206,0.000000,0.000000,-1.000000
13.350759,-12.538384,-3.945206,0.000000,-0.000000,-1.000000
14.913784,29.153790,3.945206,0.000000,-0.000000,1.000000
-16.278207,-21.142253,1.929364,-0.634394,0.773010,0.000000
11.958375,29.910802,3.945206,0.000000,-0.000000,1.000000
20.057845,28.689634,-0.877432,0.595699,0.803208,-0.000000
3.415095,26.707033,0.059635,-0.995185,-0.098017,0.000000
20.789013,-4.942828,3.945206,-0.000000,-0.000000,1.000000
30.312181,0.494461,3.945206,0.000000,-0.000000,1.000000
32.557484,12.876222,2.620021,0.941544,0.336890,-0.000000
-3.664527,18.452456,-3.945206,0.000000,0.000000,-1.000000
-30.898479,-4.187710,-3.945206,0.000000,0.000000,-1.000000
-27.516500,9.976220,3.945206,-0.000000,-0.000000,1.000000
34.727195,4.367511,2.039728,0.989177,0.146730,-0.000000
4.914948,-34.645991,0.081056,0.146730,-0.989177,0.000000
17.322088,-7.468086,-3.945206,0.000000,-0.000000,-1.000000
15.016547,-1.534649,3.945206,0.000000,-0.000000,1.000000
-12.020198,17.213178,-3.945206,-0.000000,-0.000000,-1.000000
-21.651081,-27.508010,3.482718,-0.595699,-0.803208,0.000000
32.655912,-12.601136,0.418558,0.941544,-0.336890,0.000000
-25.046384,-24.471461,3.408389,-0.740951,-0.671559,0.000000
-6.210827,-29.899245,-3.945206,0.000000,-0.000000,-1.000000
-22.981882,-13.495814,3.945206,0.000000,-0.000000,1.000000
-6.387133,34.427613,1.331639,-0.146730,0.989177,0.000000
-20.470909,28.153922,3.945206,-0.000000,-0.000000,1.000000
-12.101026,9.407232,-3.945206,0.000000,0.000000,-1.000000
-20.298741,-21.562599,-3.011177,0.471396,0.881922,-0.000000
-16.472368,21.301597,3.037235,-0.634394,-0.773010,0.000000
31.586397,-7.944256,-3.945206,0.000000,-0.000000,-1.000000
-32.155716,-13.854943,-2.025021,-0.903989,-0.427555,-0.000000
17.615175,27.752464,3.945206,0.000000,-0.000000,1.000000
21.165626,16.306687,-2.770094,-0.773010,0.634394,0.000000
-14.665739,9.544990,-3.945206,0.000000,-0.000000,-1.000000
1.090708,31.595373,-3.945206,0.000000,0.000000,-1.000000
-9.201086,31.454831,3.945206,0.000000,0.000000,1.000000
-32.006219,12.899160,-3.945206,0.000000,0.000000,-1.000000
14.228496,4.529362,3.945206,-0.000000,0.000000,1.000000
1.286061,-15.495619,3.945206,0.000000,-0.000000,1.000000
14.365970,28.724901,-3.945206,0.000000,0.000000,-1.000000
-25.473681,8.774710,3.945206,-0.000000,-0.000000,1.000000
25.944761,16.982044,-3.945206,0.000000,0.000000,-1.000000
5.757374,-17.702164,3.945206,0.000000,0.000000,1.000000
18.625932,27.493364,3.945206,0.000000,0.000000,1.000000
15.173453,-19.100028,0.981932,0.995185,0.098016,0.000000
5.650777,-24.208170,3.945206,0.000000,-0.000000,1.000000
4.857102,15.671732,3.945206,-0.000000,0.000000,1.000000
-32.655697,6.020705,-3.945206,0.000000,-0.000000,-1.000000
-6.300315,23.656051,-3.945206,0.000000,0.000000,-1.000000
5.553136,-34.551325,1.597652,0.146730,-0.989177,0.000000
21.448726,-27.658086,0.434015,0.595699,-0.803208,0.000000
-16.455691,15.871656,-2.488884,-0.634395,0.773009,0.000000
-14.401522,23.019332,-3.945206,0.000000,0.000000,-1.000000
-17.142460,15.446429,0.805362,-0.471397,0.881921,0.000000
25.715489,5.148855,3.945206,0.000000,-0.000000,1.000000
33.140334,-11.247265,-2.298884,0.941544,-0.336890,0.000000
30.520649,-14.532326,-3.945206,0.000000,-0.000000,-1.000000
-5.846182,-12.226614,0.402972,0.471397,0.881921,0.000000
-6.655473,-34.387809,-2.483945,-0.146730,-0.989177,0.000000
7.691804,-14.815974,3.945206,-0.000000,-0.000000,1.000000
-20.848174,-9.452834,-3.945206,0.000000,0.000000,-1.000000
-17.627720,-15.272835,1.912461,-0.290284,-0.956940,0.000000
-19.050404,15.168565,-3.279819,0.098016,0.995185,-0.000000
-30.167630,17.732904,-0.610194,-0.857729,0.514103,0.000000
-10.361518,29.150216,-3.945206,0.000000,0.000000,-1.000000
24.335282,17.680604,3.945206,0.000000,-0.000000,1.000000
26.301405,3.455046,-3.106806,-0.098017,-0.995185,0.000000
16.770122,-30.744699,1.310673,0.514103,-0.857729,0.000000
25.680850,-13.376502,-3.945206,0.000000,-0.000000,-1.000000
24.115786,5.697767,3.945206,0.000000,-0.000000,1.000000
-16.916783,-15.567056,-2.563152,-0.471397,-0.881921,0.000000
9.667479,-16.483148,3.945206,-0.000000,-0.000000,1.000000
17.980283,-3.028445,3.945206,-0.000000,-0.000000,1.000000
-15.126143,18.539886,1.989362,-0.995185,0.098017,0.000000
23.327562,3.744987,-3.945206,0.000000,-0.000000,-1.000000
-18.500594,-29.707495,-2.131759,-0.514103,-0.857729,0.000000
-15.233148,17.758553,-0.386473,-0.956940,0.290284,0.000000
-2.122410,-22.189478,3.945206,0.000000,-0.000000,1.000000
2.724266,29.814417,3.945206,0.000000,-0.000000,1.000000
-32.409085,-4.085773,-3.945206,0.000000,0.000000,-1.000000
-3.583573,14.615077,3.945206,0.000000,-0.000000,1.000000
-30.369365,-17.396330,-1.666479,-0.857729,-0.514103,-0.000000
-9.535835,-32.113616,-3.945206,0.000000,-0.000000,-1.000000
-12.063906,-32.174826,3.945206,-0.000000,0.000000,1.000000
21.326765,-10.866088,-3.945206,0.000000,-0.000000,-1.000000
-1.109108,-13.495053,-0.474068,0.098017,0.995185,0.000000
-20.020005,-6.983521,-3.945206,0.000000,0.000000,-1.000000
6.971689,25.640907,3.945206,0.000000,-0.000000,1.000000
9.896532,-18.717862,-3.945206,0.000000,0.000000,-1.000000
23.350465,22.718417,-3.945206,0.000000,0.000000,-1.000000
-1.307851,29.474802,-1.396742,0.290283,-0.956941,0.000000
-22.761784,-25.049662,-3.945206,0.000000,0.000000,-1.000000
15.590989,-16.872008,2.408171,0.881921,-0.471397,0.000000
24.061966,-14.025535,3.945206,-0.000000,0.000000,1.000000
-5.747349,12.279441,-3.189463,0.471397,-0.881921,0.000000
-3.017627,24.621948,3.758461,0.881921,0.471396,0.000000
-29.598733,14.100245,3.945206,-0.000000,-0.000000,1.000000
24.938159,-24.590869,-2.848738,0.740951,-0.671559,0.000000
-15.808164,7.791356,-3.945206,0.000000,0.000000,-1.000000
-5.056279,24.542040,-3.945206,0.000000,0.000000,-1.000000
17.745228,28.457611,3.945206,0.000000,-0.000000,1.000000
31.447820,-8.379807,3.945206,-0.000000,0.000000,1.000000
-15.582239,24.597880,-3.945206,0.000000,0.000000,-1.000000
12.009149,-15.163313,3.945206,-0.000000,0.000000,1.000000
-29.563927,-1.014042,2.709539,0.956941,0.290283,0.000000
-17.609504,21.881205,-3.745521,-0.290286,-0.956940,0.000000
27.122368,-4.716874,-3.945206,0.000000,0.000000,-1.000000
-22.343690,-26.974883,-1.253891,-0.671559,-0.740951,0.000000
32.726549,12.403717,0.908782,0.941544,0.336890,-0.000000
10.064997,27.897210,3.945206,0.000000,-0.000000,1.000000
24.977887,13.764789,3.945206,0.000000,-0.000000,1.000000
15.614825,-20.332151,-0.292557,0.881921,0.471397,0.000000
22.394841,6.323666,-3.945206,0.000000,0.000000,-1.000000
-25.417225,-22.577358,-3.945206,0.000000,-0.000000,-1.000000
-18.653790,2.667819,-3.945206,0.000000,-0.000000,-1.000000
-2.726657,-24.174268,-3.488653,0.773011,-0.634393,0.000000
4.381046,34.725188,-3.804407,0.146730,0.989177,0.000000
29.401173,-1.452220,-1.201589,-0.881920,0.471398,0.000000
-8.504406,17.110712,3.945206,-0.000000,-0.000000,1.000000
-6.189236,17.892942,-3.945206,0.000000,0.000000,-1.000000
19.399558,8.424558,-3.945206,0.000000,0.000000,-1.000000
21.047401,-4.211796,-3.945206,0.000000,-0.000000,-1.000000
27.637963,-16.295763,3.945206,-0.000000,0.000000,1.000000
24.669891,-3.043252,0.933822,0.471396,0.881921,0.000000
-16.103090,-31.092421,1.461040,-0.427555,-0.903989,0.000000
24.306263,24.604968,-3.945206,0.000000,0.000000,-1.000000
-5.361637,29.471590,-3.945206,0.000000,0.000000,-1.000000
-9.236244,26.028019,3.945206,0.000000,0.000000,1.000000
-11.120033,-18.806643,3.945206,-0.000000,0.000000,1.000000
-2.621240,13.346121,1.600278,0.098017,-0.995185,0.000000
4.617014,12.747434,0.206038,-0.290285,-0.956940,0.000000
24.290668,11.008332,3.945206,0.000000,-0.000000,1.000000
0.597288,29.674523,-3.579742,-0.098018,-0.995185,0.000000
11.815613,6.615111,1.150621,-0.881921,-0.471397,0.000000
-22.237981,24.075553,3.945206,-0.000000,-0.000000,1.000000
-26.640024,-3.581944,-3.945206,0.000000,0.000000,-1.000000
15.537872,-16.971382,0.290374,0.881921,-0.471397,0.000000
29.686110,0.479637,-2.177567,-0.995185,-0.098018,0.000000
25.002639,3.209549,-0.940061,0.290285,-0.956940,0.000000
-18.571509,-2.066502,-3.945206,0.000000,0.000000,-1.000000
10.512058,24.037017,3.945206,0.000000,-0.000000,1.000000
28.327607,20.049555,-3.945206,0.000000,0.000000,-1.000000
25.569336,11.687945,3.945206,0.000000,-0.000000,1.000000
15.912185,-11.896707,-3.945206,-0.000000,-0.000000,-1.000000
29.631833,-18.626828,-1.415963,0.857729,-0.514103,0.000000
-16.219529,-15.354423,-3.945206,0.000000,-0.000000,-1.000000
3.992114,-20.715442,-3.945206,0.000000,0.000000,-1.000000
7.310042,-11.444165,1.224105,-0.471397,0.881921,0.000000
-8.956159,-13.308230,3.945206,0.000000,-0.000000,1.000000
-1.879704,18.643263,-3.945206,0.000000,0.000000,-1.000000
3.429944,-26.556264,3.938733,-0.995185,0.098017,0.000000
8.634265,-10.428400,-0.164962,-0.634393,0.773011,0.000000
32.750136,10.661888,-3.945206,0.000000,0.000000,-1.000000
11.880023,-32.090470,3.945206,0.000000,-0.000000,1.000000
8.519326,18.032791,3.945206,0.000000,-0.000000,1.000000
-3.609489,13.053063,-1.443630,0.290285,-0.956940,0.000000
-19.126278,-27.748624,3.945206,0.000000,-0.000000,1.000000
27.039527,-3.364073,1.368342,-0.290284,0.956940,0.000000
34.551563,-5.551529,-0.157447,0.989177,-0.146730,0.000000
-24.174310,-2.726692,-1.469219,-0.634393,0.773011,0.000000
-18.873645,-22.008409,-0.419624,0.098015,0.995185,0.000000
12.022907,-32.862805,0.404170,0.336890,-0.941544,0.000000
-22.029448,18.499537,3.266514,0.995185,0.098015,0.000000
21.506892,-13.024473,3.945206,-0.000000,0.000000,1.000000
2.238403,23.661466,-3.413547,-0.634393,0.773011,0.000000
-15.908404,12.223960,-3.945206,0.000000,0.000000,-1.000000
-13.414105,1.930992,0.606934,0.995185,-0.098017,0.000000
7.385518,-11.403822,1.266927,-0.471397,0.881921,0.000000
22.726691,-17.609644,3.945206,0.000000,0.000000,1.000000
-25.053067,3.224846,-3.405075,-0.290285,-0.956940,0.000000
-6.954166,-34.331316,1.243082,-0.242980,-0.970031,0.000000
-11.578615,-14.548307,3.945206,0.000000,-0.000000,1.000000
28.168347,9.549216,-3.945206,0.000000,0.000000,-1.000000
-13.986215,-25.318489,3.945206,-0.000000,0.000000,1.000000
-14.247294,3.086936,-3.945206,0.000000,0.000000,-1.000000
14.200602,-31.992232,1.923911,0.427555,-0.903989,0.000000
10.923518,14.681599,3.945206,0.000000,0.000000,1.000000
-24.711960,15.496779,-3.945206,0.000000,0.000000,-1.000000
18.866644,-7.551873,-3.945206,0.000000,0.000000,-1.000000
-2.381514,28.772647,1.848367,0.634393,-0.773011,0.000000
16.990525,21.631925,2.203472,0.471396,-0.881922,0.000000
-10.300500,13.921492,-3.945206,0.000000,0.000000,-1.000000
11.918778,-12.836158,-3.945206,0.000000,-0.000000,-1.000000
29.201487,5.461018,3.945206,0.000000,0.000000,1.000000
15.538464,-7.493062,3.945206,-0.000000,-0.000000,1.000000
-5.953230,30.691045,3.945206,0.000000,0.000000,1.000000
-33.476913,-3.207912,-3.945206,0.000000,0.000000,-1.000000
14.962926,-31.631679,-1.959458,0.427555,-0.903989,0.000000
7.518254,20.517564,-3.945206,0.000000,-0.000000,-1.000000
12.130342,-6.026295,-0.468755,-0.881921,0.471397,0.000000
-6.066581,-16.295176,-3.945206,0.000000,0.000000,-1.000000
23.914014,25.551624,0.538888,0.671559,0.740951,0.000000
-2.790383,-30.342903,-3.945206,0.000000,0.000000,-1.000000
-1.986098,-23.217374,3.945206,0.000000,-0.000000,1.000000
21.287886,4.265668,3.945206,0.000000,-0.000000,1.000000
-15.124813,-18.606180,-1.311346,-0.995185,0.098016,0.000000
15.906198,31.185544,-0.750768,0.427555,0.903989,0.000000
21.816978,22.712887,-3.945206,0.000000,0.000000,-1.000000
30.832715,8.875341,-3.945206,0.000000,0.000000,-1.000000
-29.357404,19.084685,-3.509668,-0.857729,0.514103,0.000000
-30.628771,16.963536,-2.814386,-0.857729,0.514103,0.000000
-15.687418,31.289019,-0.539433,-0.427555,0.903989,0.000000
-7.415902,-17.404249,-3.945206,0.000000,-0.000000,-1.000000
-19.450190,28.954239,3.945206,-0.000000,-0.000000,1.000000
-13.573818,-0.309397,1.538569,0.995185,0.098017,-0.000000
14.290728,-14.757530,-3.945206,0.000000,-0.000000,-1.000000
-18.929535,-11.568586,-3.945206,0.000000,0.000000,-1.000000
-29.304840,1.632444,-1.974266,0.881920,-0.471398,0.000000
30.961108,10.540137,-3.945206,0.000000,0.000000,-1.000000
-11.098030,-10.494574,-3.945206,0.000000,0.000000,-1.000000
18.056114,-24.688869,3.945206,0.000000,0.000000,1.000000
-7.387495,-30.842255,-3.945206,0.000000,-0.000000,-1.000000
-12.759414,-4.577521,-0.961517,0.956940,0.290285,0.000000
3.406713,25.759422,-0.688273,-0.995185,0.098017,0.000000
