x,y,z,nx,ny,nz
19.197157,6.383980,2.661145,0.000000,-0.000000,1.000000
-14.825039,-8.318919,-2.661145,0.000000,0.000000,-1.000000
13.980759,3.127138,-2.661145,0.000000,0.000000,-1.000000
-23.852189,-11.038971,0.342491,-0.903989,-0.427555,-0.000000
11.886363,-8.913204,-2.661145,0.000000,-0.000000,-1.000000
12.528392,21.825266,2.661145,0.000000,-0.000000,1.000000
13.608119,6.322555,-2.661145,0.000000,0.000000,-1.000000
8.836085,12.054916,-2.661145,0.000000,0.000000,-1.000000
-10.820527,-17.751922,2.661145,-0.000000,0.000000,1.000000
-21.484750,13.534655,-2.661145,0.000000,0.000000,-1.000000
-15.249126,13.010629,2.661145,-0.000000,-0.000000,1.000000
22.180921,-1.545341,-2.661145,0.000000,0.000000,-1.000000
18.925164,8.422791,2.661145,0.000000,-0.000000,1.000000
20.205284,-10.234187,2.661145,-0.000000,0.000000,1.000000
-20.898149,-15.941500,-0.898976,-0.803207,-0.595699,-0.000000
-0.384080,17.627575,1.009388,0.098016,0.995185,-0.000000
-0.498038,17.655081,0.041972,0.290288,0.956939,0.000000
-1.628261,24.396313,-2.661145,0.000000,0.000000,-1.000000
6.792541,1.377847,2.661145,0.000000,-0.000000,1.000000
22.182396,14.112773,2.032764,0.857729,0.514103,-0.000000
21.705778,12.957920,-2.661145,0.000000,0.000000,-1.000000
-17.248226,-7.908352,2.661145,0.000000,-0.000000,1.000000
3.970117,7.905345,-2.661145,0.000000,-0.000000,-1.000000
-17.887181,-19.258483,-1.592605,-0.671559,-0.740951,-0.000000
3.363240,-8.639688,-2.661145,0.000000,0.000000,-1.000000
19.087842,-6.008512,-2.661145,0.000000,-0.000000,-1.000000
16.739135,0.792133,-2.661145,0.000000,-0.000000,-1.000000
-15.990499,6.552702,2.661145,-0.000000,-0.000000,1.000000
-16.792209,-17.348792,2.661145,0.000000,-0.000000,1.000000
0.484649,-25.080922,2.661145,0.000000,-0.000000,1.000000
-14.926166,8.367139,-2.661145,0.000000,0.000000,-1.000000
2.685631,-22.176311,-2.661145,0.000000,0.000000,-1.000000
-8.885585,20.890818,-2.661145,0.000000,0.000000,-1.000000
-24.440734,-8.759560,2.661145,0.000000,-0.000000,1.000000
23.932314,-10.869561,0.295497,0.903989,-0.427555,0.000000
19.578804,8.882172,-2.661145,0.000000,0.000000,-1.000000
9.140374,7.768054,-2.661145,0.000000,-0.000000,-1.000000
-21.859915,1.007445,2.661145,-0.000000,0.000000,1.000000
-13.890904,9.412856,-2.661145,0.000000,0.000000,-1.000000
18.253758,1.546295,-0.878314,0.634393,-0.773011,0.000000
-15.881912,16.852485,2.661145,-0.000000,-0.000000,1.000000
-3.174319,26.098600,0.572108,-0.146731,0.989176,0.000000
-4.926921,-12.148130,2.661145,-0.000000,0.000000,1.000000
-12.670761,-14.834008,-2.661145,0.000000,0.000000,-1.000000
-1.853711,18.673906,-2.354346,0.881921,0.471397,-0.000000
-4.661003,-4.375770,0.732476,0.773010,0.634393,0.000000
1.193472,8.616167,2.661145,-0.000000,0.000000,1.000000
14.631576,9.896915,-2.661145,0.000000,0.000000,-1.000000
-0.130624,-14.272098,-2.661145,0.000000,0.000000,-1.000000
-7.283868,25.269346,1.100050,-0.242980,0.970031,0.000000
-5.768977,24.528645,-2.661145,0.000000,0.000000,-1.000000
16.406376,9.129748,-2.661145,0.000000,0.000000,-1.000000
-21.608538,-14.855093,-2.661145,0.000000,0.000000,-1.000000
-1.719127,9.476001,-2.661145,0.000000,0.000000,-1.000000
-3.225958,21.294915,2.661145,0.000000,0.000000,1.000000
-5.996978,-2.205465,0.228375,0.956940,0.290285,0.000000
15.607078,17.042375,2.661145,0.000000,-0.000000,1.000000
-21.911475,-11.046249,-2.661145,0.000000,0.000000,-1.000000
20.010552,14.096700,2.661145,0.000000,-0.000000,1.000000
-10.471469,0.153216,2.661145,0.000000,0.000000,1.000000
-12.502785,-12.879631,2.661145,0.000000,-0.000000,1.000000
2.342719,25.561260,-2.661145,0.000000,-0.000000,-1.000000
-2.016975,23.108356,-2.661145,0.000000,0.000000,-1.000000
8.824934,7.427428,-2.661145,0.000000,-0.000000,-1.000000
-17.596641,-0.070003,0.887796,-0.995185,0.098016,0.000000
15.921052,5.258834,-2.661145,0.000000,0.000000,-1.000000
7.683138,25.164536,1.547495,0.336890,0.941544,-0.000000
-14.573949,-5.744003,2.661145,0.000000,-0.000000,1.000000
-3.502367,-21.746544,-2.661145,0.000000,-0.000000,-1.000000
-14.773670,-5.381643,2.661145,0.000000,-0.000000,1.000000
-14.019499,0.859538,2.661145,0.000000,0.000000,1.000000
-5.629433,5.818746,-2.661145,0.000000,0.000000,-1.000000
-25.378804,-6.846886,-1.157797,-0.970031,-0.242980,-0.000000
3.163201,-24.753348,2.661145,0.000000,-0.000000,1.000000
18.380502,-6.802053,2.661145,-0.000000,0.000000,1.000000
-12.266569,-10.227083,2.661145,0.000000,-0.000000,1.000000
18.438100,8.675382,-2.661145,0.000000,0.000000,-1.000000
6.958854,12.066273,2.661145,0.000000,-0.000000,1.000000
-6.571571,6.732291,2.661145,-0.000000,-0.000000,1.000000
11.104604,10.075197,-2.661145,0.000000,0.000000,-1.000000
13.070882,-1.729794,-2.661145,0.000000,-0.000000,-1.000000
-6.680591,23.765280,2.661145,0.000000,0.000000,1.000000
-15.511048,-12.831778,-2.661145,0.000000,0.000000,-1.000000
-4.248471,22.823378,2.661145,0.000000,0.000000,1.000000
-24.616360,9.215189,-1.584675,-0.941544,0.336890,0.000000
14.828841,5.488265,2.661145,0.000000,-0.000000,1.000000
21.042047,15.532542,-2.661145,0.000000,0.000000,-1.000000
6.632720,17.440735,-2.661145,0.000000,0.000000,-1.000000
17.881933,-5.061539,2.661145,-0.000000,0.000000,1.000000
18.669265,-4.058866,2.661145,-0.000000,-0.000000,1.000000
6.332051,-22.836810,2.661145,0.000000,-0.000000,1.000000
-15.448372,-9.921790,2.661145,0.000000,-0.000000,1.000000
-7.930370,16.141494,-2.661145,0.000000,0.000000,-1.000000
-1.430752,8.288505,-2.661145,0.000000,0.000000,-1.000000
-7.975626,25.059882,-1.414526,-0.336890,0.941544,0.000000
-26.246943,-1.356565,-2.290249,-0.998795,-0.049068,-0.000000
-18.482389,13.581186,2.661145,-0.000000,-0.000000,1.000000
3.168691,7.241354,-2.661145,0.000000,0.000000,-1.000000
-22.050812,-12.361290,2.661145,0.000000,-0.000000,1.000000
-11.086513,23.829703,-2.170929,-0.427555,0.903989,0.000000
1.751948,-21.632074,-2.661145,0.000000,0.000000,-1.000000
-8.793407,-24.767276,-2.205290,-0.336890,-0.941544,0.000000
2.708801,-7.141056,-2.661145,0.000000,0.000000,-1.000000
-19.934662,9.427231,2.661145,-0.000000,-0.000000,1.000000
7.874935,16.113291,2.661145,0.000000,-0.000000,1.000000
-26.297227,0.333024,-1.597468,-0.998795,0.049068,0.000000
-25.230975,7.437052,-1.777683,-0.970031,0.242980,0.000000
-21.107168,-4.637124,-2.661145,0.000000,0.000000,-1.000000
-21.447846,-14.292846,2.661145,0.000000,-0.000000,1.000000
16.978795,11.334398,-2.661145,0.000000,0.000000,-1.000000
-7.367196,15.538188,2.661145,0.000000,0.000000,1.000000
12.190863,15.603520,-2.661145,0.000000,0.000000,-1.000000
10.609243,-6.903956,-2.661145,0.000000,0.000000,-1.000000
0.154283,-9.784682,-2.661145,-0.000000,-0.000000,-1.000000
-23.695597,11.370057,-1.242106,-0.903989,0.427555,0.000000
15.073552,4.395370,2.661145,0.000000,-0.000000,1.000000
1.402658,15.246147,2.661145,-0.000000,0.000000,1.000000
10.459121,-11.843575,2.661145,-0.000000,0.000000,1.000000
2.930340,8.572975,2.661145,0.000000,-0.000000,1.000000
3.498395,15.757277,2.661145,-0.000000,0.000000,1.000000
9.919782,-24.364253,2.039001,0.336890,-0.941544,0.000000
19.782263,10.684760,-2.661145,0.000000,0.000000,-1.000000
21.298012,10.687229,-2.661145,0.000000,0.000000,-1.000000
18.755366,-7.619039,-2.661145,0.000000,0.000000,-1.000000
-0.479892,8.593083,-2.661145,0.000000,0.000000,-1.000000
2.891775,-17.934805,2.661145,0.000000,-0.000000,1.000000
-0.591980,6.351523,-0.487831,0.098017,-0.995185,0.000000
-22.480362,-10.138313,2.661145,0.000000,-0.000000,1.000000
-21.896067,14.590484,-0.064807,-0.857729,0.514103,0.000000
6.280009,-23.754468,-2.661145,0.000000,0.000000,-1.000000
0.840827,-12.332345,2.661145,0.000000,0.000000,1.000000
-19.676972,17.425449,-0.906594,-0.740951,0.671559,0.000000
-2.057097,15.382539,-2.661145,0.000000,0.000000,-1.000000
17.903337,-12.604618,2.661145,-0.000000,0.000000,1.000000
17.650283,0.482220,-1.446553,0.956939,-0.290288,0.000000
-24.850222,-1.626541,-2.661145,0.000000,0.000000,-1.000000
-15.676680,15.987140,2.661145,-0.000000,-0.000000,1.000000
18.347906,1.623561,-0.075603,0.634393,-0.773011,0.000000
20.136208,-7.576154,-2.661145,0.000000,-0.000000,-1.000000
15.901139,12.386285,-2.661145,0.000000,0.000000,-1.000000
2.058384,-24.811044,-2.661145,0.000000,0.000000,-1.000000
-5.743108,-2.787448,1.507169,0.881921,0.471397,0.000000
-3.647760,13.856291,2.661145,0.000000,0.000000,1.000000
-11.097853,11.553524,-2.661145,0.000000,0.000000,-1.000000
15.543156,-18.571405,-2.661145,0.000000,-0.000000,-1.000000
13.983464,15.662302,2.661145,0.000000,-0.000000,1.000000
8.935803,11.731742,2.661145,0.000000,-0.000000,1.000000
-22.967326,6.816292,-2.661145,0.000000,0.000000,-1.000000
5.209514,19.392664,2.661145,0.000000,-0.000000,1.000000
19.452463,-4.298345,2.661145,-0.000000,0.000000,1.000000
4.521703,11.642395,-2.661145,0.000000,-0.000000,-1.000000
21.508415,1.204918,-1.842112,-0.773008,-0.634396,0.000000
25.881193,-1.531214,-2.661145,0.000000,0.000000,-1.000000
20.883616,14.127065,2.661145,0.000000,-0.000000,1.000000
1.650518,15.394299,-2.661145,0.000000,0.000000,-1.000000
7.101386,-25.315055,-1.920199,0.242980,-0.970031,0.000000
-15.152600,1.790720,2.661145,-0.000000,-0.000000,1.000000
1.999815,20.497921,-1.831477,-0.956940,-0.290285,0.000000
-8.226874,-0.314989,-2.661145,0.000000,0.000000,-1.000000
-23.763547,1.221409,2.661145,0.000000,-0.000000,1.000000
16.759024,20.280984,2.143955,0.671559,0.740951,-0.000000
23.899060,-7.208535,2.661145,-0.000000,0.000000,1.000000
-11.607132,8.908890,-2.661145,0.000000,0.000000,-1.000000
-18.272789,18.908988,-2.221232,-0.671559,0.740951,0.000000
12.247861,6.809511,2.661145,0.000000,-0.000000,1.000000
-9.499012,17.115074,2.661145,-0.000000,-0.000000,1.000000
14.095692,-16.203964,-2.661145,0.000000,-0.000000,-1.000000
15.746061,9.404959,-2.661145,0.000000,0.000000,-1.000000
5.028371,-6.908572,-2.661145,0.000000,0.000000,-1.000000
-12.472812,8.587269,2.661145,-0.000000,-0.000000,1.000000
-10.905747,18.273252,-2.661145,0.000000,0.000000,-1.000000
-13.492082,-14.262536,2.661145,0.000000,-0.000000,1.000000
-7.981137,10.358067,2.661145,-0.000000,0.000000,1.000000
-9.324605,-18.347976,-2.661145,0.000000,-0.000000,-1.000000
23.092658,12.008637,-2.661145,0.000000,0.000000,-1.000000
12.869558,14.363268,-2.661145,0.000000,0.000000,-1.000000
20.047837,14.669769,-2.661145,0.000000,0.000000,-1.000000
0.439770,6.366515,1.998544,-0.098017,-0.995185,0.000000
26.239068,-1.516871,1.371676,0.998795,-0.049068,0.000000
25.322089,-7.073303,-1.793650,0.970031,-0.242980,0.000000
-6.080263,10.396344,2.661145,-0.000000,0.000000,1.000000
-6.800557,15.475239,2.661145,0.000000,0.000000,1.000000
3.705605,7.963036,2.661145,-0.000000,0.000000,1.000000
3.377884,-6.270434,-2.661145,0.000000,0.000000,-1.000000
20.821340,16.045065,0.695489,0.803207,0.595699,-0.000000
-16.673977,11.280339,-2.661145,0.000000,0.000000,-1.000000
-9.224286,21.871173,-2.661145,0.000000,0.000000,-1.000000
-15.436500,-13.686005,-2.661145,0.000000,-0.000000,-1.000000
-7.854891,13.608667,-2.661145,0.000000,0.000000,-1.000000
-8.698975,9.427013,-2.661145,0.000000,0.000000,-1.000000
3.442764,-23.720670,2.661145,0.000000,-0.000000,1.000000
-7.466318,-10.162113,-2.661145,0.000000,-0.000000,-1.000000
-6.215559,-15.690456,2.661145,-0.000000,0.000000,1.000000
-25.863906,-3.431741,2.661145,0.000000,-0.000000,1.000000
-9.212207,13.979648,2.661145,-0.000000,0.000000,1.000000
2.236190,17.422896,2.661145,0.000000,-0.000000,1.000000
-14.225237,-4.053405,2.661145,0.000000,-0.000000,1.000000
-21.547608,-1.138538,1.042181,0.881922,0.471395,0.000000
4.015199,13.114853,2.661145,0.000000,-0.000000,1.000000
8.732323,12.669073,2.661145,0.000000,-0.000000,1.000000
-23.666508,6.062878,-2.661145,0.000000,0.000000,-1.000000
2.869690,25.500652,-2.661145,0.000000,0.000000,-1.000000
-9.179519,1.804184,-2.661145,0.000000,0.000000,-1.000000
-17.162073,1.802623,-2.661145,-0.000000,-0.000000,-1.000000
-4.814958,20.743168,-2.661145,0.000000,0.000000,-1.000000
0.566491,26.285757,0.464705,0.049068,0.998795,-0.000000
9.483394,18.010045,-2.661145,0.000000,0.000000,-1.000000
0.688452,-21.757537,-2.330481,-0.290283,0.956941,0.000000
-15.698047,4.037842,-2.661145,0.000000,0.000000,-1.000000
3.084323,15.866160,2.661145,0.000000,-0.000000,1.000000
-6.900152,-6.560043,-2.661145,0.000000,-0.000000,-1.000000
21.009685,-8.738998,2.661145,-0.000000,0.000000,1.000000
12.846200,-18.904275,2.661145,-0.000000,0.000000,1.000000
4.556414,13.799862,-2.661145,0.000000,0.000000,-1.000000
-2.645016,26.177115,0.812020,-0.146731,0.989176,0.000000
-11.871189,-11.412039,-2.661145,0.000000,-0.000000,-1.000000
-19.487500,-12.957812,-2.661145,0.000000,0.000000,-1.000000
15.866202,-20.953994,-0.429938,0.595699,-0.803207,0.000000
5.280239,-25.771228,-2.008622,0.242980,-0.970031,0.000000
5.841988,-19.137143,-2.661145,0.000000,0.000000,-1.000000
11.556963,-11.698793,-2.661145,0.000000,-0.000000,-1.000000
1.169914,15.101812,-2.661145,0.000000,0.000000,-1.000000
20.131557,-9.098740,-2.661145,0.000000,-0.000000,-1.000000
5.827820,-7.120092,-2.661145,0.000000,0.000000,-1.000000
-22.796741,-13.087801,-1.576855,-0.857729,-0.514103,-0.000000
4.872834,23.416651,2.661145,0.000000,-0.000000,1.000000
8.387069,8.052107,2.661145,0.000000,-0.000000,1.000000
-5.782286,-12.043351,-2.661145,0.000000,-0.000000,-1.000000
16.385682,1.195318,-2.661145,0.000000,-0.000000,-1.000000
14.651898,-12.123298,-2.661145,0.000000,0.000000,-1.000000
1.351641,26.247185,1.398410,0.049068,0.998795,-0.000000
13.195500,8.597090,2.661145,0.000000,-0.000000,1.000000
1.772194,8.632773,2.661145,-0.000000,0.000000,1.000000
-19.653761,-17.451058,1.981203,-0.740951,-0.671559,0.000000
-13.863603,-19.866593,2.661145,-0.000000,0.000000,1.000000
-18.828448,1.936315,0.863641,-0.471397,-0.881921,0.000000
-19.032494,-14.822801,-2.661145,0.000000,0.000000,-1.000000
-21.782482,-12.844401,2.661145,0.000000,-0.000000,1.000000
-16.401648,-19.462165,-2.661145,0.000000,0.000000,-1.000000
14.546534,-17.465571,2.661145,-0.000000,0.000000,1.000000
-12.230394,-10.307222,2.661145,0.000000,-0.000000,1.000000
-19.053335,13.410201,2.661145,-0.000000,-0.000000,1.000000
0.643983,6.750771,2.661145,-0.000000,0.000000,1.000000
-8.206062,-24.977431,-2.511543,-0.336890,-0.941544,0.000000
-22.353586,13.827160,2.434567,-0.857729,0.514103,0.000000
-16.918552,18.605032,-2.661145,0.000000,0.000000,-1.000000
-18.084452,-11.289602,2.661145,0.000000,-0.000000,1.000000
-7.229256,25.283025,-2.009226,-0.242980,0.970031,0.000000
24.216727,-10.268219,1.417303,0.903989,-0.427555,0.000000
10.168337,-24.263968,-2.213349,0.427555,-0.903989,0.000000
21.940926,-14.494397,-2.661145,0.000000,-0.000000,-1.000000
-15.440983,16.894663,2.661145,-0.000000,-0.000000,1.000000
23.911376,-4.085771,2.661145,-0.000000,0.000000,1.000000
20.175632,-16.875262,-0.896294,0.740951,-0.671559,0.000000
-17.788236,-2.612715,-2.661145,0.000000,0.000000,-1.000000
-14.051627,18.927858,-2.661145,0.000000,0.000000,-1.000000
-12.314791,17.178765,2.661145,-0.000000,-0.000000,1.000000
-6.494893,-23.138969,2.661145,-0.000000,0.000000,1.000000
-1.337816,-8.707213,2.661145,-0.000000,0.000000,1.000000
-4.401032,-24.898006,-2.661145,0.000000,-0.000000,-1.000000
2.035501,26.213589,-2.277431,0.049068,0.998795,0.000000
-2.904523,-5.925286,2.661145,0.000000,-0.000000,1.000000
-6.094087,21.093127,-2.661145,0.000000,0.000000,-1.000000
1.788175,18.021228,2.661145,0.000000,-0.000000,1.000000
1.573521,-18.286933,-1.386655,-0.773011,-0.634393,-0.000000
-14.468671,2.277877,2.661145,-0.000000,-0.000000,1.000000
-8.185161,-22.410337,-2.661145,0.000000,-0.000000,-1.000000
-22.188449,3.716028,-2.661145,0.000000,0.000000,-1.000000
-24.245171,-10.208079,0.879929,-0.903989,-0.427555,-0.000000
22.321715,-2.123067,-2.661145,0.000000,0.000000,-1.000000
-13.164404,10.346498,-2.661145,0.000000,0.000000,-1.000000
5.750588,2.773455,-0.397636,-0.881921,-0.471397,0.000000
25.340169,7.001126,-2.026988,0.970031,0.242980,0.000000
-5.809186,2.663825,-1.898684,0.881921,-0.471397,0.000000
6.920769,-25.360297,-0.485044,0.242980,-0.970031,0.000000
13.179590,12.260269,2.661145,0.000000,-0.000000,1.000000
-3.716209,-22.545501,2.661145,-0.000000,0.000000,1.000000
24.088340,10.539671,-0.305965,0.903989,0.427555,0.000000
12.290403,21.208576,2.661145,0.000000,-0.000000,1.000000
-24.395302,-9.833006,1.062014,-0.941544,-0.336890,0.000000
-2.153277,-26.207804,2.002552,-0.049068,-0.998795,0.000000
-5.004974,17.353405,-2.661145,0.000000,0.000000,-1.000000
20.154614,16.898452,-0.395349,0.740951,0.671559,0.000000
-14.932795,-21.646256,1.548467,-0.595699,-0.803207,0.000000
-3.632015,19.962374,2.661145,0.000000,0.000000,1.000000
-6.276858,-20.416043,-2.661145,0.000000,-0.000000,-1.000000
-3.855817,5.971825,-2.661145,0.000000,0.000000,-1.000000
1.045610,-26.262220,-0.310853,0.049068,-0.998795,0.000000
-1.889241,-21.346159,2.661145,0.000000,-0.000000,1.000000
-20.693015,6.689413,-2.661145,0.000000,0.000000,-1.000000
-0.461967,-12.666938,-2.661145,0.000000,0.000000,-1.000000
13.485169,-8.976991,2.661145,-0.000000,0.000000,1.000000
-7.827632,12.928252,-2.661145,0.000000,0.000000,-1.000000
-6.161632,-8.451397,-2.661145,0.000000,-0.000000,-1.000000
20.426203,3.926656,2.661145,0.000000,-0.000000,1.000000
17.118815,-1.736061,2.661145,-0.000000,-0.000000,1.000000
-14.216924,-12.821511,2.661145,-0.000000,0.000000,1.000000
-0.942016,6.317048,-1.668635,0.098017,-0.995185,0.000000
26.235289,1.593792,-1.342975,0.998795,0.049068,0.000000
-11.171176,-12.521100,2.661145,0.000000,-0.000000,1.000000
-7.326043,15.861965,2.661145,0.000000,0.000000,1.000000
-10.938202,7.470796,2.661145,-0.000000,-0.000000,1.000000
-15.500883,7.096478,-2.661145,0.000000,0.000000,-1.000000
7.758188,6.828572,-2.661145,0.000000,-0.000000,-1.000000
-23.257994,-3.679411,-2.661145,0.000000,0.000000,-1.000000
20.272952,2.784808,-2.661145,0.000000,0.000000,-1.000000
19.854765,-2.133666,2.647840,-0.098017,0.995185,0.000000
22.741615,6.013943,-2.661145,0.000000,0.000000,-1.000000
-11.860541,-5.613362,-2.661145,0.000000,0.000000,-1.000000
14.939500,6.038843,2.661145,0.000000,-0.000000,1.000000
-8.384413,21.434268,2.661145,0.000000,0.000000,1.000000
-11.521489,21.634930,2.661145,-0.000000,-0.000000,1.000000
22.643419,8.028704,2.661145,0.000000,-0.000000,1.000000
17.581491,-17.383655,2.661145,-0.000000,0.000000,1.000000
-22.065057,-12.264669,2.661145,0.000000,-0.000000,1.000000
-1.785922,20.923298,-2.444456,0.881922,-0.471396,0.000000
-20.131187,4.919882,2.661145,-0.000000,-0.000000,1.000000
-20.061286,2.113326,2.359387,0.098017,-0.995185,0.000000
16.153176,-1.038870,-2.661145,-0.000000,-0.000000,-1.000000
13.968340,-6.498024,2.661145,-0.000000,0.000000,1.000000
-1.377086,18.103260,0.802338,0.634393,0.773011,0.000000
18.495774,1.744912,-1.702050,0.634393,-0.773011,0.000000
-10.175018,-6.432292,-2.661145,0.000000,0.000000,-1.000000
5.268633,13.176491,-2.661145,0.000000,-0.000000,-1.000000
3.143930,19.902773,2.661145,0.000000,-0.000000,1.000000
6.487197,-20.875484,-2.661145,0.000000,0.000000,-1.000000
24.819722,-0.674815,2.661145,-0.000000,0.000000,1.000000
9.417098,0.115454,2.661145,0.000000,0.000000,1.000000
15.338057,-7.380546,-2.661145,0.000000,-0.000000,-1.000000
20.905289,-1.795548,1.562699,-0.471396,0.881922,0.000000
-7.572411,-6.642241,-2.661145,0.000000,0.000000,-1.000000
21.314288,14.764247,2.661145,0.000000,-0.000000,1.000000
-13.290770,-22.657463,-2.661145,0.000000,-0.000000,-1.000000
23.542713,-11.594478,2.661145,-0.000000,0.000000,1.000000
13.466195,-19.519398,2.661145,-0.000000,0.000000,1.000000
-15.048366,12.313055,-2.661145,0.000000,-0.000000,-1.000000
24.195753,3.987528,-2.661145,0.000000,0.000000,-1.000000
-20.816606,11.215136,2.661145,-0.000000,0.000000,1.000000
-15.216929,16.432230,2.661145,-0.000000,-0.000000,1.000000
3.901183,-21.398285,-2.661145,0.000000,0.000000,-1.000000
-19.175309,-17.978949,-1.020524,-0.740951,-0.671559,0.000000
-22.950907,12.830590,0.306932,-0.857729,0.514103,0.000000
7.626809,25.183444,-0.182827,0.242980,0.970031,0.000000
-1.320373,16.727490,2.661145,0.000000,0.000000,1.000000
6.470720,21.584034,2.661145,0.000000,-0.000000,1.000000
-6.734915,-0.297251,2.661145,0.000000,-0.000000,1.000000
-3.873300,-15.733046,-2.661145,0.000000,-0.000000,-1.000000
-24.708588,-5.859057,2.661145,0.000000,-0.000000,1.000000
-7.467392,-6.834850,-2.661145,0.000000,-0.000000,-1.000000
7.399101,11.747055,2.661145,0.000000,-0.000000,1.000000
13.839634,-19.440346,2.661145,-0.000000,0.000000,1.000000
21.732686,0.770374,1.295677,-0.956941,-0.290283,0.000000
2.208802,-19.876251,-2.661145,0.000000,0.000000,-1.000000
-5.143902,7.770089,-2.661145,0.000000,0.000000,-1.000000
-20.873238,-6.310863,2.661145,0.000000,-0.000000,1.000000
22.599370,-2.259844,-2.661145,0.000000,0.000000,-1.000000
-26.013665,-3.746899,-2.198657,-0.989176,-0.146731,-0.000000
26.258607,1.119149,1.937767,0.998795,0.049068,-0.000000
-0.208951,22.545207,-2.661145,0.000000,-0.000000,-1.000000
20.118128,-5.616692,-2.661145,0.000000,-0.000000,-1.000000
-9.340489,1.603866,2.661145,-0.000000,-0.000000,1.000000
16.097649,2.659188,-2.661145,0.000000,0.000000,-1.000000
-7.283100,1.062136,-2.661145,0.000000,-0.000000,-1.000000
-3.585005,6.505165,2.661145,-0.000000,0.000000,1.000000
-15.288887,11.307074,2.661145,-0.000000,-0.000000,1.000000
15.116584,21.509948,-1.282441,0.595699,0.803207,-0.000000
0.369915,-16.390510,-2.661145,-0.000000,-0.000000,-1.000000
24.846309,-8.572524,-2.160512,0.941544,-0.336890,0.000000
26.117031,-3.050065,-0.839418,0.989176,-0.146731,0.000000
9.835310,-8.431446,-2.661145,0.000000,0.000000,-1.000000
-9.394423,14.918280,-2.661145,0.000000,0.000000,-1.000000
20.836276,1.951027,-2.661145,0.000000,-0.000000,-1.000000
1.406920,-6.527581,-2.661145,0.000000,0.000000,-1.000000
17.603868,-6.235516,-2.661145,0.000000,-0.000000,-1.000000
19.662088,-11.939023,2.661145,-0.000000,0.000000,1.000000
16.666806,10.817178,-2.661145,0.000000,0.000000,-1.000000
12.040983,-21.616480,2.661145,0.000000,-0.000000,1.000000
-3.412122,-9.922705,-2.661145,0.000000,0.000000,-1.000000
17.958249,7.377556,-2.661145,0.000000,0.000000,-1.000000
9.386541,12.909721,2.661145,0.000000,-0.000000,1.000000
-11.802240,-8.915467,2.661145,0.000000,-0.000000,1.000000
-10.223354,-3.480226,-2.661145,0.000000,0.000000,-1.000000
9.209896,-15.908079,-2.661145,0.000000,0.000000,-1.000000
0.734648,-21.743524,1.475548,-0.290283,0.956941,0.000000
12.907358,10.129012,2.661145,0.000000,-0.000000,1.000000
12.654294,-11.238295,-2.661145,0.000000,-0.000000,-1.000000
-26.260586,-1.078869,1.555451,-0.998795,-0.049068,0.000000
-10.109053,-7.867083,2.661145,0.000000,-0.000000,1.000000
-17.568724,-12.285194,2.661145,0.000000,-0.000000,1.000000
-1.403933,-13.817742,2.661145,-0.000000,0.000000,1.000000
14.695354,2.951722,-2.661145,0.000000,0.000000,-1.000000
-21.677533,-0.895466,1.685979,0.881922,0.471395,0.000000
-10.249099,7.243789,2.661145,-0.000000,-0.000000,1.000000
12.412458,-5.253069,2.661145,-0.000000,0.000000,1.000000
-26.196076,-2.391991,0.861229,-0.998795,-0.049068,0.000000
8.073746,-25.024774,-1.491014,0.336890,-0.941544,0.000000
-16.821488,-19.926046,2.661145,0.000000,-0.000000,1.000000
14.222778,1.123627,-2.661145,0.000000,0.000000,-1.000000
-18.197702,2.969017,-2.661145,0.000000,0.000000,-1.000000
-14.733554,2.917826,2.661145,-0.000000,-0.000000,1.000000
-4.897915,-17.126891,2.661145,-0.000000,0.000000,1.000000
22.553794,-13.493133,0.042718,0.857729,-0.514103,0.000000
2.099853,19.302240,-2.508007,-0.956941,0.290284,0.000000
-24.973974,-8.215723,-1.195609,-0.941544,-0.336890,-0.000000
-2.057853,19.163786,2.470686,0.956941,0.290284,0.000000
18.150973,10.703576,2.661145,0.000000,-0.000000,1.000000
12.699890,0.669626,2.661145,0.000000,0.000000,1.000000
-21.890584,3.573971,-2.661145,0.000000,0.000000,-1.000000
-13.275086,22.684487,1.272547,-0.514103,0.857729,0.000000
-9.924912,5.903513,2.661145,-0.000000,-0.000000,1.000000
-6.876417,-9.371695,2.661145,-0.000000,0.000000,1.000000
17.241611,14.454870,2.661145,0.000000,-0.000000,1.000000
-26.238603,1.526338,-1.988829,-0.998795,0.049068,0.000000
-9.850010,17.794440,2.661145,-0.000000,-0.000000,1.000000
0.532021,6.357429,2.621448,-0.098017,-0.995185,0.000000
6.395485,25.491874,-1.998842,0.242980,0.970031,0.000000
10.877695,-19.938106,2.661145,0.000000,-0.000000,1.000000
25.597355,-1.127636,-2.661145,0.000000,0.000000,-1.000000
-0.608694,-14.846233,-2.661145,0.000000,0.000000,-1.000000
-20.757766,-1.874401,0.004492,0.471396,0.881922,-0.000000
5.900613,-7.919481,2.661145,-0.000000,-0.000000,1.000000
1.825387,-18.620915,0.928251,-0.881921,-0.471397,0.000000
-19.144748,-8.330506,2.661145,0.000000,-0.000000,1.000000
-3.047392,8.249937,2.661145,0.000000,-0.000000,1.000000
16.299079,-15.621278,2.661145,-0.000000,0.000000,1.000000
-5.842503,-16.393832,2.661145,-0.000000,0.000000,1.000000
12.516802,1.068858,2.661145,0.000000,-0.000000,1.000000
21.335306,-15.352062,2.440327,0.803207,-0.595699,0.000000
16.481070,18.064549,2.661145,0.000000,-0.000000,1.000000
-8.242190,3.906835,-2.661145,0.000000,0.000000,-1.000000
17.650378,-2.060513,2.661145,-0.000000,0.000000,1.000000
7.517726,-21.224734,-2.661145,0.000000,0.000000,-1.000000
-3.793354,-26.006774,0.291640,-0.146731,-0.989176,0.000000
-10.829099,-21.216915,-2.661145,0.000000,-0.000000,-1.000000
11.625115,12.080003,2.661145,0.000000,-0.000000,1.000000
20.963469,3.671902,-2.661145,0.000000,0.000000,-1.000000
4.395213,25.917496,-0.005265,0.146731,0.989176,0.000000
24.757348,-4.184254,2.661145,-0.000000,0.000000,1.000000
-16.465420,5.051111,2.661145,-0.000000,-0.000000,1.000000
-14.541968,-14.846709,-2.661145,0.000000,0.000000,-1.000000
-1.284038,10.629614,-2.661145,0.000000,0.000000,-1.000000
20.449020,-16.547080,0.957645,0.803207,-0.595699,0.000000
-26.048965,3.508928,-1.616679,-0.989176,0.146731,0.000000
-12.063698,11.488043,-2.661145,0.000000,0.000000,-1.000000
-13.706063,-15.823278,-2.661145,0.000000,0.000000,-1.000000
-25.857642,-4.798719,-2.488414,-0.989176,-0.146731,-0.000000
-17.926405,12.273802,2.661145,-0.000000,-0.000000,1.000000
17.686547,0.601766,2.660244,0.956939,-0.290288,0.000000
-17.380409,17.495606,-2.661145,0.000000,0.000000,-1.000000
18.031229,-2.273504,-2.661145,0.000000,-0.000000,-1.000000
-12.823526,15.032141,2.661145,-0.000000,-0.000000,1.000000
-17.815856,-19.323128,2.284371,-0.671559,-0.740951,0.000000
-17.069435,7.366579,-2.661145,0.000000,0.000000,-1.000000
-13.680143,22.441705,-0.299375,-0.514103,0.857729,0.000000
-10.937184,1.549719,-2.661145,0.000000,0.000000,-1.000000
-10.979301,9.131315,2.661145,-0.000000,0.000000,1.000000
20.544455,3.903845,2.661145,0.000000,-0.000000,1.000000
-18.370281,-1.641923,2.633364,-0.634393,0.773011,0.000000
-15.351160,10.489782,-2.661145,0.000000,0.000000,-1.000000
-24.056857,-9.698228,2.661145,0.000000,-0.000000,1.000000
-10.659433,-13.041793,-2.661145,0.000000,0.000000,-1.000000
22.383776,-13.776791,-1.453140,0.857729,-0.514103,0.000000
21.005714,8.254298,2.661145,0.000000,-0.000000,1.000000
17.392490,-7.644261,-2.661145,0.000000,-0.000000,-1.000000
-0.299475,14.136713,-2.661145,-0.000000,-0.000000,-1.000000
2.900279,5.810202,-2.661145,0.000000,-0.000000,-1.000000
-3.308842,26.078645,-0.346562,-0.146731,0.989176,0.000000
-23.926320,-4.551480,2.661145,0.000000,-0.000000,1.000000
-18.298679,-1.583161,-1.731670,-0.634393,0.773011,0.000000
5.003725,20.909196,-2.661145,0.000000,0.000000,-1.000000
19.553492,-2.127548,2.248896,0.098018,0.995185,0.000000
8.383023,-11.979377,2.661145,-0.000000,0.000000,1.000000
-22.069445,11.418799,-2.661145,0.000000,0.000000,-1.000000
-3.199015,-22.794729,2.661145,-0.000000,0.000000,1.000000
8.438527,-18.259525,2.661145,0.000000,-0.000000,1.000000
-14.519728,10.605992,2.661145,-0.000000,-0.000000,1.000000
4.693470,4.336209,1.154913,-0.773010,-0.634393,0.000000
-12.672282,-9.945249,-2.661145,0.000000,0.000000,-1.000000
-5.002332,-8.958745,-2.661145,0.000000,0.000000,-1.000000
3.260174,-26.085864,0.338609,0.146731,-0.989176,0.000000
-7.271396,-10.208892,2.661145,-0.000000,0.000000,1.000000
13.364184,1.797932,2.661145,0.000000,-0.000000,1.000000
-1.195997,12.324009,-2.661145,0.000000,0.000000,-1.000000
14.300983,-6.198322,-2.661145,0.000000,-0.000000,-1.000000
17.604720,0.152033,0.166767,0.995185,-0.098016,0.000000
-4.052119,-15.155794,2.661145,-0.000000,0.000000,1.000000
9.173686,-13.075845,-2.661145,0.000000,-0.000000,-1.000000
10.866632,-23.933699,-2.438075,0.427555,-0.903989,0.000000
-15.302705,21.371911,-0.011044,-0.595699,0.803207,0.000000
19.291817,9.355950,-2.661145,0.000000,0.000000,-1.000000
-6.407971,0.018856,1.038411,0.995185,-0.098017,0.000000
10.510617,-14.065647,2.661145,-0.000000,0.000000,1.000000
-1.569144,21.188780,0.155199,0.773009,-0.634395,0.000000
-5.369547,7.738533,-2.661145,0.000000,0.000000,-1.000000
9.062146,4.143095,2.661145,0.000000,-0.000000,1.000000
0.817542,-21.718378,1.319278,-0.290283,0.956941,0.000000
-11.530722,-15.892576,2.661145,-0.000000,0.000000,1.000000
-3.137819,-12.772833,2.661145,0.000000,-0.000000,1.000000
10.035799,24.322741,0.800903,0.336890,0.941544,0.000000
12.516775,23.035046,-2.661145,0.000000,0.000000,-1.000000
-13.940454,8.766708,2.661145,-0.000000,-0.000000,1.000000
-11.019415,5.448127,-2.661145,0.000000,0.000000,-1.000000
15.474387,10.396345,2.661145,0.000000,-0.000000,1.000000
-8.680873,-13.927438,2.661145,-0.000000,0.000000,1.000000
8.761538,-4.405039,-2.661145,0.000000,-0.000000,-1.000000
24.181330,-10.343061,-0.936624,0.903989,-0.427555,0.000000
2.069200,-22.946843,2.661145,0.000000,0.000000,1.000000
1.783219,-11.101002,-2.661145,0.000000,0.000000,-1.000000
-3.178270,5.534210,-2.605517,0.471397,-0.881921,0.000000
15.110233,3.128700,2.661145,0.000000,-0.000000,1.000000
-18.521969,16.806223,-2.661145,0.000000,0.000000,-1.000000
7.140018,-15.715974,2.661145,0.000000,-0.000000,1.000000
-14.304759,11.646694,2.661145,-0.000000,0.000000,1.000000
-19.977374,-4.821976,2.661145,0.000000,-0.000000,1.000000
-3.091238,-26.110924,0.513774,-0.146731,-0.989176,0.000000
6.162734,-10.061244,2.661145,-0.000000,-0.000000,1.000000
21.302329,4.857859,-2.661145,0.000000,0.000000,-1.000000
16.388627,-14.606532,2.661145,-0.000000,0.000000,1.000000
-17.870032,-9.448164,2.661145,0.000000,-0.000000,1.000000
-8.744678,-13.119934,-2.661145,0.000000,0.000000,-1.000000
16.290899,-20.639017,-0.016942,0.595699,-0.803207,0.000000
-9.924107,5.774614,2.661145,-0.000000,0.000000,1.000000
5.534401,-10.295264,2.661145,0.000000,-0.000000,1.000000
13.038090,-22.826536,2.045962,0.514103,-0.857729,0.000000
9.873805,-20.454082,2.661145,0.000000,-0.000000,1.000000
11.151017,19.282042,-2.661145,0.000000,0.000000,-1.000000
3.726873,14.791576,2.661145,0.000000,-0.000000,1.000000
6.924479,24.221808,-2.661145,0.000000,0.000000,-1.000000
-15.434366,-11.066260,2.661145,0.000000,-0.000000,1.000000
-21.998379,-12.621955,2.661145,0.000000,-0.000000,1.000000
25.852436,4.833812,-2.041203,0.989176,0.146731,0.000000
10.181409,18.597263,2.661145,0.000000,-0.000000,1.000000
-12.521029,-4.309185,-2.661145,0.000000,0.000000,-1.000000
-9.134822,-23.918654,-2.661145,0.000000,-0.000000,-1.000000
13.356210,0.628664,2.661145,0.000000,0.000000,1.000000
16.499039,-17.565059,2.661145,-0.000000,0.000000,1.000000
-1.911808,-9.682560,-2.661145,0.000000,-0.000000,-1.000000
-5.079759,-17.590517,2.661145,-0.000000,0.000000,1.000000
5.428462,18.753034,2.661145,0.000000,-0.000000,1.000000
2.007388,-20.472956,2.341795,-0.956940,0.290285,0.000000
-22.934582,-11.506516,2.661145,0.000000,-0.000000,1.000000
16.900958,16.190755,2.661145,0.000000,-0.000000,1.000000
-2.632657,19.851741,-2.661145,0.000000,0.000000,-1.000000
-25.045389,2.404711,-2.661145,0.000000,-0.000000,-1.000000
1.804575,16.245194,2.661145,0.000000,-0.000000,1.000000
15.848068,8.974277,2.661145,0.000000,-0.000000,1.000000
18.543636,-8.857621,-2.661145,0.000000,-0.000000,-1.000000
-1.557854,-23.928879,2.661145,0.000000,-0.000000,1.000000
-12.196475,6.405294,-2.661145,0.000000,0.000000,-1.000000
16.583364,-4.769374,-2.661145,0.000000,-0.000000,-1.000000
11.107601,-13.570952,-2.661145,0.000000,0.000000,-1.000000
13.593372,-22.493713,-1.246098,0.514103,-0.857729,0.000000
-2.452132,-17.572939,-2.661145,0.000000,-0.000000,-1.000000
-12.932206,-22.651407,-2.661145,0.000000,-0.000000,-1.000000
-20.491478,7.327298,-2.661145,0.000000,0.000000,-1.000000
-12.590171,14.465886,-2.661145,0.000000,0.000000,-1.000000
18.390801,-2.363699,-2.661145,0.000000,-0.000000,-1.000000
23.333523,-1.889896,-2.661145,0.000000,0.000000,-1.000000
-2.054909,-20.316300,-1.434946,0.956940,0.290285,-0.000000
13.018195,2.410344,-2.661145,0.000000,0.000000,-1.000000
21.862332,0.185824,-0.108744,-0.995184,-0.098020,0.000000
2.318213,15.189417,-2.661145,0.000000,0.000000,-1.000000
-17.976661,10.749587,-2.661145,0.000000,0.000000,-1.000000
26.182481,-2.608841,-2.441852,0.989176,-0.146731,0.000000
18.468552,-1.722572,-0.108792,0.634393,0.773011,0.000000
-11.487967,8.907042,2.661145,-0.000000,-0.000000,1.000000
25.646243,-5.779207,-1.837391,0.970031,-0.242980,0.000000
-5.786590,-20.686572,-2.661145,0.000000,-0.000000,-1.000000
-2.135507,19.836077,0.392260,0.995185,-0.098017,0.000000
-24.812824,-1.166562,-2.661145,0.000000,0.000000,-1.000000
16.537646,-10.382863,-2.661145,0.000000,-0.000000,-1.000000
-6.445710,-0.064976,-2.661145,0.000000,0.000000,-1.000000
21.163831,-12.835354,2.661145,-0.000000,0.000000,1.000000
-18.371179,-18.819813,0.393161,-0.671559,-0.740951,-0.000000
-16.527267,-20.463714,-2.636389,-0.595699,-0.803207,0.000000
21.251791,-11.885934,2.661145,-0.000000,0.000000,1.000000
-8.776900,-4.788929,-2.661145,0.000000,0.000000,-1.000000
6.845955,-20.902561,2.661145,0.000000,-0.000000,1.000000
-11.947164,-12.843473,-2.661145,0.000000,0.000000,-1.000000
5.039056,3.915111,0.326557,-0.773010,-0.634393,0.000000
-13.157079,-12.475376,-2.661145,0.000000,-0.000000,-1.000000
-23.914240,-10.907774,-0.481883,-0.903989,-0.427555,-0.000000
4.357403,9.276001,-2.661145,0.000000,0.000000,-1.000000
-1.848088,20.806994,-1.802411,0.881922,-0.471396,0.000000
1.317728,-18.054547,0.209154,-0.634393,-0.773011,0.000000
8.324640,-11.452346,-2.661145,0.000000,-0.000000,-1.000000
17.602200,2.197088,2.661145,0.000000,-0.000000,1.000000
23.412583,-2.966062,-2.661145,0.000000,-0.000000,-1.000000
-18.478167,5.488623,-2.661145,0.000000,0.000000,-1.000000
-8.147852,1.833434,2.661145,-0.000000,0.000000,1.000000
-0.275491,22.759756,2.661145,-0.000000,0.000000,1.000000
17.916029,1.125922,0.422948,0.881922,-0.471395,0.000000
8.490851,21.890954,2.661145,0.000000,-0.000000,1.000000
13.362253,13.508881,2.661145,0.000000,-0.000000,1.000000
17.233096,-8.104416,-2.661145,0.000000,-0.000000,-1.000000
-10.991124,23.072274,-2.661145,0.000000,0.000000,-1.000000
6.597895,18.650141,-2.661145,0.000000,0.000000,-1.000000
-15.101672,-6.126024,2.661145,0.000000,-0.000000,1.000000
-18.738775,1.888384,1.130984,-0.471397,-0.881921,0.000000
5.309459,-11.336469,-2.661145,0.000000,0.000000,-1.000000
15.576740,-9.302866,-2.661145,0.000000,-0.000000,-1.000000
-6.796502,17.109625,-2.661145,0.000000,0.000000,-1.000000
-13.154910,10.151786,-2.661145,0.000000,0.000000,-1.000000
5.120560,-25.809901,1.703300,0.146731,-0.989176,0.000000
-0.644788,-21.770782,1.482312,0.290283,0.956941,0.000000
-14.208125,-22.125244,1.753436,-0.514103,-0.857729,0.000000
-0.780138,24.556142,2.661145,-0.000000,0.000000,1.000000
11.785471,-1.278202,-2.661145,0.000000,0.000000,-1.000000
4.196366,-19.938924,-2.661145,0.000000,0.000000,-1.000000
-7.039383,10.857613,2.661145,-0.000000,0.000000,1.000000
22.848700,-3.911435,-2.661145,0.000000,-0.000000,-1.000000
4.045958,11.367070,-2.661145,0.000000,-0.000000,-1.000000
3.769701,5.158391,1.300971,-0.634393,-0.773010,0.000000
6.535663,0.652604,-2.661145,0.000000,0.000000,-1.000000
-23.355743,6.417913,-2.661145,0.000000,0.000000,-1.000000
1.156197,-21.538170,-0.706448,-0.471395,0.881922,0.000000
-11.275749,-11.173373,-2.661145,0.000000,-0.000000,-1.000000
-15.477338,17.748532,2.661145,-0.000000,-0.000000,1.000000
-5.625912,21.693758,2.661145,0.000000,0.000000,1.000000
-4.192467,4.811436,2.385427,0.634393,-0.773010,0.000000
24.589866,8.221153,2.661145,0.000000,-0.000000,1.000000
26.296469,0.348442,1.665395,0.998795,0.049068,0.000000
8.243277,-12.711354,2.661145,-0.000000,-0.000000,1.000000
6.132787,-19.612104,-2.661145,0.000000,0.000000,-1.000000
22.070448,14.299548,0.008725,0.857729,0.514103,-0.000000
-8.695161,-0.479194,2.661145,0.000000,-0.000000,1.000000
5.030249,-24.878649,-2.661145,0.000000,0.000000,-1.000000
5.274961,15.285380,2.661145,0.000000,-0.000000,1.000000
19.599259,-5.634725,2.661145,-0.000000,0.000000,1.000000
-4.799620,-9.522571,2.661145,0.000000,-0.000000,1.000000
-16.652189,1.363305,2.661145,-0.000000,0.000000,1.000000
18.946915,5.202368,2.661145,0.000000,-0.000000,1.000000
7.433111,6.222265,2.661145,-0.000000,0.000000,1.000000
0.535879,6.531653,-2.661145,0.000000,-0.000000,-1.000000
0.508880,-15.028984,2.661145,0.000000,0.000000,1.000000
15.718697,-17.969532,2.661145,-0.000000,0.000000,1.000000
12.629559,-23.071400,1.681733,0.514103,-0.857729,0.000000
-12.288105,-6.576613,2.661145,0.000000,-0.000000,1.000000
12.821904,20.832609,-2.661145,0.000000,0.000000,-1.000000
6.149017,-23.385335,-2.661145,0.000000,0.000000,-1.000000
3.743394,6.697129,-2.661145,0.000000,-0.000000,-1.000000
6.395732,0.143117,2.271755,-0.995185,-0.098017,0.000000
-1.031763,-21.604680,0.835442,0.471395,0.881922,0.000000
-22.671969,13.295970,2.422664,-0.857729,0.514103,0.000000
-0.373855,21.843812,1.184843,0.098020,-0.995184,0.000000
18.341434,-1.677463,2.661145,-0.000000,-0.000000,1.000000
-1.432202,21.321887,-0.595218,0.634396,-0.773008,0.000000
8.506503,-0.119918,-2.661145,-0.000000,-0.000000,-1.000000
21.318037,-1.436893,-2.265321,-0.773008,0.634396,0.000000
21.003455,1.721237,0.971715,-0.634395,-0.773009,0.000000
-1.473432,-22.703361,2.661145,0.000000,-0.000000,1.000000
7.743969,5.646392,2.661145,0.000000,-0.000000,1.000000
2.945682,15.588176,-2.661145,0.000000,0.000000,-1.000000
20.832039,16.030639,-0.603701,0.803207,0.595699,-0.000000
-7.081789,-22.600525,2.661145,-0.000000,0.000000,1.000000
6.228741,-1.441445,2.357546,-0.956940,0.290285,0.000000
-10.889566,-7.369851,2.661145,0.000000,-0.000000,1.000000
-10.713328,4.507979,2.661145,-0.000000,-0.000000,1.000000
16.712521,17.596623,2.661145,0.000000,-0.000000,1.000000
-11.501055,9.436877,-2.661145,0.000000,-0.000000,-1.000000
0.445672,-10.330300,2.661145,0.000000,0.000000,1.000000
-16.844345,-18.300099,2.661145,0.000000,-0.000000,1.000000
-6.700864,-5.618673,2.661145,0.000000,-0.000000,1.000000
-22.328029,0.250289,2.661145,-0.000000,0.000000,1.000000
-4.167170,-15.216259,-2.661145,0.000000,-0.000000,-1.000000
1.008919,-17.853490,1.949885,-0.471395,-0.881922,0.000000
4.113957,-7.636257,2.661145,-0.000000,-0.000000,1.000000
-5.994767,-2.212752,0.189881,0.956940,0.290285,0.000000
12.147364,11.853143,-2.661145,0.000000,0.000000,-1.000000
-14.337118,12.316542,2.661145,-0.000000,-0.000000,1.000000
18.662079,17.108467,2.661145,0.000000,-0.000000,1.000000
-10.665048,3.360678,-2.661145,0.000000,0.000000,-1.000000
3.425665,6.881242,2.661145,-0.000000,0.000000,1.000000
3.624014,5.277953,-2.041590,-0.634393,-0.773010,0.000000
-14.245752,-16.271376,-2.661145,0.000000,0.000000,-1.000000
-14.102506,12.754150,-2.661145,0.000000,0.000000,-1.000000
-8.508902,23.759386,-2.661145,0.000000,0.000000,-1.000000
25.776982,5.257268,-0.264281,0.970031,0.242980,0.000000
8.246603,-12.149582,2.661145,-0.000000,0.000000,1.000000
-17.166955,9.529752,2.661145,-0.000000,-0.000000,1.000000
-7.214462,7.968599,-2.661145,0.000000,0.000000,-1.000000
-6.660279,-14.589364,-2.661145,0.000000,-0.000000,-1.000000
-6.161522,6.962188,2.661145,-0.000000,0.000000,1.000000
-18.083243,-16.678082,-2.661145,0.000000,-0.000000,-1.000000
-5.567304,-12.903244,-2.661145,0.000000,-0.000000,-1.000000
21.163447,15.583787,0.152920,0.803207,0.595699,0.000000
-15.710955,7.327935,-2.661145,0.000000,0.000000,-1.000000
4.538076,-4.525557,-2.225123,-0.773010,0.634393,0.000000
-1.647019,-24.328918,2.661145,-0.000000,-0.000000,1.000000
-16.665123,11.590138,-2.661145,0.000000,0.000000,-1.000000
8.054430,-1.382986,2.661145,-0.000000,0.000000,1.000000
19.914243,-8.424976,2.661145,-0.000000,0.000000,1.000000
-12.534747,-23.128229,-1.115502,-0.514103,-0.857729,0.000000
20.616980,12.579680,-2.661145,0.000000,0.000000,-1.000000
-4.712958,6.584060,2.661145,-0.000000,0.000000,1.000000
22.339102,-11.038657,2.661145,-0.000000,0.000000,1.000000
-23.896078,10.946176,-0.722882,-0.903989,0.427555,0.000000
15.006138,-0.668616,2.661145,0.000000,0.000000,1.000000
-24.379652,9.876744,-1.820609,-0.941544,0.336890,0.000000
-19.421420,-17.707407,-1.671066,-0.740951,-0.671559,0.000000
9.435879,-0.380230,2.661145,0.000000,0.000000,1.000000
-1.766983,6.129990,1.228857,0.290285,-0.956940,0.000000
2.566743,-20.523974,-2.661145,0.000000,0.000000,-1.000000
1.575307,21.181270,-1.629866,-0.773009,-0.634395,0.000000
12.652921,0.094838,-2.661145,0.000000,-0.000000,-1.000000
8.470172,21.840374,-2.661145,0.000000,0.000000,-1.000000
-7.730007,22.401880,2.661145,0.000000,0.000000,1.000000
-4.355728,-22.224210,2.661145,-0.000000,0.000000,1.000000
-3.142160,5.553511,0.063500,0.471397,-0.881921,0.000000
6.973774,22.911807,2.661145,0.000000,-0.000000,1.000000
-13.858964,2.317273,2.661145,-0.000000,-0.000000,1.000000
22.486910,11.692566,2.661145,0.000000,-0.000000,1.000000
17.829133,-7.375524,2.661145,-0.000000,0.000000,1.000000
22.409318,-2.715024,-2.661145,0.000000,-0.000000,-1.000000
1.764650,10.191913,-2.661145,0.000000,0.000000,-1.000000
-18.148364,-9.512324,2.661145,0.000000,-0.000000,1.000000
-25.856575,-4.805911,2.121019,-0.989176,-0.146731,0.000000
-22.656295,8.536291,2.661145,-0.000000,-0.000000,1.000000
5.736969,6.415497,-2.661145,0.000000,0.000000,-1.000000
-21.386199,3.735658,2.661145,-0.000000,-0.000000,1.000000
11.920295,-1.707881,2.661145,-0.000000,0.000000,1.000000
-12.661662,-0.627507,-2.661145,0.000000,0.000000,-1.000000
11.006229,-5.740577,-2.661145,0.000000,-0.000000,-1.000000
18.577340,-2.487958,-2.661145,0.000000,-0.000000,-1.000000
20.865264,10.162757,-2.661145,0.000000,0.000000,-1.000000
-0.625490,-6.348223,2.416057,0.098017,0.995185,0.000000
-1.867041,-20.771536,-0.988577,0.881922,0.471396,-0.000000
-18.953707,12.416951,2.661145,-0.000000,-0.000000,1.000000
18.714977,18.486847,-2.224766,0.740951,0.671559,-0.000000
19.950724,-17.048620,2.661145,-0.000000,0.000000,1.000000
-2.095836,-6.471714,2.661145,0.000000,-0.000000,1.000000
15.475858,-0.672865,2.661145,0.000000,0.000000,1.000000
-16.533098,3.271686,2.661145,-0.000000,-0.000000,1.000000
-7.179935,-19.830670,2.661145,-0.000000,0.000000,1.000000
3.957197,23.315297,-2.661145,0.000000,0.000000,-1.000000
-17.808316,18.510932,2.661145,-0.000000,-0.000000,1.000000
-17.498602,-15.420575,2.661145,-0.000000,0.000000,1.000000
-3.425544,-18.210382,2.661145,-0.000000,0.000000,1.000000
8.712551,-22.297071,2.661145,0.000000,-0.000000,1.000000
5.431990,-10.120378,2.661145,0.000000,-0.000000,1.000000
13.012963,-22.322037,2.661145,0.000000,-0.000000,1.000000
23.677056,11.409259,2.182245,0.903989,0.427555,-0.000000
-7.306488,5.184772,-2.661145,0.000000,0.000000,-1.000000
24.458484,2.413267,2.661145,0.000000,-0.000000,1.000000
25.988503,3.916529,-1.364446,0.989176,0.146731,0.000000
10.217518,0.306850,-2.661145,0.000000,-0.000000,-1.000000
19.972392,-2.945216,2.661145,-0.000000,0.000000,1.000000
25.528912,-6.247620,-0.104424,0.970031,-0.242980,0.000000
-5.064125,4.319441,-2.661145,0.000000,-0.000000,-1.000000
20.813960,10.839661,-2.661145,0.000000,0.000000,-1.000000
-11.204803,8.665930,-2.661145,0.000000,0.000000,-1.000000
16.129514,2.256632,2.661145,0.000000,-0.000000,1.000000
-23.372371,-9.320384,-2.661145,0.000000,0.000000,-1.000000
3.383661,17.540489,-2.661145,0.000000,0.000000,-1.000000
17.594961,0.052941,1.461932,0.995185,-0.098016,0.000000
10.577221,7.890204,2.661145,0.000000,-0.000000,1.000000
-7.440536,23.171319,-2.661145,0.000000,0.000000,-1.000000
-19.882282,-2.130956,0.337303,0.098017,0.995185,0.000000
18.525915,4.771798,2.661145,0.000000,-0.000000,1.000000
6.390056,-0.200755,0.218781,-0.995185,0.098017,0.000000
9.923058,-7.971932,2.661145,-0.000000,-0.000000,1.000000
8.186406,-8.197386,2.661145,-0.000000,0.000000,1.000000
-6.201397,-11.224853,-2.661145,0.000000,-0.000000,-1.000000
-9.226255,1.431786,-2.661145,0.000000,0.000000,-1.000000
-13.624976,-22.474771,-1.912764,-0.514103,-0.857729,0.000000
12.237041,-10.429566,2.661145,-0.000000,-0.000000,1.000000
-1.524134,-25.421890,-2.661145,0.000000,-0.000000,-1.000000
21.608544,8.754221,-2.661145,0.000000,0.000000,-1.000000
-15.679523,-11.409884,2.661145,0.000000,-0.000000,1.000000
-2.956839,-11.420802,2.661145,0.000000,-0.000000,1.000000
1.233162,-26.253006,-1.473584,0.049068,-0.998795,0.000000
-2.137816,19.812633,-1.591943,0.995185,-0.098017,0.000000
5.119614,3.816951,-2.559380,-0.773010,-0.634393,0.000000
14.551014,7.627318,-2.661145,0.000000,0.000000,-1.000000
8.081753,1.041625,2.661145,0.000000,-0.000000,1.000000
-17.781991,-16.582495,2.661145,-0.000000,0.000000,1.000000
-14.147326,-22.161686,-0.339338,-0.514103,-0.857729,0.000000
11.224890,23.764255,2.018690,0.427555,0.903989,-0.000000
21.843728,0.374704,-2.579365,-0.995184,-0.098020,0.000000
-6.272762,-12.988660,2.661145,-0.000000,0.000000,1.000000
-22.444653,2.331510,2.661145,-0.000000,-0.000000,1.000000
24.893108,2.596521,-2.661145,0.000000,0.000000,-1.000000
-12.667998,12.124442,2.661145,-0.000000,-0.000000,1.000000
-17.210847,7.300147,2.661145,-0.000000,-0.000000,1.000000
13.484705,5.677646,2.661145,0.000000,-0.000000,1.000000
2.497547,-26.190891,1.467971,0.049068,-0.998795,0.000000
21.670415,-0.908782,-2.197959,-0.881922,0.471395,0.000000
21.370104,-13.155878,-2.661145,0.000000,-0.000000,-1.000000
-20.733252,11.034653,-2.661145,0.000000,0.000000,-1.000000
21.535216,-15.082515,0.166692,0.803207,-0.595699,0.000000
17.749935,-16.791609,-2.661145,0.000000,-0.000000,-1.000000
12.187494,23.051945,2.661145,0.000000,-0.000000,1.000000
-13.898537,-4.949154,-2.661145,0.000000,0.000000,-1.000000
19.124525,-15.097390,2.661145,-0.000000,0.000000,1.000000
-0.897995,-17.794200,-1.294367,0.471395,-0.881922,0.000000
-22.379896,4.717169,-2.661145,0.000000,0.000000,-1.000000
6.340302,0.705908,1.873797,-0.995185,-0.098017,0.000000
-11.363290,-23.698797,1.916997,-0.427555,-0.903989,0.000000
12.142094,-13.425551,-2.661145,0.000000,-0.000000,-1.000000
19.787582,12.615969,2.661145,0.000000,-0.000000,1.000000
-21.201029,6.416866,2.661145,-0.000000,-0.000000,1.000000
2.132428,-19.867344,2.248938,-0.995185,0.098017,0.000000
-11.807333,-17.644462,2.661145,-0.000000,0.000000,1.000000
-19.689552,-17.411569,0.238345,-0.740951,-0.671559,0.000000
-8.323978,-24.935240,2.326765,-0.336890,-0.941544,0.000000
9.272979,-14.481762,2.661145,-0.000000,-0.000000,1.000000
-17.637906,7.789001,2.661145,-0.000000,-0.000000,1.000000
-22.980844,5.912037,-2.661145,0.000000,0.000000,-1.000000
-2.355593,18.153901,-2.661145,0.000000,0.000000,-1.000000
13.351080,-7.180589,2.661145,-0.000000,-0.000000,1.000000
-15.440651,3.620079,-2.661145,0.000000,0.000000,-1.000000
3.867842,5.077849,1.531507,-0.634393,-0.773010,0.000000
6.814262,24.452674,-2.661145,0.000000,0.000000,-1.000000
-0.566562,-11.718609,-2.661145,0.000000,0.000000,-1.000000
-4.511934,-25.441778,-2.661145,0.000000,-0.000000,-1.000000
-13.040509,2.541635,-2.661145,0.000000,0.000000,-1.000000
7.103046,16.215550,-2.661145,0.000000,0.000000,-1.000000
-17.448668,14.020732,2.661145,-0.000000,-0.000000,1.000000
17.465165,-19.318466,-2.661145,0.000000,-0.000000,-1.000000
10.247607,-12.797020,-2.661145,0.000000,0.000000,-1.000000
17.767616,10.046633,2.661145,0.000000,-0.000000,1.000000
5.994896,2.212329,0.110061,-0.956940,-0.290285,0.000000
-8.273979,5.406190,2.661145,-0.000000,-0.000000,1.000000
-23.555089,-6.223926,-2.661145,0.000000,0.000000,-1.000000
6.391826,-2.985848,-2.661145,0.000000,0.000000,-1.000000
-26.301465,0.246744,-0.728506,-0.998795,0.049068,0.000000
-12.954733,22.876499,2.385033,-0.514103,0.857729,0.000000
-1.600661,26.234952,-0.366659,-0.049068,0.998795,0.000000
-19.929777,6.085960,-2.661145,0.000000,0.000000,-1.000000
