x,y,z,nx,ny,nz
-11.360342,32.944523,-2.914628,-0.000000,1.000000,0.000000
-46.850805,3.939135,4.825211,0.000000,-0.000000,1.000000
-56.295663,3.103893,4.825211,0.000000,-0.000000,1.000000
0.459705,32.944523,-3.132254,-0.000000,1.000000,0.000000
45.707156,26.659782,-4.825211,0.000000,-0.000000,-1.000000
56.428293,-17.880940,4.825211,-0.000000,0.000000,1.000000
8.840728,-32.810423,4.825211,0.000000,-0.000000,1.000000
55.025507,26.911619,-4.825211,0.000000,-0.000000,-1.000000
-6.186895,7.975222,4.825211,0.000000,-0.000000,1.000000
-10.420788,32.944523,-2.988543,-0.000000,1.000000,0.000000
33.710466,14.966675,-4.825211,0.000000,-0.000000,-1.000000
35.783036,-32.944523,3.958044,0.000000,-1.000000,0.000000
-0.065788,1.814974,-4.825211,0.000000,-0.000000,-1.000000
50.988128,-25.341999,-4.825211,0.000000,0.000000,-1.000000
-4.922576,29.927004,4.825211,0.000000,-0.000000,1.000000
-63.637096,15.342145,-3.889604,-1.000000,0.000000,0.000000
30.274470,13.633151,-4.825211,0.000000,-0.000000,-1.000000
31.661156,-32.944523,-2.618898,0.000000,-1.000000,0.000000
30.111700,27.092759,4.825211,0.000000,-0.000000,1.000000
41.287483,-26.958981,-4.825211,0.000000,0.000000,-1.000000
27.356130,30.525236,-4.825211,0.000000,-0.000000,-1.000000
50.495196,26.132027,4.825211,0.000000,0.000000,1.000000
-7.275937,-19.992851,-4.825211,0.000000,0.000000,-1.000000
-61.806200,32.944523,1.408596,0.000000,1.000000,0.000000
-44.604961,-11.626480,4.825211,0.000000,-0.000000,1.000000
-61.082180,12.808619,-4.825211,0.000000,0.000000,-1.000000
3.888593,9.144650,-4.825211,0.000000,-0.000000,-1.000000
-31.557577,13.906819,4.825211,0.000000,-0.000000,1.000000
-24.990667,-14.063801,4.825211,0.000000,0.000000,1.000000
-16.857099,18.196290,4.825211,0.000000,-0.000000,1.000000
53.544314,-6.510247,-4.825211,0.000000,0.000000,-1.000000
-42.008245,-25.731407,4.825211,0.000000,0.000000,1.000000
12.154701,18.446669,-4.825211,0.000000,-0.000000,-1.000000
20.232867,5.768595,-4.825211,0.000000,-0.000000,-1.000000
25.878895,2.609826,4.825211,0.000000,0.000000,1.000000
-63.637096,-13.102502,0.730181,-1.000000,0.000000,0.000000
-43.008899,-10.096262,4.825211,0.000000,-0.000000,1.000000
0.052141,-24.015695,4.825211,0.000000,0.000000,1.000000
28.678333,-32.944523,-0.948482,0.000000,-1.000000,0.000000
55.170601,-13.728863,4.825211,-0.000000,0.000000,1.000000
-48.429470,32.944523,-3.213095,0.000000,1.000000,0.000000
31.855328,18.230594,-4.825211,0.000000,-0.000000,-1.000000
39.953710,-6.547179,-4.825211,0.000000,0.000000,-1.000000
0.294949,23.805490,-4.825211,0.000000,-0.000000,-1.000000
57.081247,-11.154983,-4.825211,0.000000,0.000000,-1.000000
-53.389564,28.120458,4.825211,0.000000,-0.000000,1.000000
-43.789787,-4.592771,-4.825211,0.000000,0.000000,-1.000000
53.709612,-7.230386,-4.825211,0.000000,0.000000,-1.000000
-1.845089,10.932378,4.825211,0.000000,-0.000000,1.000000
-61.223179,-32.944523,1.638753,0.000000,-1.000000,0.000000
-47.567912,-32.281720,-4.825211,0.000000,0.000000,-1.000000
33.460357,-23.788979,-1.888415,-0.773010,0.634394,0.000000
63.637096,10.830250,3.275582,1.000000,-0.000000,0.000000
-48.707413,32.944523,-0.494973,0.000000,1.000000,0.000000
38.216837,-0.953029,4.825211,-0.000000,0.000000,1.000000
-30.062383,6.647778,-4.825211,0.000000,0.000000,-1.000000
33.870177,6.973403,4.825211,-0.000000,0.000000,1.000000
-50.680905,-9.905822,-4.825211,0.000000,0.000000,-1.000000
22.684176,32.944523,2.746953,0.000000,1.000000,0.000000
19.723471,3.598359,-4.825211,0.000000,-0.000000,-1.000000
-40.141796,2.865532,4.825211,0.000000,-0.000000,1.000000
7.306905,-30.719838,-4.825211,0.000000,0.000000,-1.000000
-29.166480,-32.944523,-2.465430,0.000000,-1.000000,0.000000
53.889607,25.072963,4.825211,0.000000,0.000000,1.000000
-22.846096,6.063660,-4.825211,0.000000,0.000000,-1.000000
31.694055,-27.109219,4.825211,0.000000,-0.000000,1.000000
-57.304394,-32.804302,4.825211,0.000000,-0.000000,1.000000
-20.400742,-23.986390,-4.825211,0.000000,0.000000,-1.000000
59.312106,29.280019,4.825211,-0.000000,0.000000,1.000000
-23.176455,20.582862,-4.825211,0.000000,-0.000000,-1.000000
59.466157,-4.069895,4.825211,-0.000000,0.000000,1.000000
-57.539228,-18.292432,-4.825211,0.000000,0.000000,-1.000000
28.056858,-32.944523,-3.262684,0.000000,-1.000000,0.000000
-63.637096,3.971225,4.476870,-1.000000,0.000000,0.000000
-36.175496,28.339325,4.825211,0.000000,-0.000000,1.000000
-3.080389,-20.598962,4.825211,0.000000,-0.000000,1.000000
-20.716662,-19.502910,4.825211,0.000000,-0.000000,1.000000
22.391528,7.176337,-4.825211,0.000000,-0.000000,-1.000000
63.637096,-5.171836,2.724049,1.000000,-0.000000,0.000000
54.008270,32.944523,1.321039,-0.000000,1.000000,0.000000
63.637096,-15.954975,-3.509345,1.000000,0.000000,-0.000000
-8.835910,-11.406264,-4.825211,0.000000,0.000000,-1.000000
10.744844,14.085933,4.825211,0.000000,-0.000000,1.000000
-29.610529,-19.146771,-4.825211,0.000000,0.000000,-1.000000
23.031821,-32.944523,3.947112,0.000000,-1.000000,0.000000
2.167849,7.932770,-4.825211,0.000000,-0.000000,-1.000000
58.530068,-12.217307,-4.825211,0.000000,0.000000,-1.000000
24.145021,-32.355367,4.825211,0.000000,-0.000000,1.000000
9.320680,-10.577448,4.825211,0.000000,-0.000000,1.000000
63.467432,9.005068,4.825211,-0.000000,0.000000,1.000000
29.732593,20.355029,-4.825211,0.000000,-0.000000,-1.000000
-63.637096,14.786265,-4.465675,-1.000000,0.000000,0.000000
-1.829557,18.042444,4.825211,0.000000,-0.000000,1.000000
36.574658,32.944523,-1.415302,-0.000000,1.000000,0.000000
58.155135,-28.401931,-4.825211,0.000000,0.000000,-1.000000
8.011256,11.436961,4.825211,0.000000,-0.000000,1.000000
58.440918,0.433195,-4.825211,0.000000,0.000000,-1.000000
-12.890615,5.573976,-4.825211,0.000000,0.000000,-1.000000
-37.046463,22.516310,-4.825211,0.000000,-0.000000,-1.000000
-30.991941,14.207712,4.825211,0.000000,-0.000000,1.000000
63.637096,12.935832,-0.855306,1.000000,-0.000000,0.000000
55.532625,2.331969,4.825211,-0.000000,0.000000,1.000000
20.064849,-32.944523,-3.493086,0.000000,-1.000000,0.000000
36.246279,4.377390,-4.825211,0.000000,0.000000,-1.000000
-40.030105,-29.235558,-4.825211,0.000000,-0.000000,-1.000000
-25.895590,-32.944523,-3.095329,0.000000,-1.000000,0.000000
49.912238,4.370704,4.825211,-0.000000,0.000000,1.000000
-50.619534,26.516343,4.825211,0.000000,-0.000000,1.000000
37.062214,-0.266341,4.825211,-0.000000,0.000000,1.000000
-33.170367,30.176817,4.825211,0.000000,-0.000000,1.000000
-0.683204,-32.705191,4.825211,0.000000,-0.000000,1.000000
-33.145103,-32.944523,1.956352,0.000000,-1.000000,0.000000
-35.502420,28.213318,-4.825211,0.000000,-0.000000,-1.000000
-5.524101,15.991671,-4.825211,0.000000,-0.000000,-1.000000
61.351081,15.293873,-4.825211,0.000000,0.000000,-1.000000
-26.071983,19.930477,4.825211,0.000000,-0.000000,1.000000
63.637096,-23.485641,-2.307224,1.000000,0.000000,-0.000000
33.316222,7.400886,4.825211,-0.000000,0.000000,1.000000
-35.093981,24.038645,4.825211,0.000000,-0.000000,1.000000
-31.385527,25.259132,-4.825211,0.000000,-0.000000,-1.000000
60.605830,-31.910808,-4.825211,0.000000,0.000000,-1.000000
34.646665,15.856655,4.825211,0.000000,0.000000,1.000000
47.278625,-19.759528,-4.825211,0.000000,0.000000,-1.000000
33.339245,-17.836947,1.651528,-0.773010,-0.634394,0.000000
-1.974192,7.860228,-4.825211,0.000000,-0.000000,-1.000000
44.057120,26.488918,-4.825211,0.000000,-0.000000,-1.000000
-63.637096,27.407772,-4.752115,-1.000000,0.000000,0.000000
-6.784919,31.131351,4.825211,0.000000,-0.000000,1.000000
-5.839656,14.103401,4.825211,0.000000,-0.000000,1.000000
46.742675,-26.106799,-4.825211,0.000000,0.000000,-1.000000
36.742925,14.258565,4.825211,0.000000,0.000000,1.000000
59.760966,16.499980,4.825211,-0.000000,0.000000,1.000000
41.503044,19.124906,4.825211,0.000000,0.000000,1.000000
-18.928119,9.578532,4.825211,0.000000,-0.000000,1.000000
3.550083,-24.465590,4.825211,0.000000,-0.000000,1.000000
-24.315585,-3.749470,-4.825211,0.000000,0.000000,-1.000000
27.267301,23.759075,-4.825211,0.000000,-0.000000,-1.000000
63.637096,-25.565681,0.150917,1.000000,0.000000,-0.000000
-24.579525,-20.182677,-4.825211,0.000000,0.000000,-1.000000
49.911667,-26.784986,4.825211,0.000000,0.000000,1.000000
7.710054,-14.575884,4.825211,0.000000,-0.000000,1.000000
-63.637096,16.186344,-3.325515,-1.000000,0.000000,0.000000
-25.033465,17.042154,4.825211,0.000000,-0.000000,1.000000
60.439076,32.944523,-3.570854,-0.000000,1.000000,0.000000
22.933747,6.201655,4.825211,0.000000,0.000000,1.000000
-45.140453,-1.799726,4.825211,0.000000,-0.000000,1.000000
57.913049,-10.056288,-4.825211,0.000000,0.000000,-1.000000
-23.988484,-32.944523,-0.920957,0.000000,-1.000000,0.000000
-62.260384,-5.740453,-4.825211,0.000000,0.000000,-1.000000
-46.179233,-5.208988,4.825211,0.000000,-0.000000,1.000000
-22.827974,32.944523,-4.360224,-0.000000,1.000000,0.000000
-33.663873,23.119446,4.825211,0.000000,-0.000000,1.000000
41.119832,-31.281602,-4.825211,0.000000,0.000000,-1.000000
-54.300607,-22.556294,-4.825211,0.000000,0.000000,-1.000000
-35.001938,19.989813,4.825211,0.000000,-0.000000,1.000000
36.992031,-30.211245,4.825211,0.000000,-0.000000,1.000000
-44.940930,22.565462,-4.825211,0.000000,0.000000,-1.000000
41.278228,9.359689,4.825211,-0.000000,0.000000,1.000000
-9.584387,-22.502656,-4.825211,0.000000,0.000000,-1.000000
28.924066,28.461625,-4.825211,0.000000,-0.000000,-1.000000
27.834254,30.164795,4.825211,0.000000,-0.000000,1.000000
-35.115739,-20.236798,-4.825211,0.000000,0.000000,-1.000000
22.992944,24.642876,4.825211,0.000000,-0.000000,1.000000
-9.706928,-28.307133,-4.825211,0.000000,0.000000,-1.000000
49.596847,-3.850611,4.825211,-0.000000,0.000000,1.000000
52.404801,4.898741,-4.825211,0.000000,0.000000,-1.000000
-17.317594,14.436309,-4.825211,0.000000,-0.000000,-1.000000
35.034276,32.025086,-4.825211,0.000000,-0.000000,-1.000000
-2.804853,4.459528,-4.825211,0.000000,-0.000000,-1.000000
48.354467,-27.349676,4.825211,0.000000,0.000000,1.000000
4.070820,1.984706,4.825211,0.000000,0.000000,1.000000
-23.227011,32.944523,-2.701646,-0.000000,1.000000,0.000000
26.401846,-25.105952,2.480195,0.634393,0.773011,0.000000
50.088743,-0.147549,-4.825211,0.000000,0.000000,-1.000000
33.122817,26.939202,4.825211,0.000000,-0.000000,1.000000
-26.209944,32.944523,2.789705,0.000000,1.000000,0.000000
18.691075,32.944523,2.657578,0.000000,1.000000,0.000000
-63.637096,13.240793,4.182928,-1.000000,0.000000,0.000000
-17.912227,26.682724,4.825211,0.000000,-0.000000,1.000000
-49.775253,-32.348405,-4.825211,0.000000,0.000000,-1.000000
61.084337,-29.063189,-4.825211,0.000000,0.000000,-1.000000
47.722286,-32.944523,-1.947222,0.000000,-1.000000,0.000000
58.136139,30.782045,-4.825211,0.000000,-0.000000,-1.000000
-55.193461,27.425490,4.825211,0.000000,-0.000000,1.000000
63.452432,8.491320,4.825211,-0.000000,0.000000,1.000000
-24.903553,30.576001,-4.825211,0.000000,-0.000000,-1.000000
14.577045,27.365472,4.825211,0.000000,-0.000000,1.000000
36.898898,12.343113,4.825211,0.000000,0.000000,1.000000
-22.095611,-29.619306,4.825211,0.000000,-0.000000,1.000000
11.221964,-17.719894,4.825211,0.000000,-0.000000,1.000000
49.718434,24.651942,4.825211,0.000000,0.000000,1.000000
-47.880221,-4.875319,4.825211,0.000000,-0.000000,1.000000
18.207498,10.021022,-4.825211,0.000000,-0.000000,-1.000000
44.144908,27.962318,4.825211,0.000000,-0.000000,1.000000
36.712502,10.397968,-4.825211,0.000000,-0.000000,-1.000000
-52.678453,-20.615679,-4.825211,0.000000,0.000000,-1.000000
-38.917593,2.705634,-4.825211,0.000000,0.000000,-1.000000
12.398827,32.944523,1.618191,0.000000,1.000000,0.000000
-38.261822,27.178100,4.825211,0.000000,-0.000000,1.000000
-59.845188,-32.944523,0.941777,0.000000,-1.000000,0.000000
-12.180022,32.944523,-1.344136,-0.000000,1.000000,0.000000
15.546909,-31.297194,4.825211,0.000000,-0.000000,1.000000
15.881520,-32.944523,1.160032,0.000000,-1.000000,0.000000
-43.399241,27.096808,-4.825211,0.000000,-0.000000,-1.000000
33.953046,6.703898,-4.825211,0.000000,-0.000000,-1.000000
-54.366798,-12.309918,-4.825211,0.000000,0.000000,-1.000000
17.038508,-32.944523,0.329803,0.000000,-1.000000,0.000000
-35.975116,-7.749647,-4.825211,0.000000,0.000000,-1.000000
-34.227928,23.557090,4.825211,0.000000,-0.000000,1.000000
-63.518256,12.516625,-4.825211,0.000000,0.000000,-1.000000
41.945012,32.944523,2.769545,-0.000000,1.000000,0.000000
-25.952140,-29.873615,4.825211,0.000000,-0.000000,1.000000
-63.637096,20.898949,-2.059298,-1.000000,0.000000,0.000000
34.269856,-21.905379,-2.282271,-0.956940,0.290287,0.000000
-63.637096,-27.875580,-1.632004,-1.000000,0.000000,0.000000
2.716013,-4.423868,-4.825211,0.000000,0.000000,-1.000000
-63.637096,-19.254437,-2.013635,-1.000000,0.000000,0.000000
18.340556,-30.378841,-4.825211,0.000000,0.000000,-1.000000
-55.613900,-20.911237,-4.825211,0.000000,0.000000,-1.000000
-23.722227,1.475088,-4.825211,0.000000,0.000000,-1.000000
-44.981846,8.333908,4.825211,0.000000,-0.000000,1.000000
46.401330,2.973281,-4.825211,0.000000,0.000000,-1.000000
25.875226,25.839500,4.825211,0.000000,-0.000000,1.000000
43.106758,-8.875190,4.825211,-0.000000,0.000000,1.000000
-41.494430,32.944523,1.960877,0.000000,1.000000,0.000000
18.851819,-2.498557,2.628575,0.290285,-0.956940,0.000000
-56.186519,-13.107503,-4.825211,0.000000,0.000000,-1.000000
1.456693,-1.842361,4.825211,0.000000,0.000000,1.000000
22.336711,-11.944796,4.051928,-0.471397,0.881921,0.000000
26.262391,-32.093492,4.825211,0.000000,-0.000000,1.000000
-2.814559,30.260436,-4.825211,0.000000,-0.000000,-1.000000
26.025045,6.898000,-4.825211,0.000000,-0.000000,-1.000000
63.637096,3.938633,1.925785,1.000000,-0.000000,0.000000
-46.247003,27.988554,-4.825211,0.000000,-0.000000,-1.000000
-55.091613,-3.194018,4.825211,0.000000,-0.000000,1.000000
-9.918341,22.624312,4.825211,0.000000,-0.000000,1.000000
47.135671,21.006800,4.825211,0.000000,0.000000,1.000000
16.103765,16.066719,4.825211,0.000000,-0.000000,1.000000
-50.582764,-18.575081,-4.825211,0.000000,0.000000,-1.000000
-12.009216,-17.118762,-4.825211,0.000000,0.000000,-1.000000
-59.582156,29.748158,-4.825211,0.000000,0.000000,-1.000000
-55.399832,19.537007,4.825211,0.000000,-0.000000,1.000000
-23.801945,15.331956,-4.825211,0.000000,-0.000000,-1.000000
-7.148477,-0.219829,4.825211,0.000000,-0.000000,1.000000
39.292507,-8.019940,-4.825211,0.000000,0.000000,-1.000000
-63.138476,9.735178,-4.825211,0.000000,0.000000,-1.000000
59.786794,20.474909,-4.825211,0.000000,0.000000,-1.000000
-17.169111,-6.904300,-4.825211,0.000000,0.000000,-1.000000
-28.215295,-13.435523,4.825211,0.000000,-0.000000,1.000000
13.728736,2.181776,-4.825211,0.000000,-0.000000,-1.000000
-63.637096,-3.987675,0.854517,-1.000000,0.000000,0.000000
1.650409,28.616710,4.825211,0.000000,-0.000000,1.000000
-55.774037,-11.395031,4.825211,0.000000,-0.000000,1.000000
-19.465598,23.980619,4.825211,0.000000,-0.000000,1.000000
49.207143,31.690421,-4.825211,0.000000,-0.000000,-1.000000
63.637096,-0.648052,-1.859432,1.000000,0.000000,-0.000000
46.841206,-32.373099,4.825211,0.000000,-0.000000,1.000000
38.522483,-5.888222,4.825211,-0.000000,0.000000,1.000000
23.239031,-23.613807,-4.825211,0.000000,0.000000,-1.000000
38.971491,-26.837402,-4.825211,0.000000,0.000000,-1.000000
5.320000,28.596794,4.825211,0.000000,-0.000000,1.000000
17.733657,8.604640,-4.825211,0.000000,-0.000000,-1.000000
42.233225,-2.889587,4.825211,-0.000000,0.000000,1.000000
-31.150104,32.944523,-1.305626,0.000000,1.000000,0.000000
-27.077107,32.082449,4.825211,0.000000,-0.000000,1.000000
9.278076,22.478135,-4.825211,0.000000,-0.000000,-1.000000
-12.472417,8.766217,4.825211,0.000000,-0.000000,1.000000
4.204650,14.620223,-4.825211,0.000000,-0.000000,-1.000000
-62.672286,10.377918,-4.825211,0.000000,0.000000,-1.000000
56.113690,-26.133556,4.825211,-0.000000,0.000000,1.000000
28.928386,32.944523,3.881640,0.000000,1.000000,0.000000
-44.682368,5.834306,-4.825211,0.000000,0.000000,-1.000000
11.811787,-24.024988,4.825211,0.000000,-0.000000,1.000000
17.301241,22.923094,-4.825211,0.000000,-0.000000,-1.000000
21.216664,-29.969087,-4.825211,0.000000,0.000000,-1.000000
4.671657,11.113335,-4.825211,0.000000,-0.000000,-1.000000
-28.612980,-8.042780,-4.825211,0.000000,0.000000,-1.000000
-7.930696,-0.083244,-4.825211,0.000000,0.000000,-1.000000
-39.638315,22.349935,4.825211,0.000000,-0.000000,1.000000
-27.176368,-14.544197,-4.825211,0.000000,0.000000,-1.000000
18.560473,-0.292143,-4.825211,0.000000,-0.000000,-1.000000
56.534560,32.944523,4.096166,-0.000000,1.000000,0.000000
-33.191987,-13.891443,-4.825211,0.000000,0.000000,-1.000000
-5.053438,-24.282166,4.825211,0.000000,0.000000,1.000000
-11.447090,2.875245,-4.825211,0.000000,0.000000,-1.000000
-61.509492,17.548333,4.825211,0.000000,-0.000000,1.000000
5.751222,-8.312969,4.825211,0.000000,0.000000,1.000000
36.539265,-22.079874,-4.825211,0.000000,0.000000,-1.000000
6.092477,-21.116904,-4.825211,0.000000,0.000000,-1.000000
-63.637096,-32.151378,1.684565,-1.000000,0.000000,0.000000
-17.729122,-32.944523,1.094756,0.000000,-1.000000,0.000000
23.588368,0.518359,4.825211,-0.000000,0.000000,1.000000
14.168960,19.983256,4.825211,0.000000,-0.000000,1.000000
-11.849287,17.842964,-4.825211,0.000000,-0.000000,-1.000000
-25.017476,-16.791981,-4.825211,0.000000,0.000000,-1.000000
43.324845,6.658796,4.825211,-0.000000,0.000000,1.000000
40.065653,20.971448,-4.825211,0.000000,-0.000000,-1.000000
-14.958143,-10.283622,4.825211,0.000000,0.000000,1.000000
16.442906,-26.230880,4.825211,0.000000,-0.000000,1.000000
19.822839,-13.134503,4.825211,0.000000,-0.000000,1.000000
44.599581,11.997391,4.825211,-0.000000,0.000000,1.000000
61.809550,1.156042,-4.825211,0.000000,0.000000,-1.000000
-13.996066,0.191801,-4.825211,0.000000,0.000000,-1.000000
-58.653467,30.430848,-4.825211,0.000000,-0.000000,-1.000000
-20.853246,-27.519085,4.825211,0.000000,-0.000000,1.000000
3.135153,5.293115,-4.825211,0.000000,-0.000000,-1.000000
2.872894,-6.884513,-4.825211,0.000000,0.000000,-1.000000
-1.278372,32.944523,-0.098614,-0.000000,1.000000,0.000000
22.414226,32.944523,0.013192,-0.000000,1.000000,0.000000
31.807649,-16.482446,0.257429,-0.471396,-0.881922,0.000000
54.675342,-6.500970,-4.825211,0.000000,0.000000,-1.000000
-44.247058,12.345065,4.825211,0.000000,-0.000000,1.000000
39.707493,24.674318,-4.825211,0.000000,-0.000000,-1.000000
39.233653,21.245202,-4.825211,0.000000,-0.000000,-1.000000
26.357964,-16.703562,2.208632,0.634394,-0.773010,0.000000
1.558339,-30.578872,-4.825211,0.000000,0.000000,-1.000000
11.791622,-6.979751,-4.825211,0.000000,0.000000,-1.000000
-63.637096,-8.643988,-2.133366,-1.000000,0.000000,0.000000
26.766007,16.336663,4.825211,0.000000,-0.000000,1.000000
-25.845284,-27.243080,-4.825211,0.000000,-0.000000,-1.000000
-44.583550,-29.891359,4.825211,0.000000,0.000000,1.000000
57.014447,-24.022838,4.825211,-0.000000,0.000000,1.000000
54.866478,-28.669923,-4.825211,0.000000,0.000000,-1.000000
-1.985521,32.944523,2.500111,0.000000,1.000000,0.000000
-26.591374,-10.107394,-4.825211,0.000000,0.000000,-1.000000
33.860839,-23.074998,3.512589,-0.881922,0.471396,0.000000
47.354257,32.944523,-2.692674,-0.000000,1.000000,0.000000
4.876553,-32.132554,-4.825211,0.000000,0.000000,-1.000000
56.196125,-16.710260,-4.825211,0.000000,0.000000,-1.000000
-12.693420,19.966945,-4.825211,0.000000,-0.000000,-1.000000
-53.166496,-0.072032,-4.825211,0.000000,0.000000,-1.000000
27.451852,-31.789589,4.825211,0.000000,-0.000000,1.000000
42.424490,-18.744172,4.825211,-0.000000,0.000000,1.000000
-50.816050,-32.944523,-1.705670,0.000000,-1.000000,0.000000
-61.087113,7.934154,-4.825211,0.000000,0.000000,-1.000000
-49.330220,-2.260026,-4.825211,0.000000,0.000000,-1.000000
7.985360,-28.479714,4.825211,0.000000,-0.000000,1.000000
-21.404191,-29.382692,4.825211,0.000000,-0.000000,1.000000
4.820172,-3.712845,4.825211,0.000000,0.000000,1.000000
30.275410,7.130802,4.825211,0.000000,0.000000,1.000000
-49.407817,-16.068255,-4.825211,0.000000,0.000000,-1.000000
-11.469063,18.324700,-4.825211,0.000000,-0.000000,-1.000000
4.547664,-32.944523,-3.148925,0.000000,-1.000000,0.000000
-11.496595,11.740057,-4.825211,0.000000,-0.000000,-1.000000
60.515488,-3.976585,4.825211,-0.000000,0.000000,1.000000
30.285997,-12.143775,-4.825211,0.000000,0.000000,-1.000000
15.142391,21.593362,4.825211,0.000000,-0.000000,1.000000
-6.060432,24.703385,4.825211,0.000000,-0.000000,1.000000
-17.736554,-30.518679,-4.825211,0.000000,0.000000,-1.000000
-46.352942,28.996421,4.825211,0.000000,-0.000000,1.000000
8.010868,4.237187,4.825211,0.000000,-0.000000,1.000000
-19.137050,-15.074446,4.825211,0.000000,0.000000,1.000000
49.737048,-14.591715,-4.825211,0.000000,0.000000,-1.000000
48.928433,-26.960679,-4.825211,0.000000,0.000000,-1.000000
-30.953244,32.467389,4.825211,0.000000,-0.000000,1.000000
20.635198,-2.463388,4.339494,-0.098017,-0.995185,0.000000
-11.063356,10.145293,4.825211,0.000000,-0.000000,1.000000
-53.510933,-3.627221,4.825211,0.000000,-0.000000,1.000000
-11.320486,-28.467931,-4.825211,0.000000,0.000000,-1.000000
-47.221398,-19.335683,-4.825211,0.000000,0.000000,-1.000000
5.316986,-32.944523,1.128320,0.000000,-1.000000,0.000000
63.637096,-29.065953,-2.666859,1.000000,0.000000,-0.000000
-30.787511,26.396361,-4.825211,0.000000,-0.000000,-1.000000
-63.430668,-32.944523,1.264309,0.000000,-1.000000,0.000000
-2.540848,-20.153915,-4.825211,0.000000,0.000000,-1.000000
23.993205,-10.496672,1.944192,-0.773011,0.634393,0.000000
26.252960,32.859935,4.825211,0.000000,-0.000000,1.000000
23.864265,25.908733,-4.825211,0.000000,-0.000000,-1.000000
19.330819,-21.669480,-4.825211,0.000000,0.000000,-1.000000
-63.637096,-14.219040,-4.199701,-1.000000,0.000000,0.000000
-37.641983,-32.944523,3.754135,0.000000,-1.000000,0.000000
-32.155228,-30.331193,-4.825211,0.000000,0.000000,-1.000000
28.746584,-5.388420,-4.825211,0.000000,0.000000,-1.000000
63.637096,7.588196,1.857208,1.000000,-0.000000,0.000000
-11.491541,0.528924,-4.825211,0.000000,0.000000,-1.000000
23.727698,-32.944523,3.859726,0.000000,-1.000000,0.000000
25.275415,-24.028706,0.594784,0.773011,0.634393,-0.000000
-24.372231,8.216525,-4.825211,0.000000,0.000000,-1.000000
-7.679292,3.581340,-4.825211,0.000000,0.000000,-1.000000
-22.940870,-26.895495,-4.825211,0.000000,-0.000000,-1.000000
46.391179,-32.944523,1.306375,0.000000,-1.000000,0.000000
63.637096,-7.789626,-2.802022,1.000000,0.000000,-0.000000
-32.403956,10.731940,-4.825211,0.000000,0.000000,-1.000000
-55.924389,-9.785544,-4.825211,0.000000,0.000000,-1.000000
63.101666,-32.712268,4.825211,0.000000,0.000000,1.000000
42.851484,-8.282151,-4.825211,0.000000,0.000000,-1.000000
52.314987,-11.626069,4.825211,-0.000000,0.000000,1.000000
-61.046529,-30.736808,4.825211,0.000000,-0.000000,1.000000
-22.316309,7.204602,-4.825211,0.000000,0.000000,-1.000000
14.708060,-4.557458,4.825211,0.000000,0.000000,1.000000
13.133474,-30.727183,-4.825211,0.000000,0.000000,-1.000000
20.902205,-12.495251,4.563746,-0.290284,0.956940,0.000000
-42.569765,24.437539,-4.825211,0.000000,-0.000000,-1.000000
43.340301,9.746500,4.825211,-0.000000,0.000000,1.000000
29.609525,-15.814938,-0.955093,-0.098017,-0.995185,0.000000
-63.637096,-19.142372,0.456914,-1.000000,0.000000,0.000000
20.989975,7.768577,4.825211,0.000000,0.000000,1.000000
-52.586581,15.960370,-4.825211,0.000000,0.000000,-1.000000
-63.055653,-32.944523,3.540894,0.000000,-1.000000,0.000000
-32.335282,1.595159,-4.825211,0.000000,0.000000,-1.000000
-10.055497,-9.495874,4.825211,0.000000,0.000000,1.000000
-39.079321,-25.024912,-4.825211,0.000000,0.000000,-1.000000
-18.690030,-25.406817,-4.825211,0.000000,-0.000000,-1.000000
13.370078,-14.790596,4.825211,0.000000,-0.000000,1.000000
-47.124133,28.629426,-4.825211,0.000000,-0.000000,-1.000000
34.756796,-6.374065,-4.825211,0.000000,0.000000,-1.000000
54.002181,0.413698,4.825211,-0.000000,0.000000,1.000000
-15.233627,-10.267347,4.825211,0.000000,0.000000,1.000000
8.877576,-9.584998,4.825211,0.000000,-0.000000,1.000000
10.951635,28.215286,4.825211,0.000000,-0.000000,1.000000
63.637096,-6.937098,-0.315215,1.000000,0.000000,-0.000000
19.881685,31.384641,-4.825211,0.000000,-0.000000,-1.000000
-57.168556,-13.993735,4.825211,0.000000,-0.000000,1.000000
-5.468507,28.508987,-4.825211,0.000000,-0.000000,-1.000000
38.291670,16.401643,-4.825211,0.000000,-0.000000,-1.000000
42.704940,16.046079,4.825211,0.000000,0.000000,1.000000
-16.879286,-22.384773,4.825211,0.000000,-0.000000,1.000000
19.647822,32.944523,3.143725,0.000000,1.000000,0.000000
47.553163,-1.976583,4.825211,-0.000000,0.000000,1.000000
46.808510,-18.373859,-4.825211,0.000000,0.000000,-1.000000
51.855685,15.347841,4.825211,-0.000000,0.000000,1.000000
-48.871647,-23.339918,-4.825211,0.000000,0.000000,-1.000000
11.564094,32.944523,0.637347,-0.000000,1.000000,0.000000
-34.890833,-24.198871,-4.825211,0.000000,0.000000,-1.000000
9.606123,-19.683293,4.825211,0.000000,-0.000000,1.000000
-0.851274,-2.694143,-4.825211,0.000000,0.000000,-1.000000
-3.223759,18.255132,-4.825211,0.000000,-0.000000,-1.000000
15.867040,12.015994,4.825211,0.000000,-0.000000,1.000000
-62.297694,-9.531122,4.825211,0.000000,-0.000000,1.000000
-46.823527,12.320960,4.825211,0.000000,-0.000000,1.000000
-32.520778,20.906917,4.825211,0.000000,-0.000000,1.000000
7.389180,-5.253243,4.825211,0.000000,0.000000,1.000000
5.613565,21.636140,-4.825211,0.000000,-0.000000,-1.000000
58.543469,-28.437835,-4.825211,0.000000,0.000000,-1.000000
35.848833,-0.990769,-4.825211,0.000000,0.000000,-1.000000
-33.504592,-6.346354,4.825211,0.000000,-0.000000,1.000000
-9.818322,-32.944523,4.800847,0.000000,-1.000000,0.000000
-23.071511,-24.331465,-4.825211,0.000000,0.000000,-1.000000
36.730181,-10.368546,-4.825211,0.000000,0.000000,-1.000000
-37.912590,23.270634,-4.825211,0.000000,-0.000000,-1.000000
-62.627004,-7.672632,4.825211,0.000000,-0.000000,1.000000
-44.651209,16.928676,-4.825211,0.000000,0.000000,-1.000000
53.536053,15.344619,-4.825211,0.000000,0.000000,-1.000000
-10.079114,-8.152080,4.825211,0.000000,0.000000,1.000000
4.276434,6.762050,-4.825211,0.000000,-0.000000,-1.000000
37.631217,3.936760,-4.825211,0.000000,0.000000,-1.000000
18.692977,-23.098114,4.825211,0.000000,-0.000000,1.000000
15.821337,-24.101855,4.825211,0.000000,-0.000000,1.000000
-24.806319,-12.229652,4.825211,0.000000,-0.000000,1.000000
-63.637096,22.283757,2.961349,-1.000000,0.000000,0.000000
-10.752875,-32.203910,4.825211,0.000000,-0.000000,1.000000
58.102300,-5.467052,-4.825211,0.000000,0.000000,-1.000000
-26.194043,-32.944523,-0.660863,0.000000,-1.000000,0.000000
-48.381996,-13.088313,-4.825211,0.000000,0.000000,-1.000000
0.387973,-2.951089,4.825211,0.000000,0.000000,1.000000
-1.571818,-12.809609,4.825211,0.000000,-0.000000,1.000000
57.243002,2.805429,-4.825211,0.000000,0.000000,-1.000000
20.762808,-32.944523,-4.594413,0.000000,-1.000000,0.000000
15.343926,23.009547,-4.825211,0.000000,-0.000000,-1.000000
5.840233,17.540807,4.825211,0.000000,-0.000000,1.000000
54.759333,0.423377,4.825211,-0.000000,0.000000,1.000000
-49.771607,-32.944523,-2.678262,0.000000,-1.000000,0.000000
20.000601,-25.159561,-4.825211,0.000000,0.000000,-1.000000
-16.111392,-32.944523,-2.265821,0.000000,-1.000000,0.000000
-39.376940,14.356911,4.825211,0.000000,-0.000000,1.000000
-12.079237,17.192539,-4.825211,0.000000,-0.000000,-1.000000
63.637096,-16.925645,-0.850933,1.000000,0.000000,-0.000000
-9.475597,-25.009365,4.825211,0.000000,0.000000,1.000000
-42.211413,-2.814453,-4.825211,0.000000,0.000000,-1.000000
43.107878,12.320923,4.825211,0.000000,-0.000000,1.000000
20.549259,11.620408,-4.825211,0.000000,-0.000000,-1.000000
2.462034,25.184030,-4.825211,0.000000,-0.000000,-1.000000
-29.302071,30.815751,-4.825211,0.000000,-0.000000,-1.000000
19.885234,14.529689,4.825211,0.000000,-0.000000,1.000000
-34.412495,-5.619057,4.825211,0.000000,-0.000000,1.000000
17.354987,18.356973,-4.825211,0.000000,-0.000000,-1.000000
17.376234,-16.711917,4.825211,0.000000,-0.000000,1.000000
-37.548635,8.355262,4.825211,0.000000,-0.000000,1.000000
0.072531,22.132681,-4.825211,0.000000,-0.000000,-1.000000
22.707366,10.980077,-4.825211,0.000000,-0.000000,-1.000000
-63.637096,-22.041973,-2.720074,-1.000000,0.000000,0.000000
60.138457,-10.700600,4.825211,-0.000000,0.000000,1.000000
-19.310414,-1.084191,-4.825211,0.000000,0.000000,-1.000000
-34.418327,32.944523,4.166041,0.000000,1.000000,0.000000
40.112605,-32.944523,4.312709,0.000000,-1.000000,0.000000
-39.031869,-32.944523,-0.753682,0.000000,-1.000000,0.000000
1.384717,8.109895,-4.825211,0.000000,-0.000000,-1.000000
63.637096,-31.135589,2.676357,1.000000,0.000000,-0.000000
-43.052177,-21.380506,4.825211,0.000000,-0.000000,1.000000
-37.056465,11.988942,4.825211,0.000000,-0.000000,1.000000
-50.022712,-5.347944,4.825211,0.000000,-0.000000,1.000000
63.575434,21.212692,-4.825211,0.000000,0.000000,-1.000000
27.359315,6.620913,-4.825211,0.000000,-0.000000,-1.000000
-60.516478,7.494343,4.825211,0.000000,-0.000000,1.000000
24.519839,-9.600067,1.307281,-0.881921,0.471397,0.000000
-16.369656,-17.681290,4.825211,0.000000,-0.000000,1.000000
4.901875,24.387622,-4.825211,0.000000,-0.000000,-1.000000
18.144067,28.938286,4.825211,0.000000,-0.000000,1.000000
11.613526,15.202468,4.825211,0.000000,-0.000000,1.000000
-63.637096,-18.089474,-4.757423,-1.000000,0.000000,0.000000
49.495712,-5.183079,4.825211,-0.000000,0.000000,1.000000
23.476405,7.482352,-4.825211,0.000000,-0.000000,-1.000000
59.503921,15.653688,-4.825211,0.000000,0.000000,-1.000000
0.666841,9.950978,4.825211,0.000000,-0.000000,1.000000
-5.843639,24.902543,-4.825211,0.000000,-0.000000,-1.000000
63.637096,1.791140,1.702490,1.000000,-0.000000,0.000000
-42.688779,31.082523,-4.825211,0.000000,-0.000000,-1.000000
-49.418710,-24.285222,4.825211,0.000000,-0.000000,1.000000
-3.811659,-15.146498,4.825211,0.000000,-0.000000,1.000000
32.561325,-29.896432,4.825211,0.000000,-0.000000,1.000000
-46.110657,-27.061542,4.825211,0.000000,0.000000,1.000000
5.525066,-20.021988,-4.825211,0.000000,0.000000,-1.000000
-34.396096,2.906809,-4.825211,0.000000,0.000000,-1.000000
41.490082,-32.944523,-1.763259,0.000000,-1.000000,0.000000
13.314400,0.817620,-4.825211,0.000000,-0.000000,-1.000000
20.837219,-12.506160,3.108421,-0.098017,0.995185,0.000000
29.335621,-7.815077,4.825211,-0.000000,0.000000,1.000000
-63.637096,-19.730125,2.720936,-1.000000,0.000000,0.000000
19.809041,-32.543996,4.825211,0.000000,-0.000000,1.000000
35.883533,28.790900,4.825211,0.000000,-0.000000,1.000000
-59.028258,25.552763,4.825211,0.000000,-0.000000,1.000000
15.000021,-6.093184,4.223228,0.956940,-0.290285,0.000000
-61.034821,12.420096,4.825211,0.000000,-0.000000,1.000000
60.908254,29.631988,4.825211,-0.000000,0.000000,1.000000
-45.288086,9.066234,-4.825211,0.000000,0.000000,-1.000000
59.732224,27.359472,4.825211,-0.000000,0.000000,1.000000
62.177757,7.565549,4.825211,-0.000000,0.000000,1.000000
62.014055,-8.087141,-4.825211,0.000000,0.000000,-1.000000
-24.609063,-13.531725,-4.825211,0.000000,0.000000,-1.000000
-26.561305,32.309516,-4.825211,0.000000,-0.000000,-1.000000
-22.392695,23.811290,4.825211,0.000000,-0.000000,1.000000
30.221474,24.281068,4.825211,0.000000,-0.000000,1.000000
-13.614411,-32.944523,2.969714,0.000000,-1.000000,0.000000
33.057906,25.308282,-4.825211,0.000000,-0.000000,-1.000000
40.897400,25.699588,4.825211,0.000000,-0.000000,1.000000
55.373032,-29.668027,-4.825211,0.000000,0.000000,-1.000000
-30.258199,27.437578,-4.825211,0.000000,-0.000000,-1.000000
28.533852,-3.383180,-4.825211,0.000000,0.000000,-1.000000
-9.164835,1.462903,-4.825211,0.000000,0.000000,-1.000000
-44.812754,14.769712,-4.825211,0.000000,0.000000,-1.000000
8.796268,-32.944523,-1.762582,0.000000,-1.000000,0.000000
11.513544,-2.773095,-4.825211,0.000000,-0.000000,-1.000000
-52.791475,-11.478418,-4.825211,0.000000,0.000000,-1.000000
-53.391669,-31.680783,-4.825211,0.000000,0.000000,-1.000000
45.751344,-2.085825,4.825211,-0.000000,0.000000,1.000000
-20.524777,-8.292552,-4.825211,0.000000,0.000000,-1.000000
-63.637096,-25.645430,-0.739702,-1.000000,0.000000,0.000000
-59.562528,-13.347426,-4.825211,0.000000,0.000000,-1.000000
24.447659,18.055096,-4.825211,0.000000,-0.000000,-1.000000
-51.438279,29.877108,4.825211,0.000000,-0.000000,1.000000
-21.138962,-2.608123,-4.825211,0.000000,0.000000,-1.000000
56.968218,9.463116,-4.825211,0.000000,0.000000,-1.000000
-38.002361,-15.871010,4.825211,0.000000,-0.000000,1.000000
6.452406,-31.113988,-4.825211,0.000000,0.000000,-1.000000
43.069648,17.782853,-4.825211,0.000000,-0.000000,-1.000000
18.907675,-21.839665,-4.825211,0.000000,0.000000,-1.000000
50.879140,-19.035459,-4.825211,0.000000,0.000000,-1.000000
-9.852327,25.142201,-4.825211,0.000000,-0.000000,-1.000000
14.143118,-6.347052,4.825211,0.000000,0.000000,1.000000
17.115055,9.649838,-4.825211,0.000000,-0.000000,-1.000000
8.248152,17.658073,-4.825211,0.000000,-0.000000,-1.000000
37.950024,-32.944523,-1.638906,0.000000,-1.000000,0.000000
-53.411478,-22.979592,4.825211,0.000000,-0.000000,1.000000
3.420765,32.944523,-0.069228,-0.000000,1.000000,0.000000
-56.012693,10.998259,4.825211,0.000000,-0.000000,1.000000
-6.150342,20.578981,-4.825211,0.000000,-0.000000,-1.000000
10.208008,12.673897,4.825211,0.000000,-0.000000,1.000000
-24.480566,-26.089403,4.825211,0.000000,-0.000000,1.000000
-6.393421,2.428978,4.825211,0.000000,-0.000000,1.000000
-3.355157,-14.351750,4.825211,0.000000,-0.000000,1.000000
-63.637096,-1.904835,4.546850,-1.000000,0.000000,0.000000
63.637096,26.456104,-2.069697,1.000000,-0.000000,0.000000
11.726955,1.304796,-4.825211,-0.000000,-0.000000,-1.000000
-4.045398,-32.944523,2.224549,0.000000,-1.000000,0.000000
41.413171,-2.261240,4.825211,-0.000000,0.000000,1.000000
7.677148,-6.454963,-4.825211,0.000000,0.000000,-1.000000
-21.467740,-5.677973,-4.825211,0.000000,0.000000,-1.000000
47.953533,14.453681,-4.825211,0.000000,0.000000,-1.000000
-62.957286,-20.395569,4.825211,0.000000,-0.000000,1.000000
61.977135,-0.569813,-4.825211,0.000000,0.000000,-1.000000
-16.293622,-12.820054,4.825211,0.000000,0.000000,1.000000
25.808989,-0.543873,-4.825211,0.000000,-0.000000,-1.000000
-43.129281,17.319350,4.825211,0.000000,-0.000000,1.000000
12.890341,32.944523,-3.257749,-0.000000,1.000000,0.000000
-26.685025,-32.944523,1.618633,0.000000,-1.000000,0.000000
-24.126603,-8.459435,-4.825211,0.000000,0.000000,-1.000000
20.224137,32.944523,1.228614,-0.000000,1.000000,0.000000
-58.849733,-16.009406,-4.825211,0.000000,0.000000,-1.000000
-58.544981,2.212167,4.825211,0.000000,-0.000000,1.000000
-24.034255,-20.518984,-4.825211,0.000000,0.000000,-1.000000
-63.637096,19.637547,-3.866497,-1.000000,0.000000,0.000000
19.283463,-30.888415,4.825211,0.000000,-0.000000,1.000000
-59.919055,-2.248210,-4.825211,0.000000,0.000000,-1.000000
39.616988,12.404692,4.825211,-0.000000,0.000000,1.000000
17.331348,-13.567187,4.825211,0.000000,-0.000000,1.000000
-9.921706,-19.559335,-4.825211,0.000000,0.000000,-1.000000
33.743014,-2.786663,-4.825211,0.000000,0.000000,-1.000000
-1.037400,-6.025150,4.825211,0.000000,0.000000,1.000000
40.257402,-14.126592,4.825211,-0.000000,0.000000,1.000000
63.637096,15.665844,-1.802574,1.000000,-0.000000,0.000000
44.077250,-31.262441,4.825211,0.000000,-0.000000,1.000000
-21.584761,-17.812999,-4.825211,0.000000,0.000000,-1.000000
39.300730,23.281117,4.825211,0.000000,-0.000000,1.000000
18.249788,-31.329818,4.825211,0.000000,-0.000000,1.000000
8.384895,-22.790475,-4.825211,0.000000,-0.000000,-1.000000
-7.548331,30.195155,-4.825211,0.000000,-0.000000,-1.000000
50.451828,-19.479998,4.825211,-0.000000,0.000000,1.000000
-59.184185,5.754651,-4.825211,0.000000,0.000000,-1.000000
-60.705741,-15.184932,4.825211,0.000000,-0.000000,1.000000
51.893409,7.201933,-4.825211,0.000000,0.000000,-1.000000
-0.364473,-30.874308,-4.825211,0.000000,0.000000,-1.000000
-51.485687,-26.241200,-4.825211,0.000000,0.000000,-1.000000
33.466836,32.944523,-0.822044,-0.000000,1.000000,0.000000
-24.582530,-17.618490,-4.825211,0.000000,0.000000,-1.000000
57.279075,1.126540,-4.825211,0.000000,0.000000,-1.000000
-44.456053,-2.135709,4.825211,0.000000,-0.000000,1.000000
20.586840,32.843922,4.825211,0.000000,-0.000000,1.000000
35.294043,31.676215,4.825211,0.000000,-0.000000,1.000000
40.152197,-17.980473,4.825211,-0.000000,-0.000000,1.000000
-62.429138,-11.517905,4.825211,0.000000,-0.000000,1.000000
-14.596627,-3.956066,-4.825211,0.000000,0.000000,-1.000000
-0.296975,15.576252,-4.825211,0.000000,-0.000000,-1.000000
-12.003322,17.101449,4.825211,0.000000,-0.000000,1.000000
38.290080,32.944523,-0.397984,-0.000000,1.000000,0.000000
-28.691363,1.609844,4.825211,0.000000,-0.000000,1.000000
45.076398,-24.951444,-4.825211,0.000000,0.000000,-1.000000
31.199034,3.360238,4.825211,-0.000000,0.000000,1.000000
44.882978,8.464289,4.825211,-0.000000,0.000000,1.000000
7.109834,-23.956348,4.825211,0.000000,-0.000000,1.000000
-54.619217,3.581770,-4.825211,0.000000,0.000000,-1.000000
17.619044,-2.944511,-2.787145,0.471397,-0.881921,0.000000
50.871314,31.041584,4.825211,0.000000,-0.000000,1.000000
-8.468624,23.847778,-4.825211,0.000000,-0.000000,-1.000000
-22.776960,29.466243,4.825211,0.000000,-0.000000,1.000000
-0.362225,-18.058559,4.825211,0.000000,-0.000000,1.000000
-47.237432,32.944523,3.050724,0.000000,1.000000,0.000000
-53.163942,-17.929835,4.825211,0.000000,-0.000000,1.000000
-17.088724,-30.768654,4.825211,0.000000,-0.000000,1.000000
-18.399538,-29.623384,4.825211,0.000000,-0.000000,1.000000
-23.463911,10.144993,4.825211,0.000000,-0.000000,1.000000
50.037822,21.809955,-4.825211,0.000000,-0.000000,-1.000000
-31.413864,-14.567679,4.825211,0.000000,-0.000000,1.000000
-55.148402,-5.725274,-4.825211,0.000000,0.000000,-1.000000
-35.438234,-22.071553,4.825211,0.000000,0.000000,1.000000
-39.619017,8.370790,-4.825211,0.000000,0.000000,-1.000000
1.045736,-30.192986,-4.825211,0.000000,0.000000,-1.000000
13.505405,-13.482647,4.825211,0.000000,-0.000000,1.000000
27.524930,-31.216266,-4.825211,0.000000,0.000000,-1.000000
59.869184,18.510839,4.825211,-0.000000,0.000000,1.000000
-13.491238,-23.396310,-4.825211,0.000000,0.000000,-1.000000
-58.554870,5.539573,-4.825211,0.000000,0.000000,-1.000000
20.351015,-12.554047,-2.018033,-0.098017,0.995185,0.000000
-36.298059,17.203723,-4.825211,0.000000,0.000000,-1.000000
-2.424638,22.052524,-4.825211,0.000000,-0.000000,-1.000000
-4.153148,2.208466,-4.825211,0.000000,0.000000,-1.000000
48.633473,10.510818,-4.825211,0.000000,0.000000,-1.000000
-37.167855,32.944523,3.698748,0.000000,1.000000,0.000000
-47.483133,-32.944523,3.870108,0.000000,-1.000000,0.000000
13.224296,-32.944523,1.892608,0.000000,-1.000000,0.000000
-22.522833,3.869586,4.825211,0.000000,-0.000000,1.000000
-59.290156,-17.558530,4.825211,0.000000,-0.000000,1.000000
-55.863428,17.866924,4.825211,0.000000,-0.000000,1.000000
-56.211288,28.070921,4.825211,0.000000,-0.000000,1.000000
-22.031926,32.944523,-1.400022,0.000000,1.000000,0.000000
45.411269,12.759554,-4.825211,0.000000,0.000000,-1.000000
2.553714,-12.046819,-4.825211,0.000000,0.000000,-1.000000
-17.384438,-32.944523,-0.087391,0.000000,-1.000000,0.000000
-28.654946,22.728067,4.825211,0.000000,-0.000000,1.000000
55.575291,32.944523,-1.486992,-0.000000,1.000000,0.000000
18.734102,-23.511425,-4.825211,0.000000,0.000000,-1.000000
47.243706,12.737049,-4.825211,0.000000,0.000000,-1.000000
-26.766219,-22.399162,4.825211,0.000000,-0.000000,1.000000
3.907970,27.380563,-4.825211,0.000000,-0.000000,-1.000000
-2.055206,-18.201115,-4.825211,0.000000,0.000000,-1.000000
3.598343,21.583999,4.825211,0.000000,-0.000000,1.000000
7.999569,17.941111,-4.825211,0.000000,-0.000000,-1.000000
55.929440,19.967155,-4.825211,0.000000,0.000000,-1.000000
22.125564,-2.931789,-1.814564,-0.471397,-0.881921,0.000000
-52.272076,4.036980,-4.825211,0.000000,0.000000,-1.000000
-1.381664,-26.712452,4.825211,0.000000,-0.000000,1.000000
-48.247892,-26.886824,4.825211,0.000000,0.000000,1.000000
-14.536490,20.705535,-4.825211,0.000000,-0.000000,-1.000000
5.780745,15.254398,-4.825211,0.000000,-0.000000,-1.000000
-25.847706,22.162472,-4.825211,0.000000,-0.000000,-1.000000
9.792785,-15.940072,-4.825211,0.000000,0.000000,-1.000000
13.212554,24.679317,4.825211,0.000000,-0.000000,1.000000
-63.637096,31.342219,-0.453486,-1.000000,0.000000,0.000000
52.130752,-12.663593,-4.825211,0.000000,0.000000,-1.000000
37.378730,16.475263,4.825211,0.000000,0.000000,1.000000
-55.904419,-24.407586,-4.825211,0.000000,0.000000,-1.000000
-17.370786,-26.794872,-4.825211,0.000000,0.000000,-1.000000
-38.137790,-25.480877,-4.825211,0.000000,0.000000,-1.000000
47.162993,6.482004,4.825211,-0.000000,0.000000,1.000000
-18.932464,24.448322,-4.825211,0.000000,-0.000000,-1.000000
-5.655419,1.763925,-4.825211,0.000000,0.000000,-1.000000
63.637096,22.417970,0.274210,1.000000,-0.000000,0.000000
48.877393,-16.289797,-4.825211,0.000000,0.000000,-1.000000
4.432064,-19.653207,-4.825211,0.000000,0.000000,-1.000000
29.239353,-15.784421,-3.920753,0.098017,-0.995185,0.000000
60.255349,-25.781570,-4.825211,0.000000,0.000000,-1.000000
21.413062,32.944523,3.182187,0.000000,1.000000,0.000000
63.637096,-21.531739,-4.383151,1.000000,0.000000,-0.000000
63.637096,-3.957241,0.440587,1.000000,0.000000,-0.000000
55.256635,-12.729571,-4.825211,0.000000,0.000000,-1.000000
-3.912825,-32.944523,1.512919,0.000000,-1.000000,0.000000
-1.707549,2.479847,-4.825211,0.000000,-0.000000,-1.000000
-53.369783,-8.369057,-4.825211,0.000000,0.000000,-1.000000
-34.224872,-13.986555,4.825211,0.000000,-0.000000,1.000000
-44.956917,-5.255382,-4.825211,0.000000,0.000000,-1.000000
63.637096,-30.165486,0.312749,1.000000,0.000000,-0.000000
20.680442,-32.944523,2.976564,0.000000,-1.000000,0.000000
-21.044112,-29.375109,4.825211,0.000000,-0.000000,1.000000
24.907249,32.944523,-2.088591,-0.000000,1.000000,0.000000
63.637096,-0.711483,-4.623968,1.000000,0.000000,-0.000000
42.363654,24.900599,4.825211,0.000000,-0.000000,1.000000
10.764171,1.248014,-4.825211,0.000000,-0.000000,-1.000000
50.240021,-8.575321,4.825211,-0.000000,0.000000,1.000000
-46.059340,19.486863,4.825211,0.000000,-0.000000,1.000000
56.360150,11.684425,4.825211,-0.000000,0.000000,1.000000
-13.292044,-6.855051,-4.825211,0.000000,0.000000,-1.000000
-1.079669,-27.195526,4.825211,0.000000,-0.000000,1.000000
34.811399,27.067147,-4.825211,0.000000,-0.000000,-1.000000
52.656231,-32.944523,0.717913,0.000000,-1.000000,0.000000
31.137746,-10.985673,-4.825211,0.000000,0.000000,-1.000000
9.909340,24.714701,4.825211,0.000000,-0.000000,1.000000
-49.713972,1.977435,4.825211,0.000000,-0.000000,1.000000
12.274903,-16.280767,-4.825211,0.000000,0.000000,-1.000000
-20.939839,-29.373314,-4.825211,0.000000,0.000000,-1.000000
-29.597749,2.494139,-4.825211,0.000000,0.000000,-1.000000
34.015474,25.614965,4.825211,0.000000,-0.000000,1.000000
-49.963550,32.944523,0.510639,0.000000,1.000000,0.000000
-45.091323,-0.800160,-4.825211,0.000000,0.000000,-1.000000
-8.129961,-31.112659,4.825211,0.000000,-0.000000,1.000000
62.930660,-22.170791,4.825211,-0.000000,0.000000,1.000000
49.844950,21.644676,4.825211,-0.000000,0.000000,1.000000
-63.006648,20.972692,-4.825211,0.000000,0.000000,-1.000000
-20.204950,27.245039,-4.825211,0.000000,-0.000000,-1.000000
44.894979,-3.488281,-4.825211,0.000000,0.000000,-1.000000
-11.931353,-19.199350,4.825211,0.000000,-0.000000,1.000000
-0.199370,-2.640655,4.825211,0.000000,0.000000,1.000000
10.916157,25.278974,-4.825211,0.000000,-0.000000,-1.000000
-31.668830,13.312236,4.825211,0.000000,-0.000000,1.000000
-58.316903,10.894871,4.825211,0.000000,-0.000000,1.000000
-1.146239,11.942595,4.825211,0.000000,-0.000000,1.000000
44.293304,-1.237505,-4.825211,0.000000,0.000000,-1.000000
1.186885,23.060657,4.825211,0.000000,-0.000000,1.000000
18.786382,-22.104972,4.825211,0.000000,-0.000000,1.000000
-63.190891,30.911593,-4.825211,0.000000,0.000000,-1.000000
-5.438412,-29.827825,4.825211,0.000000,-0.000000,1.000000
35.246824,18.117490,4.825211,0.000000,0.000000,1.000000
-20.244570,18.941114,4.825211,0.000000,-0.000000,1.000000
-63.637096,32.400766,-4.183356,-1.000000,0.000000,0.000000
-63.637096,4.122788,3.535470,-1.000000,0.000000,0.000000
-3.642854,-1.281876,4.825211,0.000000,-0.000000,1.000000
58.858337,-20.247139,4.825211,-0.000000,0.000000,1.000000
-16.614207,10.039766,-4.825211,0.000000,-0.000000,-1.000000
31.500635,-15.853437,4.825211,-0.000000,-0.000000,1.000000
-29.694388,-3.131042,4.825211,0.000000,-0.000000,1.000000
63.637096,-17.903892,-2.078848,1.000000,0.000000,-0.000000
7.767098,-24.978313,-4.825211,0.000000,0.000000,-1.000000
-46.632411,-31.165477,4.825211,0.000000,-0.000000,1.000000
8.642752,-0.554907,4.825211,0.000000,0.000000,1.000000
-39.707088,-24.708249,-4.825211,0.000000,0.000000,-1.000000
-40.450844,25.491438,-4.825211,0.000000,-0.000000,-1.000000
16.924756,-3.350842,1.750296,0.634393,-0.773010,0.000000
60.256643,3.435403,4.825211,-0.000000,0.000000,1.000000
51.234525,19.667541,4.825211,-0.000000,0.000000,1.000000
-0.116731,-7.142838,4.825211,0.000000,0.000000,1.000000
-8.836681,-5.887508,4.825211,0.000000,0.000000,1.000000
34.929404,11.461307,-4.825211,0.000000,-0.000000,-1.000000
11.338775,-21.373026,4.825211,0.000000,0.000000,1.000000
-52.266803,-15.759080,4.825211,0.000000,-0.000000,1.000000
-34.695724,-12.586086,4.825211,0.000000,-0.000000,1.000000
-61.002146,14.929992,4.825211,0.000000,-0.000000,1.000000
-29.347999,-12.288583,-4.825211,0.000000,0.000000,-1.000000
-32.693236,-13.331126,4.825211,0.000000,-0.000000,1.000000
54.695381,3.392491,-4.825211,0.000000,0.000000,-1.000000
-59.278398,5.318736,-4.825211,0.000000,0.000000,-1.000000
-0.221754,30.039734,4.825211,0.000000,-0.000000,1.000000
-42.089517,-23.340541,-4.825211,0.000000,0.000000,-1.000000
22.452891,0.844702,-4.825211,0.000000,-0.000000,-1.000000
-29.448047,6.629900,-4.825211,0.000000,0.000000,-1.000000
-19.767076,-9.107737,4.825211,0.000000,-0.000000,1.000000
50.430320,-21.380846,4.825211,-0.000000,0.000000,1.000000
-23.677703,14.616345,4.825211,0.000000,-0.000000,1.000000
-28.823478,32.944523,-3.133692,-0.000000,1.000000,0.000000
5.383540,-32.944523,-1.493850,0.000000,-1.000000,0.000000
27.163666,10.166764,-4.825211,0.000000,-0.000000,-1.000000
22.996734,32.788831,4.825211,0.000000,-0.000000,1.000000
61.204062,-25.595687,4.825211,-0.000000,0.000000,1.000000
44.578207,-11.197942,-4.825211,0.000000,0.000000,-1.000000
51.877590,1.648594,-4.825211,0.000000,0.000000,-1.000000
46.183234,-8.951640,4.825211,-0.000000,0.000000,1.000000
-63.637096,-32.250514,3.986877,-1.000000,0.000000,0.000000
-30.951403,-32.944523,2.153709,0.000000,-1.000000,0.000000
38.941419,2.541202,4.825211,-0.000000,0.000000,1.000000
-36.536683,12.311130,4.825211,0.000000,-0.000000,1.000000
44.972614,5.359342,4.825211,-0.000000,0.000000,1.000000
-43.497285,-16.664009,-4.825211,0.000000,0.000000,-1.000000
-39.770037,26.289728,-4.825211,0.000000,-0.000000,-1.000000
-57.925514,6.387988,4.825211,0.000000,-0.000000,1.000000
-60.746823,11.645421,-4.825211,0.000000,0.000000,-1.000000
25.795447,-31.940390,-4.825211,0.000000,0.000000,-1.000000
63.637096,8.876700,3.106309,1.000000,-0.000000,0.000000
-9.757808,-19.076965,4.825211,0.000000,-0.000000,1.000000
20.727978,-2.472526,-2.994512,-0.098017,-0.995185,0.000000
-9.722831,-17.482855,4.825211,0.000000,-0.000000,1.000000
-23.732845,-32.944523,-0.361305,0.000000,-1.000000,0.000000
40.710738,-13.635347,-4.825211,0.000000,0.000000,-1.000000
26.009151,23.058314,4.825211,0.000000,-0.000000,1.000000
0.456544,13.167326,-4.825211,0.000000,-0.000000,-1.000000
24.169497,-20.833123,3.327628,0.995185,-0.098017,0.000000
-63.637096,19.237701,-1.472875,-1.000000,0.000000,0.000000
60.741944,-11.921960,-4.825211,0.000000,0.000000,-1.000000
48.600753,-9.346781,-4.825211,0.000000,0.000000,-1.000000
-43.152411,26.621478,4.825211,0.000000,-0.000000,1.000000
-36.113203,32.944523,4.124337,0.000000,1.000000,0.000000
22.288555,14.182275,-4.825211,0.000000,-0.000000,-1.000000
-37.854006,32.944523,4.578458,0.000000,1.000000,0.000000
-42.406669,0.313360,-4.825211,0.000000,0.000000,-1.000000
-62.293020,-4.127449,4.825211,0.000000,-0.000000,1.000000
-61.940191,-7.212683,-4.825211,0.000000,0.000000,-1.000000
-11.732144,-13.317205,4.825211,0.000000,0.000000,1.000000
-13.812489,25.473809,-4.825211,0.000000,-0.000000,-1.000000
12.727649,-10.556137,4.825211,0.000000,-0.000000,1.000000
