x,y,z,nx,ny,nz
16.701872,15.803358,-12.244525,-0.831470,0.000000,0.555570
33.272200,22.845237,21.408484,0.000000,0.000000,1.000000
-29.342710,6.547243,0.919988,0.956940,-0.000000,-0.290287
33.467278,14.945179,-16.279901,1.000000,0.000000,-0.000000
-33.467278,9.960491,-11.370000,-1.000000,0.000000,0.000000
19.899690,25.797191,-5.743465,-0.946930,0.000000,0.321439
33.467278,-14.465328,-11.736148,1.000000,0.000000,-0.000000
13.320703,-5.192909,-21.408484,0.000000,0.000000,-1.000000
-24.523003,-19.601255,-21.408484,0.000000,0.000000,-1.000000
29.300710,2.606723,-1.058444,-0.956940,0.000000,0.290286
6.611650,23.635124,19.604981,-0.321439,0.000000,-0.946930
-21.361897,-21.286896,-21.408484,0.000000,0.000000,-1.000000
-22.780651,24.322278,21.408484,0.000000,-0.000000,1.000000
21.571080,-18.667311,21.408484,0.000000,0.000000,1.000000
-10.307551,-4.910278,21.408484,0.000000,-0.000000,1.000000
24.034078,27.738585,13.867372,0.000000,1.000000,-0.000000
17.311361,8.902864,3.283057,-0.000000,1.000000,0.000000
4.973261,-22.238886,-14.028164,-0.290284,0.000000,0.956940
-24.453121,8.461029,3.846865,-0.290285,-0.000000,-0.956940
-21.646614,-2.973192,-1.100533,-0.956941,-0.000000,0.290284
23.331741,-6.071392,-3.366433,0.471396,0.000000,0.881921
17.805512,27.738585,18.449906,-0.000000,1.000000,0.000000
27.792424,-5.771189,-21.408484,0.000000,0.000000,-1.000000
18.217182,27.738585,20.221565,-0.000000,1.000000,0.000000
-21.730988,-27.738585,10.086100,0.000000,-1.000000,0.000000
-29.398881,6.420177,-21.408484,0.000000,0.000000,-1.000000
-33.467278,-10.081467,19.586564,-1.000000,0.000000,0.000000
-14.823539,-20.469326,-21.408484,0.000000,0.000000,-1.000000
-12.050153,8.902864,15.603563,-0.000000,1.000000,0.000000
16.002417,10.859981,13.132013,-0.751840,0.000000,-0.659346
-3.518559,-6.058247,-14.469442,0.290284,-0.000000,0.956940
-13.275049,-2.972145,6.703968,0.881921,0.000000,-0.471397
-18.549137,19.656512,9.165002,0.896873,0.000000,-0.442289
-29.546621,27.738585,7.934535,0.000000,1.000000,0.000000
-33.467278,-6.685743,-7.806993,-1.000000,0.000000,0.000000
5.940705,-15.385327,-13.683022,-0.471397,0.000000,0.881921
-1.077295,0.996337,-14.833611,0.098017,-0.000000,0.995185
14.467906,18.415101,-14.830871,-0.659346,0.000000,0.751840
-26.330669,20.133567,21.408484,0.000000,-0.000000,1.000000
8.859346,13.366463,-18.699870,-0.442289,0.000000,0.896873
-9.062203,-21.266125,21.408484,0.000000,0.000000,1.000000
33.467278,-19.147767,-1.648317,1.000000,0.000000,-0.000000
7.563929,-21.268774,12.815391,-0.471397,0.000000,-0.881921
5.276738,-2.290171,13.936105,-0.290284,-0.000000,-0.956940
-22.251848,-27.738585,-20.431719,0.000000,-1.000000,0.000000
-1.355678,-27.738585,21.397070,0.000000,-1.000000,0.000000
18.025694,9.135714,-21.408484,0.000000,0.000000,-1.000000
-14.687512,-22.756477,-2.560660,0.995185,-0.000000,0.098017
-33.467278,-26.216492,-11.424438,-1.000000,0.000000,0.000000
-21.096212,27.738585,7.700840,-0.000000,1.000000,-0.000000
-24.534855,13.739153,3.871659,-0.290285,-0.000000,-0.956940
28.091791,23.170963,-2.989147,-0.634393,0.000000,0.773010
13.398929,-5.405420,6.472206,-0.881921,-0.000000,-0.471397
5.720618,-17.178694,-21.408484,0.000000,0.000000,-1.000000
-20.247069,24.138195,4.263481,0.980785,0.000000,-0.195090
23.487456,25.298161,21.408484,0.000000,-0.000000,1.000000
3.347459,-26.629894,-14.521345,-0.290284,0.000000,0.956940
-33.467278,-5.290650,20.538921,-1.000000,0.000000,0.000000
-28.947604,3.897290,-1.922461,0.881921,0.000000,0.471396
33.467278,-20.030282,-12.920540,1.000000,0.000000,-0.000000
-24.277311,27.738585,-3.917916,0.000000,1.000000,0.000000
-33.467278,-9.361833,-11.426374,-1.000000,0.000000,0.000000
8.060305,-27.738585,17.839327,0.000000,-1.000000,0.000000
-33.467278,2.757575,-2.218990,-1.000000,0.000000,0.000000
-3.822561,13.430459,21.408484,0.000000,-0.000000,1.000000
-25.075820,-25.849318,-21.408484,0.000000,0.000000,-1.000000
-4.566156,-20.052725,14.151657,0.290284,0.000000,-0.956940
5.362539,-16.005180,13.910077,-0.290284,-0.000000,-0.956940
-12.319710,-27.355881,21.408484,0.000000,0.000000,1.000000
-33.467278,27.647264,-14.183628,-1.000000,0.000000,0.000000
13.863831,5.122510,5.514992,-0.956940,0.000000,-0.290284
-29.450376,-27.738585,-10.517953,0.000000,-1.000000,0.000000
-16.677592,-11.161203,-21.408484,0.000000,0.000000,-1.000000
-16.268008,19.546906,21.408484,0.000000,-0.000000,1.000000
27.297364,-11.960593,-21.408484,0.000000,0.000000,-1.000000
8.365288,-25.608020,-12.368390,-0.634393,0.000000,0.773010
-18.967355,18.717904,-8.316940,0.896873,0.000000,0.442289
-6.500925,-26.853012,13.383578,0.471397,0.000000,-0.881921
-33.467278,-18.704853,15.818883,-1.000000,0.000000,0.000000
-18.409397,23.564849,21.408484,0.000000,-0.000000,1.000000
4.343714,-14.331196,14.219134,-0.290284,-0.000000,-0.956940
-29.095915,-18.863907,-1.644989,0.881921,-0.000000,0.471396
15.549507,-27.738585,-15.013425,0.000000,-1.000000,0.000000
-19.711791,-9.228267,21.408484,0.000000,-0.000000,1.000000
12.725966,-1.841697,7.731231,-0.881921,0.000000,-0.471397
16.023959,1.389201,-21.408484,0.000000,0.000000,-1.000000
33.467278,-22.273731,15.437518,1.000000,0.000000,-0.000000
-1.607842,-9.983299,-14.781357,0.098017,0.000000,0.995185
-20.500945,-27.738585,20.758863,0.000000,-1.000000,0.000000
19.907579,21.890443,5.720225,-0.946930,0.000000,-0.321439
-10.266895,2.755406,10.807781,0.634393,0.000000,-0.773010
27.428379,9.192003,21.408484,0.000000,0.000000,1.000000
15.084093,8.902864,-6.057128,-0.000000,1.000000,0.000000
-6.231287,6.711255,21.408484,0.000000,-0.000000,1.000000
9.639234,-27.738585,-17.588591,0.000000,-1.000000,0.000000
33.467278,-18.614824,-21.128428,1.000000,0.000000,-0.000000
-33.467278,-11.023200,-16.787456,-1.000000,0.000000,0.000000
9.362963,-6.128831,-11.549619,-0.634393,0.000000,0.773010
-33.467278,-25.870483,-14.262916,-1.000000,0.000000,0.000000
4.942615,-27.738585,14.155187,0.000000,-1.000000,0.000000
1.449129,-15.955093,-14.796989,-0.098017,0.000000,0.995185
13.899410,14.744820,21.408484,0.000000,-0.000000,1.000000
4.150076,-8.766774,-14.277874,-0.290284,0.000000,0.956940
-17.286820,-18.404342,21.408484,0.000000,0.000000,1.000000
14.934819,-25.501716,-21.408484,0.000000,0.000000,-1.000000
15.020936,14.384864,-21.408484,0.000000,0.000000,-1.000000
-8.561443,2.209456,-21.408484,0.000000,0.000000,-1.000000
-33.467278,14.588637,11.680979,-1.000000,0.000000,0.000000
-31.929054,-27.738585,-15.676568,0.000000,-1.000000,0.000000
-19.895781,23.138833,-5.754978,0.946930,0.000000,0.321439
7.271606,-27.738585,13.149173,-0.000000,-1.000000,0.000000
23.623377,27.738585,18.923926,0.000000,1.000000,-0.000000
-15.110186,23.916047,-14.149408,0.751840,0.000000,0.659346
14.908260,9.763742,-21.408484,0.000000,0.000000,-1.000000
-33.467278,-9.367715,3.706036,-1.000000,0.000000,0.000000
-24.678641,-2.035060,3.915276,-0.290285,0.000000,-0.956940
31.213181,6.903731,-21.408484,0.000000,0.000000,-1.000000
1.536374,-27.412105,14.788396,-0.098017,-0.000000,-0.995185
-20.500447,12.704067,2.989666,0.980785,0.000000,-0.195090
-25.252170,25.912405,21.408484,0.000000,-0.000000,1.000000
1.151759,13.904125,-20.658695,-0.065404,0.000000,0.997859
33.467278,22.889205,1.222793,1.000000,-0.000000,0.000000
22.358184,-27.738585,-17.160675,0.000000,-1.000000,0.000000
-19.673716,27.738585,-16.561397,-0.000000,1.000000,0.000000
-22.789616,22.436904,-2.945528,-0.634393,0.000000,0.773010
26.279584,-23.234823,-21.408484,0.000000,0.000000,-1.000000
30.660912,-11.955502,21.408484,0.000000,0.000000,1.000000
-12.542561,18.046202,21.408484,0.000000,-0.000000,1.000000
-33.467278,-2.713485,11.836857,-1.000000,0.000000,0.000000
-33.467278,17.424341,-17.522860,-1.000000,0.000000,0.000000
13.210606,11.835621,21.408484,0.000000,-0.000000,1.000000
-24.372400,-19.398622,3.822379,-0.290285,0.000000,-0.956940
20.155090,17.237555,-4.725896,-0.980785,0.000000,0.195090
23.818132,-7.927280,-3.626416,0.471398,-0.000000,0.881921
33.467278,3.985844,16.092406,1.000000,-0.000000,0.000000
17.612243,-27.738585,-9.167183,0.000000,-1.000000,0.000000
-5.418223,-0.959803,-13.893186,0.290284,0.000000,0.956940
16.391199,-27.738585,-0.805970,0.000000,-1.000000,0.000000
33.467278,-25.306769,4.136034,1.000000,0.000000,-0.000000
21.690407,-1.643220,-1.244899,0.956942,-0.000000,0.290279
0.110814,9.060547,20.726923,-0.065404,0.000000,-0.997859
29.986304,-10.215819,-21.408484,0.000000,0.000000,-1.000000
8.340113,-17.208962,12.389050,-0.634393,0.000000,-0.773010
1.892206,25.741878,-20.610163,-0.065404,0.000000,0.997859
31.235423,27.738585,-12.871216,0.000000,1.000000,-0.000000
-0.573157,21.864072,-20.696619,0.065404,-0.000000,0.997859
-12.983542,5.504007,7.249341,0.881921,0.000000,-0.471397
4.802730,-27.738585,18.652626,0.000000,-1.000000,0.000000
-17.487939,-27.738585,-14.400254,0.000000,-1.000000,0.000000
14.892651,8.084142,-21.408484,0.000000,0.000000,-1.000000
28.983011,5.919307,21.408484,0.000000,0.000000,1.000000
19.760633,18.037426,6.153113,-0.946930,0.000000,-0.321439
21.534616,-20.620774,0.631421,0.995185,-0.000000,-0.098016
18.468633,20.056970,-9.328247,-0.896873,0.000000,0.442289
33.467278,26.419734,-6.498769,1.000000,-0.000000,0.000000
-5.573827,23.905786,-21.408484,0.000000,0.000000,-1.000000
-22.177700,27.738585,-14.408654,-0.000000,1.000000,0.000000
-22.339205,-27.738585,-11.665564,0.000000,-1.000000,0.000000
22.059282,24.060396,-2.057779,0.881920,0.000000,0.471398
10.209499,-17.575264,-21.408484,0.000000,0.000000,-1.000000
-7.276558,-11.331868,21.408484,0.000000,0.000000,1.000000
-7.032075,-27.738585,-18.626649,0.000000,-1.000000,0.000000
-13.237773,-19.458818,-6.773708,0.881921,0.000000,0.471397
13.846329,-27.738585,19.953530,0.000000,-1.000000,0.000000
-15.085772,-27.738585,19.725199,0.000000,-1.000000,0.000000
-33.467278,18.350271,7.624156,-1.000000,0.000000,0.000000
-9.046655,8.902864,11.906975,-0.000000,1.000000,-0.000000
28.345191,-5.152649,2.760052,-0.773010,0.000000,-0.634394
25.588149,27.738585,-6.045559,-0.000000,1.000000,-0.000000
2.307269,-23.873600,14.712469,-0.098017,-0.000000,-0.995185
-1.031851,-27.738585,18.029260,0.000000,-1.000000,0.000000
21.503146,17.665173,0.311889,0.995185,0.000000,-0.098016
29.815175,-27.738585,19.630901,-0.000000,-1.000000,0.000000
30.200918,-17.286879,21.408484,0.000000,0.000000,1.000000
-20.202203,12.588956,-21.408484,0.000000,0.000000,-1.000000
-11.918575,25.773967,21.408484,0.000000,-0.000000,1.000000
-9.805804,-14.259366,21.408484,0.000000,0.000000,1.000000
-14.621517,27.349469,-21.408484,0.000000,0.000000,-1.000000
-29.185534,17.284006,-1.438125,0.956940,0.000000,0.290285
-6.402350,7.246187,-21.408484,0.000000,0.000000,-1.000000
22.893679,27.738585,14.846120,-0.000000,1.000000,0.000000
21.194403,4.156844,-21.408484,0.000000,0.000000,-1.000000
10.448308,-13.527120,21.408484,0.000000,0.000000,1.000000
33.467278,10.311494,-19.286716,1.000000,0.000000,-0.000000
-11.974885,-13.501737,8.844775,0.773010,0.000000,-0.634393
27.333360,26.810426,3.510461,-0.471396,0.000000,-0.881921
-7.840039,-21.672564,-21.408484,0.000000,0.000000,-1.000000
5.610595,11.356717,-19.944793,-0.321439,0.000000,0.946930
-14.818385,27.738585,18.665356,0.000000,1.000000,0.000000
25.755725,27.738585,7.906948,-0.000000,1.000000,0.000000
-23.499508,-23.343845,21.408484,0.000000,0.000000,1.000000
-11.109973,25.529684,21.408484,0.000000,-0.000000,1.000000
21.534671,-13.663057,0.631974,0.995185,0.000000,-0.098016
-33.467278,1.514987,4.916658,-1.000000,0.000000,0.000000
-25.292802,-6.337078,-21.408484,0.000000,0.000000,-1.000000
0.141978,-8.106269,-14.925732,-0.098017,0.000000,0.995185
23.343267,27.738585,6.605530,-0.000000,1.000000,0.000000
23.171479,2.487683,21.408484,0.000000,0.000000,1.000000
-15.135861,-14.465688,-21.408484,0.000000,0.000000,-1.000000
-24.559791,-19.164520,-3.879223,-0.290285,0.000000,0.956940
-11.089967,-4.857219,21.408484,0.000000,-0.000000,1.000000
-4.088563,26.009465,21.408484,0.000000,-0.000000,1.000000
4.913919,-26.527373,-14.046165,-0.290284,0.000000,0.956940
28.548565,27.738585,-3.580023,0.000000,1.000000,-0.000000
-10.819843,22.217985,-17.653813,0.555570,-0.000000,0.831470
17.307764,1.221543,-21.408484,0.000000,0.000000,-1.000000
20.139267,19.187881,21.408484,0.000000,-0.000000,1.000000
7.971886,3.186965,12.597333,-0.471397,0.000000,-0.881921
2.489638,-27.738585,-15.316938,0.000000,-1.000000,0.000000
-20.465480,10.899644,3.165456,0.980785,0.000000,-0.195090
33.467278,-4.372489,-13.019795,1.000000,0.000000,-0.000000
-14.757894,-11.198846,-1.846059,0.995185,-0.000000,0.098017
-33.467278,-8.114080,-13.598054,-1.000000,0.000000,0.000000
2.874384,6.840643,-21.408484,0.000000,0.000000,-1.000000
13.153932,5.432856,21.408484,0.000000,0.000000,1.000000
23.390341,19.524651,-21.408484,0.000000,0.000000,-1.000000
28.180502,-27.738585,-19.235711,0.000000,-1.000000,0.000000
33.467278,-18.154625,4.316161,1.000000,0.000000,-0.000000
-8.879598,-9.903214,21.408484,0.000000,0.000000,1.000000
20.677859,-27.738585,-10.956042,0.000000,-1.000000,0.000000
-14.075073,-7.730247,-4.818619,0.956940,-0.000000,0.290284
-28.799194,27.738585,-11.266500,0.000000,1.000000,0.000000
9.960026,5.365110,21.408484,0.000000,0.000000,1.000000
33.467278,-9.977786,8.823792,1.000000,-0.000000,0.000000
-26.529185,-15.774961,3.832381,0.290284,-0.000000,-0.956941
33.467278,16.239117,14.099713,1.000000,-0.000000,0.000000
-16.943414,8.902864,3.030428,-0.000000,1.000000,0.000000
13.419912,-26.446322,6.432949,-0.881921,-0.000000,-0.471397
21.495988,-0.831063,0.239213,0.995185,-0.000000,-0.098016
33.467278,-17.930220,17.392387,1.000000,-0.000000,0.000000
-11.918462,4.970867,-21.408484,0.000000,0.000000,-1.000000
-33.467278,20.401351,3.897574,-1.000000,0.000000,0.000000
-27.431647,-27.738585,-10.889096,-0.000000,-1.000000,0.000000
-33.467278,-13.604444,1.632574,-1.000000,0.000000,0.000000
-19.997056,25.923426,5.456633,0.946930,0.000000,-0.321439
9.622235,20.658950,18.323654,-0.442289,0.000000,-0.896873
-15.922488,8.902864,13.126446,0.000000,1.000000,-0.000000
21.595368,-27.738585,-18.638704,0.000000,-1.000000,0.000000
13.961013,-25.749516,-5.194627,-0.956940,0.000000,0.290284
-19.374762,-27.738585,-6.953035,0.000000,-1.000000,0.000000
30.952839,0.998298,21.408484,0.000000,0.000000,1.000000
-33.467278,22.243348,-10.302117,-1.000000,0.000000,0.000000
-33.467278,-24.995570,-16.284755,-1.000000,0.000000,0.000000
27.224619,-27.738585,-7.058667,-0.000000,-1.000000,0.000000
13.960869,0.074036,5.195100,-0.956940,0.000000,-0.290284
-0.737570,4.746738,-21.408484,0.000000,0.000000,-1.000000
20.764800,-27.738585,-8.628398,0.000000,-1.000000,0.000000
33.467278,12.294859,-2.944797,1.000000,-0.000000,0.000000
-22.978991,-16.529172,-3.100944,-0.634393,0.000000,0.773010
-17.039456,23.890372,-21.408484,0.000000,0.000000,-1.000000
21.291241,-23.742480,-21.408484,0.000000,0.000000,-1.000000
-15.708211,-14.296854,-21.408484,0.000000,0.000000,-1.000000
16.839116,8.902864,3.012096,-0.000000,1.000000,0.000000
-9.826293,-20.137456,11.169374,0.634393,0.000000,-0.773010
-19.220870,3.184949,-21.408484,0.000000,0.000000,-1.000000
-19.713008,25.544483,-6.293413,0.946930,0.000000,0.321439
-20.148674,9.972443,-4.758152,0.980785,-0.000000,0.195090
29.219147,-23.135531,-1.327318,-0.956940,0.000000,0.290286
-25.782002,5.805989,-3.963854,0.098017,0.000000,0.995185
-20.243960,2.343511,-21.408484,0.000000,0.000000,-1.000000
-6.807197,12.651606,-19.538601,0.321439,-0.000000,0.946930
-6.946604,-17.423783,21.408484,0.000000,0.000000,1.000000
-11.600936,-4.758187,9.300433,0.773010,0.000000,-0.634393
-14.959292,-7.932030,-21.408484,0.000000,0.000000,-1.000000
20.836279,16.069797,21.408484,0.000000,0.000000,1.000000
1.474199,-6.363296,-21.408484,0.000000,0.000000,-1.000000
16.390966,8.902864,1.427406,-0.000000,1.000000,-0.000000
-33.467278,-8.809810,5.836662,-1.000000,0.000000,0.000000
8.006121,27.738585,20.901683,-0.000000,1.000000,0.000000
-4.239714,5.679334,14.250682,0.290284,0.000000,-0.956940
-31.174584,12.662721,21.408484,0.000000,-0.000000,1.000000
-33.467278,11.618435,-16.756452,-1.000000,0.000000,0.000000
33.467278,10.933340,-6.370897,1.000000,-0.000000,0.000000
-16.827642,27.413285,21.408484,0.000000,-0.000000,1.000000
-33.467278,-23.444754,8.365266,-1.000000,0.000000,0.000000
-21.672532,1.059374,1.185974,-0.956941,0.000000,-0.290284
-15.845248,-27.738585,0.945266,0.000000,-1.000000,0.000000
33.467278,-19.729357,-4.567290,1.000000,0.000000,-0.000000
-12.162363,-26.897721,8.616332,0.773010,0.000000,-0.634393
-14.776980,-20.019117,-1.652280,0.995185,0.000000,0.098017
3.131073,-17.484866,-21.408484,0.000000,0.000000,-1.000000
-33.467278,1.975915,-14.870332,-1.000000,0.000000,0.000000
15.902626,-24.251934,-21.408484,0.000000,0.000000,-1.000000
-10.331172,-27.738585,-14.449152,0.000000,-1.000000,0.000000
-11.926445,-17.014265,-8.903799,0.773010,0.000000,0.634393
22.444151,22.989565,-2.583106,0.773011,0.000000,0.634393
14.760058,-14.019832,1.824087,-0.995185,0.000000,-0.098017
14.377091,-0.207229,-3.822999,-0.956940,0.000000,0.290284
-32.580496,17.497487,21.408484,0.000000,-0.000000,1.000000
3.528842,6.089914,-21.408484,0.000000,0.000000,-1.000000
-22.349444,13.354956,2.467707,-0.773011,0.000000,-0.634393
-18.670260,-6.905625,-21.408484,0.000000,0.000000,-1.000000
-33.467278,-17.250576,-6.810367,-1.000000,0.000000,0.000000
11.165070,5.778987,9.831537,-0.773010,0.000000,-0.634393
2.146357,-6.143817,21.408484,0.000000,0.000000,1.000000
-18.028821,16.018694,-10.220099,0.896873,-0.000000,0.442289
33.467278,5.129072,-9.285006,1.000000,0.000000,-0.000000
-23.223588,6.699924,-21.408484,0.000000,0.000000,-1.000000
-22.567345,27.738585,-15.741839,-0.000000,1.000000,0.000000
-33.467278,20.575961,-9.001876,-1.000000,0.000000,0.000000
27.851219,17.654736,-21.408484,0.000000,0.000000,-1.000000
-12.692899,25.564430,-16.387510,0.659346,-0.000000,0.751840
-33.467278,18.618990,15.711364,-1.000000,0.000000,0.000000
12.126956,-5.058702,-8.659476,-0.773010,0.000000,0.634393
-14.144419,-15.724496,-4.590017,0.956940,0.000000,0.290284
18.237896,25.495124,-9.796136,-0.896873,0.000000,0.442289
10.388724,-1.681479,10.707798,-0.634393,0.000000,-0.773010
33.467278,-5.173055,-14.586789,1.000000,0.000000,-0.000000
27.325118,-24.634887,-21.408484,0.000000,0.000000,-1.000000
19.539041,8.607179,21.408484,0.000000,0.000000,1.000000
8.803495,-7.291340,-21.408484,0.000000,0.000000,-1.000000
2.223734,-1.275360,14.720697,-0.098017,-0.000000,-0.995185
-33.467278,9.173851,-3.855032,-1.000000,0.000000,0.000000
3.427697,-12.415920,-14.497005,-0.290284,0.000000,0.956940
16.205616,3.741161,21.408484,0.000000,0.000000,1.000000
-13.670738,6.933730,-5.963687,0.881921,-0.000000,0.471397
22.650273,-14.023262,21.408484,0.000000,0.000000,1.000000
20.682660,13.361812,0.786129,-0.997859,0.000000,-0.065404
1.502853,12.274364,-21.408484,0.000000,0.000000,-1.000000
27.963338,-16.144845,-3.094566,-0.634393,0.000000,0.773010
-33.181235,-12.124224,21.408484,0.000000,-0.000000,1.000000
18.258110,26.370769,9.755147,-0.896873,0.000000,-0.442289
-11.631394,11.763326,21.408484,0.000000,-0.000000,1.000000
-16.862914,-27.738585,4.884050,0.000000,-1.000000,0.000000
30.270120,3.603296,-21.408484,0.000000,0.000000,-1.000000
16.025447,8.902864,8.017343,-0.000000,1.000000,0.000000
14.418213,4.833092,21.408484,0.000000,0.000000,1.000000
-19.767505,-27.738585,2.389266,0.000000,-1.000000,-0.000000
19.873552,24.535135,5.820464,-0.946930,0.000000,-0.321439
-13.362875,8.811714,21.408484,0.000000,-0.000000,1.000000
33.467278,-17.333963,10.765245,1.000000,0.000000,-0.000000
-33.467278,0.406409,2.123692,-1.000000,0.000000,0.000000
10.630847,-17.634701,10.482490,-0.773010,0.000000,-0.634393
33.467278,18.210795,4.784491,1.000000,-0.000000,0.000000
-33.467278,2.746247,-17.424001,-1.000000,0.000000,0.000000
33.467278,24.620619,16.534580,1.000000,-0.000000,0.000000
-14.920832,23.293604,-21.408484,0.000000,0.000000,-1.000000
-32.608863,17.240287,-21.408484,0.000000,0.000000,-1.000000
-11.889614,14.393741,-21.408484,0.000000,0.000000,-1.000000
17.883442,17.183570,-10.476180,-0.831470,0.000000,0.555570
5.482211,8.902864,-16.702143,0.000000,1.000000,-0.000000
20.175569,18.278643,4.622938,-0.980785,0.000000,-0.195090
-30.361912,12.989696,-21.408484,0.000000,0.000000,-1.000000
-24.401589,27.322183,21.408484,0.000000,-0.000000,1.000000
33.069675,13.746265,21.408484,0.000000,0.000000,1.000000
2.794600,-11.343526,21.408484,0.000000,0.000000,1.000000
23.210729,-3.504467,21.408484,0.000000,0.000000,1.000000
-32.994821,-10.071695,21.408484,0.000000,-0.000000,1.000000
-21.036478,25.393951,21.408484,0.000000,-0.000000,1.000000
14.380858,7.492887,-21.408484,0.000000,0.000000,-1.000000
30.537354,25.637932,-21.408484,0.000000,0.000000,-1.000000
-25.255833,21.238134,-21.408484,0.000000,0.000000,-1.000000
18.858146,24.942899,-21.408484,0.000000,0.000000,-1.000000
-32.461031,24.387585,21.408484,0.000000,-0.000000,1.000000
12.177617,-17.477107,8.597745,-0.773010,0.000000,-0.634393
-30.455808,21.304590,-21.408484,0.000000,0.000000,-1.000000
-19.655417,-20.417162,21.408484,0.000000,0.000000,1.000000
5.516653,6.810520,-13.863327,-0.290284,0.000000,0.956940
-10.357218,-2.873583,-10.733655,0.634393,0.000000,0.773010
-33.467278,-23.661785,-7.428087,-1.000000,0.000000,0.000000
-5.312644,9.669674,-20.038378,0.195090,0.000000,0.980785
2.194956,-27.738585,19.121754,0.000000,-1.000000,0.000000
-6.905849,7.221814,21.408484,0.000000,-0.000000,1.000000
-22.197621,8.447111,21.408484,0.000000,-0.000000,1.000000
-1.110515,8.902864,-15.257404,-0.000000,1.000000,-0.000000
33.467278,11.459614,-6.503385,1.000000,-0.000000,0.000000
-15.382106,14.407304,13.839342,0.751840,0.000000,-0.659346
27.675858,4.233867,21.408484,0.000000,0.000000,1.000000
-17.945756,-5.244453,-21.408484,0.000000,0.000000,-1.000000
-26.263538,-27.738585,-20.136248,0.000000,-1.000000,0.000000
22.959065,-13.354597,-21.408484,0.000000,0.000000,-1.000000
0.454098,11.540946,21.408484,0.000000,-0.000000,1.000000
21.310507,7.064434,-21.408484,0.000000,0.000000,-1.000000
2.734099,0.040086,21.408484,0.000000,0.000000,1.000000
-25.234095,-27.738585,-7.816567,-0.000000,-1.000000,0.000000
-33.467278,-12.986168,-1.811693,-1.000000,0.000000,0.000000
33.467278,9.416004,-7.950925,1.000000,0.000000,-0.000000
-11.588353,21.933352,-17.140311,0.555570,0.000000,0.831470
-33.467278,27.243306,-6.719821,-1.000000,0.000000,0.000000
-15.317319,-27.738585,-10.920147,0.000000,-1.000000,0.000000
33.467278,-20.912379,9.771443,1.000000,0.000000,-0.000000
19.789041,-22.502417,21.408484,0.000000,0.000000,1.000000
-18.617436,18.882442,9.026505,0.896873,0.000000,-0.442289
-2.425906,22.394612,21.408484,0.000000,-0.000000,1.000000
-9.857240,-27.738585,-20.428938,0.000000,-1.000000,0.000000
-0.953280,-0.161919,-14.845825,0.098017,-0.000000,0.995185
-33.467278,-22.692685,4.910940,-1.000000,0.000000,0.000000
33.467278,-2.938723,-11.170372,1.000000,0.000000,-0.000000
-13.969842,-18.942108,-5.165521,0.956940,-0.000000,0.290284
31.770308,15.459344,-21.408484,0.000000,0.000000,-1.000000
-12.556240,-13.332880,8.048766,0.881921,0.000000,-0.471397
-7.266177,2.093492,-21.408484,0.000000,0.000000,-1.000000
-24.610125,27.530541,-21.408484,0.000000,0.000000,-1.000000
-27.723907,24.440057,-3.291061,0.634393,0.000000,0.773010
6.506404,-5.461035,21.408484,0.000000,0.000000,1.000000
-33.467278,-21.414064,8.456213,-1.000000,0.000000,0.000000
-15.585888,-3.269435,-21.408484,0.000000,0.000000,-1.000000
-11.254403,5.906996,9.722685,0.773010,0.000000,-0.634393
-0.256146,-7.452860,-21.408484,0.000000,0.000000,-1.000000
24.607494,19.028576,-3.893694,0.290285,-0.000000,0.956940
-2.121918,0.883097,-14.730725,0.098017,-0.000000,0.995185
-2.080217,18.601263,-20.597840,0.065404,0.000000,0.997859
5.566469,-4.259708,21.408484,0.000000,0.000000,1.000000
-5.070941,-16.081167,21.408484,0.000000,0.000000,1.000000
33.467278,17.693646,18.126806,1.000000,-0.000000,0.000000
22.641947,-24.828771,21.408484,0.000000,0.000000,1.000000
33.467278,-6.606639,4.107436,1.000000,0.000000,-0.000000
-33.467278,17.044303,-9.817886,-1.000000,0.000000,0.000000
23.750794,-27.738585,8.190750,0.000000,-1.000000,0.000000
-16.828824,14.333472,-12.054527,0.831470,-0.000000,0.555570
-15.288698,-5.055744,21.408484,0.000000,-0.000000,1.000000
-23.167950,-20.514488,21.408484,0.000000,0.000000,1.000000
-11.692121,18.325791,-21.408484,0.000000,0.000000,-1.000000
-33.467278,-16.848053,11.766107,-1.000000,0.000000,0.000000
23.548504,26.618321,-21.408484,0.000000,0.000000,-1.000000
-24.659263,-26.116358,3.909398,-0.290285,0.000000,-0.956940
-29.932661,27.738585,3.107138,-0.000000,1.000000,-0.000000
14.362911,-11.840464,3.869744,-0.956940,0.000000,-0.290284
-7.064175,-14.383165,21.408484,0.000000,0.000000,1.000000
27.180307,27.738585,-15.425302,0.000000,1.000000,-0.000000
-33.467278,4.024378,-11.263466,-1.000000,0.000000,0.000000
-33.467278,15.170370,17.622956,-1.000000,0.000000,0.000000
-1.548424,11.374720,21.408484,0.000000,-0.000000,1.000000
22.611895,1.148813,-21.408484,0.000000,0.000000,-1.000000
28.495337,8.840283,21.408484,0.000000,0.000000,1.000000
-2.337707,2.881609,21.408484,0.000000,-0.000000,1.000000
-12.614630,11.767075,-16.454575,0.555570,0.000000,0.831470
-1.862496,15.581718,-21.408484,0.000000,0.000000,-1.000000
-33.467278,-4.190397,16.727830,-1.000000,0.000000,0.000000
23.691358,-27.738585,-20.280579,0.000000,-1.000000,0.000000
-9.341938,20.812434,-18.461882,0.442289,0.000000,0.896873
22.886078,-13.868215,21.408484,0.000000,0.000000,1.000000
-28.631790,-27.738585,-11.819904,-0.000000,-1.000000,0.000000
-33.467278,6.935487,-9.460089,-1.000000,0.000000,0.000000
-32.995363,9.009702,-21.408484,0.000000,0.000000,-1.000000
-13.776850,6.206612,5.765166,0.881921,0.000000,-0.471397
-33.427490,10.244838,-21.408484,0.000000,0.000000,-1.000000
22.324898,27.738585,15.605225,-0.000000,1.000000,0.000000
14.730406,-27.528272,2.125150,-0.995185,-0.000000,-0.098017
-33.467278,5.201216,-10.745369,-1.000000,0.000000,0.000000
-21.640570,10.303614,-1.080610,-0.956943,0.000000,0.290276
14.827858,-26.432939,1.135704,-0.995185,-0.000000,-0.098017
21.212994,27.065218,-21.408484,0.000000,0.000000,-1.000000
-27.372908,23.736061,-21.408484,0.000000,0.000000,-1.000000
-19.522816,9.146220,-6.853699,0.946930,-0.000000,0.321439
-26.189747,-27.738585,10.729755,0.000000,-1.000000,0.000000
-33.467278,3.112682,-0.891533,-1.000000,0.000000,0.000000
31.696537,12.242361,21.408484,0.000000,0.000000,1.000000
-33.170335,-27.738585,11.798217,0.000000,-1.000000,0.000000
-29.469359,27.738585,20.848408,0.000000,1.000000,0.000000
-0.873655,5.714794,-21.408484,0.000000,0.000000,-1.000000
-12.830950,-14.863825,7.534819,0.881921,0.000000,-0.471397
-27.207198,-19.054578,-3.577896,0.471397,-0.000000,0.881921
17.016221,-6.365876,21.408484,0.000000,0.000000,1.000000
-33.467278,10.577293,-1.260834,-1.000000,0.000000,0.000000
-23.317082,27.738585,11.420559,-0.000000,1.000000,-0.000000
-33.467278,19.881260,-10.699802,-1.000000,0.000000,0.000000
-19.660511,-9.667684,21.408484,0.000000,-0.000000,1.000000
25.291243,-27.738585,-5.233479,0.000000,-1.000000,0.000000
3.652855,-19.953307,-21.408484,0.000000,0.000000,-1.000000
-29.002661,-17.473493,1.819454,0.881921,-0.000000,-0.471397
13.465841,17.394134,21.408484,0.000000,-0.000000,1.000000
-33.467278,-25.326066,-14.717960,-1.000000,0.000000,0.000000
-33.467278,-14.107679,15.623666,-1.000000,0.000000,0.000000
-2.210687,-25.447271,-21.408484,0.000000,0.000000,-1.000000
33.161212,-27.738585,-5.220649,-0.000000,-1.000000,0.000000
-13.606974,-27.738585,-11.118501,0.000000,-1.000000,0.000000
-15.806544,10.422897,13.355364,0.751840,0.000000,-0.659346
1.082104,25.113133,20.663261,-0.065404,0.000000,-0.997859
9.002562,-23.716961,-11.845392,-0.634393,0.000000,0.773010
-32.853897,27.738585,4.113993,-0.000000,1.000000,0.000000
12.967796,-27.609483,7.278798,-0.881921,-0.000000,-0.471397
-33.467278,-15.889341,1.688978,-1.000000,0.000000,0.000000
-33.467278,19.567141,0.024534,-1.000000,0.000000,0.000000
-11.271083,-8.259700,21.408484,0.000000,-0.000000,1.000000
33.337419,4.431291,21.408484,0.000000,0.000000,1.000000
33.467278,25.678645,7.817257,1.000000,-0.000000,0.000000
-33.467278,27.647204,-5.264123,-1.000000,0.000000,0.000000
-33.467278,21.314795,-0.574167,-1.000000,0.000000,0.000000
25.034284,27.738585,-14.960273,0.000000,1.000000,-0.000000
10.860694,11.005523,-21.408484,0.000000,0.000000,-1.000000
27.333663,-16.649169,-3.510299,-0.471397,0.000000,0.881921
10.350538,10.926868,17.964495,-0.442289,0.000000,-0.896873
23.908448,23.866806,3.674690,0.471396,0.000000,-0.881921
-20.704773,21.647707,-0.448757,0.997859,0.000000,0.065404
22.421390,14.100991,21.408484,0.000000,0.000000,1.000000
-33.467278,18.499068,4.669063,-1.000000,0.000000,0.000000
-1.722843,-23.531883,-21.408484,0.000000,0.000000,-1.000000
-29.258887,-27.738585,4.848740,0.000000,-1.000000,0.000000
7.246999,-27.738585,17.658216,0.000000,-1.000000,0.000000
8.460983,14.383047,-21.408484,0.000000,0.000000,-1.000000
-14.553203,-18.022429,-3.242435,0.956940,0.000000,0.290284
-11.238408,8.902864,15.370609,-0.000000,1.000000,0.000000
-15.998606,11.128502,-13.136359,0.751840,-0.000000,0.659346
33.467278,-22.687191,9.930847,1.000000,0.000000,-0.000000
-33.467278,-1.199552,7.392741,-1.000000,0.000000,0.000000
32.695690,-27.738585,2.211333,-0.000000,-1.000000,0.000000
-27.635498,-27.738585,20.224868,0.000000,-1.000000,0.000000
-27.027107,-16.421412,-3.674157,0.471398,0.000000,0.881921
-12.074220,-22.846203,21.408484,0.000000,0.000000,1.000000
31.923913,-27.738585,3.579661,-0.000000,-1.000000,0.000000
33.467278,-5.650141,-11.131738,1.000000,0.000000,-0.000000
-8.972659,7.947232,11.869933,0.634393,0.000000,-0.773010
11.895208,-21.541960,-21.408484,0.000000,0.000000,-1.000000
-33.467278,4.338854,17.280744,-1.000000,0.000000,0.000000
17.563737,-27.738585,-9.939619,0.000000,-1.000000,0.000000
-1.776568,22.144594,20.617743,0.065404,0.000000,-0.997859
33.467278,27.036535,-3.258983,1.000000,-0.000000,0.000000
33.467278,-9.624131,-14.195408,1.000000,0.000000,-0.000000
33.467278,16.235617,6.263665,1.000000,-0.000000,0.000000
25.253087,27.738585,-6.004576,-0.000000,1.000000,-0.000000
-19.422519,15.593279,-7.149163,0.946930,-0.000000,0.321439
-33.467278,-2.918319,13.027075,-1.000000,0.000000,0.000000
14.866305,-24.444126,0.745345,-0.995185,-0.000000,-0.098017
-33.263586,25.082945,21.408484,0.000000,-0.000000,1.000000
-13.917992,18.435209,-15.313133,0.659346,0.000000,0.751840
0.979333,-12.167931,-14.843259,-0.098017,0.000000,0.995185
-11.455697,-4.575016,9.477407,0.773010,0.000000,-0.634393
17.573710,5.874841,-21.408484,0.000000,0.000000,-1.000000
-31.375230,19.080942,21.408484,0.000000,-0.000000,1.000000
-33.467278,-19.766134,2.074939,-1.000000,0.000000,0.000000
-14.868844,8.902864,-5.353785,-0.000000,1.000000,0.000000
12.633809,-13.673145,7.903644,-0.881921,0.000000,-0.471397
-19.039889,-3.575397,-21.408484,0.000000,0.000000,-1.000000
-24.721500,11.432320,-3.921399,-0.098017,0.000000,0.995185
1.114382,17.567034,20.661145,-0.065404,0.000000,-0.997859
20.924253,-11.753014,-21.408484,0.000000,0.000000,-1.000000
10.556958,13.724768,17.829468,-0.555570,0.000000,-0.831470
-22.834818,1.463013,-21.408484,0.000000,0.000000,-1.000000
32.841219,27.738585,20.812832,0.000000,1.000000,-0.000000
-12.174391,-16.318661,8.601676,0.773010,0.000000,-0.634393
-28.066660,15.326456,-3.009771,0.634393,0.000000,0.773010
-3.518392,13.639385,-20.395277,0.195090,-0.000000,0.980785
-24.869438,-27.738585,18.717211,0.000000,-1.000000,0.000000
5.538967,20.898926,-19.969107,-0.321439,0.000000,0.946930
22.065199,-3.953181,2.068850,0.881920,0.000000,-0.471399
-30.430684,22.032545,-21.408484,0.000000,0.000000,-1.000000
-33.467278,2.923160,18.969723,-1.000000,0.000000,0.000000
-18.406298,24.734736,-9.454652,0.896873,0.000000,0.442289
8.015417,12.590269,19.116049,-0.442289,0.000000,-0.896873
2.933808,10.563974,-20.511558,-0.195090,0.000000,0.980785
-14.341622,-5.115621,3.939927,0.956940,0.000000,-0.290284
2.915941,3.108464,-14.652244,-0.290284,0.000000,0.956940
33.467278,-9.238307,3.499456,1.000000,0.000000,-0.000000
32.257924,-27.267384,-21.408484,0.000000,0.000000,-1.000000
27.934264,-11.516650,3.118426,-0.634393,0.000000,-0.773010
26.679747,-0.081964,3.786708,-0.290284,0.000000,-0.956940
-30.262994,27.738585,8.481833,0.000000,1.000000,0.000000
-21.152537,18.624371,-21.408484,0.000000,0.000000,-1.000000
1.763522,13.112359,-21.408484,0.000000,0.000000,-1.000000
-30.117257,27.738585,-12.023182,-0.000000,1.000000,0.000000
19.395843,-27.738585,4.220056,-0.000000,-1.000000,0.000000
-33.467278,-4.234403,-11.656860,-1.000000,0.000000,0.000000
27.298983,27.738585,17.335576,-0.000000,1.000000,0.000000
33.467278,10.333227,7.618906,1.000000,-0.000000,0.000000
-33.467278,-12.436686,0.952562,-1.000000,0.000000,0.000000
33.467278,-11.715196,7.589258,1.000000,0.000000,-0.000000
-31.269129,-18.532492,-21.408484,0.000000,0.000000,-1.000000
31.295230,0.101427,21.408484,0.000000,0.000000,1.000000
-22.360694,-14.494737,-2.481414,-0.773011,0.000000,0.634393
10.873175,-8.267739,-10.187212,-0.773010,0.000000,0.634393
2.264811,8.902864,-17.700659,0.000000,1.000000,-0.000000
-6.230448,-14.119143,21.408484,0.000000,0.000000,1.000000
-14.635894,-27.738585,-10.406275,0.000000,-1.000000,0.000000
16.757553,12.979472,-21.408484,0.000000,0.000000,-1.000000
-5.582079,-10.904594,-13.843481,0.290284,0.000000,0.956940
21.732525,-24.352350,21.408484,0.000000,0.000000,1.000000
17.022254,-6.441440,-21.408484,0.000000,0.000000,-1.000000
11.461979,-4.561897,9.469753,-0.773010,0.000000,-0.634393
29.401225,-11.705406,0.618378,-0.995185,0.000000,-0.098017
16.048186,25.710544,-21.408484,0.000000,0.000000,-1.000000
-12.659267,-24.607913,-7.856015,0.881921,0.000000,0.471397
-13.702679,12.721008,-15.501956,0.659346,-0.000000,0.751840
-21.604323,-3.405751,-0.961116,-0.956940,0.000000,0.290285
-23.072338,14.814784,-3.177551,-0.634393,0.000000,0.773010
16.652169,24.407822,21.408484,0.000000,-0.000000,1.000000
33.467278,18.661287,18.725856,1.000000,-0.000000,0.000000
15.859848,1.030772,21.408484,0.000000,0.000000,1.000000
-5.881930,-3.440382,-21.408484,0.000000,0.000000,-1.000000
-11.063425,-19.741153,-21.408484,0.000000,0.000000,-1.000000
-17.463210,9.378999,-11.105101,0.831470,-0.000000,0.555570
-5.128172,10.253526,-20.075072,0.195090,-0.000000,0.980785
11.047132,-27.738585,15.679530,0.000000,-1.000000,0.000000
0.214839,23.855670,21.408484,0.000000,-0.000000,1.000000
-33.467278,-27.518567,-7.746780,-1.000000,0.000000,0.000000
-9.289054,-12.864464,21.408484,0.000000,0.000000,1.000000
6.180599,-27.738585,19.772387,0.000000,-1.000000,0.000000
-33.467278,-13.770496,-16.004708,-1.000000,0.000000,0.000000
2.164759,-25.680146,-21.408484,0.000000,0.000000,-1.000000
-14.640139,-1.494603,2.955847,0.956940,0.000000,-0.290284
-29.309380,27.738585,9.751522,0.000000,1.000000,0.000000
11.614921,11.169002,-21.408484,0.000000,0.000000,-1.000000
3.074321,-27.738585,19.883688,0.000000,-1.000000,0.000000
-33.467278,11.915181,-9.414588,-1.000000,0.000000,0.000000
16.201995,8.902864,-10.384903,-0.000000,1.000000,-0.000000
7.990589,-15.771225,12.587336,-0.471397,0.000000,-0.881921
-27.231948,27.738585,19.042205,0.000000,1.000000,0.000000
14.558300,-27.738585,15.612227,-0.000000,-1.000000,0.000000
4.631662,7.859878,14.131786,-0.290284,0.000000,-0.956940
8.318259,-4.245096,-21.408484,0.000000,0.000000,-1.000000
1.808425,-11.740227,21.408484,0.000000,0.000000,1.000000
-15.118993,27.738585,14.851001,0.000000,1.000000,0.000000
-23.617997,4.451223,-3.519441,-0.471396,-0.000000,0.881922
-20.788715,17.139629,-21.408484,0.000000,0.000000,-1.000000
-24.979894,16.504658,21.408484,0.000000,-0.000000,1.000000
-24.321443,5.403969,21.408484,0.000000,-0.000000,1.000000
-19.232262,20.670834,7.709643,0.946930,0.000000,-0.321439
26.647787,-27.738585,-19.724982,0.000000,-1.000000,0.000000
-17.282302,-11.889840,-21.408484,0.000000,0.000000,-1.000000
23.709921,-27.738585,20.173922,0.000000,-1.000000,0.000000
33.467278,22.384804,13.394341,1.000000,-0.000000,0.000000
-21.168538,27.738585,17.963898,0.000000,1.000000,0.000000
13.695639,-7.878866,-5.917101,-0.881921,0.000000,0.471397
20.648094,14.522643,-1.313500,-0.997859,0.000000,0.065404
-33.467278,9.032412,16.205810,-1.000000,0.000000,0.000000
-2.665259,-10.475422,-21.408484,0.000000,0.000000,-1.000000
5.682844,0.342951,13.812914,-0.290284,-0.000000,-0.956940
-2.025878,27.738585,20.703165,0.000000,1.000000,0.000000
26.764180,-7.904716,-3.761096,-0.290285,0.000000,0.956940
15.406564,-27.738585,-21.014802,0.000000,-1.000000,0.000000
8.008885,9.885643,19.119271,-0.442289,0.000000,-0.896873
-18.852924,3.008364,-21.408484,0.000000,0.000000,-1.000000
-27.287339,-15.410928,-21.408484,0.000000,0.000000,-1.000000
1.932194,-23.923345,14.749411,-0.098017,-0.000000,-0.995185
-33.467278,15.963326,-14.044145,-1.000000,0.000000,0.000000
-8.218492,6.459106,-21.408484,0.000000,0.000000,-1.000000
14.778224,-26.326026,1.639648,-0.995185,-0.000000,-0.098017
13.907329,8.674487,5.371601,-0.956940,0.000000,-0.290284
-33.467278,-17.565553,-3.547393,-1.000000,0.000000,0.000000
-20.505395,27.738585,-9.352612,-0.000000,1.000000,0.000000
10.293922,21.507652,-17.992415,-0.442289,0.000000,0.896873
-6.030442,-27.738585,-19.338283,0.000000,-1.000000,0.000000
-24.169273,-23.603350,3.760761,-0.290284,0.000000,-0.956941
-14.475738,24.975762,-14.824002,0.659346,0.000000,0.751840
5.800937,27.000585,-19.880180,-0.321439,0.000000,0.946930
33.467278,12.465381,-0.676036,1.000000,-0.000000,0.000000
-29.112447,15.331301,21.408484,0.000000,-0.000000,1.000000
6.358603,4.197845,21.408484,0.000000,0.000000,1.000000
-8.829308,8.895009,11.987578,0.634393,0.000000,-0.773010
-33.467278,-11.468892,-2.524511,-1.000000,0.000000,0.000000
-23.099187,23.569521,21.408484,0.000000,-0.000000,1.000000
5.192531,22.986823,20.062270,-0.195090,0.000000,-0.980785
2.054794,8.902864,-17.682239,0.000000,1.000000,-0.000000
-9.680980,23.169806,-21.408484,0.000000,0.000000,-1.000000
33.467278,-6.985719,9.920775,1.000000,-0.000000,0.000000
-29.414862,-12.762282,-0.479925,0.995185,-0.000000,0.098018
-24.747751,-11.078723,21.408484,0.000000,-0.000000,1.000000
-10.564373,1.304359,-10.563489,0.773010,-0.000000,0.634393
-33.467278,-23.489062,-6.316924,-1.000000,0.000000,0.000000
13.206182,4.886150,21.408484,0.000000,0.000000,1.000000
19.886826,9.762630,5.781359,-0.946930,0.000000,-0.321439
6.185011,0.446808,13.552438,-0.471397,0.000000,-0.881921
-1.949671,-27.738585,-21.061389,0.000000,-1.000000,0.000000
31.869527,27.738585,11.274073,0.000000,1.000000,-0.000000
-25.821846,-27.355880,3.959929,0.098017,0.000000,-0.995185
1.767673,8.902864,-15.202717,0.000000,1.000000,-0.000000
23.634540,-16.644948,21.408484,0.000000,0.000000,1.000000
18.414957,14.562774,9.437091,-0.896873,0.000000,-0.442289
-16.909933,8.902864,4.161737,-0.000000,1.000000,0.000000
12.860140,-6.365810,-21.408484,0.000000,0.000000,-1.000000
14.952098,11.457765,14.329673,-0.751840,0.000000,-0.659346
-28.451642,27.105115,-2.630341,0.773011,0.000000,0.634393
-0.899894,6.862474,-14.851084,0.098017,-0.000000,0.995185
-21.548394,-0.314142,0.771309,-0.995185,0.000000,-0.098017
-33.467278,17.057161,8.111479,-1.000000,0.000000,0.000000
-33.467278,27.637525,10.398220,-1.000000,0.000000,0.000000
19.681969,15.138139,-6.384849,-0.946930,0.000000,0.321439
14.729184,8.902864,13.146522,-0.000000,1.000000,0.000000
-13.121496,-13.250807,-6.991247,0.881921,0.000000,0.471397
10.827964,5.835109,-10.242302,-0.773010,0.000000,0.634393
-33.467278,15.525720,-7.729347,-1.000000,0.000000,0.000000
17.028324,-14.853607,-21.408484,0.000000,0.000000,-1.000000
-8.067524,12.022521,19.090353,0.442289,0.000000,-0.896873
-13.242092,-11.279816,6.765627,0.881921,0.000000,-0.471397
27.414161,-26.671349,3.467272,-0.471396,0.000000,-0.881921
13.775015,-26.884812,5.768599,-0.881921,-0.000000,-0.471397
6.182937,21.342753,19.750509,-0.321439,0.000000,-0.946930
-28.051698,-9.608036,3.022051,0.634393,0.000000,-0.773010
-28.665213,21.965382,21.408484,0.000000,-0.000000,1.000000
-9.806147,-27.738585,-12.943101,0.000000,-1.000000,0.000000
28.322505,10.228280,-2.787694,-0.773011,0.000000,0.634393
29.293534,-5.834594,-1.082098,-0.956940,0.000000,0.290286
-33.467278,-21.841288,-8.804031,-1.000000,0.000000,0.000000
-33.467278,4.610824,16.452924,-1.000000,0.000000,0.000000
22.192449,-27.738585,-21.020417,0.000000,-1.000000,0.000000
-12.674880,-27.738585,9.887707,0.000000,-1.000000,0.000000
4.444233,5.443687,21.408484,0.000000,-0.000000,1.000000
-21.831813,-3.142057,-1.632217,-0.881920,0.000000,0.471398
-30.106124,-27.738585,-1.055990,0.000000,-1.000000,0.000000
33.467278,8.507682,16.386315,1.000000,-0.000000,0.000000
-0.021226,10.791631,20.732795,0.065404,0.000000,-0.997859
13.894439,23.579980,-15.333787,-0.659346,0.000000,0.751840
9.914459,1.804906,11.097018,-0.634393,0.000000,-0.773010
24.510423,-16.181813,21.408484,0.000000,0.000000,1.000000
-3.519177,5.246252,-21.408484,0.000000,0.000000,-1.000000
33.467278,-26.780002,-14.989964,1.000000,0.000000,-0.000000
2.302621,17.900832,-20.583263,-0.065404,0.000000,0.997859
2.175546,24.286020,-20.591592,-0.065404,0.000000,0.997859
33.467278,-0.235862,17.376518,1.000000,-0.000000,0.000000
-23.724277,-3.097080,-3.576249,-0.471396,0.000000,0.881921
-0.587974,-5.365812,21.408484,0.000000,0.000000,1.000000
30.949286,-4.241836,-21.408484,0.000000,0.000000,-1.000000
21.522808,0.768674,-21.408484,0.000000,0.000000,-1.000000
-11.635717,27.738585,-21.065950,-0.000000,1.000000,0.000000
-14.264760,-5.690279,-4.193305,0.956940,-0.000000,0.290284
28.426788,18.189419,2.660626,-0.773011,-0.000000,-0.634392
6.267520,15.281815,-19.721797,-0.321439,0.000000,0.946930
6.676713,8.902864,19.531214,-0.000000,1.000000,-0.000000
-0.371654,-27.738585,-20.744110,0.000000,-1.000000,0.000000
33.467278,-4.110041,20.960276,1.000000,-0.000000,0.000000
-24.396553,-19.233482,21.408484,0.000000,-0.000000,1.000000
29.416519,-19.970688,-0.463100,-0.995185,0.000000,0.098016
-11.688372,-7.991411,9.193892,0.773010,0.000000,-0.634393
-13.766307,12.532585,-15.446156,0.659346,-0.000000,0.751840
-24.926462,27.738585,-6.028616,0.000000,1.000000,0.000000
33.467278,-0.278017,6.531512,1.000000,-0.000000,0.000000
-22.661452,12.861586,-2.840346,-0.634393,0.000000,0.773010
11.875464,0.140483,21.408484,0.000000,0.000000,1.000000
12.803402,27.465861,16.290601,-0.659346,0.000000,-0.751840
33.467278,-18.106159,-15.321883,1.000000,0.000000,-0.000000
-33.467278,25.381163,5.253276,-1.000000,0.000000,0.000000
-29.550028,20.764364,21.408484,0.000000,-0.000000,1.000000
-18.900139,-0.634763,-21.408484,0.000000,0.000000,-1.000000
-4.438535,-27.738585,15.953939,0.000000,-1.000000,0.000000
9.643287,13.992529,21.408484,0.000000,-0.000000,1.000000
-22.816967,27.738585,10.238799,-0.000000,1.000000,-0.000000
-33.467278,6.352818,7.007384,-1.000000,0.000000,0.000000
-0.252260,7.096643,-21.408484,0.000000,0.000000,-1.000000
-30.067388,-16.430034,21.408484,0.000000,-0.000000,1.000000
-25.948436,-19.846823,-21.408484,0.000000,0.000000,-1.000000
13.530869,25.157811,-15.652630,-0.659346,0.000000,0.751840
-17.587385,22.328942,10.919260,0.831470,0.000000,-0.555570
-6.962357,-11.543442,13.136938,0.471397,0.000000,-0.881921
-33.467278,3.571348,12.988299,-1.000000,0.000000,0.000000
-26.885609,27.738585,8.716939,0.000000,1.000000,0.000000
6.477085,-15.199038,-13.396321,-0.471397,0.000000,0.881921
13.106715,-27.738585,-7.427544,0.000000,-1.000000,0.000000
-16.775212,20.752818,21.408484,0.000000,-0.000000,1.000000
29.277662,-10.009562,-1.134420,-0.956940,0.000000,0.290286
33.467278,6.319434,-13.417779,1.000000,0.000000,-0.000000
33.467278,-25.537400,13.052680,1.000000,0.000000,-0.000000
-33.467278,-16.023926,-17.315719,-1.000000,0.000000,0.000000
9.714954,-23.147071,-11.260747,-0.634393,0.000000,0.773010
10.433926,17.415230,17.911675,-0.555570,0.000000,-0.831470
29.067074,11.818340,-21.408484,0.000000,0.000000,-1.000000
-2.604352,27.273556,-21.408484,0.000000,0.000000,-1.000000
-23.933561,1.637449,-21.408484,0.000000,0.000000,-1.000000
12.521901,-24.256248,8.113010,-0.881921,0.000000,-0.471397
33.467278,0.740792,-14.749322,1.000000,0.000000,-0.000000
0.562125,3.370988,-14.884351,-0.098017,0.000000,0.995185
7.626395,-15.627011,-12.782002,-0.471397,0.000000,0.881921
26.396477,-11.773495,3.872637,-0.290285,0.000000,-0.956940
21.509558,13.521995,0.376997,0.995185,0.000000,-0.098016
20.560926,23.099317,2.643412,-0.997859,0.000000,-0.065404
24.379413,19.219189,-21.408484,0.000000,0.000000,-1.000000
-0.572751,-7.376665,-14.883304,0.098017,-0.000000,0.995185
22.276799,-15.354310,-2.379188,0.773011,-0.000000,0.634393
33.164911,12.928044,-21.408484,0.000000,0.000000,-1.000000
-0.396428,22.687903,21.408484,0.000000,-0.000000,1.000000
31.503397,-23.040446,-21.408484,0.000000,0.000000,-1.000000
11.516268,-13.779656,-9.403601,-0.773010,0.000000,0.634393
-33.467278,-15.011086,10.741670,-1.000000,0.000000,0.000000
29.324436,-27.738585,20.989220,0.000000,-1.000000,0.000000
5.206963,6.466887,21.408484,0.000000,-0.000000,1.000000
33.467278,25.232682,3.610890,1.000000,-0.000000,0.000000
-6.449727,0.189210,13.410944,0.471397,0.000000,-0.881921
-33.076859,5.638745,21.408484,0.000000,-0.000000,1.000000
-18.106840,-11.279160,-21.408484,0.000000,0.000000,-1.000000
-31.321795,27.738585,11.489473,0.000000,1.000000,0.000000
-3.171678,19.166135,-21.408484,0.000000,0.000000,-1.000000
-0.159675,-24.211759,21.408484,0.000000,0.000000,1.000000
-16.128490,8.902864,-4.809427,-0.000000,1.000000,0.000000
7.744880,1.634547,21.408484,0.000000,0.000000,1.000000
-14.307631,11.180241,-14.971429,0.659346,-0.000000,0.751840
-6.062708,9.723878,-21.408484,0.000000,0.000000,-1.000000
3.513497,8.902864,-17.021978,-0.000000,1.000000,0.000000
5.042229,-14.892363,-21.408484,0.000000,0.000000,-1.000000
-20.403652,27.738585,-14.570862,-0.000000,1.000000,0.000000
19.958257,26.137433,5.570931,-0.946930,0.000000,-0.321439
4.997092,10.277831,21.408484,0.000000,-0.000000,1.000000
5.389989,7.458356,13.901751,-0.290284,0.000000,-0.956940
-13.023055,-4.805948,-21.408484,0.000000,0.000000,-1.000000
-21.544815,24.212469,0.734972,-0.995185,-0.000000,-0.098011
2.163696,-12.319817,14.726610,-0.098017,-0.000000,-0.995185
-16.619676,2.151745,-21.408484,0.000000,0.000000,-1.000000
11.498405,-4.101558,-9.425367,-0.773010,0.000000,0.634393
-29.220408,-24.802514,1.323161,0.956940,0.000000,-0.290285
-21.976195,-18.993152,-21.408484,0.000000,0.000000,-1.000000
-7.180597,10.075458,-21.408484,0.000000,0.000000,-1.000000
3.023951,-4.931984,14.619480,-0.290284,0.000000,-0.956940
33.467278,-26.264461,-16.223613,1.000000,0.000000,-0.000000
-0.464854,18.448594,-20.703718,0.065404,-0.000000,0.997859
33.467278,-12.227152,-18.288831,1.000000,0.000000,-0.000000
-6.159614,18.007216,-21.408484,0.000000,0.000000,-1.000000
9.432868,-23.461101,11.492249,-0.634393,0.000000,-0.773010
20.495713,8.923636,3.013463,-0.980785,0.000000,-0.195090
21.480319,-12.992025,-0.080123,0.995185,0.000000,0.098014
-0.089634,8.966245,-21.408484,0.000000,0.000000,-1.000000
-5.091200,16.211285,-20.082426,0.195090,0.000000,0.980785
33.467278,-1.033362,-17.117012,1.000000,0.000000,-0.000000
33.467278,-9.492913,19.156957,1.000000,-0.000000,0.000000
-33.467278,15.361752,-16.790079,-1.000000,0.000000,0.000000
-13.174420,24.458209,15.965227,0.659346,0.000000,-0.751840
-18.172998,23.041728,-21.408484,0.000000,0.000000,-1.000000
-8.304242,-9.079751,21.408484,0.000000,0.000000,1.000000
13.014601,-5.539224,7.191232,-0.881921,0.000000,-0.471397
20.166826,26.178614,-4.666894,-0.980785,0.000000,0.195090
17.280111,8.902864,-4.681655,-0.000000,1.000000,0.000000
-26.100161,-7.816500,3.932518,0.098017,0.000000,-0.995185
-18.999857,4.355660,-21.408484,0.000000,0.000000,-1.000000
22.381290,16.910486,-2.506510,0.773011,0.000000,0.634393
27.679129,16.680499,3.325643,-0.471396,0.000000,-0.881921
-33.467278,26.870804,-13.386066,-1.000000,0.000000,0.000000
19.376503,-27.738585,-11.958220,0.000000,-1.000000,0.000000
-5.998237,9.611982,21.408484,0.000000,-0.000000,1.000000
-1.517852,-4.207662,-21.408484,0.000000,0.000000,-1.000000
-13.569371,16.619036,-21.408484,0.000000,0.000000,-1.000000
26.743256,14.754919,-3.767443,-0.290285,0.000000,0.956940
