x,y,z,nx,ny,nz
-0.442166,-0.006663,-0.283729,-0.269708,0.000000,-0.962942
-0.349941,-0.035340,0.230982,0.000000,-1.000000,0.000000
-0.015115,0.035340,0.125362,0.000000,1.000000,0.000000
0.549277,0.035340,-0.259934,0.000000,1.000000,0.000000
-0.297700,-0.035340,0.194015,0.000000,-1.000000,0.000000
-0.260973,-0.035340,0.237114,0.000000,-1.000000,0.000000
0.047610,-0.035340,-0.323202,0.000000,-1.000000,0.000000
0.312165,0.035340,-0.066203,0.000000,1.000000,0.000000
-0.227119,0.035340,-0.328170,0.000000,1.000000,0.000000
-0.486879,0.002426,-0.233557,-0.987518,0.000000,-0.157505
0.183260,-0.026661,0.085255,-0.993119,0.000000,-0.117108
-0.549950,0.031542,-0.108623,-1.000000,0.000000,0.000000
0.264130,-0.012287,0.151871,0.305143,0.000000,0.952307
0.337299,-0.019867,-0.336997,0.000000,0.000000,-1.000000
-0.434733,0.000093,-0.285328,-0.150388,0.000000,-0.988627
0.426383,-0.035340,0.252859,0.000000,-1.000000,0.000000
-0.482457,-0.024548,-0.198833,-0.916538,0.000000,0.399947
0.161744,-0.035340,0.321140,0.000000,-1.000000,0.000000
-0.541681,0.035340,-0.196354,0.000000,1.000000,0.000000
-0.059096,0.035340,0.100285,0.000000,1.000000,0.000000
0.332147,0.035340,-0.034431,0.000000,1.000000,0.000000
0.537802,-0.035340,-0.073868,0.000000,-1.000000,0.000000
0.241394,-0.035340,-0.054274,0.000000,-1.000000,0.000000
-0.153784,-0.035340,-0.164753,0.000000,-1.000000,0.000000
0.185769,-0.011211,0.073646,-0.952836,0.000000,-0.303487
0.294155,-0.031291,0.054132,0.787151,0.000000,-0.616760
-0.261113,0.035340,0.142464,0.000000,1.000000,0.000000
0.152477,-0.035340,0.029462,0.000000,-1.000000,0.000000
-0.379893,0.035340,-0.049809,0.000000,1.000000,0.000000
0.475625,0.035340,0.177843,0.000000,1.000000,0.000000
-0.473979,0.020731,-0.262693,-0.780424,0.000000,-0.625251
0.308362,0.035340,-0.270979,0.000000,1.000000,0.000000
0.471963,-0.035340,-0.212090,0.000000,-1.000000,0.000000
0.201732,0.035316,0.047857,-0.696566,0.000000,-0.717493
0.519427,-0.035340,0.231143,0.000000,-1.000000,0.000000
-0.005088,0.035340,0.114810,0.000000,1.000000,0.000000
0.199241,-0.024716,0.050419,-0.736570,0.000000,-0.676361
0.369950,-0.035340,-0.024145,0.000000,-1.000000,0.000000
0.432596,0.035340,0.118173,0.000000,1.000000,0.000000
-0.375593,-0.029627,-0.186291,0.799030,0.000000,0.601292
0.230901,-0.013922,0.153196,-0.228305,0.000000,0.973590
0.378474,-0.035340,0.157728,0.000000,-1.000000,0.000000
0.527747,0.035340,0.047484,0.000000,1.000000,0.000000
-0.395315,0.013588,-0.278309,0.482423,0.000000,-0.875939
-0.364209,0.018256,-0.235582,0.981781,0.000000,-0.190014
-0.231128,0.035340,-0.129472,0.000000,1.000000,0.000000
-0.483580,0.009257,-0.201583,-0.934563,0.000000,0.355797
0.227434,0.003997,0.152277,-0.283965,0.000000,0.958835
-0.387897,-0.026560,-0.273509,0.601497,0.000000,-0.798875
-0.549950,-0.020157,0.091180,-1.000000,0.000000,0.000000
-0.016396,-0.035340,0.179190,0.000000,-1.000000,0.000000
0.459294,0.035340,-0.117573,0.000000,1.000000,0.000000
-0.484946,0.017045,-0.205572,-0.956491,0.000000,0.291761
-0.480026,0.008377,-0.253619,-0.877500,0.000000,-0.479576
0.223496,0.014325,0.034134,-0.347179,0.000000,-0.937799
-0.449919,-0.035340,-0.124869,0.000000,-1.000000,0.000000
-0.327535,0.035340,0.198917,0.000000,1.000000,0.000000
0.545687,-0.035340,-0.060729,0.000000,-1.000000,0.000000
0.235185,0.011935,0.154044,-0.159533,0.000000,0.987193
-0.445064,-0.035340,-0.109879,0.000000,-1.000000,0.000000
-0.178005,0.035340,-0.131100,0.000000,1.000000,0.000000
-0.549950,0.006440,-0.004698,-1.000000,0.000000,0.000000
0.273252,0.029102,0.148128,0.451583,0.000000,0.892229
-0.436162,0.001795,-0.162397,-0.173323,0.000000,0.984865
0.069733,0.035340,-0.234411,0.000000,1.000000,0.000000
0.268002,0.035340,-0.031907,0.000000,1.000000,0.000000
-0.461601,-0.035340,0.114251,0.000000,-1.000000,0.000000
0.295777,0.035340,-0.128851,0.000000,1.000000,0.000000
-0.549950,0.025347,-0.196608,-1.000000,0.000000,0.000000
-0.529985,0.035340,-0.297339,0.000000,1.000000,0.000000
0.235984,0.008844,0.030933,-0.146702,0.000000,-0.989181
-0.391474,0.008715,-0.276010,0.544083,0.000000,-0.839031
-0.116518,0.035340,-0.317866,0.000000,1.000000,0.000000
-0.074918,0.035340,0.180084,0.000000,1.000000,0.000000
0.264598,-0.016611,0.336997,0.000000,0.000000,1.000000
0.549950,0.014782,0.014590,1.000000,0.000000,0.000000
-0.443714,0.035340,0.002394,0.000000,1.000000,0.000000
0.285740,-0.035340,0.161866,0.000000,-1.000000,0.000000
0.263771,0.029582,0.033116,0.299387,0.000000,-0.954132
-0.457669,-0.035340,0.131183,0.000000,-1.000000,0.000000
0.490263,0.035340,0.136941,0.000000,1.000000,0.000000
-0.462132,0.018780,-0.274029,-0.590234,0.000000,-0.807232
0.062283,0.035340,0.292751,0.000000,1.000000,0.000000
-0.387990,0.013874,-0.173913,0.600008,0.000000,0.799994
-0.421529,0.035340,0.080699,0.000000,1.000000,0.000000
0.030610,0.035340,0.330706,0.000000,1.000000,0.000000
0.291456,0.035340,-0.219880,0.000000,1.000000,0.000000
0.196182,-0.014841,0.131087,-0.785666,0.000000,0.618650
0.185478,0.026233,0.074586,-0.957511,0.000000,-0.288397
0.210662,0.008395,0.040659,-0.553211,0.000000,-0.833041
0.276969,0.019128,0.039015,0.511253,0.000000,-0.859430
0.182867,0.032944,0.094667,-0.999423,0.000000,0.033978
0.358970,-0.035340,-0.336556,0.000000,-1.000000,0.000000
0.043468,-0.035340,-0.329117,0.000000,-1.000000,0.000000
-0.118691,-0.035340,-0.059000,0.000000,-1.000000,0.000000
0.377211,-0.035340,0.138419,0.000000,-1.000000,0.000000
0.549950,0.027137,-0.135662,1.000000,0.000000,0.000000
0.548376,0.035340,0.174702,0.000000,1.000000,0.000000
-0.514150,0.014960,-0.336997,0.000000,0.000000,-1.000000
-0.158771,-0.035340,-0.208118,0.000000,-1.000000,0.000000
-0.404516,-0.022360,-0.282444,0.334712,0.000000,-0.942320
0.421628,0.035340,-0.218993,0.000000,1.000000,0.000000
-0.496952,0.035340,0.266179,0.000000,1.000000,0.000000
0.461774,0.035340,0.280326,0.000000,1.000000,0.000000
0.442982,0.035340,-0.138399,0.000000,1.000000,0.000000
0.278698,0.020386,0.040082,0.539006,0.000000,-0.842302
0.300969,0.009498,0.120142,0.896550,0.000000,0.442942
-0.487421,0.015238,-0.229151,-0.996228,0.000000,-0.086779
-0.379856,-0.003966,-0.181212,0.730583,0.000000,0.682824
-0.231085,-0.035340,0.094050,0.000000,-1.000000,0.000000
-0.357658,0.035340,-0.140663,0.000000,1.000000,0.000000
0.297374,-0.035340,0.030824,0.000000,-1.000000,0.000000
0.093077,-0.035340,0.009743,0.000000,-1.000000,0.000000
-0.357876,-0.035340,-0.304474,0.000000,-1.000000,0.000000
0.153343,-0.035340,-0.225960,0.000000,-1.000000,0.000000
-0.367467,-0.006349,-0.200767,0.929472,0.000000,0.368892
-0.297157,-0.035340,0.012369,0.000000,-1.000000,0.000000
0.396837,-0.035340,0.103065,0.000000,-1.000000,0.000000
-0.267520,0.035340,0.235203,0.000000,1.000000,0.000000
-0.437399,-0.028763,-0.162628,-0.193192,0.000000,0.981161
-0.273721,0.022707,0.336997,0.000000,0.000000,1.000000
-0.365001,-0.035340,-0.153324,0.000000,-1.000000,0.000000
0.368865,0.035340,-0.160350,0.000000,1.000000,0.000000
-0.498557,-0.035340,-0.062557,0.000000,-1.000000,0.000000
-0.374982,-0.003631,-0.260375,0.808834,0.000000,-0.588037
-0.334201,-0.035340,0.073029,0.000000,-1.000000,0.000000
0.517141,0.035340,-0.188270,0.000000,1.000000,0.000000
0.465219,-0.024954,-0.336997,0.000000,0.000000,-1.000000
0.242870,0.035340,-0.126138,0.000000,1.000000,0.000000
-0.255251,0.035340,0.196514,0.000000,1.000000,0.000000
0.295024,-0.010529,0.055268,0.801105,0.000000,-0.598523
-0.292415,-0.032370,-0.336997,0.000000,0.000000,-1.000000
0.145105,0.035340,-0.203190,0.000000,1.000000,0.000000
0.381757,0.035340,-0.050505,0.000000,1.000000,0.000000
0.006137,0.035340,0.160413,0.000000,1.000000,0.000000
0.300101,0.005199,0.063267,0.882616,0.000000,-0.470095
0.183558,0.022443,0.102036,-0.988337,0.000000,0.152282
0.203106,0.035340,0.018993,0.000000,1.000000,0.000000
-0.153386,-0.035340,0.136629,0.000000,-1.000000,0.000000
0.190237,0.004062,0.063091,-0.881104,0.000000,-0.472923
0.183608,-0.035340,0.195847,0.000000,-1.000000,0.000000
0.175496,0.035340,0.315261,0.000000,1.000000,0.000000
-0.042788,-0.035340,-0.235800,0.000000,-1.000000,0.000000
0.187934,0.025050,0.067859,-0.918081,0.000000,-0.396393
0.313295,0.035340,0.242585,0.000000,1.000000,0.000000
-0.200030,-0.035340,-0.102674,0.000000,-1.000000,0.000000
-0.403204,0.020453,-0.165530,0.355762,0.000000,0.934577
-0.461793,0.034617,-0.173217,-0.584798,0.000000,0.811179
0.154870,-0.035340,-0.014467,0.000000,-1.000000,0.000000
-0.296188,0.035340,0.241306,0.000000,1.000000,0.000000
0.435628,0.035340,-0.071907,0.000000,1.000000,0.000000
-0.311944,0.035340,0.078914,0.000000,1.000000,0.000000
-0.420372,0.000777,-0.285836,0.080154,0.000000,-0.996782
-0.387603,0.002929,-0.273286,0.606224,0.000000,-0.795294
0.506825,-0.035340,-0.037568,0.000000,-1.000000,0.000000
-0.036804,-0.035340,0.295477,0.000000,-1.000000,0.000000
-0.549950,-0.026187,0.242347,-1.000000,0.000000,0.000000
-0.475007,-0.035340,0.032596,0.000000,-1.000000,0.000000
0.372939,-0.035340,0.014499,0.000000,-1.000000,0.000000
0.188958,0.008753,0.119490,-0.901646,0.000000,0.432476
0.290446,0.035340,0.283936,0.000000,1.000000,0.000000
-0.085669,-0.035340,-0.036580,0.000000,-1.000000,0.000000
-0.342524,-0.035340,0.202973,0.000000,-1.000000,0.000000
-0.153801,0.035340,-0.272420,0.000000,1.000000,0.000000
0.460865,-0.035340,0.254272,0.000000,-1.000000,0.000000
-0.255683,-0.035340,-0.094930,0.000000,-1.000000,0.000000
-0.279257,-0.035340,-0.189276,0.000000,-1.000000,0.000000
-0.491895,0.035340,-0.303379,0.000000,1.000000,0.000000
-0.137291,0.035340,0.003877,0.000000,1.000000,0.000000
0.222224,-0.004786,0.034621,-0.367600,0.000000,-0.929984
0.533239,-0.035340,0.186473,0.000000,-1.000000,0.000000
0.465947,-0.035340,-0.214650,0.000000,-1.000000,0.000000
0.196313,-0.019508,0.131252,-0.783569,0.000000,0.621305
0.526435,0.035340,0.050125,0.000000,1.000000,0.000000
-0.381289,-0.030795,-0.267763,0.707577,0.000000,-0.706637
-0.373502,-0.012237,-0.189243,0.832589,0.000000,0.553892
0.288657,0.017222,0.047998,0.698886,0.000000,-0.715233
0.280334,0.010218,0.143934,0.565278,0.000000,0.824900
-0.236329,0.035340,-0.184645,0.000000,1.000000,0.000000
-0.549950,0.000943,0.008253,-1.000000,0.000000,0.000000
0.188862,-0.035340,0.227236,0.000000,-1.000000,0.000000
0.338158,0.035340,-0.199555,0.000000,1.000000,0.000000
-0.456195,0.022531,-0.277873,-0.494930,0.000000,-0.868933
0.162779,0.035340,-0.129605,0.000000,1.000000,0.000000
-0.413193,0.029445,0.336997,0.000000,0.000000,1.000000
-0.107737,-0.035340,-0.147176,0.000000,-1.000000,0.000000
-0.325997,-0.035340,0.232713,0.000000,-1.000000,0.000000
-0.382766,0.003284,-0.269194,0.683869,0.000000,-0.729605
-0.544010,-0.035340,-0.263749,0.000000,-1.000000,0.000000
-0.529793,0.035340,-0.006935,0.000000,1.000000,0.000000
-0.436740,0.034526,-0.162502,-0.182614,0.000000,0.983185
-0.403400,0.001447,-0.282036,0.352621,0.000000,-0.935766
0.159834,-0.035340,0.173737,0.000000,-1.000000,0.000000
0.244931,0.029030,0.154841,-0.003073,0.000000,0.999995
0.049011,-0.035340,0.049340,0.000000,-1.000000,0.000000
-0.267406,-0.035340,-0.010069,0.000000,-1.000000,0.000000
-0.363076,0.027109,-0.224273,0.999964,0.000000,-0.008468
0.544481,0.035340,-0.104293,0.000000,1.000000,0.000000
-0.173499,-0.035340,-0.062870,0.000000,-1.000000,0.000000
0.033983,-0.024307,-0.336997,0.000000,0.000000,-1.000000
0.316242,0.035340,-0.208887,0.000000,1.000000,0.000000
0.267084,0.035340,0.286627,0.000000,1.000000,0.000000
-0.373918,0.000090,-0.188627,0.825922,0.000000,0.563785
0.303996,-0.035340,0.208470,0.000000,-1.000000,0.000000
0.463327,-0.035340,-0.191535,0.000000,-1.000000,0.000000
0.297736,0.001447,0.125896,0.844648,0.000000,0.535322
-0.188728,0.035340,0.178637,0.000000,1.000000,0.000000
-0.445531,0.004940,-0.164809,-0.323740,0.000000,0.946146
0.167512,-0.035340,0.298700,0.000000,-1.000000,0.000000
0.224613,0.022441,0.033732,-0.329242,0.000000,-0.944246
0.424665,0.035340,0.265461,0.000000,1.000000,0.000000
-0.227892,0.035340,0.305152,0.000000,1.000000,0.000000
-0.480932,-0.014438,-0.195595,-0.892057,0.000000,0.451922
-0.156587,-0.035340,-0.149361,0.000000,-1.000000,0.000000
0.192200,-0.035340,-0.126737,0.000000,-1.000000,0.000000
-0.481318,0.020154,-0.336997,0.000000,0.000000,-1.000000
-0.303835,-0.035340,0.292702,0.000000,-1.000000,0.000000
0.361141,-0.035340,0.327608,0.000000,-1.000000,0.000000
0.038346,-0.035340,0.274223,0.000000,-1.000000,0.000000
-0.253775,-0.035340,-0.135448,0.000000,-1.000000,0.000000
0.227806,0.023751,0.152386,-0.277997,0.000000,0.960582
0.037472,0.035340,0.075659,0.000000,1.000000,0.000000
0.299193,0.004215,0.061622,0.868034,0.000000,-0.496505
0.219310,0.025229,0.149241,-0.414388,0.000000,0.910100
-0.549950,-0.028232,0.332558,-1.000000,0.000000,0.000000
-0.459384,-0.035340,-0.151588,0.000000,-1.000000,0.000000
-0.400968,0.031949,-0.281060,0.391665,0.000000,-0.920108
0.192934,-0.035340,0.189857,0.000000,-1.000000,0.000000
-0.531796,0.035340,0.318650,0.000000,1.000000,0.000000
-0.549950,-0.028681,-0.285368,-1.000000,0.000000,0.000000
0.194031,0.014667,0.128185,-0.820204,0.000000,0.572071
-0.398961,0.032315,-0.167328,0.423880,0.000000,0.905718
-0.428767,-0.032657,-0.161548,-0.054610,0.000000,0.998508
0.305455,0.008602,0.077053,0.968556,0.000000,-0.248795
-0.368521,0.008219,-0.198273,0.912564,0.000000,0.408934
-0.525701,-0.035340,0.113707,0.000000,-1.000000,0.000000
0.430504,-0.035340,-0.013258,0.000000,-1.000000,0.000000
0.528753,0.035340,0.170050,0.000000,1.000000,0.000000
0.412048,0.035340,0.267380,0.000000,1.000000,0.000000
0.208610,0.035340,-0.241226,0.000000,1.000000,0.000000
0.283396,-0.035340,-0.186310,0.000000,-1.000000,0.000000
0.455139,0.035340,-0.122787,0.000000,1.000000,0.000000
0.100613,-0.035340,0.066600,0.000000,-1.000000,0.000000
0.537810,0.035340,-0.218590,0.000000,1.000000,0.000000
-0.474446,-0.029344,-0.262102,-0.787930,0.000000,-0.615764
-0.092775,-0.035340,-0.222288,0.000000,-1.000000,0.000000
0.307377,-0.018785,0.094689,0.999410,0.000000,0.034336
-0.535503,-0.035340,0.036514,0.000000,-1.000000,0.000000
-0.006219,0.035340,0.187719,0.000000,1.000000,0.000000
0.303936,0.035340,-0.095983,0.000000,1.000000,0.000000
0.219759,0.035340,-0.238019,0.000000,1.000000,0.000000
-0.464971,0.030842,-0.175667,-0.635814,0.000000,0.771843
-0.408566,-0.026766,-0.163763,0.269684,0.000000,0.962949
0.510196,-0.035340,-0.031817,0.000000,-1.000000,0.000000
0.096594,0.035340,-0.100951,0.000000,1.000000,0.000000
-0.506633,-0.035340,0.241430,0.000000,-1.000000,0.000000
0.054311,-0.035340,-0.323163,0.000000,-1.000000,0.000000
-0.487523,0.006384,-0.219678,-0.997866,0.000000,0.065298
0.063678,-0.008655,-0.336997,0.000000,0.000000,-1.000000
-0.297534,-0.035340,-0.309879,0.000000,-1.000000,0.000000
0.195414,0.035340,-0.326649,0.000000,1.000000,0.000000
0.171140,-0.035340,-0.226165,0.000000,-1.000000,0.000000
-0.537901,-0.035340,-0.060012,0.000000,-1.000000,0.000000
0.127694,-0.035340,0.270534,0.000000,-1.000000,0.000000
-0.549950,0.013092,-0.051185,-1.000000,0.000000,0.000000
0.293398,0.034190,-0.336997,0.000000,0.000000,-1.000000
0.232284,-0.035340,0.271451,0.000000,-1.000000,0.000000
-0.374422,-0.022927,-0.259593,0.817820,0.000000,-0.575474
-0.389685,0.008692,-0.274805,0.572803,0.000000,-0.819693
-0.243184,0.035340,-0.283143,0.000000,1.000000,0.000000
-0.355344,0.035340,0.311460,0.000000,1.000000,0.000000
-0.346860,0.035340,-0.141310,0.000000,1.000000,0.000000
0.271299,0.012430,0.036026,0.420233,0.000000,-0.907416
0.549950,0.000492,-0.304018,1.000000,0.000000,0.000000
0.376823,0.035340,0.231123,0.000000,1.000000,0.000000
0.004673,0.035340,-0.215734,0.000000,1.000000,0.000000
0.488837,0.035340,0.159567,0.000000,1.000000,0.000000
-0.408106,-0.005667,-0.283598,0.277077,0.000000,-0.960848
-0.411593,0.004357,-0.162996,0.221087,0.000000,0.975254
0.243608,0.026502,0.030278,-0.024315,0.000000,-0.999704
-0.477080,0.035340,0.288677,0.000000,1.000000,0.000000
-0.379376,-0.010006,-0.181732,0.738300,0.000000,0.674472
-0.063234,0.035340,-0.208738,0.000000,1.000000,0.000000
-0.456627,-0.035340,0.107104,0.000000,-1.000000,0.000000
0.347447,-0.035340,-0.138551,0.000000,-1.000000,0.000000
-0.251886,0.035340,-0.228313,0.000000,1.000000,0.000000
-0.086911,0.035340,-0.088583,0.000000,1.000000,0.000000
-0.530750,0.035340,-0.234001,0.000000,1.000000,0.000000
-0.414275,0.005922,-0.336997,0.000000,0.000000,-1.000000
-0.283399,-0.035340,-0.288660,0.000000,-1.000000,0.000000
-0.453474,0.035340,0.049050,0.000000,1.000000,0.000000
0.086338,-0.035340,0.271056,0.000000,-1.000000,0.000000
-0.178385,-0.035340,-0.061655,0.000000,-1.000000,0.000000
-0.102805,-0.035340,0.096515,0.000000,-1.000000,0.000000
0.091857,-0.035340,-0.237622,0.000000,-1.000000,0.000000
-0.392212,0.014513,-0.276481,0.532229,0.000000,-0.846601
0.402697,-0.035340,0.159135,0.000000,-1.000000,0.000000
0.270777,-0.014773,0.149313,0.411846,0.000000,0.911253
0.087209,-0.035340,0.326863,0.000000,-1.000000,0.000000
0.382801,-0.035340,-0.221597,0.000000,-1.000000,0.000000
0.287051,-0.031665,0.046484,0.673114,0.000000,-0.739539
0.453387,-0.035340,-0.293571,0.000000,-1.000000,0.000000
0.004613,0.035340,-0.051738,0.000000,1.000000,0.000000
0.191301,-0.017474,0.123911,-0.864022,0.000000,0.503454
0.189684,0.035340,-0.268048,0.000000,1.000000,0.000000
0.246722,0.003133,0.030280,0.025676,0.000000,-0.999670
-0.107838,-0.035340,0.321212,0.000000,-1.000000,0.000000
-0.432380,-0.029432,-0.285641,-0.112617,0.000000,-0.993638
0.234623,0.034040,0.153950,-0.168559,0.000000,0.985692
0.180168,-0.035340,-0.030418,0.000000,-1.000000,0.000000
0.262919,0.002087,0.032856,0.285709,0.000000,-0.958316
0.142405,0.035340,-0.195956,0.000000,1.000000,0.000000
0.483933,-0.035340,-0.103583,0.000000,-1.000000,0.000000
-0.017656,0.035340,-0.046759,0.000000,1.000000,0.000000
0.265334,0.014615,0.033629,0.324477,0.000000,-0.945893
-0.410958,-0.020132,-0.163144,0.231290,0.000000,0.972885
0.317801,-0.035340,-0.240248,0.000000,-1.000000,0.000000
-0.417257,-0.031317,-0.285507,0.130158,0.000000,-0.991493
-0.440456,-0.006023,-0.163310,-0.242255,0.000000,0.970213
-0.398406,-0.024353,-0.279901,0.432801,0.000000,-0.901490
-0.427342,-0.035340,-0.133252,0.000000,-1.000000,0.000000
-0.516955,-0.035340,0.218584,0.000000,-1.000000,0.000000
-0.503186,-0.035340,0.011523,0.000000,-1.000000,0.000000
-0.255724,-0.035340,-0.279867,0.000000,-1.000000,0.000000
0.423921,0.035340,-0.095061,0.000000,1.000000,0.000000
0.212834,-0.027644,0.039281,-0.518348,0.000000,-0.855170
-0.505314,0.035340,-0.010415,0.000000,1.000000,0.000000
0.261334,0.028452,0.152695,0.260259,0.000000,0.965539
0.287905,0.021249,0.137825,0.686825,0.000000,0.726822
0.256083,-0.035340,-0.176201,0.000000,-1.000000,0.000000
0.307215,-0.029487,0.097519,0.996813,0.000000,0.079773
-0.048863,0.035340,-0.154684,0.000000,1.000000,0.000000
-0.486969,-0.033416,-0.214515,-0.988960,0.000000,0.148180
0.078841,0.035340,0.277776,0.000000,1.000000,0.000000
0.304993,-0.010529,0.109746,0.961142,0.000000,0.276054
-0.252857,0.035340,-0.221960,0.000000,1.000000,0.000000
-0.363689,-0.023798,-0.232480,0.990120,0.000000,-0.140220
-0.262041,0.035340,-0.122572,0.000000,1.000000,0.000000
-0.222115,0.025983,0.336997,0.000000,0.000000,1.000000
0.503145,-0.035340,0.334293,0.000000,-1.000000,0.000000
0.396484,-0.035340,-0.013771,0.000000,-1.000000,0.000000
0.148169,-0.035340,0.278630,0.000000,-1.000000,0.000000
-0.378348,-0.012302,-0.182886,0.754803,0.000000,0.655951
-0.377687,0.000805,-0.183659,0.765411,0.000000,0.643542
-0.406477,-0.023236,-0.164387,0.303230,0.000000,0.952917
0.036263,-0.035340,0.226411,0.000000,-1.000000,0.000000
-0.319490,-0.035340,0.290569,0.000000,-1.000000,0.000000
0.066229,-0.035340,0.171636,0.000000,-1.000000,0.000000
0.225483,-0.019999,0.151664,-0.315287,0.000000,0.948996
-0.364368,0.014322,-0.236375,0.979231,0.000000,-0.202749
0.352530,-0.035340,-0.105595,0.000000,-1.000000,0.000000
0.066280,0.035340,0.303644,0.000000,1.000000,0.000000
-0.087304,0.035340,-0.192871,0.000000,1.000000,0.000000
-0.098476,-0.035340,0.317796,0.000000,-1.000000,0.000000
-0.368451,0.029958,-0.198429,0.913685,0.000000,0.406423
0.409282,0.035340,-0.215882,0.000000,1.000000,0.000000
0.489555,-0.035340,0.001567,0.000000,-1.000000,0.000000
0.297452,-0.015237,0.126341,0.840083,0.000000,0.542458
0.162502,-0.035340,-0.037371,0.000000,-1.000000,0.000000
0.085135,-0.035340,-0.105391,0.000000,-1.000000,0.000000
0.460052,0.035340,0.034320,0.000000,1.000000,0.000000
-0.158411,-0.035340,-0.256311,0.000000,-1.000000,0.000000
-0.099774,-0.035340,0.006989,0.000000,-1.000000,0.000000
0.077495,-0.035340,-0.167305,0.000000,-1.000000,0.000000
-0.325759,0.035340,0.332432,0.000000,1.000000,0.000000
-0.363524,0.021683,-0.231221,0.992773,0.000000,-0.120011
0.549950,-0.001617,-0.240198,1.000000,0.000000,0.000000
-0.257994,-0.035340,0.189032,0.000000,-1.000000,0.000000
-0.465908,-0.021980,-0.176454,-0.650860,0.000000,0.759198
0.028757,0.035340,-0.176042,0.000000,1.000000,0.000000
0.354160,-0.018348,0.336997,0.000000,0.000000,1.000000
0.085691,0.035340,0.154585,0.000000,1.000000,0.000000
-0.527634,-0.035340,0.199119,0.000000,-1.000000,0.000000
0.302115,0.000723,0.067411,0.914948,0.000000,-0.403572
-0.499110,-0.035340,0.148994,0.000000,-1.000000,0.000000
0.193290,-0.023984,0.058002,-0.832098,0.000000,-0.554629
-0.376530,-0.033481,-0.262415,0.783981,0.000000,-0.620784
0.006940,0.035340,0.200356,0.000000,1.000000,0.000000
-0.549950,-0.032694,0.147549,-1.000000,0.000000,0.000000
-0.482848,0.014601,-0.199747,-0.922804,0.000000,0.385269
-0.166435,0.035340,-0.211913,0.000000,1.000000,0.000000
0.149398,0.035340,-0.335895,0.000000,1.000000,0.000000
0.350948,-0.035340,-0.000349,0.000000,-1.000000,0.000000
-0.464740,-0.008976,-0.175478,-0.632117,0.000000,0.774873
0.513854,0.035340,-0.168412,0.000000,1.000000,0.000000
0.290275,-0.031707,0.135462,0.724872,0.000000,0.688883
0.281100,-0.033597,0.143401,0.577581,0.000000,0.816333
-0.099457,0.035340,-0.064146,0.000000,1.000000,0.000000
-0.497431,0.035340,0.188127,0.000000,1.000000,0.000000
-0.074485,0.035340,0.075801,0.000000,1.000000,0.000000
0.229732,-0.024500,0.152910,-0.247077,0.000000,0.968996
-0.531543,0.035340,-0.008979,0.000000,1.000000,0.000000
-0.441456,-0.035340,-0.134481,0.000000,-1.000000,0.000000
0.224865,-0.008721,0.033645,-0.325201,0.000000,-0.945645
-0.533907,-0.035340,0.155346,0.000000,-1.000000,0.000000
0.357866,-0.035340,-0.020453,0.000000,-1.000000,0.000000
-0.437269,-0.011285,-0.162603,-0.191092,0.000000,0.981572
0.223482,0.035340,-0.110358,0.000000,1.000000,0.000000
0.111576,-0.035340,-0.003563,0.000000,-1.000000,0.000000
0.032340,-0.035340,0.316979,0.000000,-1.000000,0.000000
0.278263,-0.023651,0.145294,0.532028,0.000000,0.846727
-0.341846,0.035340,-0.315312,0.000000,1.000000,0.000000
-0.428954,-0.005292,-0.285933,-0.057614,0.000000,-0.998339
0.289292,0.033711,0.048627,0.709078,0.000000,-0.705130
-0.387536,-0.025600,-0.273235,0.607290,0.000000,-0.794480
0.231193,-0.015863,0.031837,-0.223622,0.000000,-0.974676
-0.422313,0.000571,-0.285962,0.048991,0.000000,-0.998799
0.287966,-0.019675,0.047333,0.687790,0.000000,-0.725910
0.130007,0.035340,-0.310542,0.000000,1.000000,0.000000
0.354940,-0.035340,0.230042,0.000000,-1.000000,0.000000
0.462005,0.035340,-0.015384,0.000000,1.000000,0.000000
-0.044493,-0.035340,-0.268735,0.000000,-1.000000,0.000000
0.061203,-0.035340,-0.259482,0.000000,-1.000000,0.000000
-0.353145,-0.035340,0.058773,0.000000,-1.000000,0.000000
-0.421631,-0.006659,-0.161567,0.059939,0.000000,0.998202
-0.216403,0.035340,0.214471,0.000000,1.000000,0.000000
0.187438,-0.018177,0.069039,-0.926037,0.000000,-0.377434
-0.549950,-0.008046,0.149961,-1.000000,0.000000,0.000000
0.385522,0.035340,-0.333327,0.000000,1.000000,0.000000
-0.171440,-0.035340,0.063486,0.000000,-1.000000,0.000000
-0.459723,0.035340,-0.012067,0.000000,1.000000,0.000000
-0.091772,-0.035340,-0.164363,0.000000,-1.000000,0.000000
-0.419594,0.035340,0.218076,0.000000,1.000000,0.000000
0.303509,0.011337,0.114257,0.937316,0.000000,0.348480
0.069143,0.035340,0.048065,0.000000,1.000000,0.000000
-0.159778,0.035340,0.199169,0.000000,1.000000,0.000000
0.370336,-0.035340,-0.256937,0.000000,-1.000000,0.000000
-0.198192,-0.035340,0.233117,0.000000,-1.000000,0.000000
0.549950,0.009996,-0.046342,1.000000,0.000000,0.000000
-0.013238,-0.035340,-0.186801,0.000000,-1.000000,0.000000
-0.346512,0.035340,-0.143068,0.000000,1.000000,0.000000
-0.223107,-0.035340,-0.225180,0.000000,-1.000000,0.000000
-0.375244,-0.033332,-0.260733,0.804626,0.000000,-0.593782
0.135946,0.035340,-0.197271,0.000000,1.000000,0.000000
0.195635,0.018207,0.054719,-0.794451,0.000000,-0.607328
0.191037,-0.032451,0.123453,-0.868260,0.000000,0.496109
0.472772,0.035340,0.313549,0.000000,1.000000,0.000000
0.205988,0.001704,0.044087,-0.628247,0.000000,-0.778014
0.021634,-0.035340,0.024867,0.000000,-1.000000,0.000000
-0.169108,-0.035340,-0.280338,0.000000,-1.000000,0.000000
-0.383370,-0.013134,-0.269752,0.674176,0.000000,-0.738570
0.194179,0.029489,0.128397,-0.817827,0.000000,0.575464
0.033936,-0.035340,-0.049842,0.000000,-1.000000,0.000000
-0.450225,0.002026,-0.280861,-0.399089,0.000000,-0.916912
-0.145522,-0.035340,-0.038908,0.000000,-1.000000,0.000000
0.007026,0.035340,-0.025856,0.000000,1.000000,0.000000
-0.384341,0.034917,-0.270620,0.658591,0.000000,-0.752501
0.210932,0.035340,0.001874,0.000000,1.000000,0.000000
0.228708,0.005176,0.336997,0.000000,0.000000,1.000000
-0.260707,0.035340,-0.194707,0.000000,1.000000,0.000000
0.308271,0.035340,-0.325834,0.000000,1.000000,0.000000
0.164024,0.035340,0.300936,0.000000,1.000000,0.000000
0.017450,0.035340,0.004863,0.000000,1.000000,0.000000
-0.469161,0.022847,-0.179450,-0.703088,0.000000,0.711103
-0.385270,-0.035340,-0.031372,0.000000,-1.000000,0.000000
-0.454257,-0.033160,-0.168560,-0.463825,0.000000,0.885927
0.242232,0.035340,0.205316,0.000000,1.000000,0.000000
0.339031,-0.035340,-0.267676,0.000000,-1.000000,0.000000
-0.410714,-0.019673,-0.163202,0.235211,0.000000,0.971944
0.549950,-0.000522,0.253302,1.000000,0.000000,0.000000
0.313386,-0.035340,-0.129403,0.000000,-1.000000,0.000000
-0.240298,0.035340,-0.183411,0.000000,1.000000,0.000000
-0.174703,0.035340,-0.007813,0.000000,1.000000,0.000000
0.545488,-0.035340,0.213520,0.000000,-1.000000,0.000000
0.288222,-0.017759,0.047576,0.691900,0.000000,-0.721994
-0.368192,0.035340,0.124903,0.000000,1.000000,0.000000
0.206871,-0.007907,0.141714,-0.614072,0.000000,0.789250
0.440416,0.035340,-0.281616,0.000000,1.000000,0.000000
-0.429773,-0.011895,-0.161611,-0.070763,0.000000,0.997493
-0.549950,0.030485,-0.101148,-1.000000,0.000000,0.000000
0.057358,-0.035340,0.107080,0.000000,-1.000000,0.000000
-0.193704,-0.035340,0.300895,0.000000,-1.000000,0.000000
0.244428,-0.035340,0.270755,0.000000,-1.000000,0.000000
0.170211,-0.035340,0.057018,0.000000,-1.000000,0.000000
0.264607,-0.021919,0.151716,0.312797,0.000000,0.949820
-0.015270,0.035340,-0.314009,0.000000,1.000000,0.000000
0.182009,0.035340,-0.016178,0.000000,1.000000,0.000000
0.320751,0.035340,0.203052,0.000000,1.000000,0.000000
-0.266776,0.035340,-0.226275,0.000000,1.000000,0.000000
0.205601,-0.035340,0.252228,0.000000,-1.000000,0.000000
0.186436,-0.006297,0.113433,-0.942129,0.000000,0.335250
-0.423937,-0.034831,-0.161471,0.022928,0.000000,0.999737
0.306461,-0.005111,0.081702,0.984718,0.000000,-0.174158
-0.260168,0.035340,0.169958,0.000000,1.000000,0.000000
-0.409580,-0.019572,-0.336997,0.000000,0.000000,-1.000000
-0.441705,-0.009963,-0.163636,-0.262315,0.000000,0.964982
0.305608,-0.000775,0.077661,0.971013,0.000000,-0.239027
0.549950,-0.016497,-0.293834,1.000000,0.000000,0.000000
0.198988,0.017580,0.050696,-0.740623,0.000000,-0.671921
-0.096345,0.035340,-0.262262,0.000000,1.000000,0.000000
0.457242,0.035340,0.309385,0.000000,1.000000,0.000000
0.046728,-0.035340,0.295865,0.000000,-1.000000,0.000000
-0.411106,-0.035340,0.101748,0.000000,-1.000000,0.000000
-0.443136,0.002781,-0.283448,-0.285284,0.000000,-0.958443
-0.197430,-0.021620,-0.336997,0.000000,0.000000,-1.000000
0.031917,0.035340,-0.252623,0.000000,1.000000,0.000000
0.275567,-0.035340,-0.167655,0.000000,-1.000000,0.000000
-0.402246,-0.009200,-0.165904,0.371141,0.000000,0.928576
0.416837,0.035340,0.156676,0.000000,1.000000,0.000000
-0.318132,-0.035340,0.179847,0.000000,-1.000000,0.000000
0.192867,-0.013930,0.058645,-0.838884,0.000000,-0.544310
0.237443,0.008443,0.030734,-0.123282,0.000000,-0.992372
0.268491,-0.013159,0.150292,0.375145,0.000000,0.926966
-0.313528,0.035340,0.301402,0.000000,1.000000,0.000000
0.543541,-0.035340,0.238569,0.000000,-1.000000,0.000000
-0.470437,0.019513,-0.180749,-0.723567,0.000000,0.690254
0.478587,0.035340,0.141334,0.000000,1.000000,0.000000
0.508948,0.018724,0.336997,0.000000,0.000000,1.000000
-0.292721,0.035340,0.186000,0.000000,1.000000,0.000000
0.079175,0.035340,0.101955,0.000000,1.000000,0.000000
-0.249546,0.035340,-0.211075,0.000000,1.000000,0.000000
0.181423,-0.035340,-0.085331,0.000000,-1.000000,0.000000
0.077875,0.035340,-0.154348,0.000000,1.000000,0.000000
0.356948,0.035340,-0.282086,0.000000,1.000000,0.000000
-0.045634,-0.035340,0.223924,0.000000,-1.000000,0.000000
-0.237460,-0.035340,0.249619,0.000000,-1.000000,0.000000
-0.478521,0.012493,-0.191271,-0.853349,0.000000,0.521340
-0.549950,-0.003689,0.218218,-1.000000,0.000000,0.000000
0.297409,0.028176,0.126407,0.839394,0.000000,0.543523
0.283820,-0.026217,0.141363,0.621239,0.000000,0.783621
-0.180753,0.035340,-0.317362,0.000000,1.000000,0.000000
-0.487656,0.016319,-0.223535,-0.999994,0.000000,0.003378
-0.462062,0.012720,-0.173411,-0.589110,0.000000,0.808053
0.190193,0.022039,0.121926,-0.881821,0.000000,0.471585
-0.073627,-0.035340,0.193364,0.000000,-1.000000,0.000000
-0.051128,0.035340,0.300378,0.000000,1.000000,0.000000
0.296768,0.012095,0.127377,0.829102,0.000000,0.559097
-0.511410,0.035340,-0.199041,0.000000,1.000000,0.000000
-0.054165,-0.035340,-0.048992,0.000000,-1.000000,0.000000
-0.197701,0.035340,0.244313,0.000000,1.000000,0.000000
-0.363765,0.007459,-0.232996,0.988913,0.000000,-0.148494
-0.095473,-0.035340,0.182868,0.000000,-1.000000,0.000000
-0.487359,0.034631,-0.229823,-0.995230,0.000000,-0.097559
-0.197906,-0.035340,0.160887,0.000000,-1.000000,0.000000
0.163404,-0.035340,0.153712,0.000000,-1.000000,0.000000
0.522977,-0.035340,0.280288,0.000000,-1.000000,0.000000
-0.235453,-0.035340,-0.219844,0.000000,-1.000000,0.000000
-0.189147,0.035340,-0.073860,0.000000,1.000000,0.000000
0.264520,-0.029552,0.033356,0.311396,0.000000,-0.950280
-0.392099,-0.031943,-0.171082,0.534052,0.000000,0.845452
0.428835,0.035340,0.029784,0.000000,1.000000,0.000000
0.183385,-0.003637,0.084260,-0.991104,0.000000,-0.133088
-0.549950,-0.028249,-0.218942,-1.000000,0.000000,0.000000
-0.440799,0.006095,-0.163397,-0.247777,0.000000,0.968817
-0.248914,0.035340,-0.096614,0.000000,1.000000,0.000000
0.182547,-0.035340,0.202259,0.000000,-1.000000,0.000000
-0.485963,0.026235,-0.209319,-0.972811,0.000000,0.231602
-0.364603,-0.005272,-0.237463,0.975452,0.000000,-0.220211
-0.221467,0.035340,-0.183793,0.000000,1.000000,0.000000
-0.364916,-0.035340,0.243034,0.000000,-1.000000,0.000000
-0.156585,0.035340,-0.283240,0.000000,1.000000,0.000000
0.302226,-0.017056,0.067664,0.916727,0.000000,-0.399514
0.266577,-0.035340,0.180588,0.000000,-1.000000,0.000000
-0.486616,0.029480,-0.212410,-0.983303,0.000000,0.181976
0.307235,-0.033310,0.097267,0.997129,0.000000,0.075722
-0.501990,0.035340,0.091878,0.000000,1.000000,0.000000
0.549950,-0.003871,-0.178112,1.000000,0.000000,0.000000
-0.362002,-0.035340,0.185174,0.000000,-1.000000,0.000000
-0.470410,0.028451,-0.180720,-0.723129,0.000000,0.690713
-0.549950,0.002741,-0.063511,-1.000000,0.000000,0.000000
-0.152497,-0.035340,0.157909,0.000000,-1.000000,0.000000
-0.078722,-0.035340,0.014202,0.000000,-1.000000,0.000000
0.473335,-0.035340,0.112478,0.000000,-1.000000,0.000000
-0.068020,0.035340,0.191033,0.000000,1.000000,0.000000
0.490230,0.035340,-0.115286,0.000000,1.000000,0.000000
-0.098958,0.035340,0.040468,0.000000,1.000000,0.000000
-0.262954,-0.035340,0.043647,0.000000,-1.000000,0.000000
-0.401043,0.025141,-0.281092,0.390453,0.000000,-0.920623
-0.306617,-0.035340,-0.194849,0.000000,-1.000000,0.000000
0.137221,-0.035340,-0.084985,0.000000,-1.000000,0.000000
0.210862,-0.014130,0.144573,-0.550002,0.000000,0.835163
0.061757,-0.024764,-0.336997,0.000000,0.000000,-1.000000
0.111029,-0.035340,-0.111036,0.000000,-1.000000,0.000000
-0.099132,0.035340,-0.064966,0.000000,1.000000,0.000000
-0.427760,-0.035340,0.333061,0.000000,-1.000000,0.000000
-0.367439,-0.018820,-0.200838,0.929925,0.000000,0.367750
-0.458684,-0.023256,-0.171114,-0.534882,0.000000,0.844927
-0.109850,-0.035340,0.039438,0.000000,-1.000000,0.000000
0.276532,0.008484,0.146343,0.504234,0.000000,0.863567
-0.081528,0.035340,-0.023659,0.000000,1.000000,0.000000
-0.252290,0.035340,0.257105,0.000000,1.000000,0.000000
-0.037728,0.035340,-0.000823,0.000000,1.000000,0.000000
0.347636,0.035340,-0.303351,0.000000,1.000000,0.000000
0.447855,-0.035340,0.124327,0.000000,-1.000000,0.000000
-0.319910,-0.035340,0.162897,0.000000,-1.000000,0.000000
0.270432,-0.014180,0.035633,0.406309,0.000000,-0.913736
0.197413,-0.035340,-0.071713,0.000000,-1.000000,0.000000
-0.090780,-0.035340,-0.300465,0.000000,-1.000000,0.000000
0.458109,0.035340,-0.018438,0.000000,1.000000,0.000000
-0.369924,0.003771,-0.195347,0.890031,0.000000,0.455901
-0.515895,-0.035340,0.335159,0.000000,-1.000000,0.000000
0.242477,0.003341,0.030315,-0.042460,0.000000,-0.999098
0.305319,-0.033255,0.076533,0.966374,0.000000,-0.257139
-0.516152,0.035340,0.135786,0.000000,1.000000,0.000000
0.225843,-0.030582,0.033318,-0.309496,0.000000,-0.950901
0.549614,0.035340,0.165685,0.000000,1.000000,0.000000
-0.155807,-0.035340,-0.063210,0.000000,-1.000000,0.000000
0.318021,0.035340,0.141183,0.000000,1.000000,0.000000
-0.019328,0.035340,0.186851,0.000000,1.000000,0.000000
0.549950,-0.000206,0.015786,1.000000,0.000000,0.000000
0.549950,-0.006361,0.137955,1.000000,0.000000,0.000000
0.247364,0.035340,-0.061222,0.000000,1.000000,0.000000
-0.367523,-0.033448,-0.246865,0.928572,0.000000,-0.371151
0.413497,-0.035340,0.118222,0.000000,-1.000000,0.000000
-0.418164,0.035340,-0.328690,0.000000,1.000000,0.000000
-0.078150,0.035340,0.176611,0.000000,1.000000,0.000000
-0.201594,0.035340,-0.205101,0.000000,1.000000,0.000000
-0.509478,-0.027566,-0.336997,0.000000,0.000000,-1.000000
0.336449,-0.035340,0.186244,0.000000,-1.000000,0.000000
0.191433,-0.007457,0.060965,-0.861910,0.000000,-0.507061
0.332187,0.035340,0.238400,0.000000,1.000000,0.000000
0.199827,0.031760,0.049789,-0.727152,0.000000,-0.686476
-0.467095,0.009485,-0.177499,-0.669919,0.000000,0.742434
-0.432633,0.027818,-0.285611,-0.116674,0.000000,-0.993170
0.206145,-0.020896,0.141140,-0.625723,0.000000,0.780045
-0.549950,0.003078,0.097197,-1.000000,0.000000,0.000000
0.341470,0.035340,0.066934,0.000000,1.000000,0.000000
-0.549950,0.028674,-0.237837,-1.000000,0.000000,0.000000
0.268301,-0.020084,0.150368,0.372103,0.000000,0.928191
-0.449562,0.020290,-0.281145,-0.388451,0.000000,-0.921469
-0.244061,-0.035340,-0.007962,0.000000,-1.000000,0.000000
-0.487261,0.028714,-0.230753,-0.993652,0.000000,-0.112495
-0.217336,-0.035340,0.017947,0.000000,-1.000000,0.000000
-0.149075,0.035340,-0.001398,0.000000,1.000000,0.000000
-0.434202,0.035340,0.327194,0.000000,1.000000,0.000000
-0.248131,-0.035340,0.021214,0.000000,-1.000000,0.000000
0.433068,0.035340,0.124307,0.000000,1.000000,0.000000
-0.353414,0.035340,0.160538,0.000000,1.000000,0.000000
-0.325357,-0.035340,0.118934,0.000000,-1.000000,0.000000
0.129341,-0.035340,-0.246776,0.000000,-1.000000,0.000000
0.176863,-0.035340,-0.321773,0.000000,-1.000000,0.000000
0.187430,0.030758,0.116040,-0.926174,0.000000,0.377097
0.390872,-0.035340,-0.263786,0.000000,-1.000000,0.000000
0.307004,0.012625,0.099683,0.993423,0.000000,0.114501
-0.361810,0.035340,0.012962,0.000000,1.000000,0.000000
0.272114,-0.035340,-0.189690,0.000000,-1.000000,0.000000
-0.188303,-0.035340,-0.026627,0.000000,-1.000000,0.000000
0.452142,0.035340,0.052721,0.000000,1.000000,0.000000
0.337110,0.035340,-0.099271,0.000000,1.000000,0.000000
0.223406,0.026136,0.034167,-0.348633,0.000000,-0.937259
0.300332,0.003336,0.121396,0.886317,0.000000,0.463079
0.080342,-0.035340,0.032158,0.000000,-1.000000,0.000000
-0.209654,0.035340,-0.065180,0.000000,1.000000,0.000000
-0.234310,0.035340,0.124298,0.000000,1.000000,0.000000
-0.454252,-0.018778,-0.168558,-0.463740,0.000000,0.885971
-0.527253,0.035340,0.263772,0.000000,1.000000,0.000000
0.183101,-0.004713,0.086764,-0.995676,0.000000,-0.092898
0.138030,0.035340,0.116468,0.000000,1.000000,0.000000
-0.484360,0.006515,-0.203752,-0.947087,0.000000,0.320976
-0.493008,0.035340,-0.250740,0.000000,1.000000,0.000000
0.279747,-0.035340,-0.095208,0.000000,-1.000000,0.000000
0.297273,0.003091,0.126616,0.837216,0.000000,0.546872
-0.480756,0.019589,-0.252243,-0.889220,0.000000,-0.457480
0.285768,-0.018561,0.045348,0.652514,0.000000,-0.757776
-0.513348,-0.035340,-0.307866,0.000000,-1.000000,0.000000
-0.008149,0.035340,0.254479,0.000000,1.000000,0.000000
-0.423295,-0.002151,-0.286002,0.033232,0.000000,-0.999448
-0.331257,0.035340,-0.105073,0.000000,1.000000,0.000000
-0.400936,0.005520,-0.166445,0.392179,0.000000,0.919889
-0.437916,0.019348,-0.162732,-0.201489,0.000000,0.979491
-0.205208,-0.035340,0.045642,0.000000,-1.000000,0.000000
-0.433316,-0.020979,-0.161964,-0.127633,0.000000,0.991822
0.060546,-0.035340,-0.282691,0.000000,-1.000000,0.000000
0.264610,0.012393,0.033386,0.312848,0.000000,-0.949803
0.164404,-0.035340,0.078429,0.000000,-1.000000,0.000000
-0.253513,0.004417,-0.336997,0.000000,0.000000,-1.000000
0.188562,0.006408,0.066452,-0.907997,0.000000,-0.418976
0.187249,-0.007387,0.115592,-0.929071,0.000000,0.369902
0.368199,-0.023684,0.336997,0.000000,0.000000,1.000000
-0.105091,-0.035340,-0.003468,0.000000,-1.000000,0.000000
-0.418350,0.035340,0.334769,0.000000,1.000000,0.000000
-0.422164,-0.027655,-0.161537,0.051396,0.000000,0.998678
-0.212449,-0.035340,0.052890,0.000000,-1.000000,0.000000
-0.278262,0.035340,-0.330411,0.000000,1.000000,0.000000
-0.006577,-0.035340,-0.312844,0.000000,-1.000000,0.000000
-0.455777,0.027832,-0.169383,-0.488223,0.000000,0.872719
0.051480,-0.035340,0.286988,0.000000,-1.000000,0.000000
0.182902,-0.005529,0.095527,-0.998858,0.000000,0.047783
-0.290000,0.035340,0.104997,0.000000,1.000000,0.000000
-0.205403,0.035340,0.028665,0.000000,1.000000,0.000000
0.076066,0.035340,-0.014738,0.000000,1.000000,0.000000
0.236389,-0.002379,0.154226,-0.140201,0.000000,0.990123
-0.466842,-0.035340,0.057965,0.000000,-1.000000,0.000000
-0.549950,0.017247,-0.184307,-1.000000,0.000000,0.000000
-0.013220,0.035340,-0.041943,0.000000,1.000000,0.000000
-0.429474,0.035340,-0.015597,0.000000,1.000000,0.000000
-0.135784,-0.035340,-0.255134,0.000000,-1.000000,0.000000
-0.373228,-0.000924,-0.189659,0.836991,0.000000,0.547216
-0.346326,-0.035340,-0.200513,0.000000,-1.000000,0.000000
-0.418432,0.035340,0.004576,0.000000,1.000000,0.000000
0.443340,0.035340,0.317330,0.000000,1.000000,0.000000
-0.381476,-0.035340,-0.128916,0.000000,-1.000000,0.000000
0.481663,-0.035340,0.159193,0.000000,-1.000000,0.000000
0.255478,0.007887,0.153974,0.166253,0.000000,0.986083
-0.452895,0.025957,-0.167868,-0.441947,0.000000,0.897041
0.447959,-0.020321,0.336997,0.000000,0.000000,1.000000
-0.549950,0.007523,0.128339,-1.000000,0.000000,0.000000
-0.356227,-0.035340,-0.088435,0.000000,-1.000000,0.000000
0.084529,-0.035340,-0.080731,0.000000,-1.000000,0.000000
0.307310,0.021598,0.088957,0.998335,0.000000,-0.057679
-0.127915,0.035340,-0.272731,0.000000,1.000000,0.000000
0.185028,0.004304,0.108946,-0.964738,0.000000,0.263213
-0.504270,-0.035340,0.248854,0.000000,-1.000000,0.000000
-0.416657,0.035340,-0.306208,0.000000,1.000000,0.000000
0.526640,-0.035340,-0.316551,0.000000,-1.000000,0.000000
0.271138,0.016089,0.336997,0.000000,0.000000,1.000000
-0.062860,-0.035340,0.074833,0.000000,-1.000000,0.000000
0.397477,0.035340,0.319774,0.000000,1.000000,0.000000
0.226303,0.018266,0.033170,-0.302111,0.000000,-0.953273
0.240680,0.010092,0.154683,-0.071310,0.000000,0.997454
0.183003,0.002381,0.087927,-0.997242,0.000000,-0.074220
0.299706,0.027817,0.062537,0.876269,0.000000,-0.481823
0.366948,0.035340,-0.160534,0.000000,1.000000,0.000000
-0.275137,-0.035340,0.168196,0.000000,-1.000000,0.000000
-0.448917,0.035340,0.302085,0.000000,1.000000,0.000000
-0.549950,0.019811,-0.243831,-1.000000,0.000000,0.000000
-0.543154,0.035340,-0.137181,0.000000,1.000000,0.000000
0.508512,-0.035340,0.105680,0.000000,-1.000000,0.000000
0.029583,-0.034684,0.336997,0.000000,0.000000,1.000000
-0.501897,0.035340,-0.171813,0.000000,1.000000,0.000000
0.448696,0.035340,0.037335,0.000000,1.000000,0.000000
-0.431703,0.007712,-0.161778,-0.101750,0.000000,0.994810
0.428683,-0.035340,0.047681,0.000000,-1.000000,0.000000
-0.363852,-0.018284,-0.233557,0.987517,0.000000,-0.157510
0.307195,0.018616,0.087339,0.996495,0.000000,-0.083657
0.477412,0.035340,-0.063476,0.000000,1.000000,0.000000
0.348578,-0.035340,0.117631,0.000000,-1.000000,0.000000
0.300273,-0.018680,0.121508,0.885373,0.000000,0.464881
-0.400802,0.030618,-0.166502,0.394334,0.000000,0.918967
0.549950,0.006916,0.141789,1.000000,0.000000,0.000000
0.233703,0.026424,0.336997,0.000000,0.000000,1.000000
-0.043070,-0.010089,-0.336997,0.000000,0.000000,-1.000000
0.170104,0.035340,-0.142886,0.000000,1.000000,0.000000
0.245608,0.035340,-0.229445,0.000000,1.000000,0.000000
-0.348544,0.035340,-0.063848,0.000000,1.000000,0.000000
-0.480808,0.008290,-0.195351,-0.890063,0.000000,0.455838
0.093817,0.035340,0.103815,0.000000,1.000000,0.000000
0.301555,-0.035340,-0.271253,0.000000,-1.000000,0.000000
0.338519,-0.035340,-0.233809,0.000000,-1.000000,0.000000
-0.005463,0.035340,-0.175232,0.000000,1.000000,0.000000
0.201741,-0.007754,0.047848,-0.696426,0.000000,-0.717628
-0.549950,-0.014750,-0.114292,-1.000000,0.000000,0.000000
0.301715,-0.017740,0.118578,0.908523,0.000000,0.417835
-0.462912,0.006019,-0.273449,-0.602757,0.000000,-0.797925
0.549950,0.007906,0.028508,1.000000,0.000000,0.000000
0.444070,-0.035340,0.143250,0.000000,-1.000000,0.000000
-0.549950,0.009068,-0.306528,-1.000000,0.000000,0.000000
-0.042721,0.035340,0.232642,0.000000,1.000000,0.000000
0.027096,0.035340,0.293056,0.000000,1.000000,0.000000
0.175625,0.035340,-0.238367,0.000000,1.000000,0.000000
-0.216667,-0.025847,-0.336997,0.000000,0.000000,-1.000000
0.188910,0.019013,0.119389,-0.902419,0.000000,0.430860
-0.453858,-0.035340,0.080608,0.000000,-1.000000,0.000000
0.003521,-0.035340,-0.325094,0.000000,-1.000000,0.000000
-0.188854,-0.035340,-0.208973,0.000000,-1.000000,0.000000
-0.154969,-0.035340,0.031183,0.000000,-1.000000,0.000000
-0.427390,0.035340,-0.069098,0.000000,1.000000,0.000000
-0.110720,-0.035340,0.164102,0.000000,-1.000000,0.000000
-0.481824,-0.014735,-0.250064,-0.906364,0.000000,-0.422497
-0.371402,-0.005677,-0.254861,0.866302,0.000000,-0.499520
-0.067938,0.035340,-0.267366,0.000000,1.000000,0.000000
0.300931,0.035208,0.064881,0.895929,0.000000,-0.444196
0.245398,0.001399,0.030260,0.004422,0.000000,-0.999990
0.409317,0.035340,0.007751,0.000000,1.000000,0.000000
-0.265092,-0.035340,0.274880,0.000000,-1.000000,0.000000
-0.534233,0.035340,0.260832,0.000000,1.000000,0.000000
-0.091608,-0.035340,-0.276106,0.000000,-1.000000,0.000000
-0.220570,-0.035340,0.109609,0.000000,-1.000000,0.000000
-0.462126,0.029584,-0.173458,-0.590143,0.000000,0.807298
-0.379968,0.002315,-0.266399,0.728783,0.000000,-0.684744
0.549950,0.001378,0.133901,1.000000,0.000000,0.000000
-0.521127,0.035340,-0.042820,0.000000,1.000000,0.000000
0.305470,0.016469,0.107989,0.968799,0.000000,0.247846
-0.145590,0.035340,-0.215329,0.000000,1.000000,0.000000
0.013175,-0.035340,0.241805,0.000000,-1.000000,0.000000
0.286904,0.032920,0.336997,0.000000,0.000000,1.000000
0.193830,0.013897,0.127895,-0.823433,0.000000,0.567414
-0.073289,-0.035340,0.111626,0.000000,-1.000000,0.000000
-0.345538,0.035340,-0.233366,0.000000,1.000000,0.000000
-0.147883,0.035340,0.095935,0.000000,1.000000,0.000000
0.053177,0.035340,-0.245380,0.000000,1.000000,0.000000
-0.140796,0.035340,0.067448,0.000000,1.000000,0.000000
0.036901,0.035340,0.086685,0.000000,1.000000,0.000000
-0.392372,-0.035340,-0.328389,0.000000,-1.000000,0.000000
-0.216945,0.035340,0.316076,0.000000,1.000000,0.000000
0.515218,-0.035340,-0.013836,0.000000,-1.000000,0.000000
-0.132452,-0.035340,0.278528,0.000000,-1.000000,0.000000
-0.209823,0.035340,-0.045970,0.000000,1.000000,0.000000
0.139233,0.035340,-0.174913,0.000000,1.000000,0.000000
0.219570,-0.009563,0.149359,-0.410210,0.000000,0.911991
-0.271876,-0.035340,-0.258134,0.000000,-1.000000,0.000000
-0.481003,0.029927,-0.195734,-0.893185,0.000000,0.449690
-0.542757,-0.035340,-0.317661,0.000000,-1.000000,0.000000
-0.253076,0.035340,-0.158872,0.000000,1.000000,0.000000
0.096043,-0.035340,-0.114418,0.000000,-1.000000,0.000000
0.505006,0.024095,-0.336997,0.000000,0.000000,-1.000000
0.539101,0.035340,0.310737,0.000000,1.000000,0.000000
-0.119759,0.035340,-0.044084,0.000000,1.000000,0.000000
-0.122773,0.035340,-0.049139,0.000000,1.000000,0.000000
0.130402,-0.002016,-0.336997,0.000000,0.000000,-1.000000
0.306945,-0.012802,0.084929,0.992487,0.000000,-0.122347
0.232205,-0.016176,0.153487,-0.207376,0.000000,0.978261
-0.206482,0.035340,-0.038058,0.000000,1.000000,0.000000
-0.221467,0.035340,0.242830,0.000000,1.000000,0.000000
-0.371313,0.005028,-0.254707,0.867727,0.000000,-0.497041
-0.448669,-0.033600,-0.165978,-0.374108,0.000000,0.927385
-0.425914,-0.022915,-0.161457,-0.008813,0.000000,0.999961
-0.483195,0.003385,-0.246895,-0.928379,0.000000,-0.371636
0.068358,-0.035340,-0.081333,0.000000,-1.000000,0.000000
0.306782,-0.019543,0.083702,0.989860,0.000000,-0.142047
-0.364354,0.023088,-0.236309,0.979450,0.000000,-0.201685
0.393596,0.035340,0.130512,0.000000,1.000000,0.000000
-0.145850,-0.035340,-0.095185,0.000000,-1.000000,0.000000
0.402137,-0.035340,0.099404,0.000000,-1.000000,0.000000
0.310784,-0.035340,0.301274,0.000000,-1.000000,0.000000
0.486298,0.035340,-0.113683,0.000000,1.000000,0.000000
0.549950,0.032750,-0.299948,1.000000,0.000000,0.000000
0.549950,-0.009009,-0.225388,1.000000,0.000000,0.000000
0.306391,-0.023235,0.081312,0.983589,0.000000,-0.180422
0.259881,0.007815,0.032033,0.236928,0.000000,-0.971527
0.506903,0.035340,-0.036285,0.000000,1.000000,0.000000
-0.409991,-0.008755,-0.163382,0.246805,0.000000,0.969065
0.234268,-0.023904,0.031212,-0.174255,0.000000,-0.984701
0.515088,0.035340,0.226234,0.000000,1.000000,0.000000
-0.003913,0.035340,-0.234717,0.000000,1.000000,0.000000
0.064357,-0.035340,0.200685,0.000000,-1.000000,0.000000
-0.412041,-0.025989,-0.284595,0.213900,0.000000,-0.976856
-0.479837,0.002264,-0.253961,-0.874475,0.000000,-0.485070
0.182831,0.016719,0.092569,-1.000000,0.000000,0.000300
-0.114398,-0.035340,0.049779,0.000000,-1.000000,0.000000
-0.477958,0.034032,0.336997,0.000000,0.000000,1.000000
0.183665,-0.006214,0.102707,-0.986617,0.000000,0.163056
0.505763,0.035340,-0.006144,0.000000,1.000000,0.000000
0.069657,0.035340,-0.235793,0.000000,1.000000,0.000000
0.540096,0.035340,-0.091650,0.000000,1.000000,0.000000
-0.128576,-0.035340,-0.164619,0.000000,-1.000000,0.000000
-0.151171,0.035340,-0.164903,0.000000,1.000000,0.000000
0.090654,0.035340,0.020366,0.000000,1.000000,0.000000
0.212190,0.021915,0.336997,0.000000,0.000000,1.000000
-0.137910,0.035340,0.187054,0.000000,1.000000,0.000000
0.022401,-0.035340,0.259117,0.000000,-1.000000,0.000000
0.085964,0.035340,-0.008788,0.000000,1.000000,0.000000
0.306812,0.005274,0.101185,0.990345,0.000000,0.138627
-0.115337,-0.035340,0.101912,0.000000,-1.000000,0.000000
0.117682,-0.035340,0.317573,0.000000,-1.000000,0.000000
-0.225379,-0.035340,-0.115368,0.000000,-1.000000,0.000000
0.244387,-0.035340,-0.265016,0.000000,-1.000000,0.000000
0.367428,0.035340,-0.307778,0.000000,1.000000,0.000000
-0.513253,0.035340,0.247279,0.000000,1.000000,0.000000
-0.298314,-0.021373,0.336997,0.000000,0.000000,1.000000
-0.416298,-0.007286,-0.285373,0.145560,0.000000,-0.989349
-0.364549,-0.014266,-0.210273,0.976328,0.000000,0.216293
-0.116409,-0.035340,-0.219114,0.000000,-1.000000,0.000000
-0.119219,0.035340,-0.036699,0.000000,1.000000,0.000000
