x,y,z,nx,ny,nz
0.067555,-0.071380,0.256626,0.000000,0.000000,1.000000
-0.114919,0.062520,0.002463,0.999770,0.000000,-0.021429
0.189244,-0.010619,-0.185472,0.866025,0.000000,-0.500000
-0.240487,-0.006041,0.096718,-0.866025,0.000000,0.500000
0.019747,0.003873,-0.256626,-0.000000,0.000000,-1.000000
0.026033,-0.072940,-0.256626,-0.000000,0.000000,-1.000000
0.107110,-0.007341,0.041713,-0.931829,0.000000,-0.362897
0.176508,0.080613,0.207533,0.866025,0.000000,0.500000
0.253573,0.031545,0.074052,0.866025,0.000000,0.500000
0.108656,0.045479,-0.256626,-0.000000,0.000000,-1.000000
0.129083,0.048409,0.256626,0.000000,0.000000,1.000000
0.064591,-0.066249,-0.095081,-0.561929,0.000000,0.827185
-0.075146,-0.006133,-0.086981,0.653751,0.000000,0.756710
-0.037323,0.050272,-0.256626,-0.000000,0.000000,-1.000000
0.055683,0.094957,-0.199471,0.000000,1.000000,0.000000
-0.251837,-0.032000,-0.077058,-0.866025,0.000000,-0.500000
-0.142811,0.078138,0.256626,0.000000,0.000000,1.000000
0.073337,-0.034187,-0.088511,-0.638016,0.000000,0.770023
0.199586,-0.082361,0.167560,0.866025,0.000000,0.500000
0.075899,0.018326,-0.256626,-0.000000,0.000000,-1.000000
-0.210542,-0.068970,-0.148583,-0.866025,0.000000,-0.500000
-0.198857,-0.092200,-0.168822,-0.866025,0.000000,-0.500000
-0.000663,-0.005875,0.114944,0.005767,0.000000,-0.999983
-0.190657,-0.060346,0.183026,-0.866025,0.000000,0.500000
-0.265353,-0.021010,-0.053648,-0.866025,0.000000,-0.500000
-0.236132,0.048186,0.104260,-0.866025,0.000000,0.500000
0.018271,-0.046446,0.256626,0.000000,0.000000,1.000000
0.047633,0.029273,-0.104611,-0.414399,0.000000,0.910095
0.000078,0.072032,-0.256626,-0.000000,0.000000,-1.000000
0.244084,0.062424,-0.090487,0.866025,0.000000,-0.500000
-0.098949,0.094957,0.191786,0.000000,1.000000,0.000000
-0.270677,-0.047198,-0.044426,-0.866025,0.000000,-0.500000
0.147338,0.085961,-0.256626,-0.000000,0.000000,-1.000000
0.093632,0.086016,0.066675,-0.814577,0.000000,-0.580055
0.101412,0.019430,-0.256626,-0.000000,0.000000,-1.000000
-0.052639,0.003757,-0.102184,0.457948,0.000000,0.888979
0.087413,0.030312,-0.256626,-0.000000,0.000000,-1.000000
0.278867,0.066934,-0.030240,0.866025,0.000000,-0.500000
-0.003815,-0.094957,-0.244682,0.000000,-1.000000,0.000000
0.220116,0.053179,0.132001,0.866025,0.000000,0.500000
0.213368,-0.039957,0.143688,0.866025,0.000000,0.500000
-0.075097,0.059086,-0.256626,-0.000000,0.000000,-1.000000
0.082987,0.063153,-0.256626,-0.000000,0.000000,-1.000000
0.020682,0.009642,0.256626,0.000000,0.000000,1.000000
-0.137579,-0.083913,-0.256626,-0.000000,0.000000,-1.000000
-0.120323,0.003324,-0.256626,-0.000000,0.000000,-1.000000
0.145791,-0.009099,0.256626,0.000000,0.000000,1.000000
-0.243989,-0.045828,0.090651,-0.866025,0.000000,0.500000
0.034142,0.060934,-0.109758,-0.297027,0.000000,0.954869
-0.100870,-0.059602,-0.256626,-0.000000,0.000000,-1.000000
0.041595,0.092021,-0.256626,-0.000000,0.000000,-1.000000
-0.106653,0.066162,-0.042868,0.927854,0.000000,0.372944
0.086866,0.039424,0.075278,-0.755711,0.000000,-0.654905
0.292294,-0.019933,0.006984,0.866025,0.000000,0.500000
0.267600,-0.094809,-0.049757,0.866025,0.000000,-0.500000
0.206294,-0.071710,0.155941,0.866025,0.000000,0.500000
0.106561,0.038614,0.043095,-0.927059,0.000000,-0.374916
-0.212114,-0.014373,-0.145860,-0.866025,0.000000,-0.500000
-0.219656,-0.012922,0.132797,-0.866025,0.000000,0.500000
-0.275703,-0.047783,-0.035720,-0.866025,0.000000,-0.500000
-0.010702,-0.022212,-0.114446,0.093106,0.000000,0.995656
-0.098660,-0.069593,-0.256626,-0.000000,0.000000,-1.000000
0.278130,0.034587,-0.031517,0.866025,0.000000,-0.500000
-0.119947,0.094957,-0.071944,0.000000,1.000000,0.000000
0.138112,-0.077178,-0.256626,-0.000000,0.000000,-1.000000
-0.263506,-0.074042,-0.056847,-0.866025,0.000000,-0.500000
-0.015681,0.079497,0.256626,0.000000,0.000000,1.000000
0.253198,0.082003,-0.074701,0.866025,0.000000,-0.500000
-0.179676,-0.079391,-0.202045,-0.866025,0.000000,-0.500000
-0.295776,0.091076,-0.000953,-0.866025,0.000000,-0.500000
-0.229036,0.056180,-0.116551,-0.866025,0.000000,-0.500000
0.198340,0.059594,-0.169718,0.866025,0.000000,-0.500000
0.061871,0.075498,0.256626,0.000000,0.000000,1.000000
0.092996,0.091836,-0.067559,-0.809044,0.000000,0.587748
0.223814,-0.094957,0.013742,0.000000,-1.000000,0.000000
0.238944,-0.083300,0.099389,0.866025,0.000000,0.500000
-0.188193,0.094957,-0.052606,0.000000,1.000000,0.000000
0.207807,0.062315,0.153321,0.866025,0.000000,0.500000
-0.147170,0.094957,-0.090470,0.000000,1.000000,0.000000
-0.160936,-0.033245,-0.234503,-0.866025,0.000000,-0.500000
0.247215,0.072011,-0.085065,0.866025,0.000000,-0.500000
-0.296167,0.036518,-0.000276,-0.866025,0.000000,-0.500000
-0.125834,-0.094957,0.083987,0.000000,-1.000000,0.000000
0.101686,-0.094957,0.158747,0.000000,-1.000000,0.000000
0.056570,-0.017466,0.256626,0.000000,0.000000,1.000000
-0.050650,-0.094957,-0.109759,0.000000,-1.000000,0.000000
-0.198209,0.036185,-0.169945,-0.866025,0.000000,-0.500000
0.172506,0.000442,0.214464,0.866025,0.000000,0.500000
0.036718,0.030811,-0.108923,-0.319441,0.000000,0.947606
-0.040032,-0.063102,0.256626,0.000000,0.000000,1.000000
0.151623,-0.035043,-0.250634,0.866025,0.000000,-0.500000
0.251460,0.094957,0.008802,0.000000,1.000000,0.000000
0.173953,-0.032363,-0.211958,0.866025,0.000000,-0.500000
0.261676,-0.017373,-0.060017,0.866025,0.000000,-0.500000
0.079647,0.028716,-0.256626,-0.000000,0.000000,-1.000000
0.278441,-0.025358,-0.030979,0.866025,0.000000,-0.500000
-0.108214,0.028313,-0.256626,-0.000000,0.000000,-1.000000
-0.026199,-0.052018,-0.111920,0.227926,0.000000,0.973679
0.039738,0.056450,0.107858,-0.345712,0.000000,-0.938341
-0.148946,-0.054109,0.255271,-0.866025,0.000000,0.500000
-0.264943,0.055808,0.054358,-0.866025,0.000000,0.500000
0.148984,0.094957,-0.112216,0.000000,1.000000,0.000000
0.080828,0.021956,0.256626,0.000000,0.000000,1.000000
-0.121103,-0.024714,-0.256626,-0.000000,0.000000,-1.000000
0.108927,0.019217,0.256626,0.000000,0.000000,1.000000
0.242323,0.072230,-0.093538,0.866025,0.000000,-0.500000
0.155674,0.011407,-0.243617,0.866025,0.000000,-0.500000
-0.166233,0.094957,-0.192588,0.000000,1.000000,0.000000
-0.196662,-0.000366,-0.172624,-0.866025,0.000000,-0.500000
-0.104494,0.060865,0.256626,0.000000,0.000000,1.000000
0.088377,-0.071325,0.256626,0.000000,0.000000,1.000000
0.281232,-0.046564,-0.026145,0.866025,0.000000,-0.500000
0.042426,0.075115,-0.256626,-0.000000,0.000000,-1.000000
0.181095,0.049244,-0.199587,0.866025,0.000000,-0.500000
0.145949,0.094957,0.189509,0.000000,1.000000,0.000000
-0.094038,-0.011741,-0.066101,0.818107,0.000000,0.575065
0.228556,0.014257,-0.117383,0.866025,0.000000,-0.500000
0.204489,-0.083441,0.159067,0.866025,0.000000,0.500000
0.038830,-0.085602,0.256626,0.000000,0.000000,1.000000
-0.103138,-0.073264,0.050746,0.897274,0.000000,-0.441474
-0.242626,0.089922,0.093012,-0.866025,0.000000,0.500000
-0.263744,-0.040784,-0.056435,-0.866025,0.000000,-0.500000
-0.068945,-0.094747,0.091973,0.599803,0.000000,-0.800148
0.082883,0.007563,0.079642,-0.721062,0.000000,-0.692871
0.170474,-0.031900,0.217983,0.866025,0.000000,0.500000
-0.289971,0.008349,-0.011008,-0.866025,0.000000,-0.500000
0.098502,0.047684,0.059245,-0.856942,0.000000,-0.515413
-0.044703,0.000941,-0.105897,0.388903,0.000000,0.921279
0.176636,-0.046830,-0.207311,0.866025,0.000000,-0.500000
0.263175,-0.045537,0.057420,0.866025,0.000000,0.500000
-0.032869,-0.090091,0.256626,0.000000,0.000000,1.000000
-0.219843,-0.010808,0.132473,-0.866025,0.000000,0.500000
0.056911,-0.029937,0.256626,0.000000,0.000000,1.000000
0.212315,-0.061167,-0.145513,0.866025,0.000000,-0.500000
-0.050057,-0.072072,-0.103474,0.435482,0.000000,0.900198
-0.099321,0.057464,0.256626,0.000000,0.000000,1.000000
-0.180121,-0.094957,0.095547,0.000000,-1.000000,0.000000
-0.079833,-0.080694,0.256626,0.000000,0.000000,1.000000
0.082618,-0.094957,-0.099696,0.000000,-1.000000,0.000000
0.024105,0.005230,-0.256626,-0.000000,0.000000,-1.000000
-0.055397,-0.091091,0.100716,0.481944,0.000000,-0.876202
0.294602,0.000390,0.002987,0.866025,0.000000,0.500000
0.205389,-0.094957,-0.152440,0.000000,-1.000000,0.000000
0.006706,0.067621,-0.256626,-0.000000,0.000000,-1.000000
0.258949,0.089255,0.064740,0.866025,0.000000,0.500000
-0.046135,0.094096,0.256626,0.000000,0.000000,1.000000
-0.221204,-0.083752,0.130116,-0.866025,0.000000,0.500000
-0.171515,-0.059426,0.216180,-0.866025,0.000000,0.500000
0.015298,0.050563,-0.113923,-0.133087,0.000000,0.991104
0.266868,0.018750,-0.051023,0.866025,0.000000,-0.500000
0.105592,0.000796,-0.045417,-0.918629,0.000000,0.395120
-0.208954,-0.030941,-0.151334,-0.866025,0.000000,-0.500000
-0.188816,0.084767,0.186214,-0.866025,0.000000,0.500000
-0.088041,0.084281,0.073901,0.765936,0.000000,-0.642917
0.161155,0.014933,-0.234124,0.866025,0.000000,-0.500000
-0.185176,-0.025423,0.192519,-0.866025,0.000000,0.500000
-0.280576,0.082363,-0.027280,-0.866025,0.000000,-0.500000
-0.158031,-0.016482,-0.239536,-0.866025,0.000000,-0.500000
0.066169,0.013713,0.256626,0.000000,0.000000,1.000000
-0.211704,-0.082288,0.146571,-0.866025,0.000000,0.500000
-0.077376,-0.094957,0.201040,0.000000,-1.000000,0.000000
0.193510,0.069058,-0.178084,0.866025,0.000000,-0.500000
0.217462,0.022529,-0.136597,0.866025,0.000000,-0.500000
0.217971,-0.073247,-0.135715,0.866025,0.000000,-0.500000
-0.042707,-0.010219,0.106718,0.371538,0.000000,-0.928418
0.283953,0.080663,0.021431,0.866025,0.000000,0.500000
-0.088231,-0.058268,-0.073674,0.767585,0.000000,0.640947
0.019880,-0.094957,0.120622,0.000000,-1.000000,0.000000
0.237278,-0.038829,0.102275,0.866025,0.000000,0.500000
0.019276,0.061036,0.256626,0.000000,0.000000,1.000000
-0.293291,-0.063299,-0.005257,-0.866025,0.000000,-0.500000
0.188089,0.094957,-0.039358,0.000000,1.000000,0.000000
-0.200783,0.037604,-0.165486,-0.866025,0.000000,-0.500000
-0.086731,0.010285,0.075434,0.754537,0.000000,-0.656258
0.191344,0.041376,0.181835,0.866025,0.000000,0.500000
0.193037,0.022334,-0.178903,0.866025,0.000000,-0.500000
-0.005859,-0.035381,0.256626,0.000000,0.000000,1.000000
-0.179646,-0.030966,0.202096,-0.866025,0.000000,0.500000
0.215553,-0.048535,-0.139904,0.866025,0.000000,-0.500000
0.244815,-0.008199,0.089220,0.866025,0.000000,0.500000
0.036753,0.056149,-0.256626,-0.000000,0.000000,-1.000000
-0.107378,0.034635,-0.041017,0.934165,0.000000,0.356840
-0.180654,0.004895,-0.200350,-0.866025,0.000000,-0.500000
-0.241945,-0.050919,-0.094191,-0.866025,0.000000,-0.500000
-0.293253,0.085498,0.005324,-0.866025,0.000000,0.500000
-0.136735,0.026317,-0.256626,-0.000000,0.000000,-1.000000
-0.243653,-0.011978,-0.091234,-0.866025,0.000000,-0.500000
-0.188203,-0.021084,0.187275,-0.866025,0.000000,0.500000
0.094207,-0.076011,-0.256626,-0.000000,0.000000,-1.000000
0.001908,-0.019786,0.114930,-0.016596,0.000000,-0.999862
-0.103153,0.077042,0.050715,0.897403,0.000000,-0.441212
0.030488,-0.087622,0.110829,-0.265239,0.000000,-0.964183
-0.153266,0.081996,0.247788,-0.866025,0.000000,0.500000
-0.144041,-0.037234,0.256626,0.000000,0.000000,1.000000
0.145210,0.004192,0.256626,0.000000,0.000000,1.000000
0.186677,0.079844,0.189919,0.866025,0.000000,0.500000
0.067325,0.040974,-0.093166,-0.585709,0.000000,0.810522
0.010683,0.065544,0.256626,0.000000,0.000000,1.000000
0.007683,-0.016506,-0.114689,-0.066839,0.000000,0.997764
0.017195,0.007996,-0.113652,-0.149595,0.000000,0.988747
-0.157564,-0.051293,0.240344,-0.866025,0.000000,0.500000
0.187767,-0.032492,0.188031,0.866025,0.000000,0.500000
-0.249599,0.020132,0.080935,-0.866025,0.000000,0.500000
0.279290,0.020165,0.029508,0.866025,0.000000,0.500000
-0.165449,-0.043450,0.226686,-0.866025,0.000000,0.500000
-0.118801,-0.089682,-0.256626,-0.000000,0.000000,-1.000000
-0.172116,-0.027093,0.215139,-0.866025,0.000000,0.500000
-0.024993,0.002920,0.256626,0.000000,0.000000,1.000000
0.238247,-0.041698,-0.100598,0.866025,0.000000,-0.500000
-0.077607,-0.082957,-0.256626,-0.000000,0.000000,-1.000000
-0.281492,-0.012316,0.025695,-0.866025,0.000000,0.500000
0.047876,-0.083425,-0.256626,-0.000000,0.000000,-1.000000
-0.099356,-0.038456,-0.057800,0.864376,0.000000,0.502847
-0.000984,0.016073,0.114941,0.008557,0.000000,-0.999963
0.292580,0.085905,0.006490,0.866025,0.000000,0.500000
0.274722,-0.072266,-0.037421,0.866025,0.000000,-0.500000
0.107618,-0.083381,0.256626,0.000000,0.000000,1.000000
-0.212839,-0.012713,-0.144604,-0.866025,0.000000,-0.500000
-0.060217,-0.094957,-0.115097,0.000000,-1.000000,0.000000
-0.058083,-0.053828,-0.256626,-0.000000,0.000000,-1.000000
-0.234767,-0.062116,0.106625,-0.866025,0.000000,0.500000
0.110498,-0.052676,-0.256626,-0.000000,0.000000,-1.000000
-0.087554,0.090947,0.256626,0.000000,0.000000,1.000000
-0.006161,0.004502,0.256626,0.000000,0.000000,1.000000
-0.152238,-0.043824,-0.249569,-0.866025,0.000000,-0.500000
-0.149516,0.062031,-0.254284,-0.866025,0.000000,-0.500000
0.128253,-0.094957,0.034242,0.000000,-1.000000,0.000000
-0.000061,-0.036495,0.256626,0.000000,0.000000,1.000000
-0.205192,-0.081818,0.157850,-0.866025,0.000000,0.500000
-0.180129,-0.061978,-0.201261,-0.866025,0.000000,-0.500000
-0.106105,-0.070947,0.256626,0.000000,0.000000,1.000000
0.022378,0.032507,0.256626,0.000000,0.000000,1.000000
0.090472,0.049559,-0.070904,-0.787082,0.000000,0.616849
0.190004,0.035693,-0.184156,0.866025,0.000000,-0.500000
-0.130774,0.030454,-0.256626,-0.000000,0.000000,-1.000000
0.140599,-0.094957,0.103071,0.000000,-1.000000,0.000000
0.104871,-0.029210,0.047059,-0.912355,0.000000,-0.409399
-0.239598,-0.016684,0.098256,-0.866025,0.000000,0.500000
0.202744,-0.050295,-0.162089,0.866025,0.000000,-0.500000
-0.242941,0.029779,-0.092466,-0.866025,0.000000,-0.500000
-0.042637,0.094957,0.129782,0.000000,1.000000,0.000000
0.214500,-0.061364,-0.141729,0.866025,0.000000,-0.500000
0.167526,0.001540,0.223089,0.866025,0.000000,0.500000
-0.249480,-0.090841,-0.081141,-0.866025,0.000000,-0.500000
-0.010396,-0.094957,0.233459,0.000000,-1.000000,0.000000
-0.168794,0.026226,-0.220893,-0.866025,0.000000,-0.500000
0.114869,-0.012673,0.004203,-0.999331,0.000000,-0.036563
0.275137,0.081164,0.036701,0.866025,0.000000,0.500000
0.114309,0.008191,0.012078,-0.994464,0.000000,-0.105074
-0.068423,-0.094957,0.195819,0.000000,-1.000000,0.000000
-0.073240,-0.094607,-0.088591,0.637170,0.000000,0.770723
-0.258956,-0.067372,0.064728,-0.866025,0.000000,0.500000
0.165926,-0.082458,-0.225861,0.866025,0.000000,-0.500000
-0.171926,0.072758,0.215469,-0.866025,0.000000,0.500000
-0.262221,-0.017684,-0.059072,-0.866025,0.000000,-0.500000
-0.225526,-0.063087,0.122631,-0.866025,0.000000,0.500000
0.276980,-0.013041,-0.033509,0.866025,0.000000,-0.500000
-0.098116,0.075326,-0.059880,0.853590,0.000000,0.520946
-0.020485,-0.087233,-0.113106,0.178217,0.000000,0.983991
0.092675,-0.041249,0.256626,0.000000,0.000000,1.000000
0.182987,0.078559,0.196310,0.866025,0.000000,0.500000
-0.106317,-0.094957,0.161669,0.000000,-1.000000,0.000000
-0.067479,0.094957,-0.151006,0.000000,1.000000,0.000000
-0.021223,0.025107,0.256626,0.000000,0.000000,1.000000
-0.091628,-0.071592,0.256626,0.000000,0.000000,1.000000
-0.217535,-0.094957,0.090105,0.000000,-1.000000,0.000000
0.121994,-0.039382,0.256626,0.000000,0.000000,1.000000
0.187555,-0.063271,-0.188399,0.866025,0.000000,-0.500000
0.112660,0.094225,-0.022809,-0.980114,0.000000,0.198435
-0.006725,0.011994,-0.114749,0.058502,0.000000,0.998287
-0.108175,-0.009821,0.038867,0.941097,0.000000,-0.338137
0.184723,-0.089729,-0.193302,0.866025,0.000000,-0.500000
-0.259747,0.079610,0.063357,-0.866025,0.000000,0.500000
0.295675,-0.082141,0.001128,0.866025,0.000000,0.500000
-0.048671,-0.057790,0.104133,0.423429,0.000000,-0.905929
0.218245,0.032921,0.135242,0.866025,0.000000,0.500000
-0.195475,0.062345,-0.174680,-0.866025,0.000000,-0.500000
-0.132913,0.051151,-0.256626,-0.000000,0.000000,-1.000000
-0.183707,-0.049356,0.195064,-0.866025,0.000000,0.500000
-0.105117,0.091114,0.256626,0.000000,0.000000,1.000000
0.138161,0.010492,-0.256626,-0.000000,0.000000,-1.000000
-0.239773,0.062407,-0.097954,-0.866025,0.000000,-0.500000
0.179523,-0.003596,0.202310,0.866025,0.000000,0.500000
-0.279436,0.049330,-0.029255,-0.866025,0.000000,-0.500000
-0.093738,-0.094957,-0.114074,0.000000,-1.000000,0.000000
-0.034084,-0.050551,-0.256626,-0.000000,0.000000,-1.000000
-0.261932,0.085041,-0.059573,-0.866025,0.000000,-0.500000
0.237932,0.017584,0.101142,0.866025,0.000000,0.500000
-0.243495,0.087574,0.091507,-0.866025,0.000000,0.500000
-0.186439,-0.041925,-0.190331,-0.866025,0.000000,-0.500000
-0.161124,-0.094957,-0.009297,0.000000,-1.000000,0.000000
0.120275,0.094957,-0.012392,0.000000,1.000000,0.000000
0.085761,-0.046702,-0.256626,-0.000000,0.000000,-1.000000
-0.181679,-0.063826,-0.198576,-0.866025,0.000000,-0.500000
-0.153912,-0.094957,0.110610,0.000000,-1.000000,0.000000
0.233593,-0.094957,-0.015176,0.000000,-1.000000,0.000000
0.174474,-0.002181,-0.211054,0.866025,0.000000,-0.500000
0.237206,0.036733,0.102400,0.866025,0.000000,0.500000
0.165010,0.022446,0.227447,0.866025,0.000000,0.500000
0.029075,0.094957,0.175720,0.000000,1.000000,0.000000
-0.121847,-0.094957,-0.092865,0.000000,-1.000000,0.000000
-0.220435,-0.089965,0.131447,-0.866025,0.000000,0.500000
-0.006945,0.078434,0.256626,0.000000,0.000000,1.000000
-0.244380,-0.070478,-0.089974,-0.866025,0.000000,-0.500000
0.155779,-0.094957,0.173505,0.000000,-1.000000,0.000000
0.026240,0.094957,0.226166,0.000000,1.000000,0.000000
0.238458,0.068824,0.100231,0.866025,0.000000,0.500000
-0.178620,-0.090246,0.203873,-0.866025,0.000000,0.500000
0.091829,-0.004935,-0.069137,-0.798888,0.000000,0.601480
0.131107,0.094957,0.107627,0.000000,1.000000,0.000000
0.062212,0.034897,-0.256626,-0.000000,0.000000,-1.000000
-0.002977,0.034929,-0.114907,0.025902,0.000000,0.999664
0.212558,0.008409,-0.145092,0.866025,0.000000,-0.500000
-0.110716,-0.033936,0.256626,0.000000,0.000000,1.000000
0.040455,-0.036265,0.256626,0.000000,0.000000,1.000000
0.059151,0.026767,-0.256626,-0.000000,0.000000,-1.000000
0.231192,-0.071051,0.112817,0.866025,0.000000,0.500000
-0.031547,-0.093409,0.110532,0.274449,0.000000,-0.961602
-0.031268,0.094957,0.110910,0.000000,1.000000,0.000000
-0.290376,-0.074776,0.010307,-0.866025,0.000000,0.500000
0.052957,-0.079351,0.102020,-0.460713,0.000000,-0.887549
-0.150458,-0.052084,0.252652,-0.866025,0.000000,0.500000
-0.165910,-0.058849,-0.225887,-0.866025,0.000000,-0.500000
-0.241156,-0.085105,0.095557,-0.866025,0.000000,0.500000
0.220288,0.052632,0.131703,0.866025,0.000000,0.500000
0.091470,0.080978,-0.069612,-0.795765,0.000000,0.605605
0.065422,0.040731,-0.256626,-0.000000,0.000000,-1.000000
-0.054228,0.078013,-0.101350,0.471773,0.000000,0.881720
0.064844,0.020358,0.094909,-0.564128,0.000000,-0.825687
-0.229346,-0.013094,-0.116014,-0.866025,0.000000,-0.500000
-0.168920,-0.006985,-0.220676,-0.866025,0.000000,-0.500000
-0.114536,-0.069807,-0.009699,0.996434,0.000000,0.084379
-0.138206,-0.049684,0.256626,0.000000,0.000000,1.000000
-0.217074,0.052750,-0.137269,-0.866025,0.000000,-0.500000
-0.115077,-0.094957,0.136305,0.000000,-1.000000,0.000000
0.105031,0.061346,-0.256626,-0.000000,0.000000,-1.000000
-0.203939,-0.093930,0.160021,-0.866025,0.000000,0.500000
0.075046,-0.050749,-0.256626,-0.000000,0.000000,-1.000000
-0.022518,-0.007087,0.256626,0.000000,0.000000,1.000000
-0.070838,0.091294,-0.256626,-0.000000,0.000000,-1.000000
-0.289782,-0.072119,0.011336,-0.866025,0.000000,0.500000
0.090288,-0.040803,0.256626,0.000000,0.000000,1.000000
-0.083031,0.040358,0.256626,0.000000,0.000000,1.000000
-0.178542,0.075993,0.204008,-0.866025,0.000000,0.500000
-0.263413,-0.057330,-0.057008,-0.866025,0.000000,-0.500000
-0.196485,0.094957,-0.035271,0.000000,1.000000,0.000000
0.106981,0.072020,-0.042043,-0.930709,0.000000,0.365762
0.068409,0.094957,0.131330,0.000000,1.000000,0.000000
0.257850,0.015605,0.066643,0.866025,0.000000,0.500000
0.210753,0.094649,-0.148218,0.866025,0.000000,-0.500000
-0.172440,0.051389,-0.214577,-0.866025,0.000000,-0.500000
0.255319,-0.003975,-0.071028,0.866025,0.000000,-0.500000
0.249435,-0.061639,-0.081218,0.866025,0.000000,-0.500000
-0.273898,-0.041091,-0.038847,-0.866025,0.000000,-0.500000
0.010481,0.094957,-0.123588,0.000000,1.000000,0.000000
0.245703,-0.085160,0.087683,0.866025,0.000000,0.500000
-0.211139,-0.014319,-0.147549,-0.866025,0.000000,-0.500000
0.178317,-0.054319,0.204398,0.866025,0.000000,0.500000
-0.133767,-0.094957,0.193774,0.000000,-1.000000,0.000000
0.206153,0.038464,0.156186,0.866025,0.000000,0.500000
-0.005287,-0.026350,-0.256626,-0.000000,0.000000,-1.000000
0.173461,-0.039929,-0.212809,0.866025,0.000000,-0.500000
0.084663,-0.080718,-0.256626,-0.000000,0.000000,-1.000000
-0.281970,0.058796,0.024867,-0.866025,0.000000,0.500000
0.066553,0.015830,0.256626,0.000000,0.000000,1.000000
0.062521,-0.065677,-0.096455,-0.543920,0.000000,0.839137
0.131981,-0.074600,-0.256626,-0.000000,0.000000,-1.000000
0.085118,0.022092,-0.077250,-0.740503,0.000000,0.672053
-0.223375,0.042094,-0.126356,-0.866025,0.000000,-0.500000
-0.155690,-0.034901,-0.243590,-0.866025,0.000000,-0.500000
-0.073223,-0.094957,-0.101345,0.000000,-1.000000,0.000000
0.083051,0.040751,-0.256626,-0.000000,0.000000,-1.000000
0.195470,-0.050102,0.174689,0.866025,0.000000,0.500000
-0.067773,-0.050901,-0.092840,0.589613,0.000000,0.807686
0.072667,-0.094957,-0.219395,0.000000,-1.000000,0.000000
0.033574,-0.022305,0.256626,0.000000,0.000000,1.000000
-0.160774,0.094957,-0.003546,0.000000,1.000000,0.000000
0.210611,-0.086029,0.148463,0.866025,0.000000,0.500000
-0.204945,0.016377,-0.158278,-0.866025,0.000000,-0.500000
0.292598,0.020307,0.006458,0.866025,0.000000,0.500000
-0.022486,0.054820,-0.112725,0.195620,0.000000,0.980680
-0.181722,0.040876,0.198501,-0.866025,0.000000,0.500000
-0.011971,0.061281,-0.114321,0.104145,0.000000,0.994562
-0.225666,-0.094957,-0.078413,0.000000,-1.000000,0.000000
0.239249,0.014813,0.098862,0.866025,0.000000,0.500000
0.257617,0.018939,0.067046,0.866025,0.000000,0.500000
-0.180894,-0.063435,0.199936,-0.866025,0.000000,0.500000
0.280671,-0.066420,0.027116,0.866025,0.000000,0.500000
-0.273503,0.065909,-0.039531,-0.866025,0.000000,-0.500000
-0.046233,-0.094957,-0.113098,0.000000,-1.000000,0.000000
0.022484,-0.046613,0.256626,0.000000,0.000000,1.000000
0.042888,-0.094957,-0.143215,0.000000,-1.000000,0.000000
-0.181856,0.004984,0.198269,-0.866025,0.000000,0.500000
0.229094,-0.025777,-0.116450,0.866025,0.000000,-0.500000
0.280913,0.044216,-0.026697,0.866025,0.000000,-0.500000
-0.227239,-0.053542,0.119664,-0.866025,0.000000,0.500000
-0.183061,-0.037604,-0.196182,-0.866025,0.000000,-0.500000
0.295556,-0.063500,0.001335,0.866025,0.000000,0.500000
-0.225994,-0.069942,-0.121820,-0.866025,0.000000,-0.500000
0.103029,0.065674,-0.050966,-0.896327,0.000000,0.443394
0.103869,-0.094957,-0.220351,0.000000,-1.000000,0.000000
0.171231,0.084461,0.216673,0.866025,0.000000,0.500000
0.212258,0.084094,-0.145611,0.866025,0.000000,-0.500000
0.114131,-0.043019,-0.013660,-0.992914,0.000000,0.118835
-0.295820,-0.005523,0.000878,-0.866025,0.000000,0.500000
-0.075489,0.094957,-0.165211,0.000000,1.000000,0.000000
0.181411,0.058394,0.199039,0.866025,0.000000,0.500000
-0.242600,0.054731,-0.093058,-0.866025,0.000000,-0.500000
0.143439,-0.022751,-0.256626,-0.000000,0.000000,-1.000000
-0.222056,-0.050201,0.128640,-0.866025,0.000000,0.500000
0.245321,0.094957,0.054797,0.000000,1.000000,0.000000
0.206416,-0.060164,0.155729,0.866025,0.000000,0.500000
0.173752,-0.073362,0.212306,0.866025,0.000000,0.500000
0.131355,-0.032707,0.256626,0.000000,0.000000,1.000000
-0.165474,-0.021620,0.226643,-0.866025,0.000000,0.500000
0.116884,-0.070573,0.256626,0.000000,0.000000,1.000000
-0.078679,-0.011432,0.083798,0.684491,0.000000,-0.729021
-0.224096,0.033032,0.125107,-0.866025,0.000000,0.500000
-0.092501,-0.032972,-0.068235,0.804739,0.000000,0.593629
-0.245743,0.054927,0.087613,-0.866025,0.000000,0.500000
-0.085792,0.092193,0.256626,0.000000,0.000000,1.000000
0.157282,0.036591,0.240832,0.866025,0.000000,0.500000
-0.016502,0.016580,-0.256626,-0.000000,0.000000,-1.000000
-0.295928,-0.032611,0.000690,-0.866025,0.000000,0.500000
-0.279990,0.010138,0.028296,-0.866025,0.000000,0.500000
-0.266330,0.086296,-0.051956,-0.866025,0.000000,-0.500000
-0.179916,-0.094957,0.026231,0.000000,-1.000000,0.000000
0.210612,0.045383,0.148463,0.866025,0.000000,0.500000
0.114097,-0.093709,0.013943,-0.992616,0.000000,-0.121299
-0.151478,0.094957,0.089856,0.000000,1.000000,0.000000
0.120048,-0.094957,-0.057422,0.000000,-1.000000,0.000000
-0.177821,-0.021060,0.205258,-0.866025,0.000000,0.500000
-0.202055,-0.041014,-0.163283,-0.866025,0.000000,-0.500000
-0.030584,-0.005601,-0.110802,0.266072,0.000000,0.963953
-0.114435,-0.094957,0.160310,0.000000,-1.000000,0.000000
0.233735,0.014871,-0.108412,0.866025,0.000000,-0.500000
0.185599,0.047282,0.191786,0.866025,0.000000,0.500000
0.102815,-0.066916,-0.051397,-0.894465,0.000000,0.447138
0.114628,0.042591,0.008540,-0.997236,0.000000,-0.074293
-0.023534,0.005647,0.256626,0.000000,0.000000,1.000000
0.208882,0.094957,0.055164,0.000000,1.000000,0.000000
-0.200923,0.019990,0.165245,-0.866025,0.000000,0.500000
0.292566,0.083791,-0.006513,0.866025,0.000000,-0.500000
0.052679,-0.094957,-0.200387,0.000000,-1.000000,0.000000
-0.094483,0.094957,0.151194,0.000000,1.000000,0.000000
-0.079306,-0.045999,0.256626,0.000000,0.000000,1.000000
-0.176331,0.073125,-0.207838,-0.866025,0.000000,-0.500000
0.200304,-0.036678,0.166316,0.866025,0.000000,0.500000
-0.237152,0.041606,-0.102493,-0.866025,0.000000,-0.500000
0.001283,-0.056289,-0.256626,-0.000000,0.000000,-1.000000
0.037090,-0.094957,-0.111242,0.000000,-1.000000,0.000000
0.296060,0.040139,-0.000462,0.866025,0.000000,-0.500000
-0.277187,0.067806,-0.033150,-0.866025,0.000000,-0.500000
0.240302,0.094957,0.039114,0.000000,1.000000,0.000000
-0.201881,0.014037,0.163584,-0.866025,0.000000,0.500000
0.071459,-0.065687,-0.256626,-0.000000,0.000000,-1.000000
0.154688,0.050188,0.245325,0.866025,0.000000,0.500000
0.107773,-0.094957,-0.154810,0.000000,-1.000000,0.000000
-0.086233,0.077459,-0.256626,-0.000000,0.000000,-1.000000
0.246265,-0.094676,0.086709,0.866025,0.000000,0.500000
-0.104854,-0.087324,-0.047097,0.912207,0.000000,0.409730
0.128861,0.090801,0.256626,0.000000,0.000000,1.000000
0.099917,0.093998,-0.056825,-0.869254,0.000000,0.494366
0.284850,0.052412,0.019878,0.866025,0.000000,0.500000
0.185871,-0.085734,0.191314,0.866025,0.000000,0.500000
0.165999,-0.006822,-0.225733,0.866025,0.000000,-0.500000
-0.149629,-0.059684,-0.254088,-0.866025,0.000000,-0.500000
-0.077968,-0.031862,-0.084460,0.678305,0.000000,0.734780
0.158176,-0.092585,-0.239283,0.866025,0.000000,-0.500000
-0.162493,0.036587,0.231806,-0.866025,0.000000,0.500000
0.074441,0.094957,-0.125207,0.000000,1.000000,0.000000
0.037556,0.088257,0.256626,0.000000,0.000000,1.000000
0.096721,-0.018604,0.256626,0.000000,0.000000,1.000000
0.231430,0.026171,-0.112404,0.866025,0.000000,-0.500000
-0.071881,-0.022358,-0.256626,-0.000000,0.000000,-1.000000
-0.179628,0.068840,-0.202128,-0.866025,0.000000,-0.500000
0.290157,-0.093055,0.010686,0.866025,0.000000,0.500000
0.164840,-0.094957,-0.026401,0.000000,-1.000000,0.000000
0.172216,-0.073221,-0.214966,0.866025,0.000000,-0.500000
0.179279,-0.006318,-0.202733,0.866025,0.000000,-0.500000
-0.094876,0.093581,0.256626,0.000000,0.000000,1.000000
0.260190,-0.024473,0.062591,0.866025,0.000000,0.500000
0.077160,0.032178,-0.256626,-0.000000,0.000000,-1.000000
-0.081099,-0.000658,-0.256626,-0.000000,0.000000,-1.000000
-0.195020,-0.019832,-0.175469,-0.866025,0.000000,-0.500000
0.264491,0.081332,0.055141,0.866025,0.000000,0.500000
-0.226008,0.069873,-0.121795,-0.866025,0.000000,-0.500000
0.088011,0.094957,-0.110432,0.000000,1.000000,0.000000
0.125182,0.094957,-0.047740,0.000000,1.000000,0.000000
0.127160,0.058494,0.256626,0.000000,0.000000,1.000000
0.121445,0.059546,-0.256626,-0.000000,0.000000,-1.000000
-0.206979,-0.007546,-0.154754,-0.866025,0.000000,-0.500000
0.011964,0.094957,0.141476,0.000000,1.000000,0.000000
0.242736,-0.043290,0.092821,0.866025,0.000000,0.500000
-0.081265,-0.062440,0.256626,0.000000,0.000000,1.000000
0.144768,0.094957,-0.066125,0.000000,1.000000,0.000000
-0.166707,0.030023,0.224507,-0.866025,0.000000,0.500000
-0.113807,-0.076343,0.016142,0.990090,0.000000,-0.140433
0.281024,0.055494,0.026504,0.866025,0.000000,0.500000
0.178458,0.036003,-0.204154,0.866025,0.000000,-0.500000
-0.142668,0.017664,-0.256626,-0.000000,0.000000,-1.000000
0.046231,0.083143,0.256626,0.000000,0.000000,1.000000
-0.078149,-0.027465,-0.256626,-0.000000,0.000000,-1.000000
-0.224491,0.036652,0.124423,-0.866025,0.000000,0.500000
0.273512,-0.068817,-0.039515,0.866025,0.000000,-0.500000
0.176396,-0.059818,0.207726,0.866025,0.000000,0.500000
-0.123614,0.094957,0.088468,0.000000,1.000000,0.000000
-0.290821,-0.013508,-0.009536,-0.866025,0.000000,-0.500000
0.231104,-0.013530,-0.112970,0.866025,0.000000,-0.500000
0.193195,0.011403,0.178630,0.866025,0.000000,0.500000
-0.237655,0.084880,0.101622,-0.866025,0.000000,0.500000
0.233594,-0.034089,-0.108656,0.866025,0.000000,-0.500000
0.252714,0.026031,-0.075538,0.866025,0.000000,-0.500000
0.286823,-0.037443,-0.016461,0.866025,0.000000,-0.500000
-0.097901,0.094957,-0.231208,0.000000,1.000000,0.000000
-0.257695,-0.036947,-0.066913,-0.866025,0.000000,-0.500000
-0.238426,0.091684,-0.100287,-0.866025,0.000000,-0.500000
0.155387,-0.094957,0.060071,0.000000,-1.000000,0.000000
-0.133550,0.094957,0.100372,0.000000,1.000000,0.000000
-0.095639,-0.070182,0.256626,0.000000,0.000000,1.000000
-0.065301,-0.063164,-0.256626,-0.000000,0.000000,-1.000000
0.007156,-0.036273,-0.256626,-0.000000,0.000000,-1.000000
-0.033850,0.082586,0.256626,0.000000,0.000000,1.000000
0.289027,-0.067849,-0.012643,0.866025,0.000000,-0.500000
-0.071386,0.071829,-0.256626,-0.000000,0.000000,-1.000000
-0.050316,0.038172,-0.256626,-0.000000,0.000000,-1.000000
0.014368,0.094957,-0.211002,0.000000,1.000000,0.000000
0.272545,-0.085520,0.041190,0.866025,0.000000,0.500000
0.182776,-0.007392,-0.196675,0.866025,0.000000,-0.500000
0.052739,-0.023593,-0.102133,-0.458815,0.000000,0.888532
-0.200742,-0.003231,0.165557,-0.866025,0.000000,0.500000
0.095866,-0.035507,-0.256626,-0.000000,0.000000,-1.000000
0.287142,0.079583,-0.015909,0.866025,0.000000,-0.500000
0.039874,-0.094957,-0.245520,0.000000,-1.000000,0.000000
0.162414,0.078943,-0.231944,0.866025,0.000000,-0.500000
0.003949,0.043900,0.256626,0.000000,0.000000,1.000000
0.245080,0.063423,-0.088762,0.866025,0.000000,-0.500000
-0.094710,-0.088347,0.256626,0.000000,0.000000,1.000000
0.016254,0.062771,-0.113791,-0.141402,0.000000,0.989952
-0.128687,-0.094957,-0.166388,0.000000,-1.000000,0.000000
-0.213550,0.026294,0.143373,-0.866025,0.000000,0.500000
-0.247291,0.026233,-0.084932,-0.866025,0.000000,-0.500000
0.107368,-0.039535,-0.256626,-0.000000,0.000000,-1.000000
-0.172964,-0.083261,0.213670,-0.866025,0.000000,0.500000
0.154664,-0.046749,-0.245367,0.866025,0.000000,-0.500000
0.140801,0.084224,-0.256626,-0.000000,0.000000,-1.000000
0.101585,0.023113,0.053787,-0.883763,0.000000,-0.467934
-0.015062,0.051361,0.113955,0.131037,0.000000,-0.991378
-0.208301,-0.039189,-0.152464,-0.866025,0.000000,-0.500000
0.040525,-0.070557,0.107565,-0.352554,0.000000,-0.935792
-0.256679,-0.043800,0.068671,-0.866025,0.000000,0.500000
0.231644,0.056282,0.112034,0.866025,0.000000,0.500000
-0.050392,-0.030719,-0.256626,-0.000000,0.000000,-1.000000
0.261054,-0.058685,0.061095,0.866025,0.000000,0.500000
0.218123,-0.072531,-0.135453,0.866025,0.000000,-0.500000
-0.189030,-0.094957,0.109349,0.000000,-1.000000,0.000000
0.073266,-0.053891,-0.088570,-0.637398,0.000000,0.770535
-0.109401,-0.020811,-0.035271,0.951759,0.000000,0.306847
0.262191,-0.054723,0.059124,0.866025,0.000000,0.500000
0.200368,-0.092315,0.166205,0.866025,0.000000,0.500000
0.148526,-0.039388,0.255997,0.866025,0.000000,0.500000
-0.110449,0.035630,0.031834,0.960884,0.000000,-0.276952
0.040988,0.094587,0.256626,0.000000,0.000000,1.000000
0.186387,0.039649,0.190421,0.866025,0.000000,0.500000
0.244992,-0.016072,0.088914,0.866025,0.000000,0.500000
0.066773,-0.031782,0.093562,-0.580911,0.000000,-0.813967
-0.164378,-0.064779,0.228542,-0.866025,0.000000,0.500000
0.156931,-0.061836,-0.241441,0.866025,0.000000,-0.500000
0.238511,0.022639,-0.100140,0.866025,0.000000,-0.500000
-0.234418,-0.064710,-0.107228,-0.866025,0.000000,-0.500000
0.207695,0.094957,-0.077744,0.000000,1.000000,0.000000
0.224061,-0.074249,-0.125168,0.866025,0.000000,-0.500000
-0.180299,0.082045,-0.200966,-0.866025,0.000000,-0.500000
0.262601,-0.073586,0.058415,0.866025,0.000000,0.500000
-0.089963,-0.094957,0.215617,0.000000,-1.000000,0.000000
-0.170250,0.071978,-0.218370,-0.866025,0.000000,-0.500000
-0.006556,0.085065,0.114759,0.057036,0.000000,-0.998372
-0.111611,-0.020771,0.256626,0.000000,0.000000,1.000000
-0.256817,-0.032284,-0.068432,-0.866025,0.000000,-0.500000
-0.062306,0.001596,-0.256626,-0.000000,0.000000,-1.000000
0.005353,-0.021334,-0.256626,-0.000000,0.000000,-1.000000
0.119755,0.014739,0.256626,0.000000,0.000000,1.000000
0.124365,0.035623,-0.256626,-0.000000,0.000000,-1.000000
0.119807,-0.046007,0.256626,0.000000,0.000000,1.000000
0.181880,-0.012839,-0.198227,0.866025,0.000000,-0.500000
-0.105904,-0.071134,-0.256626,-0.000000,0.000000,-1.000000
-0.200993,-0.035240,0.165122,-0.866025,0.000000,0.500000
-0.066977,-0.079330,-0.093416,0.582682,0.000000,0.812700
-0.159403,-0.007773,-0.237159,-0.866025,0.000000,-0.500000
0.074616,-0.094957,0.177440,0.000000,-1.000000,0.000000
0.044490,0.004186,0.256626,0.000000,0.000000,1.000000
0.219548,-0.050917,0.132984,0.866025,0.000000,0.500000
0.088976,0.050768,-0.256626,-0.000000,0.000000,-1.000000
-0.155478,-0.043663,-0.243958,-0.866025,0.000000,-0.500000
0.080158,0.066141,-0.082384,-0.697358,0.000000,0.716723
0.295878,0.084125,-0.000778,0.866025,0.000000,-0.500000
0.077801,-0.094957,0.200664,0.000000,-1.000000,0.000000
0.241464,0.043869,-0.095024,0.866025,0.000000,-0.500000
0.122491,0.094957,-0.058681,0.000000,1.000000,0.000000
-0.252620,-0.034367,0.075701,-0.866025,0.000000,0.500000
0.090977,-0.005410,-0.070255,-0.791476,0.000000,0.611201
0.081750,0.010969,-0.080805,-0.711203,0.000000,0.702986
-0.243761,-0.037423,-0.091046,-0.866025,0.000000,-0.500000
0.172530,0.094957,0.079381,0.000000,1.000000,0.000000
-0.252318,0.028461,-0.076226,-0.866025,0.000000,-0.500000
-0.124962,-0.094957,0.157925,0.000000,-1.000000,0.000000
-0.053958,0.027330,0.256626,0.000000,0.000000,1.000000
0.171716,-0.003267,0.215832,0.866025,0.000000,0.500000
0.140072,-0.094957,0.190894,0.000000,-1.000000,0.000000
0.151675,0.005771,0.250544,0.866025,0.000000,0.500000
-0.162638,0.018642,-0.231555,-0.866025,0.000000,-0.500000
0.188282,-0.004015,0.187138,0.866025,0.000000,0.500000
-0.049306,-0.077768,-0.256626,-0.000000,0.000000,-1.000000
-0.231626,0.035895,0.112064,-0.866025,0.000000,0.500000
0.241785,-0.050123,0.094469,0.866025,0.000000,0.500000
0.002361,0.005145,0.256626,0.000000,0.000000,1.000000
0.007673,0.003581,-0.256626,-0.000000,0.000000,-1.000000
-0.141207,0.094957,-0.075062,0.000000,1.000000,0.000000
-0.278731,0.041199,0.030476,-0.866025,0.000000,0.500000
0.015282,0.084292,0.256626,0.000000,0.000000,1.000000
0.061048,-0.037486,0.256626,0.000000,0.000000,1.000000
0.001612,-0.066251,0.256626,0.000000,0.000000,1.000000
0.272264,0.027263,-0.041678,0.866025,0.000000,-0.500000
-0.249596,0.049052,-0.080940,-0.866025,0.000000,-0.500000
0.104209,-0.094957,-0.138768,0.000000,-1.000000,0.000000
-0.102514,0.062282,0.051993,0.891852,0.000000,-0.452328
0.170095,-0.029240,0.218640,0.866025,0.000000,0.500000
0.180556,-0.093879,-0.200521,0.866025,0.000000,-0.500000
0.200275,0.094957,0.005329,0.000000,1.000000,0.000000
0.123639,-0.094957,-0.049116,0.000000,-1.000000,0.000000
-0.211420,0.087756,0.147063,-0.866025,0.000000,0.500000
-0.173691,-0.017847,-0.212411,-0.866025,0.000000,-0.500000
0.250387,0.004393,-0.079570,0.866025,0.000000,-0.500000
0.259841,-0.078003,0.063194,0.866025,0.000000,0.500000
0.127926,0.052718,-0.256626,-0.000000,0.000000,-1.000000
0.202976,0.031921,0.161688,0.866025,0.000000,0.500000
0.232424,0.058758,0.110683,0.866025,0.000000,0.500000
0.012448,-0.094957,0.216272,0.000000,-1.000000,0.000000
-0.141627,0.094957,-0.197861,0.000000,1.000000,0.000000
-0.073684,-0.015037,-0.088222,0.641032,0.000000,0.767515
0.099514,-0.063998,0.256626,0.000000,0.000000,1.000000
0.194417,0.088799,-0.176512,0.866025,0.000000,-0.500000
-0.032843,-0.091194,-0.256626,-0.000000,0.000000,-1.000000
0.173713,0.033959,0.212373,0.866025,0.000000,0.500000
0.036353,-0.019026,-0.256626,-0.000000,0.000000,-1.000000
0.216218,0.069360,-0.138751,0.866025,0.000000,-0.500000
-0.138628,0.056903,-0.256626,-0.000000,0.000000,-1.000000
-0.076098,-0.059915,0.086149,0.662036,0.000000,-0.749472
0.049001,0.084271,-0.256626,-0.000000,0.000000,-1.000000
-0.111108,-0.094627,0.029454,0.966614,0.000000,-0.256239
0.097469,0.094957,-0.164316,0.000000,1.000000,0.000000
0.262959,0.013337,0.057794,0.866025,0.000000,0.500000
-0.209881,0.041357,0.149729,-0.866025,0.000000,0.500000
-0.128326,-0.094957,0.025873,0.000000,-1.000000,0.000000
-0.258416,-0.054525,0.065663,-0.866025,0.000000,0.500000
0.123000,0.040318,0.256626,0.000000,0.000000,1.000000
0.166348,-0.076468,-0.225130,0.866025,0.000000,-0.500000
0.103634,-0.019412,0.049725,-0.901590,0.000000,-0.432592
0.062765,-0.065316,0.256626,0.000000,0.000000,1.000000
-0.118064,-0.075275,-0.256626,-0.000000,0.000000,-1.000000
-0.215186,-0.034942,0.140540,-0.866025,0.000000,0.500000
0.047911,-0.084606,0.256626,0.000000,0.000000,1.000000
-0.013597,0.094957,0.133998,0.000000,1.000000,0.000000
0.072204,-0.021302,0.089438,-0.628157,0.000000,-0.778087
0.196511,-0.067645,-0.172886,0.866025,0.000000,-0.500000
0.223145,-0.048189,-0.126754,0.866025,0.000000,-0.500000
0.063510,-0.022790,-0.256626,-0.000000,0.000000,-1.000000
-0.257364,-0.009201,-0.067485,-0.866025,0.000000,-0.500000
-0.251920,0.088410,0.076915,-0.866025,0.000000,0.500000
-0.213552,-0.056775,0.143370,-0.866025,0.000000,0.500000
-0.075534,-0.031872,-0.256626,-0.000000,0.000000,-1.000000
0.232495,0.032183,-0.110560,0.866025,0.000000,-0.500000
0.092805,0.076981,-0.067822,-0.807379,0.000000,0.590033
0.148562,0.049089,-0.255936,0.866025,0.000000,-0.500000
-0.127138,-0.021788,0.256626,0.000000,0.000000,1.000000
0.089667,0.014078,-0.071919,-0.780082,0.000000,0.625677
0.014811,-0.010373,0.256626,0.000000,0.000000,1.000000
0.132504,0.094957,-0.113874,0.000000,1.000000,0.000000
0.079202,-0.012390,0.256626,0.000000,0.000000,1.000000
-0.087325,0.081406,0.074746,0.759704,0.000000,-0.650269
0.060465,-0.068901,-0.256626,-0.000000,0.000000,-1.000000
0.237850,0.046593,-0.101284,0.866025,0.000000,-0.500000
-0.170826,-0.024544,-0.217374,-0.866025,0.000000,-0.500000
-0.096681,-0.066702,0.256626,0.000000,0.000000,1.000000
-0.151790,0.089578,0.250345,-0.866025,0.000000,0.500000
-0.195435,-0.050379,-0.174750,-0.866025,0.000000,-0.500000
0.114022,-0.033319,0.014541,-0.991966,0.000000,-0.126506
-0.271187,0.048632,-0.043544,-0.866025,0.000000,-0.500000
-0.113117,-0.012053,-0.020423,0.984089,0.000000,0.177679
0.089412,0.073236,0.256626,0.000000,0.000000,1.000000
-0.163858,0.007333,0.229442,-0.866025,0.000000,0.500000
-0.083645,0.063720,-0.256626,-0.000000,0.000000,-1.000000
0.091543,-0.094957,-0.123260,0.000000,-1.000000,0.000000
-0.106316,0.094957,0.223458,0.000000,1.000000,0.000000
0.048919,-0.016175,-0.104017,-0.425581,0.000000,0.904920
-0.243074,0.072765,-0.092236,-0.866025,0.000000,-0.500000
-0.133354,0.094957,-0.036248,0.000000,1.000000,0.000000
-0.169730,-0.017163,0.219272,-0.866025,0.000000,0.500000
0.284696,0.045314,-0.020145,0.866025,0.000000,-0.500000
0.271680,-0.010849,0.042689,0.866025,0.000000,0.500000
0.114673,-0.060073,0.007918,-0.997625,0.000000,-0.068886
0.089583,-0.034919,0.256626,0.000000,0.000000,1.000000
-0.097168,-0.007342,0.256626,0.000000,0.000000,1.000000
0.109711,0.029682,-0.256626,-0.000000,0.000000,-1.000000
-0.225541,-0.094957,-0.043649,0.000000,-1.000000,0.000000
-0.189016,0.045412,0.185868,-0.866025,0.000000,0.500000
-0.029192,0.002738,-0.256626,-0.000000,0.000000,-1.000000
-0.136596,0.072912,0.256626,0.000000,0.000000,1.000000
-0.114600,-0.066043,-0.008912,0.996990,0.000000,0.077532
0.076601,0.085447,-0.085702,-0.666407,0.000000,0.745588
0.112785,0.094957,0.095471,0.000000,1.000000,0.000000
0.030266,0.070494,-0.110889,-0.263311,0.000000,0.964711
-0.013382,-0.085053,-0.256626,-0.000000,0.000000,-1.000000
-0.140800,0.008390,0.256626,0.000000,0.000000,1.000000
0.185855,-0.071200,0.191342,0.866025,0.000000,0.500000
-0.158241,-0.030705,-0.239172,-0.866025,0.000000,-0.500000
-0.114305,0.030680,-0.256626,-0.000000,0.000000,-1.000000
-0.268038,-0.045327,-0.048997,-0.866025,0.000000,-0.500000
0.285543,-0.005186,-0.018678,0.866025,0.000000,-0.500000
-0.241673,0.075222,0.094663,-0.866025,0.000000,0.500000
-0.041876,0.021050,0.107046,0.364315,0.000000,-0.931276
-0.273344,0.050827,0.039806,-0.866025,0.000000,0.500000
0.014641,-0.062228,-0.256626,-0.000000,0.000000,-1.000000
0.276305,0.086074,0.034679,0.866025,0.000000,0.500000
0.107793,-0.094957,-0.208491,0.000000,-1.000000,0.000000
0.104351,-0.038797,0.048201,-0.907830,0.000000,-0.419338
-0.142841,-0.091238,0.256626,0.000000,0.000000,1.000000
0.010575,-0.094957,0.128322,0.000000,-1.000000,0.000000
-0.158057,0.094957,-0.077081,0.000000,1.000000,0.000000
-0.282893,0.030886,0.023267,-0.866025,0.000000,0.500000
-0.183013,-0.073778,0.196265,-0.866025,0.000000,0.500000
0.258099,0.080980,-0.066212,0.866025,0.000000,-0.500000
0.012930,0.074617,0.256626,0.000000,0.000000,1.000000
-0.107525,0.007436,-0.040631,0.935441,0.000000,0.353482
0.044671,0.094957,0.180815,0.000000,1.000000,0.000000
0.097466,-0.008364,0.256626,0.000000,0.000000,1.000000
0.025297,0.033402,-0.256626,-0.000000,0.000000,-1.000000
0.285782,0.029487,-0.018264,0.866025,0.000000,-0.500000
-0.175811,-0.091761,-0.208740,-0.866025,0.000000,-0.500000
0.040521,0.059669,-0.107566,-0.352527,0.000000,0.935802
-0.215578,0.062044,-0.139861,-0.866025,0.000000,-0.500000
-0.083032,-0.094957,-0.218286,0.000000,-1.000000,0.000000
0.094834,0.094957,0.066969,0.000000,1.000000,0.000000
-0.054605,0.028769,-0.101147,0.475053,0.000000,0.879957
-0.006297,0.083382,0.256626,0.000000,0.000000,1.000000
-0.230389,0.000936,-0.114207,-0.866025,0.000000,-0.500000
-0.166903,-0.025841,0.224168,-0.866025,0.000000,0.500000
-0.261480,-0.004723,0.060356,-0.866025,0.000000,0.500000
-0.069658,-0.013921,-0.256626,-0.000000,0.000000,-1.000000
-0.034899,-0.068541,0.256626,0.000000,0.000000,1.000000
0.222218,0.078606,-0.128359,0.866025,0.000000,-0.500000
0.189873,0.018043,-0.184382,0.866025,0.000000,-0.500000
0.078928,0.060163,-0.256626,-0.000000,0.000000,-1.000000
-0.177691,-0.081141,0.205482,-0.866025,0.000000,0.500000
-0.031341,-0.076315,0.256626,0.000000,0.000000,1.000000
-0.195475,-0.050852,0.174680,-0.866025,0.000000,0.500000
-0.148164,-0.075880,0.256625,-0.866025,0.000000,0.500000
0.041981,-0.071369,-0.256626,-0.000000,0.000000,-1.000000
0.028327,-0.051953,0.256626,0.000000,0.000000,1.000000
0.093782,-0.094957,-0.118837,0.000000,-1.000000,0.000000
0.247932,-0.094957,0.000485,0.000000,-1.000000,0.000000
0.250506,0.003864,-0.079364,0.866025,0.000000,-0.500000
-0.270064,-0.074725,0.045487,-0.866025,0.000000,0.500000
0.052516,0.075695,-0.256626,-0.000000,0.000000,-1.000000
0.255931,0.018507,0.069967,0.866025,0.000000,0.500000
-0.280114,-0.071696,-0.028082,-0.866025,0.000000,-0.500000
-0.132854,0.023424,-0.256626,-0.000000,0.000000,-1.000000
-0.088050,-0.070572,-0.073890,0.766013,0.000000,0.642825
0.249622,-0.019961,0.080895,0.866025,0.000000,0.500000
-0.272292,0.079168,-0.041629,-0.866025,0.000000,-0.500000
-0.183516,0.090150,-0.195394,-0.866025,0.000000,-0.500000
0.268326,0.071188,-0.048498,0.866025,0.000000,-0.500000
0.019232,-0.090567,0.113325,-0.167315,0.000000,-0.985903
-0.030933,0.042007,0.256626,0.000000,0.000000,1.000000
-0.253819,-0.040140,-0.073626,-0.866025,0.000000,-0.500000
0.262369,-0.000942,0.058816,0.866025,0.000000,0.500000
-0.098839,0.006756,-0.256626,-0.000000,0.000000,-1.000000
0.040084,0.030115,-0.107730,-0.348723,0.000000,0.937226
0.201179,-0.028815,-0.164800,0.866025,0.000000,-0.500000
0.003766,0.008364,0.114884,-0.032763,0.000000,-0.999463
0.180670,-0.008571,-0.200323,0.866025,0.000000,-0.500000
-0.235007,-0.094957,-0.042660,0.000000,-1.000000,0.000000
-0.135265,-0.090493,-0.256626,-0.000000,0.000000,-1.000000
-0.066271,-0.007250,-0.093919,0.576539,0.000000,0.817069
-0.245556,0.053672,0.087937,-0.866025,0.000000,0.500000
-0.293749,-0.038039,-0.004464,-0.866025,0.000000,-0.500000
-0.230586,-0.004691,0.113865,-0.866025,0.000000,0.500000
0.122442,0.094957,0.122417,0.000000,1.000000,0.000000
-0.118027,0.043026,0.256626,0.000000,0.000000,1.000000
-0.053259,0.007334,-0.256626,-0.000000,0.000000,-1.000000
-0.283257,-0.011815,0.022637,-0.866025,0.000000,0.500000
-0.212803,-0.035760,0.144668,-0.866025,0.000000,0.500000
0.191950,0.094957,0.132636,0.000000,1.000000,0.000000
-0.106367,-0.046907,-0.043572,0.925371,0.000000,0.379063
0.097982,-0.030843,0.256626,0.000000,0.000000,1.000000
-0.148926,0.094957,0.163434,0.000000,1.000000,0.000000
0.145612,-0.078669,0.256626,0.000000,0.000000,1.000000
-0.197067,-0.094957,-0.016982,0.000000,-1.000000,0.000000
-0.210857,0.061702,0.148037,-0.866025,0.000000,0.500000
0.271739,-0.047939,-0.042587,0.866025,0.000000,-0.500000
-0.159244,0.050617,-0.237434,-0.866025,0.000000,-0.500000
-0.208427,-0.014727,-0.152246,-0.866025,0.000000,-0.500000
0.267517,0.042400,0.049900,0.866025,0.000000,0.500000
0.111174,0.094957,-0.103053,0.000000,1.000000,0.000000
0.260053,0.084792,0.062827,0.866025,0.000000,0.500000
0.293594,0.077091,-0.004733,0.866025,0.000000,-0.500000
0.153621,-0.080353,0.247174,0.866025,0.000000,0.500000
-0.164255,-0.076725,-0.228755,-0.866025,0.000000,-0.500000
-0.222530,-0.006526,0.127820,-0.866025,0.000000,0.500000
-0.081875,-0.037728,0.256626,0.000000,0.000000,1.000000
-0.215597,0.044781,-0.139828,-0.866025,0.000000,-0.500000
-0.009339,-0.022015,-0.256626,-0.000000,0.000000,-1.000000
0.016788,-0.044443,0.256626,0.000000,0.000000,1.000000
0.227430,-0.050922,0.119332,0.866025,0.000000,0.500000
-0.221715,-0.038338,-0.129232,-0.866025,0.000000,-0.500000
-0.033457,0.006396,0.256626,0.000000,0.000000,1.000000
-0.200062,-0.071870,0.166735,-0.866025,0.000000,0.500000
0.293912,-0.068310,-0.004183,0.866025,0.000000,-0.500000
-0.225551,-0.061435,0.122586,-0.866025,0.000000,0.500000
-0.273097,-0.032305,0.040235,-0.866025,0.000000,0.500000
0.037054,0.048389,0.108809,-0.322361,0.000000,-0.946617
-0.152996,0.028475,0.248256,-0.866025,0.000000,0.500000
-0.037728,-0.073743,-0.256626,-0.000000,0.000000,-1.000000
0.266656,-0.018389,-0.051392,0.866025,0.000000,-0.500000
0.027875,0.081834,-0.256626,-0.000000,0.000000,-1.000000
-0.112603,-0.044158,-0.023090,0.979616,0.000000,0.200880
-0.005592,-0.007126,0.256626,0.000000,0.000000,1.000000
0.273528,0.039878,-0.039488,0.866025,0.000000,-0.500000
0.121223,-0.032584,0.256626,0.000000,0.000000,1.000000
-0.076751,0.058454,-0.085568,0.667715,0.000000,0.744417
0.096895,0.043041,0.061837,-0.842966,0.000000,-0.537966
-0.174655,0.094957,-0.052686,0.000000,1.000000,0.000000
-0.220724,0.031075,0.130948,-0.866025,0.000000,0.500000
-0.084228,0.020227,-0.078219,0.732760,0.000000,0.680487
0.216594,-0.094957,-0.025616,0.000000,-1.000000,0.000000
-0.156086,0.059848,-0.242904,-0.866025,0.000000,-0.500000
-0.163853,-0.045251,0.229451,-0.866025,0.000000,0.500000
-0.226574,-0.001964,-0.120815,-0.866025,0.000000,-0.500000
-0.090101,-0.056027,0.256626,0.000000,0.000000,1.000000
0.018095,-0.053824,-0.256626,-0.000000,0.000000,-1.000000
0.192730,-0.082380,-0.179434,0.866025,0.000000,-0.500000
-0.103957,0.073771,0.049046,0.904399,0.000000,-0.426688
-0.234388,0.043323,-0.107280,-0.866025,0.000000,-0.500000
-0.130415,-0.060886,0.256626,0.000000,0.000000,1.000000
-0.164546,0.088736,0.228251,-0.866025,0.000000,0.500000
-0.264729,0.064490,0.054730,-0.866025,0.000000,0.500000
0.279978,-0.029509,-0.028317,0.866025,0.000000,-0.500000
-0.109318,-0.032633,0.256626,0.000000,0.000000,1.000000
-0.248821,-0.034432,-0.082282,-0.866025,0.000000,-0.500000
