x,y,z,nx,ny,nz
-24.404917,16.952943,-8.442808,-1.000000,0.000000,0.000000
-10.177995,6.311784,-16.225637,0.000000,0.000000,-1.000000
23.551992,-20.063885,16.225637,0.000000,0.000000,1.000000
24.404917,2.622312,-11.147973,1.000000,0.000000,-0.000000
-8.374983,14.084933,-10.905491,-0.000000,1.000000,0.000000
-10.463861,6.066671,-8.466120,0.773010,-0.000000,0.634393
12.485201,-1.169237,5.194265,-0.881921,-0.000000,-0.471397
18.711918,27.453571,5.133833,-0.000000,1.000000,0.000000
12.814150,14.641502,-12.705162,-0.751840,0.000000,0.659346
15.465258,-1.357410,-16.225637,0.000000,0.000000,-1.000000
-11.303707,-14.927724,-7.404685,0.881921,-0.000000,0.471397
1.347785,-12.279461,-13.391903,-0.098017,0.000000,0.995185
-14.523727,12.453007,16.225637,0.000000,-0.000000,1.000000
24.404917,6.005977,7.046418,1.000000,-0.000000,0.000000
-19.256327,-11.672435,3.230548,0.634394,-0.000000,-0.773010
-11.747301,-16.506291,6.574779,0.881921,0.000000,-0.471397
20.747016,27.453571,4.802680,-0.000000,1.000000,0.000000
-17.194502,24.582078,-16.225637,0.000000,0.000000,-1.000000
24.404917,18.660772,15.522584,1.000000,-0.000000,0.000000
16.493527,8.233267,-4.318271,-0.098017,0.000000,0.995185
15.048270,0.853394,-16.225637,0.000000,0.000000,-1.000000
-21.592067,-8.944789,-16.225637,0.000000,0.000000,-1.000000
-13.631218,19.084585,16.225637,0.000000,-0.000000,1.000000
-16.996985,-27.453571,12.148053,0.000000,-1.000000,0.000000
24.404917,-15.494919,9.143947,1.000000,0.000000,-0.000000
-19.255300,16.574972,-16.225637,0.000000,0.000000,-1.000000
-24.404917,-11.870870,-9.831699,-1.000000,0.000000,0.000000
24.404917,-14.659875,-11.550769,1.000000,0.000000,-0.000000
-24.404917,24.671908,-7.115838,-1.000000,0.000000,0.000000
12.387798,-27.453571,-11.478992,0.000000,-1.000000,0.000000
-10.078755,13.344226,8.935373,0.773010,0.000000,-0.634393
-11.238351,16.691090,14.100509,0.659346,0.000000,-0.751840
14.011256,14.910863,16.225637,0.000000,0.000000,1.000000
20.031957,26.763779,-2.349186,-0.881921,0.000000,0.471398
24.404917,-22.987264,7.417331,1.000000,0.000000,-0.000000
7.987114,14.084933,13.605583,-0.000000,1.000000,0.000000
-24.404917,-0.116222,8.241366,-1.000000,0.000000,0.000000
19.045241,-0.199718,3.403782,-0.634392,0.000000,-0.773011
24.404917,-26.499378,-10.780040,1.000000,0.000000,-0.000000
-24.404917,0.954347,13.799963,-1.000000,0.000000,0.000000
15.356160,12.586203,16.225637,0.000000,0.000000,1.000000
-16.225285,16.163837,16.225637,0.000000,-0.000000,1.000000
24.404917,-2.998922,-4.714611,1.000000,0.000000,-0.000000
21.685942,-27.453571,-2.030516,-0.000000,-1.000000,0.000000
-10.865038,14.850966,16.225637,0.000000,0.000000,1.000000
16.830871,-14.339044,16.225637,0.000000,0.000000,1.000000
-18.038791,12.202618,4.004298,0.290284,0.000000,-0.956940
22.387395,-20.582695,16.225637,0.000000,0.000000,1.000000
9.297395,-8.877819,-9.781651,-0.634393,0.000000,0.773010
8.230815,-9.110636,-16.225637,0.000000,0.000000,-1.000000
16.570243,8.928433,4.310715,-0.098018,-0.000000,-0.995185
19.796508,-10.143140,-16.225637,0.000000,0.000000,-1.000000
-5.457370,-13.951654,-16.225637,0.000000,0.000000,-1.000000
14.111090,7.373045,16.225637,0.000000,0.000000,1.000000
-24.404917,-2.273966,2.009317,-1.000000,0.000000,0.000000
24.329414,24.846014,16.225637,0.000000,0.000000,1.000000
-16.039445,-25.724567,-4.291003,-0.098017,0.000000,0.995185
4.578814,-9.580365,12.676197,-0.290285,-0.000000,-0.956940
24.404917,-22.861369,1.144999,1.000000,0.000000,-0.000000
16.995861,27.453571,15.708647,-0.000000,1.000000,0.000000
24.404917,-0.425898,4.643664,1.000000,-0.000000,0.000000
-24.404917,-26.854287,6.879958,-1.000000,0.000000,0.000000
24.404917,14.710740,-4.077932,1.000000,-0.000000,0.000000
-20.702535,6.792833,0.298293,0.995185,-0.000000,-0.098016
-24.404917,20.780113,13.377143,-1.000000,0.000000,0.000000
12.557620,-23.168921,4.969710,-0.956940,0.000000,-0.290285
-19.567327,-24.636489,16.225637,0.000000,0.000000,1.000000
-18.192049,-27.453571,-7.942553,-0.000000,-1.000000,0.000000
-3.090802,14.084933,-13.381654,-0.000000,1.000000,0.000000
-13.144933,6.540394,3.033598,0.956940,0.000000,-0.290285
-4.796461,-18.955715,16.225637,0.000000,0.000000,1.000000
4.173793,-24.507914,16.225637,0.000000,0.000000,1.000000
14.405644,-22.499704,-3.814073,0.471397,-0.000000,0.881921
24.404917,-5.827624,12.417170,1.000000,-0.000000,0.000000
-19.411678,-25.964607,3.103055,0.634394,-0.000000,-0.773010
-9.289837,-4.100026,-9.787854,0.634393,0.000000,0.773010
-8.107261,-15.549787,16.225637,0.000000,0.000000,1.000000
8.903896,-17.455712,10.104587,-0.634393,-0.000000,-0.773010
-3.978856,-16.121275,12.858192,0.290285,0.000000,-0.956940
24.404917,26.143535,2.983396,1.000000,-0.000000,0.000000
-7.639589,-19.084178,16.225637,0.000000,0.000000,1.000000
-9.205691,-14.308030,9.856911,0.634393,0.000000,-0.773010
-18.803392,-24.291728,3.600695,0.471396,0.000000,-0.881922
-22.258843,-20.857724,16.225637,0.000000,0.000000,1.000000
15.640667,-25.624358,-16.225637,0.000000,0.000000,-1.000000
21.295189,1.221076,16.225637,0.000000,0.000000,1.000000
-2.556347,-0.228585,13.272870,0.098017,0.000000,-0.995185
12.223539,-19.448545,5.683799,-0.881921,-0.000000,-0.471397
-13.375722,5.154644,-3.084644,-0.634393,0.000000,0.773011
-11.540507,-13.118806,6.961664,0.881921,0.000000,-0.471397
-16.658412,21.862192,-16.225637,0.000000,0.000000,-1.000000
-10.577804,-13.850250,-16.225637,0.000000,0.000000,-1.000000
12.204945,10.908884,-5.718587,-0.881921,0.000000,0.471397
-24.404917,-12.644583,-10.008514,-1.000000,0.000000,0.000000
17.851771,-5.750130,-4.061030,-0.290284,0.000000,0.956940
-24.404917,4.406448,3.566021,-1.000000,0.000000,0.000000
-3.043652,-5.527152,16.225637,0.000000,0.000000,1.000000
10.670309,-12.665159,8.214563,-0.773010,0.000000,-0.634393
3.631851,-12.101990,-12.963455,-0.290285,0.000000,0.956940
-15.013186,10.214170,-4.077751,-0.290285,0.000000,0.956940
-4.051832,-3.559747,16.225637,0.000000,-0.000000,1.000000
19.699712,-12.394546,-16.225637,0.000000,0.000000,-1.000000
24.404917,-8.547085,4.708680,1.000000,0.000000,-0.000000
1.061138,-1.072179,16.225637,0.000000,0.000000,1.000000
-19.825323,-23.711984,-2.620066,0.773011,-0.000000,0.634392
22.074619,26.044899,-16.225637,0.000000,0.000000,-1.000000
-10.612700,26.388110,14.570807,0.555570,0.000000,-0.831470
-20.563334,-20.537087,16.225637,0.000000,-0.000000,1.000000
17.484334,-2.963040,-4.172490,-0.290285,0.000000,0.956940
-23.890245,-27.453571,-9.684553,0.000000,-1.000000,0.000000
15.836283,-0.196330,16.225637,0.000000,0.000000,1.000000
-18.357443,5.454880,16.225637,0.000000,-0.000000,1.000000
-1.280792,13.365798,16.225637,0.000000,-0.000000,1.000000
18.770896,23.583259,-3.618064,-0.471397,0.000000,0.881921
16.379882,14.084933,-5.715459,-0.000000,1.000000,0.000000
-24.404917,-17.578718,-14.553779,-1.000000,0.000000,0.000000
4.949451,-11.806592,-16.225637,0.000000,0.000000,-1.000000
24.404917,22.232610,-6.715480,1.000000,-0.000000,0.000000
24.404917,0.187383,-5.202040,1.000000,0.000000,-0.000000
10.146141,-18.013318,8.853263,-0.773010,0.000000,-0.634393
-7.358609,-27.453571,14.796410,0.000000,-1.000000,0.000000
-24.404917,-15.141613,-6.500999,-1.000000,0.000000,0.000000
4.105453,-24.989701,-12.819789,-0.290285,0.000000,0.956940
-18.062134,2.023548,16.225637,0.000000,-0.000000,1.000000
-12.814119,-18.098164,16.225637,0.000000,0.000000,1.000000
10.708101,11.300193,-8.168514,-0.773010,0.000000,0.634393
-17.032673,27.453571,-10.991372,-0.000000,1.000000,0.000000
-24.404917,-7.545463,13.925457,-1.000000,0.000000,0.000000
0.546651,-0.591075,13.470808,-0.098017,0.000000,-0.995185
-22.483703,-27.453571,-14.296551,0.000000,-1.000000,0.000000
7.233003,-24.488224,16.225637,0.000000,0.000000,1.000000
11.995803,2.817721,-6.109863,-0.881921,0.000000,0.471397
19.771504,-6.236451,-2.685645,-0.773011,0.000000,0.634392
-3.220863,-12.744846,-13.088127,0.290285,-0.000000,0.956940
-12.911663,14.084933,-4.815141,-0.000000,1.000000,0.000000
-13.869931,27.453571,-14.251133,-0.000000,1.000000,0.000000
12.289216,-20.864675,16.225637,0.000000,0.000000,1.000000
-24.404917,-9.320750,4.167426,-1.000000,0.000000,0.000000
-17.999562,8.731301,4.016198,0.290284,0.000000,-0.956940
9.520768,-5.434430,-16.225637,0.000000,0.000000,-1.000000
9.458593,27.453571,15.898399,-0.000000,1.000000,0.000000
24.404917,19.354998,-3.969003,1.000000,-0.000000,0.000000
21.203567,4.614697,16.225637,0.000000,0.000000,1.000000
16.409111,18.133260,-7.448525,-0.896873,0.000000,0.442289
6.733913,11.186665,-16.225637,0.000000,0.000000,-1.000000
-15.625445,-14.053906,-4.250227,-0.098017,0.000000,0.995185
-24.404917,9.152239,-6.592059,-1.000000,0.000000,0.000000
-20.549658,-10.173958,1.170896,0.956941,0.000000,-0.290283
9.280970,-20.337025,9.795131,-0.634393,-0.000000,-0.773010
-24.404917,16.897735,7.832887,-1.000000,0.000000,0.000000
8.274416,16.944900,16.225637,0.000000,-0.000000,1.000000
-11.853138,-14.715027,-6.376771,0.881921,0.000000,0.471397
1.132207,-25.703243,13.413136,-0.098017,-0.000000,-0.995185
-12.648093,8.053058,-4.671459,0.956940,0.000000,0.290285
12.668467,2.033598,-4.604296,-0.956940,0.000000,0.290285
4.712529,5.325947,12.635635,-0.290285,-0.000000,-0.956940
-24.404917,-15.892183,-6.559195,-1.000000,0.000000,0.000000
17.151492,-4.241819,4.253467,-0.098018,-0.000000,-0.995185
24.404917,-21.730545,-4.124262,1.000000,0.000000,-0.000000
-20.650306,-13.858942,0.828590,0.995185,0.000000,-0.098016
7.517934,-23.708149,16.225637,0.000000,0.000000,1.000000
-8.092195,20.346689,16.091689,0.442289,0.000000,-0.896873
19.899317,2.252939,-2.529905,-0.773012,0.000000,0.634392
-24.404917,1.613876,10.087737,-1.000000,0.000000,0.000000
-19.260998,12.607844,3.226714,0.634394,-0.000000,-0.773010
-7.920816,11.872932,-16.225637,0.000000,0.000000,-1.000000
8.971098,-17.262105,16.225637,0.000000,0.000000,1.000000
2.804526,-14.575977,-13.214421,-0.290285,0.000000,0.956940
-11.131077,-22.218660,7.653116,0.773010,0.000000,-0.634393
24.404917,26.658365,-13.684784,1.000000,-0.000000,0.000000
-9.470996,9.218349,-9.639181,0.634393,0.000000,0.773010
-16.248194,25.135006,7.774834,0.896873,0.000000,-0.442289
-11.692020,14.084933,12.170568,0.000000,1.000000,0.000000
-22.309347,-25.765607,16.225637,0.000000,0.000000,1.000000
12.507044,-9.140096,-5.136434,-0.956940,0.000000,0.290285
-20.810309,27.453571,8.652229,0.000000,1.000000,0.000000
24.404917,-15.491831,-2.735582,1.000000,0.000000,-0.000000
20.635401,26.126096,0.888237,-0.956940,-0.000000,-0.290286
21.163604,-4.063166,-16.225637,0.000000,0.000000,-1.000000
-2.960370,-15.179889,-13.167147,0.290285,-0.000000,0.956940
-0.334451,-6.219178,16.225637,0.000000,0.000000,1.000000
-12.942843,27.453571,-13.258293,-0.000000,1.000000,0.000000
-24.404917,21.895827,15.642866,-1.000000,0.000000,0.000000
-24.404917,24.902834,0.923163,-1.000000,0.000000,0.000000
21.886181,-27.453571,4.902092,-0.000000,-1.000000,0.000000
-21.267453,3.906845,16.225637,0.000000,-0.000000,1.000000
22.117601,27.453571,-11.611519,0.000000,1.000000,-0.000000
24.404917,-23.949853,-2.336515,1.000000,0.000000,-0.000000
-19.613517,26.823345,-16.225637,0.000000,0.000000,-1.000000
-1.025108,-3.983839,16.225637,0.000000,0.000000,1.000000
-24.404917,24.032742,11.047001,-1.000000,0.000000,0.000000
-24.404917,-13.944461,-2.938087,-1.000000,0.000000,0.000000
-24.404917,2.320171,-15.386214,-1.000000,0.000000,0.000000
-5.084625,-17.668422,-12.522761,0.290285,0.000000,0.956940
24.404917,-20.669124,11.974416,1.000000,0.000000,-0.000000
15.147032,13.188475,16.225637,0.000000,0.000000,1.000000
21.098946,-27.453571,5.127700,-0.000000,-1.000000,0.000000
24.404917,10.411246,-15.517883,1.000000,0.000000,-0.000000
-24.404917,13.069866,-8.073418,-1.000000,0.000000,0.000000
2.524119,-17.030518,-16.225637,0.000000,0.000000,-1.000000
24.404917,13.210830,5.667822,1.000000,-0.000000,0.000000
-9.704143,25.001771,15.177885,0.555570,0.000000,-0.831470
0.476435,-8.834262,-13.477724,-0.098017,0.000000,0.995185
-24.404917,-6.149450,-12.553508,-1.000000,0.000000,0.000000
18.749932,-23.496267,-16.225637,0.000000,0.000000,-1.000000
-20.611649,-18.079040,-0.966538,0.956940,0.000000,0.290287
17.888874,-18.967798,16.225637,0.000000,0.000000,1.000000
-6.500418,2.433462,-11.787048,0.471397,-0.000000,0.881921
14.807584,14.383418,10.258339,-0.831470,0.000000,-0.555570
12.962134,10.486643,-16.225637,0.000000,0.000000,-1.000000
15.003162,-25.596029,4.074710,0.290285,-0.000000,-0.956940
-19.353783,18.957517,-3.150568,0.634393,0.000000,0.773011
-24.404917,11.083579,13.922237,-1.000000,0.000000,0.000000
24.404917,-11.828205,3.352057,1.000000,0.000000,-0.000000
-24.404917,15.759539,-7.700529,-1.000000,0.000000,0.000000
-24.404917,9.012888,11.091193,-1.000000,0.000000,0.000000
23.025175,-27.141079,-16.225637,0.000000,0.000000,-1.000000
-18.831539,-1.302790,-3.579163,0.634393,0.000000,0.773011
21.490214,2.100387,-16.225637,0.000000,0.000000,-1.000000
-22.929820,27.453571,-2.832729,-0.000000,1.000000,0.000000
-16.340122,-25.968226,16.225637,0.000000,0.000000,1.000000
-10.628890,5.655494,8.265033,0.773010,0.000000,-0.634393
-24.404917,24.361673,-1.139284,-1.000000,0.000000,0.000000
9.853104,11.279286,-9.210330,-0.773010,0.000000,0.634393
-12.395770,-6.063516,5.361577,0.881921,0.000000,-0.471397
13.939581,0.551501,-16.225637,0.000000,0.000000,-1.000000
-23.557600,-21.455734,16.225637,0.000000,-0.000000,1.000000
24.256091,-14.072499,-16.225637,0.000000,0.000000,-1.000000
15.715731,13.525449,-16.225637,0.000000,0.000000,-1.000000
-15.396210,8.731928,16.225637,0.000000,-0.000000,1.000000
-8.832038,3.078294,-16.225637,0.000000,0.000000,-1.000000
-16.772949,-19.777015,16.225637,0.000000,0.000000,1.000000
-0.299910,-26.959477,-16.225637,0.000000,0.000000,-1.000000
20.405628,-25.782642,-1.645698,-0.956940,0.000000,0.290286
-24.404917,7.825630,-7.779642,-1.000000,0.000000,0.000000
20.262038,-14.872329,16.225637,0.000000,0.000000,1.000000
-24.404917,-3.856798,-8.411418,-1.000000,0.000000,0.000000
20.658941,16.895391,0.740916,-0.995185,0.000000,-0.098015
-24.404917,-5.272291,5.788203,-1.000000,0.000000,0.000000
24.404917,17.185508,-1.359764,1.000000,-0.000000,0.000000
-9.109455,9.895545,9.935890,0.634393,0.000000,-0.773010
14.588787,-10.062119,16.225637,0.000000,0.000000,1.000000
-20.713627,-2.617310,-0.185688,0.995185,-0.000000,0.098014
10.131656,25.820759,14.892230,-0.555570,0.000000,-0.831470
-17.530937,26.741187,-4.188819,0.980785,0.000000,0.195090
-19.805955,-12.839147,2.643667,0.773011,0.000000,-0.634393
19.632256,-15.906025,-16.225637,0.000000,0.000000,-1.000000
-21.819828,27.453571,-4.407323,-0.000000,1.000000,0.000000
-9.572719,15.030825,-16.225637,0.000000,0.000000,-1.000000
-10.297228,-16.757243,16.225637,0.000000,0.000000,1.000000
-21.716802,27.453571,12.910718,-0.000000,1.000000,-0.000000
-24.404917,-26.599363,-13.754978,-1.000000,0.000000,0.000000
24.404917,-0.130011,-14.891778,1.000000,0.000000,-0.000000
-19.471486,-0.075503,-3.051220,0.773012,0.000000,0.634392
-8.768364,2.709598,10.215816,0.634393,0.000000,-0.773010
12.995349,-26.205834,-3.526709,-0.956940,0.000000,0.290285
-2.018841,7.154817,-16.225637,0.000000,0.000000,-1.000000
20.500822,27.453571,-4.566367,0.000000,1.000000,-0.000000
-20.777430,-23.598103,-16.225637,0.000000,0.000000,-1.000000
12.758199,2.729898,16.225637,0.000000,0.000000,1.000000
24.404917,20.696764,12.095416,1.000000,-0.000000,0.000000
-12.302080,-11.242957,5.536859,0.881921,0.000000,-0.471397
-15.062196,23.832309,9.877285,0.831470,0.000000,-0.555570
16.477865,-24.302134,-4.319814,-0.098018,-0.000000,0.995185
24.404917,-22.168993,-1.583830,1.000000,0.000000,-0.000000
-20.232434,-25.822127,1.974120,0.881921,0.000000,-0.471398
8.314992,3.993463,16.225637,0.000000,0.000000,1.000000
-16.886501,-18.466683,-16.225637,0.000000,0.000000,-1.000000
-13.359875,11.282640,-3.071639,-0.634393,0.000000,0.773011
12.168580,7.442041,16.225637,0.000000,0.000000,1.000000
-10.545813,-3.305935,8.366261,0.773010,0.000000,-0.634393
11.910149,-8.265792,16.225637,0.000000,0.000000,1.000000
-18.503753,14.709531,3.760855,0.471397,0.000000,-0.881921
-6.273239,-15.432575,-11.908477,0.471397,0.000000,0.881921
-6.287445,13.931546,16.225637,0.000000,-0.000000,1.000000
-10.884485,-26.320099,16.225637,0.000000,0.000000,1.000000
24.107872,9.151318,-16.225637,0.000000,0.000000,-1.000000
1.149556,6.021474,16.225637,0.000000,-0.000000,1.000000
-22.111717,-6.957914,16.225637,0.000000,-0.000000,1.000000
19.442779,12.231032,-16.225637,0.000000,0.000000,-1.000000
19.830432,18.860638,-16.225637,0.000000,0.000000,-1.000000
-17.048158,23.665508,5.810949,0.946930,0.000000,-0.321439
16.480298,23.148901,-7.304174,-0.896873,0.000000,0.442289
-20.997706,27.453571,12.546259,-0.000000,1.000000,-0.000000
-11.616824,5.317462,-16.225637,0.000000,0.000000,-1.000000
-16.180256,22.525066,7.912599,0.896873,0.000000,-0.442289
-9.378183,-11.610900,9.715351,0.634393,0.000000,-0.773010
-6.103539,6.674309,16.225637,0.000000,-0.000000,1.000000
-8.184898,-13.049305,-16.225637,0.000000,0.000000,-1.000000
24.404917,-12.897838,11.615044,1.000000,-0.000000,0.000000
-23.181319,-9.952502,16.225637,0.000000,-0.000000,1.000000
-17.960832,10.553233,-16.225637,0.000000,0.000000,-1.000000
18.102749,22.869362,3.975196,-0.471396,-0.000000,-0.881922
-18.070120,-2.159947,-3.992637,0.471397,-0.000000,0.881921
-7.290708,-12.154081,-11.364629,0.471397,0.000000,0.881921
24.404917,-22.241153,-3.126488,1.000000,0.000000,-0.000000
-7.267538,-1.644448,-11.377014,0.471397,0.000000,0.881921
-13.541463,-27.453571,13.739047,0.000000,-1.000000,0.000000
17.786978,13.473228,-4.080684,-0.290285,0.000000,0.956940
24.404917,21.984010,-1.525987,1.000000,-0.000000,0.000000
12.365549,15.984768,16.225637,0.000000,-0.000000,1.000000
-18.189539,-3.794044,-3.928806,0.471397,-0.000000,0.881921
-11.310071,3.371045,-7.392780,0.881921,-0.000000,0.471397
24.053555,-5.201373,-16.225637,0.000000,0.000000,-1.000000
-6.239787,1.380692,16.225637,0.000000,-0.000000,1.000000
19.984696,-27.453571,5.677021,0.000000,-1.000000,0.000000
21.346317,4.126421,-16.225637,0.000000,0.000000,-1.000000
-11.085632,-24.986960,7.708490,0.773010,0.000000,-0.634393
-20.343807,19.616808,-1.765756,0.881921,0.000000,0.471398
8.341559,16.513429,-15.968716,-0.442289,0.000000,0.896873
-15.293847,-8.048022,-16.225637,0.000000,0.000000,-1.000000
24.404917,6.189422,-11.959859,1.000000,0.000000,-0.000000
24.404917,-26.558630,-15.353785,1.000000,0.000000,-0.000000
-11.230183,-2.292517,7.532354,0.773010,0.000000,-0.634393
-24.404917,-8.070240,8.040397,-1.000000,0.000000,0.000000
22.830811,-27.453571,-2.815483,-0.000000,-1.000000,0.000000
19.781962,-22.561724,-2.672903,-0.773011,0.000000,0.634392
-20.690399,12.854640,0.421521,0.995185,0.000000,-0.098016
-21.971376,-23.753396,-16.225637,0.000000,0.000000,-1.000000
-13.245655,25.330873,12.213125,0.751840,0.000000,-0.659346
-22.964365,23.527613,-16.225637,0.000000,0.000000,-1.000000
-24.404917,6.183458,-1.973226,-1.000000,0.000000,0.000000
8.704679,-12.518269,-10.268081,-0.634393,0.000000,0.773010
-24.404917,-9.602819,12.121678,-1.000000,0.000000,0.000000
10.272459,-24.015677,16.225637,0.000000,0.000000,1.000000
-15.067404,-8.512227,16.225637,0.000000,-0.000000,1.000000
23.466046,6.829500,-16.225637,0.000000,0.000000,-1.000000
-7.421880,-4.482930,11.294516,0.471397,0.000000,-0.881921
-19.163254,13.902715,3.306931,0.634392,-0.000000,-0.773011
-8.043250,19.329247,16.115826,0.442289,0.000000,-0.896873
-22.160748,-2.416670,16.225637,0.000000,-0.000000,1.000000
0.645457,-23.027946,-16.225637,0.000000,0.000000,-1.000000
22.518276,21.734007,-16.225637,0.000000,0.000000,-1.000000
-11.973583,6.551616,-6.151435,0.881921,-0.000000,0.471397
24.404917,-23.520390,-7.796227,1.000000,0.000000,-0.000000
1.888229,-4.013085,-13.338674,-0.098017,0.000000,0.995185
-13.924394,-21.915985,3.534927,-0.634393,0.000000,-0.773011
-9.364838,-27.453571,-10.140161,0.000000,-1.000000,0.000000
-24.404917,6.848484,-15.588963,-1.000000,0.000000,0.000000
18.704045,-3.334738,16.225637,0.000000,0.000000,1.000000
-11.449525,9.453021,7.131879,0.881921,0.000000,-0.471397
3.273354,-1.243197,-16.225637,0.000000,0.000000,-1.000000
12.166137,1.928572,-5.791191,-0.881921,0.000000,0.471397
-24.404917,-20.616832,-5.937281,-1.000000,0.000000,0.000000
10.501836,-27.453571,-15.353529,0.000000,-1.000000,0.000000
-24.404917,25.575541,7.669320,-1.000000,0.000000,0.000000
13.976086,15.450895,16.225637,0.000000,0.000000,1.000000
5.766482,-6.056915,-12.179345,-0.471397,0.000000,0.881921
-9.101898,12.082154,9.942091,0.634393,0.000000,-0.773010
9.882183,14.084933,12.913261,-0.000000,1.000000,0.000000
24.404917,9.134760,7.233367,1.000000,-0.000000,0.000000
24.404917,3.942413,9.886298,1.000000,-0.000000,0.000000
-10.186640,-23.557126,8.803915,0.773010,0.000000,-0.634393
-24.404917,5.410234,-10.410326,-1.000000,0.000000,0.000000
2.237452,-15.976649,-13.304279,-0.098017,0.000000,0.995185
24.373246,12.306214,16.225637,0.000000,0.000000,1.000000
18.877386,1.334475,16.225637,0.000000,0.000000,1.000000
10.781461,-2.543000,8.079124,-0.773010,0.000000,-0.634393
-17.931939,-27.453571,-6.237578,0.000000,-1.000000,0.000000
5.591827,9.827931,12.272699,-0.471397,0.000000,-0.881921
-6.665713,-26.309268,16.225637,0.000000,0.000000,1.000000
19.289429,-27.453571,-13.845527,0.000000,-1.000000,0.000000
-4.453514,3.014862,16.225637,0.000000,-0.000000,1.000000
24.404917,-12.201365,-12.725097,1.000000,0.000000,-0.000000
20.673787,-18.094455,0.590180,-0.995185,0.000000,-0.098015
24.404917,-18.328954,-2.986517,1.000000,0.000000,-0.000000
-24.404917,-23.763718,0.627597,-1.000000,0.000000,0.000000
-16.720278,25.961827,6.776855,0.946930,0.000000,-0.321439
6.183084,-25.212267,16.225637,0.000000,0.000000,1.000000
9.459313,-20.134573,16.225637,0.000000,0.000000,1.000000
18.908093,-0.710411,3.516336,-0.634394,0.000000,-0.773010
15.648859,-25.615192,4.252533,0.098017,0.000000,-0.995185
-24.160639,-27.453571,-0.780323,0.000000,-1.000000,0.000000
24.404917,-8.679450,-12.533784,1.000000,0.000000,-0.000000
7.505813,-17.013564,-11.249653,-0.471397,0.000000,0.881921
-1.321062,-19.171477,-13.394535,0.098017,0.000000,0.995185
-16.457219,-27.453571,8.396163,-0.000000,-1.000000,-0.000000
-3.323246,3.803137,-16.225637,0.000000,0.000000,-1.000000
11.875236,26.746336,13.541975,-0.659346,-0.000000,-0.751840
-22.797015,27.453571,1.302104,-0.000000,1.000000,0.000000
-24.404917,11.922679,2.505166,-1.000000,0.000000,0.000000
12.969655,-25.932147,-3.611413,-0.956940,0.000000,0.290285
-24.404917,8.660976,-15.310760,-1.000000,0.000000,0.000000
-12.788791,5.925117,-4.207641,0.956940,0.000000,0.290285
-9.288662,0.065648,9.788818,0.634393,0.000000,-0.773010
12.826373,-27.161264,-16.225637,0.000000,0.000000,-1.000000
-4.982477,2.411960,16.225637,0.000000,-0.000000,1.000000
-5.896020,-10.934626,-12.110105,0.471397,-0.000000,0.881921
-6.087512,14.084933,15.802766,-0.000000,1.000000,0.000000
-24.404917,-18.993927,-10.840807,-1.000000,0.000000,0.000000
24.404917,-8.916606,3.468899,1.000000,0.000000,-0.000000
16.056756,-27.071748,4.292708,0.098017,0.000000,-0.995185
10.895859,-25.939241,-7.939729,-0.773010,0.000000,0.634393
20.018343,10.492689,-2.374656,-0.881921,0.000000,0.471398
4.105690,-27.453571,15.184238,0.000000,-1.000000,0.000000
-10.188380,-27.453571,-9.981033,0.000000,-1.000000,0.000000
9.015200,-7.929893,-16.225637,0.000000,0.000000,-1.000000
-24.404917,-20.086472,-6.577999,-1.000000,0.000000,0.000000
12.713841,-25.247828,-4.454719,-0.956940,0.000000,0.290285
-10.103032,-23.492290,-8.905791,0.773010,0.000000,0.634393
9.674272,23.938217,-15.197844,-0.555570,0.000000,0.831470
-18.692033,-1.359414,16.225637,0.000000,-0.000000,1.000000
4.328543,-26.469180,-16.225637,0.000000,0.000000,-1.000000
-10.628515,-8.131312,-8.265488,0.773010,0.000000,0.634393
14.051589,-12.794709,-3.624827,0.471397,0.000000,0.881921
20.049820,-16.337633,-2.315767,-0.881921,0.000000,0.471398
-12.219033,21.663779,-13.240473,0.659346,0.000000,0.751840
-24.404917,-25.797078,9.715429,-1.000000,0.000000,0.000000
22.051048,27.453571,6.415373,0.000000,1.000000,-0.000000
13.546398,-21.505332,-3.224715,0.634393,-0.000000,0.773011
9.196290,9.767575,-16.225637,0.000000,0.000000,-1.000000
2.970987,-11.450482,-16.225637,0.000000,0.000000,-1.000000
19.935974,-12.477800,2.485238,-0.773012,-0.000000,-0.634392
11.238666,6.945582,16.225637,0.000000,0.000000,1.000000
-22.123359,27.453571,-11.470559,-0.000000,1.000000,0.000000
-7.015760,-22.666668,11.511592,0.471397,0.000000,-0.881921
18.230356,-8.133680,-3.906989,-0.471397,0.000000,0.881921
6.029485,13.220411,16.225637,0.000000,-0.000000,1.000000
24.404917,19.491816,-12.534741,1.000000,0.000000,-0.000000
-7.634951,-8.233888,16.225637,0.000000,-0.000000,1.000000
13.741529,2.462302,-3.384854,0.634393,0.000000,0.773011
-0.437612,-3.944962,16.225637,0.000000,0.000000,1.000000
-21.664308,-3.814528,16.225637,0.000000,-0.000000,1.000000
5.370650,6.815592,-16.225637,0.000000,0.000000,-1.000000
-13.054861,-10.718689,-3.330525,0.956940,0.000000,0.290285
13.047155,-12.166201,3.355929,-0.956940,0.000000,-0.290285
15.385059,-18.628789,-16.225637,0.000000,0.000000,-1.000000
-20.184022,21.215342,2.064691,0.881921,0.000000,-0.471398
-14.242166,11.396024,-16.225637,0.000000,0.000000,-1.000000
24.404917,-8.973714,-15.122837,1.000000,0.000000,-0.000000
-23.689701,27.453571,9.622710,-0.000000,1.000000,0.000000
21.332777,-13.290342,-16.225637,0.000000,0.000000,-1.000000
24.404917,-27.171496,15.884969,1.000000,0.000000,-0.000000
-22.601610,18.975786,-16.225637,0.000000,0.000000,-1.000000
-24.404917,-18.710586,-3.713049,-1.000000,0.000000,0.000000
24.404917,-15.708373,-6.907425,1.000000,0.000000,-0.000000
-11.239210,9.826391,-16.225637,0.000000,0.000000,-1.000000
24.404917,16.605518,-7.312693,1.000000,-0.000000,0.000000
-22.780371,1.948335,-16.225637,0.000000,0.000000,-1.000000
-10.334051,-17.464516,-16.225637,0.000000,0.000000,-1.000000
-4.171633,-24.410883,-12.799714,0.290285,0.000000,0.956940
-12.337034,-4.762771,16.225637,0.000000,-0.000000,1.000000
15.259602,26.948269,-16.225637,0.000000,0.000000,-1.000000
-3.195621,-1.180442,16.225637,0.000000,-0.000000,1.000000
-14.980168,-26.841412,-4.067735,-0.290285,-0.000000,0.956940
-24.404917,-21.972627,-3.814484,-1.000000,0.000000,0.000000
-20.651350,-15.280373,0.817997,0.995185,0.000000,-0.098016
-16.247761,-6.346272,-16.225637,0.000000,0.000000,-1.000000
-16.732231,5.200373,-16.225637,0.000000,0.000000,-1.000000
17.065729,22.766672,5.759188,-0.946930,0.000000,-0.321439
24.404917,8.964232,-8.997269,1.000000,0.000000,-0.000000
-1.540728,14.084933,15.389068,-0.000000,1.000000,0.000000
22.706347,27.453571,-2.024870,0.000000,1.000000,-0.000000
9.357077,-9.729286,9.732672,-0.634393,-0.000000,-0.773010
24.404917,-10.775239,1.303853,1.000000,0.000000,-0.000000
15.347958,13.448068,4.179303,0.290285,0.000000,-0.956940
12.153555,21.270078,13.297896,-0.659346,-0.000000,-0.751840
17.645547,-25.217771,16.225637,0.000000,0.000000,1.000000
-10.986795,7.908779,7.828923,0.773010,0.000000,-0.634393
12.898774,4.531770,-16.225637,0.000000,0.000000,-1.000000
17.454026,-25.707357,16.225637,0.000000,0.000000,1.000000
-24.404917,21.157287,6.267998,-1.000000,0.000000,0.000000
2.811439,-4.466858,13.212324,-0.290285,0.000000,-0.956940
13.940851,26.901728,-11.420406,-0.751840,0.000000,0.659346
-17.303918,-7.996489,-16.225637,0.000000,0.000000,-1.000000
8.797272,13.561777,-10.192092,-0.634393,0.000000,0.773010
-6.529177,3.279402,11.771676,0.471397,0.000000,-0.881921
-3.983147,-3.285165,12.856890,0.290285,0.000000,-0.956940
24.404917,-4.217977,-12.075666,1.000000,0.000000,-0.000000
-20.657639,1.133805,-0.754143,0.995185,-0.000000,0.098018
14.487843,23.399256,16.225637,0.000000,-0.000000,1.000000
-22.022391,-19.623505,16.225637,0.000000,0.000000,1.000000
24.404917,24.992555,6.911818,1.000000,-0.000000,0.000000
-24.404917,14.960052,-2.430718,-1.000000,0.000000,0.000000
24.404917,7.571926,-4.391373,1.000000,-0.000000,0.000000
15.524966,11.355436,-16.225637,0.000000,0.000000,-1.000000
15.232648,-27.453571,-15.105425,0.000000,-1.000000,0.000000
2.067606,-5.663994,-16.225637,0.000000,0.000000,-1.000000
-1.380400,-27.069307,16.225637,0.000000,0.000000,1.000000
-23.220634,-4.575079,-16.225637,0.000000,0.000000,-1.000000
16.085272,7.348344,16.225637,0.000000,0.000000,1.000000
-24.404917,-26.833086,-12.857631,-1.000000,0.000000,0.000000
18.118816,2.074148,-16.225637,0.000000,0.000000,-1.000000
-12.184853,6.753632,-5.756176,0.881921,-0.000000,0.471397
20.700789,25.266910,0.316025,-0.995185,-0.000000,-0.098016
5.976374,-27.453571,-15.860371,0.000000,-1.000000,0.000000
-10.139147,-12.921543,-8.861786,0.773010,-0.000000,0.634393
-20.180801,-27.453571,4.221571,0.000000,-1.000000,0.000000
11.409049,3.570279,16.225637,0.000000,0.000000,1.000000
-24.404917,25.086970,5.705664,-1.000000,0.000000,0.000000
23.725069,-27.453571,-4.382267,-0.000000,-1.000000,0.000000
24.404917,22.412965,11.714153,1.000000,-0.000000,0.000000
14.060318,-0.510162,-3.629493,0.471397,0.000000,0.881921
2.708453,-20.686109,13.243565,-0.290285,0.000000,-0.956940
11.593211,-7.776112,6.863062,-0.881921,0.000000,-0.471397
-24.404917,1.777823,-12.335260,-1.000000,0.000000,0.000000
20.063199,-7.445886,-2.290736,-0.881921,0.000000,0.471398
13.400284,-20.427035,16.225637,0.000000,0.000000,1.000000
-24.404917,1.316864,5.302363,-1.000000,0.000000,0.000000
-24.404917,-26.844960,6.347907,-1.000000,0.000000,0.000000
-2.439608,-23.469542,13.284368,0.098017,0.000000,-0.995185
-19.682979,20.740359,-16.225637,0.000000,0.000000,-1.000000
1.501651,-19.648111,16.225637,0.000000,0.000000,1.000000
15.525010,-5.187903,-4.233011,0.290285,-0.000000,0.956940
-13.012197,-1.576153,-3.471170,0.956940,0.000000,0.290285
-5.879985,-15.619698,-12.118676,0.471397,0.000000,0.881921
-9.324856,9.960972,-16.225637,0.000000,0.000000,-1.000000
18.537461,27.436673,16.225637,0.000000,-0.000000,1.000000
15.063673,15.063657,9.875074,-0.831470,0.000000,-0.555570
-7.980310,21.188063,-16.225637,0.000000,0.000000,-1.000000
-24.404917,-1.586755,8.136055,-1.000000,0.000000,0.000000
-24.404917,-10.950433,8.484703,-1.000000,0.000000,0.000000
-19.956793,7.031381,-2.459870,0.773011,0.000000,0.634393
-8.765095,14.084933,15.188073,-0.000000,1.000000,-0.000000
-24.404917,23.387156,-3.781802,-1.000000,0.000000,0.000000
-24.404917,5.765740,-15.425768,-1.000000,0.000000,0.000000
-15.141920,2.439598,16.225637,0.000000,0.000000,1.000000
13.148052,-3.596822,-16.225637,0.000000,0.000000,-1.000000
-18.865717,21.761484,16.225637,0.000000,-0.000000,1.000000
-14.159703,25.844900,-11.170852,0.751840,0.000000,0.659346
9.195150,9.600010,9.865561,-0.634393,0.000000,-0.773010
-18.114339,17.528858,-3.969002,0.471397,-0.000000,0.881921
20.543789,3.826713,-16.225637,0.000000,0.000000,-1.000000
-23.541857,-8.211531,-16.225637,0.000000,0.000000,-1.000000
-12.186965,5.166440,-16.225637,0.000000,0.000000,-1.000000
24.404917,-17.739718,-0.254742,1.000000,0.000000,-0.000000
-16.693123,25.984582,6.856849,0.946930,0.000000,-0.321439
0.508707,-11.609014,-13.474545,-0.098017,0.000000,0.995185
-24.404917,-22.034836,13.501779,-1.000000,0.000000,0.000000
-10.350094,20.473435,14.746275,0.555570,0.000000,-0.831470
-20.796645,-27.453571,12.416463,-0.000000,-1.000000,-0.000000
-15.279604,-18.424034,-4.158568,-0.290285,-0.000000,0.956940
-2.712489,-12.669579,16.225637,0.000000,0.000000,1.000000
-12.872975,6.971147,-3.930123,0.956940,0.000000,0.290285
3.566141,-15.403403,12.983388,-0.290285,-0.000000,-0.956940
12.391101,-0.181790,5.370312,-0.881921,-0.000000,-0.471397
-23.668111,-27.453571,2.035347,0.000000,-1.000000,0.000000
-12.323460,0.581012,-16.225637,0.000000,0.000000,-1.000000
-18.745572,21.254283,3.631600,0.471396,0.000000,-0.881922
-24.404917,10.124865,-8.009125,-1.000000,0.000000,0.000000
-18.870101,21.270209,-3.547516,0.634393,0.000000,0.773011
-10.551930,9.662226,-8.358809,0.773010,-0.000000,0.634393
24.404917,-22.765247,5.110566,1.000000,0.000000,-0.000000
14.341618,0.259617,-3.779851,0.471397,0.000000,0.881921
-24.404917,-11.614335,-7.406964,-1.000000,0.000000,0.000000
-7.614227,4.519050,16.225637,0.000000,-0.000000,1.000000
-20.695397,-14.747688,0.370774,0.995185,-0.000000,-0.098016
-17.794133,-11.252721,-16.225637,0.000000,0.000000,-1.000000
20.049305,17.271008,16.225637,0.000000,0.000000,1.000000
-7.835689,7.557594,-16.225637,0.000000,0.000000,-1.000000
24.404917,5.132785,12.446602,1.000000,-0.000000,0.000000
-0.993714,-22.289058,16.225637,0.000000,0.000000,1.000000
24.404917,-11.394144,-7.078709,1.000000,0.000000,-0.000000
-20.576601,-4.849196,-1.082073,0.956940,0.000000,0.290286
-24.404917,27.394402,14.711759,-1.000000,0.000000,0.000000
15.688542,-27.453571,7.866074,-0.000000,-1.000000,0.000000
-7.103884,-0.573502,-11.464488,0.471397,0.000000,0.881921
19.876386,-21.416404,2.557846,-0.773012,-0.000000,-0.634392
-8.534995,-15.921454,-16.225637,0.000000,0.000000,-1.000000
-19.760054,23.948493,-2.699598,0.773011,0.000000,0.634393
24.404917,-6.467232,-5.028578,1.000000,0.000000,-0.000000
8.264619,9.850429,-10.629229,-0.634393,0.000000,0.773010
9.039568,-15.722373,16.225637,0.000000,0.000000,1.000000
-7.997906,-16.375869,16.225637,0.000000,0.000000,1.000000
9.792376,-1.035409,-9.284327,-0.773010,0.000000,0.634393
11.274811,-9.581412,-7.458745,-0.881921,0.000000,0.471397
-11.823477,14.084933,10.617754,-0.000000,1.000000,0.000000
-11.421735,0.361648,16.225637,0.000000,-0.000000,1.000000
-20.068559,-0.295151,2.280708,0.881921,0.000000,-0.471398
-24.404917,12.284442,-0.936227,-1.000000,0.000000,0.000000
-3.080912,-3.078141,-13.130581,0.290285,-0.000000,0.956940
-3.089279,-9.427562,-16.225637,0.000000,0.000000,-1.000000
18.823658,-1.380253,16.225637,0.000000,0.000000,1.000000
-7.173960,-7.995479,-16.225637,0.000000,0.000000,-1.000000
-1.563940,-0.633217,16.225637,0.000000,-0.000000,1.000000
-22.165394,-10.776253,-16.225637,0.000000,0.000000,-1.000000
17.532100,21.051963,-16.225637,0.000000,0.000000,-1.000000
-24.398854,14.882298,-16.225637,0.000000,0.000000,-1.000000
8.539685,-27.453571,12.716410,0.000000,-1.000000,0.000000
-23.662107,27.453571,15.907296,0.000000,1.000000,0.000000
-17.286442,-22.740526,16.225637,0.000000,0.000000,1.000000
-19.515262,-17.262004,2.997878,0.773011,0.000000,-0.634393
-14.940514,19.481244,-10.059395,0.831470,-0.000000,0.555570
8.823041,-26.198763,-10.170944,-0.634393,0.000000,0.773010
5.131450,-15.404216,-16.225637,0.000000,0.000000,-1.000000
16.812758,12.354498,-4.286830,-0.098017,0.000000,0.995185
10.564450,6.299855,16.225637,0.000000,0.000000,1.000000
-24.404917,-19.594909,-3.427074,-1.000000,0.000000,0.000000
4.593501,4.561574,16.225637,0.000000,0.000000,1.000000
-20.431838,7.267567,-1.559294,0.956941,0.000000,0.290283
-20.088495,-27.453571,9.997003,0.000000,-1.000000,0.000000
13.948876,11.219541,-3.555019,0.634393,0.000000,0.773011
-20.359305,26.928080,-1.736761,0.881921,0.000000,0.471398
-20.230070,23.319356,1.978542,0.881921,0.000000,-0.471398
11.048485,2.464061,-16.225637,0.000000,0.000000,-1.000000
1.801047,-17.256640,13.347261,-0.098017,-0.000000,-0.995185
-3.672161,-17.743265,16.225637,0.000000,0.000000,1.000000
1.877424,-27.317435,-16.225637,0.000000,0.000000,-1.000000
13.237614,14.084933,5.913877,-0.000000,1.000000,0.000000
-7.574693,-17.864090,16.225637,0.000000,0.000000,1.000000
-12.290093,24.227762,-16.225637,0.000000,0.000000,-1.000000
-9.985057,4.662718,-9.049544,0.773010,-0.000000,0.634393
-11.881031,-20.035246,-6.324588,0.881921,0.000000,0.471397
13.109149,-14.141930,3.151561,-0.956940,0.000000,-0.290285
8.204859,-8.577756,10.678272,-0.634393,0.000000,-0.773010
19.532723,22.905681,2.976601,-0.773012,-0.000000,-0.634392
-9.132601,15.254036,15.559777,0.555570,0.000000,-0.831470
-21.560668,7.124543,16.225637,0.000000,-0.000000,1.000000
-21.229326,-27.453571,0.156880,0.000000,-1.000000,0.000000
-24.404917,-14.660096,-7.338378,-1.000000,0.000000,0.000000
-24.404917,-3.048155,12.884751,-1.000000,0.000000,0.000000
-24.404917,3.887684,1.530791,-1.000000,0.000000,0.000000
-10.827062,-7.129861,-16.225637,0.000000,0.000000,-1.000000
-7.451702,-17.312336,-11.278576,0.471397,0.000000,0.881921
-11.891699,-9.781179,6.304630,0.881921,0.000000,-0.471397
15.337314,-8.943764,16.225637,0.000000,0.000000,1.000000
3.120693,1.785263,-13.118513,-0.290285,0.000000,0.956940
-21.745724,5.894532,-16.225637,0.000000,0.000000,-1.000000
12.464634,-12.769318,5.232742,-0.881921,-0.000000,-0.471397
15.171876,26.888327,-9.713136,-0.831470,0.000000,0.555570
24.404917,15.360700,-4.908196,1.000000,-0.000000,0.000000
-5.643198,6.405586,-12.245241,0.471397,-0.000000,0.881921
24.404917,18.141647,-5.629351,1.000000,-0.000000,0.000000
-24.404917,16.557209,0.173239,-1.000000,0.000000,0.000000
12.518458,0.933862,-5.098808,-0.956940,0.000000,0.290285
15.447301,22.168059,-9.300934,-0.831470,0.000000,0.555570
-18.553791,-12.334872,-3.734109,0.471397,-0.000000,0.881921
21.718357,27.453571,-11.812105,0.000000,1.000000,-0.000000
11.662842,3.821362,16.225637,0.000000,0.000000,1.000000
5.689461,-0.781563,12.220513,-0.471397,0.000000,-0.881921
-24.404917,27.268732,15.770977,-1.000000,0.000000,0.000000
18.343744,15.262463,-3.846382,-0.471397,0.000000,0.881921
-4.240353,-18.853303,-16.225637,0.000000,0.000000,-1.000000
-14.395375,23.217737,10.875252,0.831470,0.000000,-0.555570
-14.178920,24.558253,-11.148940,0.751840,0.000000,0.659346
24.404917,-24.906809,12.201366,1.000000,0.000000,-0.000000
19.682069,8.660378,16.225637,0.000000,0.000000,1.000000
14.945940,-8.402211,-16.225637,0.000000,0.000000,-1.000000
-12.237685,3.625591,16.225637,0.000000,0.000000,1.000000
12.915446,-23.676902,-16.225637,0.000000,0.000000,-1.000000
13.688314,-5.201000,-3.341181,0.634393,0.000000,0.773011
-24.404917,9.102599,-6.756131,-1.000000,0.000000,0.000000
-15.891089,14.084933,6.343382,-0.000000,1.000000,0.000000
24.404917,-2.020694,3.158553,1.000000,-0.000000,0.000000
-17.395172,-16.383864,-4.199537,0.290284,-0.000000,0.956940
-17.063182,1.288011,-16.225637,0.000000,0.000000,-1.000000
-24.404917,13.449043,-5.007336,-1.000000,0.000000,0.000000
10.449766,26.650456,14.679676,-0.555570,0.000000,-0.831470
-14.801794,14.875528,10.267003,0.831470,0.000000,-0.555570
24.404917,-5.428037,3.787428,1.000000,-0.000000,0.000000
-14.221129,-27.453571,15.479326,0.000000,-1.000000,0.000000
14.552972,3.290860,-16.225637,0.000000,0.000000,-1.000000
-8.121440,4.365681,-10.746733,0.634393,-0.000000,0.773010
2.701770,5.073730,16.225637,0.000000,-0.000000,1.000000
-23.990486,27.453571,8.220950,-0.000000,1.000000,0.000000
19.688093,-6.966839,-16.225637,0.000000,0.000000,-1.000000
-19.919947,-0.427429,-2.504766,0.773011,0.000000,0.634393
-24.404917,0.211302,16.218115,-1.000000,0.000000,0.000000
-11.286567,-0.756264,-7.436752,0.881921,-0.000000,0.471397
-0.084955,-20.068509,16.225637,0.000000,0.000000,1.000000
-24.404917,11.010752,-0.342712,-1.000000,0.000000,0.000000
24.404917,3.068995,-2.075672,1.000000,0.000000,-0.000000
-12.003115,14.084933,-6.461547,-0.000000,1.000000,0.000000
-6.608113,9.544056,11.729483,0.471397,0.000000,-0.881921
-13.720301,12.121790,3.367433,-0.634393,-0.000000,-0.773011
24.404917,-15.657324,8.985133,1.000000,0.000000,-0.000000
10.688904,-19.623861,-8.191904,-0.773010,0.000000,0.634393
15.504877,12.303697,-4.226904,0.290285,0.000000,0.956940
24.404917,8.002310,4.186934,1.000000,-0.000000,0.000000
-12.744804,11.441230,-16.225637,0.000000,0.000000,-1.000000
24.404917,-23.307965,15.621660,1.000000,-0.000000,0.000000
12.817366,-26.513975,4.113441,-0.956940,0.000000,-0.290285
24.404917,-3.326735,-2.266355,1.000000,0.000000,-0.000000
-20.541755,10.730923,16.225637,0.000000,-0.000000,1.000000
24.404917,-12.663041,5.403965,1.000000,0.000000,-0.000000
2.217878,9.111720,-16.225637,0.000000,0.000000,-1.000000
-5.859580,9.227793,-12.129582,0.471397,-0.000000,0.881921
24.404917,-15.436418,1.479182,1.000000,0.000000,-0.000000
20.094641,-27.453571,-4.021348,-0.000000,-1.000000,0.000000
-18.434243,11.130667,3.798009,0.471397,0.000000,-0.881921
-16.916524,-9.731298,4.276610,0.098017,0.000000,-0.995185
19.726568,23.271950,2.740400,-0.773011,-0.000000,-0.634393
-24.404917,5.482485,14.462801,-1.000000,0.000000,0.000000
24.404917,-17.416315,-3.143159,1.000000,0.000000,-0.000000
24.404917,2.041746,-0.473897,1.000000,-0.000000,0.000000
-17.964268,-15.573773,-4.026904,0.290285,0.000000,0.956940
12.101985,-18.616737,-5.911212,-0.881921,0.000000,0.471397
13.857497,5.464273,-16.225637,0.000000,0.000000,-1.000000
-10.125389,11.472218,8.878549,0.773010,0.000000,-0.634393
11.621593,13.337807,-6.809961,-0.881921,0.000000,0.471397
0.813738,-24.969787,13.444502,-0.098017,-0.000000,-0.995185
-6.119501,-5.645112,-16.225637,0.000000,0.000000,-1.000000
10.116654,27.453571,-15.277486,-0.000000,1.000000,0.000000
-24.404917,6.294139,-9.931097,-1.000000,0.000000,0.000000
-6.730654,-26.083048,-11.663984,0.471397,0.000000,0.881921
24.404917,2.646603,13.853858,1.000000,-0.000000,0.000000
9.253930,13.792813,16.225637,0.000000,-0.000000,1.000000
1.732697,-6.486130,13.353993,-0.098017,-0.000000,-0.995185
24.404917,-3.357219,5.509259,1.000000,-0.000000,0.000000
24.404917,-16.453895,-5.925322,1.000000,0.000000,-0.000000
-14.319405,-25.835225,-16.225637,0.000000,0.000000,-1.000000
-10.067907,5.816128,16.225637,0.000000,-0.000000,1.000000
5.536443,10.537896,-16.225637,0.000000,0.000000,-1.000000
2.418036,4.403682,13.286493,-0.098017,-0.000000,-0.995185
-3.008919,11.667980,-16.225637,0.000000,0.000000,-1.000000
-8.093219,-5.316656,-10.769894,0.634393,-0.000000,0.773010
8.208222,-14.428444,-10.675513,-0.634393,0.000000,0.773010
-9.363201,-20.379199,9.727646,0.634393,0.000000,-0.773010
24.404917,5.114689,-8.297748,1.000000,0.000000,-0.000000
-7.439262,-25.957000,16.225637,0.000000,0.000000,1.000000
-24.404917,9.576247,10.698789,-1.000000,0.000000,0.000000
23.325912,-17.987454,-16.225637,0.000000,0.000000,-1.000000
13.061986,-6.488831,16.225637,0.000000,0.000000,1.000000
12.740642,-25.360640,-4.366365,-0.956940,0.000000,0.290285
-24.404917,5.228226,3.083963,-1.000000,0.000000,0.000000
-13.596341,-20.033390,-3.265701,-0.634393,0.000000,0.773011
-24.404917,-27.162696,-13.727153,-1.000000,0.000000,0.000000
-24.404917,7.215842,-4.883459,-1.000000,0.000000,0.000000
24.404917,12.760585,-10.012280,1.000000,0.000000,-0.000000
-24.404917,4.840434,8.594451,-1.000000,0.000000,0.000000
-8.978850,-14.492624,-10.043074,0.634393,0.000000,0.773010
17.985764,-27.453571,-15.921420,0.000000,-1.000000,0.000000
16.083940,5.945408,-4.295385,0.098017,0.000000,0.995185
-17.506690,18.804373,4.310716,0.980785,0.000000,-0.195090
-20.935882,-1.833849,-16.225637,0.000000,0.000000,-1.000000
9.115538,2.897055,-16.225637,0.000000,0.000000,-1.000000
22.216077,-25.582212,16.225637,0.000000,0.000000,1.000000
19.113235,22.476577,3.347981,-0.634394,0.000000,-0.773010
8.685486,5.167597,16.225637,0.000000,0.000000,1.000000
24.404917,-25.687734,-11.468210,1.000000,0.000000,-0.000000
-7.738210,-27.453571,-14.129348,0.000000,-1.000000,0.000000
-20.593659,-20.984119,1.025845,0.956941,0.000000,-0.290283
-16.273965,9.144202,16.225637,0.000000,-0.000000,1.000000
-24.404917,-9.990044,-5.391889,-1.000000,0.000000,0.000000
4.660025,-11.490562,12.651562,-0.290285,-0.000000,-0.956940
-24.404917,24.953933,-15.877205,-1.000000,0.000000,0.000000
20.515824,22.268958,-1.282431,-0.956940,0.000000,0.290286
24.404917,2.497293,0.417705,1.000000,-0.000000,0.000000
5.117359,-7.472254,-12.512831,-0.290285,0.000000,0.956940
15.049684,-20.903102,-4.088823,0.290285,0.000000,0.956940
-24.404917,6.840331,4.424963,-1.000000,0.000000,0.000000
-18.410465,9.335696,-3.810719,0.471397,0.000000,0.881921
24.404917,-9.796966,6.135688,1.000000,-0.000000,0.000000
4.401515,-4.225508,-12.729980,-0.290285,0.000000,0.956940
24.404917,9.614867,11.806649,1.000000,-0.000000,0.000000
20.683693,8.663963,-16.225637,0.000000,0.000000,-1.000000
-19.227733,-0.906462,-3.254014,0.634393,0.000000,0.773011
-24.404917,-3.675043,-4.510128,-1.000000,0.000000,0.000000
20.575390,-14.662333,-1.086067,-0.956940,0.000000,0.290285
10.342362,-19.992242,-16.225637,0.000000,0.000000,-1.000000
13.912291,-21.564660,-3.524995,0.634393,-0.000000,0.773011
20.524759,18.149394,1.252973,-0.956940,-0.000000,-0.290286
24.404917,18.169208,9.423775,1.000000,-0.000000,0.000000
-22.969688,0.254052,-16.225637,0.000000,0.000000,-1.000000
11.899609,14.084933,-11.482431,0.000000,1.000000,0.000000
-14.556347,2.047739,-3.894625,-0.471397,0.000000,0.881921
24.404917,-10.503596,-15.553633,1.000000,0.000000,-0.000000
14.685712,14.084933,-4.560359,-0.000000,1.000000,0.000000
7.429827,-1.908847,-16.225637,0.000000,0.000000,-1.000000
-24.404917,-25.732931,4.363476,-1.000000,0.000000,0.000000
-9.027375,-27.069945,-10.003251,0.634393,0.000000,0.773010
0.959398,-14.592887,13.430156,-0.098017,-0.000000,-0.995185
-11.414525,-24.726540,-7.197360,0.881921,0.000000,0.471397
20.588889,-27.453571,-11.851954,-0.000000,-1.000000,0.000000
12.981050,24.880335,12.514848,-0.751840,0.000000,-0.659346
-23.991088,-27.453571,-7.062747,0.000000,-1.000000,0.000000
24.404917,-2.125874,-1.831563,1.000000,0.000000,-0.000000
24.404917,-15.023635,12.551749,1.000000,-0.000000,0.000000
8.777644,7.601074,10.208200,-0.634393,0.000000,-0.773010
12.156384,-17.203862,16.225637,0.000000,0.000000,1.000000
-11.709864,-13.047351,-6.644819,0.881921,0.000000,0.471397
-24.404917,-7.832636,-13.952511,-1.000000,0.000000,0.000000
-12.217489,27.177781,13.241828,0.659346,0.000000,-0.751840
15.334976,-26.832364,-4.175365,0.290285,-0.000000,0.956940
15.160672,14.084933,-5.381396,-0.000000,1.000000,0.000000
12.278023,25.183211,-16.225637,0.000000,0.000000,-1.000000
-24.404917,-11.813301,8.430429,-1.000000,0.000000,0.000000
-9.899822,14.084933,-12.703409,-0.000000,1.000000,0.000000
-20.666394,26.425191,-0.665248,0.995185,-0.000000,0.098017
19.765256,-27.453571,-8.742805,-0.000000,-1.000000,0.000000
15.648782,5.352869,4.252526,0.098017,0.000000,-0.995185
19.593293,-27.453571,-14.861655,0.000000,-1.000000,0.000000
0.583694,9.163399,-16.225637,0.000000,0.000000,-1.000000
24.404917,2.343137,1.700527,1.000000,-0.000000,0.000000
-12.301309,26.050526,-13.168319,0.659346,0.000000,0.751840
-20.989865,14.680979,16.225637,0.000000,-0.000000,1.000000
12.689272,-27.453571,-15.237977,0.000000,-1.000000,0.000000
0.381649,-25.107156,13.487060,-0.098017,-0.000000,-0.995185
-24.404917,16.004234,-5.877852,-1.000000,0.000000,0.000000
17.209242,27.453571,5.548062,0.000000,1.000000,-0.000000
17.383754,-19.409608,4.203001,-0.290284,0.000000,-0.956940
12.765347,-19.162450,4.284925,-0.956940,0.000000,-0.290285
17.769322,16.633639,16.225637,0.000000,0.000000,1.000000
-21.900009,27.453571,11.489694,0.000000,1.000000,0.000000
-2.239986,-1.859227,13.304029,0.098017,0.000000,-0.995185
12.957922,-6.766455,-3.650091,-0.956940,0.000000,0.290285
3.882053,-25.766163,12.887557,-0.290285,-0.000000,-0.956940
15.355945,-27.453571,14.031877,0.000000,-1.000000,0.000000
-24.221304,27.453571,-13.464056,-0.000000,1.000000,0.000000
-17.642378,-15.631338,4.124548,0.290284,0.000000,-0.956940
-3.022930,-24.278618,-16.225637,0.000000,0.000000,-1.000000
8.806723,-4.999670,16.225637,0.000000,0.000000,1.000000
-16.051882,-5.313849,16.225637,0.000000,0.000000,1.000000
-3.508429,5.096324,-16.225637,0.000000,0.000000,-1.000000
19.525585,-10.234080,16.225637,0.000000,0.000000,1.000000
-7.214072,-6.143511,11.405592,0.471397,0.000000,-0.881921
-24.404917,19.371431,9.350111,-1.000000,0.000000,0.000000
21.623950,14.134188,16.225637,0.000000,0.000000,1.000000
24.404917,13.995088,11.656155,1.000000,-0.000000,0.000000
-24.404917,-17.762412,-10.463071,-1.000000,0.000000,0.000000
14.784376,6.588418,-16.225637,0.000000,0.000000,-1.000000
-23.416227,27.453571,7.132738,-0.000000,1.000000,0.000000
-18.102727,-6.472040,-16.225637,0.000000,0.000000,-1.000000
-11.353160,23.187206,-13.999824,0.659346,-0.000000,0.751840
-18.146359,-4.276542,-16.225637,0.000000,0.000000,-1.000000
12.777408,-22.174703,4.245165,-0.956940,0.000000,-0.290285
24.404917,9.087702,-1.541851,1.000000,-0.000000,0.000000
-0.292150,14.084933,15.294119,-0.000000,1.000000,0.000000
-1.421622,-17.164034,16.225637,0.000000,0.000000,1.000000
24.404917,6.469050,-1.995835,1.000000,-0.000000,0.000000
