x,y,z,nx,ny,nz
-33.747160,22.917396,-3.452929,0.000000,0.000000,-1.000000
-9.711723,-13.385910,3.452929,0.000000,-0.000000,1.000000
13.994681,21.841825,3.452929,0.000000,-0.000000,1.000000
0.160651,34.937847,-3.452929,0.000000,0.000000,-1.000000
-27.241397,-18.340575,-3.452929,0.000000,0.000000,-1.000000
21.251349,-8.615114,-3.452929,0.000000,-0.000000,-1.000000
-35.379215,11.275802,3.452929,-0.000000,-0.000000,1.000000
39.835955,-35.039044,0.144084,0.737277,-0.675590,0.000000
-37.099227,20.299393,3.452929,-0.000000,-0.000000,1.000000
-42.484257,-10.414866,3.452929,0.000000,-0.000000,1.000000
24.819288,-28.655632,3.452929,-0.000000,-0.000000,1.000000
41.121808,-33.540329,-0.785415,0.793353,-0.608761,0.000000
-16.173713,46.873169,-3.452929,0.000000,0.000000,-1.000000
-15.008653,-3.017776,2.927214,0.956940,0.290285,-0.000000
52.928874,-3.752523,2.706154,0.999048,-0.043619,0.000000
19.660134,6.160685,-3.452929,0.000000,0.000000,-1.000000
3.290222,23.078227,3.452929,-0.000000,0.000000,1.000000
22.869375,-8.826759,3.452929,-0.000000,0.000000,1.000000
9.441980,25.874448,-3.452929,0.000000,-0.000000,-1.000000
37.079376,-11.446535,3.452929,-0.000000,0.000000,1.000000
-37.623124,14.468534,3.452929,-0.000000,-0.000000,1.000000
26.127919,46.197462,0.155136,0.461749,0.887011,0.000000
17.895394,47.416299,3.452929,0.000000,-0.000000,1.000000
-17.642297,50.053677,2.054529,-0.300706,0.953717,0.000000
-9.322999,44.327833,3.452929,0.000000,0.000000,1.000000
1.752421,36.497334,3.452929,0.000000,-0.000000,1.000000
-16.089633,-22.467434,3.452929,0.000000,-0.000000,1.000000
11.206490,-38.034878,-3.452929,0.000000,0.000000,-1.000000
-34.772114,-6.746596,3.452929,0.000000,-0.000000,1.000000
5.461532,-14.267348,0.814087,-0.290285,0.956940,0.000000
18.328039,-29.636146,-3.452929,0.000000,-0.000000,-1.000000
5.661255,-20.552964,-3.452929,0.000000,0.000000,-1.000000
-5.867658,-20.011798,-3.452929,0.000000,0.000000,-1.000000
4.073829,-38.130328,-3.452929,0.000000,0.000000,-1.000000
-34.820635,-30.608856,1.066939,0.881921,-0.471397,0.000000
0.096648,41.942995,-1.198550,-0.098017,0.995185,-0.000000
29.623957,18.365208,3.452929,0.000000,-0.000000,1.000000
-45.612486,27.122668,-2.809144,-0.843392,0.537299,0.000000
-38.236335,-31.802168,3.452929,0.000000,-0.000000,1.000000
22.157549,40.120965,3.452929,0.000000,-0.000000,1.000000
-13.835068,48.859692,3.452929,0.000000,0.000000,1.000000
47.189194,14.559648,-3.452929,0.000000,0.000000,-1.000000
-16.016136,-50.542753,-3.452929,0.000000,-0.000000,-1.000000
45.329545,-27.566797,2.178644,0.843392,-0.537299,0.000000
-14.338958,20.153423,-3.452929,0.000000,-0.000000,-1.000000
-36.553414,-24.160055,-3.452929,0.000000,0.000000,-1.000000
-46.629810,2.803396,-1.115909,0.471395,-0.881922,0.000000
-16.905668,14.231620,-3.452929,0.000000,-0.000000,-1.000000
11.032756,24.303017,3.452929,0.000000,-0.000000,1.000000
21.676429,-41.002480,3.452929,0.000000,-0.000000,1.000000
26.630066,19.822593,3.452929,0.000000,-0.000000,1.000000
-14.004148,29.568476,-3.452929,0.000000,0.000000,-1.000000
21.974194,-48.310434,-3.029406,0.382683,-0.923880,0.000000
-1.506200,-28.925148,-3.452929,0.000000,-0.000000,-1.000000
-25.150651,2.185003,-3.452929,0.000000,0.000000,-1.000000
43.934344,15.700395,-3.452929,0.000000,0.000000,-1.000000
32.492223,40.498836,-3.452929,0.000000,0.000000,-1.000000
4.960790,33.158173,3.452929,0.000000,-0.000000,1.000000
-22.733406,-42.721790,-3.452929,0.000000,0.000000,-1.000000
-9.220474,-33.308913,-3.452929,0.000000,-0.000000,-1.000000
-27.147466,-41.394710,3.452929,-0.000000,0.000000,1.000000
-26.203111,40.719296,-3.452929,0.000000,0.000000,-1.000000
8.966282,-52.319444,0.132592,0.130526,-0.991445,0.000000
0.106618,-15.301632,2.948589,-0.098017,0.995185,0.000000
38.331594,36.680765,1.455495,0.737277,0.675590,-0.000000
32.882527,-16.354768,-3.452929,0.000000,-0.000000,-1.000000
3.521613,-14.897035,-3.452929,0.000000,0.000000,-1.000000
-41.339931,32.721350,-3.452929,0.000000,0.000000,-1.000000
22.967754,-31.648889,-3.452929,0.000000,0.000000,-1.000000
-18.492823,10.481297,-3.452929,0.000000,-0.000000,-1.000000
-11.605652,-23.819899,3.452929,0.000000,-0.000000,1.000000
-0.959566,-20.211138,-3.452929,0.000000,-0.000000,-1.000000
22.647737,-41.882030,-3.452929,0.000000,0.000000,-1.000000
46.956511,-12.533811,-3.452929,0.000000,-0.000000,-1.000000
7.064449,52.569826,2.179665,0.130526,0.991445,-0.000000
-36.264451,-20.212669,3.452929,-0.000000,0.000000,1.000000
46.556642,-25.437941,-1.668997,0.887011,-0.461749,0.000000
-47.204583,-13.128664,-3.452929,0.000000,0.000000,-1.000000
34.673175,33.488793,2.132237,-0.881921,-0.471398,0.000000
-47.536716,15.639527,3.452929,-0.000000,-0.000000,1.000000
-41.984337,32.416258,0.712823,-0.793353,0.608761,0.000000
30.026305,-43.762668,-2.537606,0.537299,-0.843392,0.000000
-51.374725,-13.330468,2.465913,-0.976296,-0.216439,0.000000
23.673177,45.736346,-3.452929,0.000000,0.000000,-1.000000
34.668969,-33.496661,-1.153183,-0.881921,0.471398,0.000000
-30.594030,-21.319140,-3.452929,0.000000,0.000000,-1.000000
-8.554723,36.516922,-3.452929,0.000000,0.000000,-1.000000
33.247547,-29.019644,-2.323975,-0.471398,-0.881921,0.000000
-32.502814,41.917921,-1.465374,-0.608761,0.793353,0.000000
14.425207,-21.527641,3.452929,-0.000000,0.000000,1.000000
13.960295,-50.942379,3.452929,0.000000,-0.000000,1.000000
-10.034171,-28.811383,3.452929,-0.000000,0.000000,1.000000
11.658160,-22.889386,3.452929,-0.000000,-0.000000,1.000000
-12.530548,8.751915,-0.832550,0.773010,-0.634393,0.000000
50.825425,10.222531,3.452929,0.000000,-0.000000,1.000000
-25.768398,-46.384617,0.405822,-0.461749,-0.887011,-0.000000
-3.149884,-37.506714,-3.452929,0.000000,-0.000000,-1.000000
-20.185168,-45.292798,3.452929,-0.000000,0.000000,1.000000
16.130163,29.571766,-3.452929,0.000000,0.000000,-1.000000
19.092467,31.774453,-3.452929,0.000000,0.000000,-1.000000
0.059355,-22.014451,3.452929,-0.000000,-0.000000,1.000000
29.024383,33.256412,3.078576,0.881921,-0.471398,0.000000
-16.282496,-12.068128,-3.452929,0.000000,0.000000,-1.000000
-22.417677,7.907089,3.452929,-0.000000,-0.000000,1.000000
-17.504062,50.097262,-2.102130,-0.300706,0.953717,0.000000
24.687468,46.947314,2.007529,0.461749,0.887011,-0.000000
31.245974,4.290745,3.452929,0.000000,-0.000000,1.000000
-17.075394,13.728329,3.452929,-0.000000,0.000000,1.000000
-47.546002,18.994753,-3.452929,0.000000,0.000000,-1.000000
19.904243,47.071780,3.452929,0.000000,-0.000000,1.000000
-11.728924,51.729778,-1.756073,-0.216439,0.976296,0.000000
28.766957,32.432774,0.500814,0.995185,-0.098017,0.000000
-32.340867,-11.055883,3.452929,0.000000,-0.000000,1.000000
-7.296163,-52.539320,3.331887,-0.130526,-0.991445,0.000000
12.563147,-10.205938,3.452929,-0.000000,-0.000000,1.000000
-6.148745,-18.890149,3.452929,0.000000,-0.000000,1.000000
-29.136606,-33.466366,-0.358085,-0.881921,0.471398,0.000000
-13.230385,34.756210,-3.452929,0.000000,0.000000,-1.000000
-30.090392,-3.730130,3.452929,0.000000,-0.000000,1.000000
-34.162282,34.176928,0.396757,0.634389,-0.773014,0.000000
12.848021,25.586506,3.452929,0.000000,-0.000000,1.000000
15.135399,-1.794406,-2.935688,-0.995185,0.098017,0.000000
9.776705,52.162574,2.926193,0.216439,0.976296,-0.000000
-49.822882,18.322821,-0.222054,-0.923880,0.382683,0.000000
-18.948099,16.926806,-3.452929,0.000000,-0.000000,-1.000000
28.038887,-34.970378,3.452929,-0.000000,0.000000,1.000000
6.872820,29.176631,-3.452929,0.000000,0.000000,-1.000000
-5.361482,52.208671,-3.452929,0.000000,0.000000,-1.000000
-26.589006,-19.490966,-3.452929,0.000000,0.000000,-1.000000
29.485506,-23.224764,3.452929,-0.000000,0.000000,1.000000
-14.196823,9.311006,3.452929,-0.000000,-0.000000,1.000000
27.563046,-38.568547,-3.452929,0.000000,-0.000000,-1.000000
3.041729,-46.056139,-0.875235,-0.956940,0.290286,0.000000
18.585229,-9.342487,-3.452929,0.000000,0.000000,-1.000000
-34.245174,-4.608928,-3.452929,0.000000,0.000000,-1.000000
2.922970,-43.851508,-2.795850,-0.881921,-0.471398,0.000000
33.442780,-3.997103,3.452929,-0.000000,0.000000,1.000000
-17.495585,20.779439,3.452929,-0.000000,0.000000,1.000000
-38.485269,27.160192,-3.452929,0.000000,0.000000,-1.000000
38.633930,8.378680,-3.452929,0.000000,0.000000,-1.000000
4.776284,-38.649236,-3.452929,0.000000,0.000000,-1.000000
14.833767,31.531629,-3.452929,0.000000,0.000000,-1.000000
34.797414,-28.542460,-3.452929,0.000000,-0.000000,-1.000000
42.230623,-10.245482,3.452929,-0.000000,0.000000,1.000000
-37.842075,-37.214980,-3.438993,-0.737277,-0.675590,0.000000
-25.696166,36.709582,3.452929,-0.000000,-0.000000,1.000000
52.950136,-3.265530,-1.865770,0.999048,-0.043619,0.000000
-48.629635,-6.274780,-3.452929,0.000000,0.000000,-1.000000
-27.010777,-15.284128,-3.452929,0.000000,-0.000000,-1.000000
-43.138335,-20.718923,3.452929,-0.000000,0.000000,1.000000
34.269153,0.360235,-3.452929,0.000000,-0.000000,-1.000000
-45.305633,-12.766592,3.452929,0.000000,-0.000000,1.000000
8.656662,-27.081205,-3.452929,0.000000,0.000000,-1.000000
-10.953508,28.354557,3.452929,0.000000,0.000000,1.000000
15.225686,0.877707,-0.366249,-0.995185,-0.098017,0.000000
-30.571317,36.252805,3.452929,-0.000000,0.000000,1.000000
-21.485581,-15.103254,3.452929,0.000000,-0.000000,1.000000
25.033086,-18.499622,-3.452929,0.000000,-0.000000,-1.000000
-15.784463,5.837597,3.452929,-0.000000,0.000000,1.000000
21.521570,39.774040,-3.452929,0.000000,0.000000,-1.000000
-28.846205,-10.495991,3.452929,0.000000,-0.000000,1.000000
30.164917,24.610392,3.452929,0.000000,-0.000000,1.000000
-16.573280,0.269553,3.452929,-0.000000,0.000000,1.000000
36.723122,-23.639211,3.452929,-0.000000,0.000000,1.000000
-22.775092,38.655924,3.452929,-0.000000,-0.000000,1.000000
33.453310,-24.737530,3.452929,-0.000000,0.000000,1.000000
-52.211834,-9.554509,-2.769334,-0.976296,-0.216439,-0.000000
-2.890208,43.482229,-3.452929,0.000000,0.000000,-1.000000
18.427167,-29.295797,-3.452929,0.000000,-0.000000,-1.000000
-18.892276,46.824956,-3.452929,0.000000,0.000000,-1.000000
22.867670,39.867866,3.452929,0.000000,-0.000000,1.000000
-4.303180,43.641805,3.452929,-0.000000,-0.000000,1.000000
-1.382937,-27.780917,3.452929,0.000000,0.000000,1.000000
-35.178738,6.932970,3.452929,-0.000000,-0.000000,1.000000
-41.677512,-24.209390,3.452929,0.000000,-0.000000,1.000000
-44.506665,23.155859,3.452929,-0.000000,-0.000000,1.000000
37.231181,-31.864132,3.452929,0.000000,0.000000,1.000000
-25.313379,25.791669,3.452929,-0.000000,-0.000000,1.000000
9.153126,-34.300409,-3.452929,0.000000,0.000000,-1.000000
-25.795551,21.840900,3.452929,-0.000000,-0.000000,1.000000
23.431645,-44.842331,3.452929,0.000000,-0.000000,1.000000
25.632189,-33.340327,-3.452929,0.000000,-0.000000,-1.000000
-33.774758,1.433672,-3.452929,-0.000000,-0.000000,-1.000000
32.665947,19.848062,3.452929,0.000000,-0.000000,1.000000
-3.800114,36.554891,3.452929,-0.000000,-0.000000,1.000000
-9.530718,39.925877,-3.452929,0.000000,0.000000,-1.000000
22.314913,-35.203375,3.452929,-0.000000,0.000000,1.000000
-16.831110,29.511744,-3.452929,0.000000,0.000000,-1.000000
-37.006985,-12.714240,3.452929,0.000000,-0.000000,1.000000
-25.573184,-21.912830,3.452929,0.000000,-0.000000,1.000000
39.547632,-15.874118,-3.452929,0.000000,-0.000000,-1.000000
-27.855167,-21.802781,3.452929,0.000000,-0.000000,1.000000
0.877280,42.071895,-2.317989,-0.290288,0.956939,0.000000
-34.346502,6.129775,3.452929,-0.000000,-0.000000,1.000000
31.649046,7.065501,-3.452929,0.000000,0.000000,-1.000000
-33.802677,16.297006,-3.452929,0.000000,0.000000,-1.000000
-11.244762,18.015884,-3.452929,0.000000,0.000000,-1.000000
27.674189,13.734391,-3.452929,0.000000,-0.000000,-1.000000
27.187124,17.922122,-3.452929,0.000000,0.000000,-1.000000
-6.368327,-36.789938,3.452929,-0.000000,0.000000,1.000000
-10.178587,29.667598,3.452929,0.000000,-0.000000,1.000000
-30.315215,18.715086,3.452929,-0.000000,-0.000000,1.000000
-21.380588,-9.541174,-3.452929,0.000000,0.000000,-1.000000
21.351179,-21.232860,-3.452929,0.000000,-0.000000,-1.000000
-0.569317,19.062873,-3.452929,0.000000,0.000000,-1.000000
14.447057,-30.786889,3.452929,0.000000,-0.000000,1.000000
-23.861386,39.307649,-3.452929,0.000000,0.000000,-1.000000
38.710422,26.980631,-3.452929,0.000000,0.000000,-1.000000
34.155387,34.182586,2.589591,-0.634389,-0.773014,0.000000
-23.499269,-39.805704,3.452929,-0.000000,0.000000,1.000000
-16.881038,0.091205,-3.452929,0.000000,0.000000,-1.000000
-24.877741,-33.528712,3.452929,-0.000000,0.000000,1.000000
-7.773426,47.753229,-3.452929,0.000000,0.000000,-1.000000
-15.278943,28.578464,-3.452929,0.000000,0.000000,-1.000000
9.559696,-16.097665,3.452929,-0.000000,-0.000000,1.000000
-22.650124,-36.918942,-3.452929,0.000000,-0.000000,-1.000000
2.434242,22.703164,-3.452929,0.000000,-0.000000,-1.000000
45.378567,16.555719,3.452929,0.000000,-0.000000,1.000000
35.604965,23.381614,-3.452929,0.000000,0.000000,-1.000000
5.629047,-52.758800,-3.328222,0.130526,-0.991445,0.000000
16.749948,50.335033,2.591295,0.300706,0.953717,-0.000000
-19.104182,-8.591244,3.452929,-0.000000,0.000000,1.000000
11.544366,16.513131,-3.452929,0.000000,0.000000,-1.000000
-16.879863,14.460032,3.452929,-0.000000,0.000000,1.000000
53.068851,0.546524,0.235495,0.999048,0.043619,0.000000
-27.826152,45.164318,3.331616,-0.537299,0.843392,0.000000
-34.770064,33.307526,2.442399,0.881921,-0.471398,0.000000
-0.641247,-53.064715,1.912900,-0.043619,-0.999048,0.000000
25.959624,41.153360,3.452929,0.000000,-0.000000,1.000000
-35.387908,37.685947,-3.452929,0.000000,0.000000,-1.000000
-36.524317,2.049499,-3.452929,-0.000000,-0.000000,-1.000000
3.818260,-41.030157,-3.452929,0.000000,0.000000,-1.000000
-18.343582,21.515016,-3.452929,0.000000,0.000000,-1.000000
42.137178,-32.217073,-0.041447,0.793353,-0.608761,0.000000
-14.741713,-50.968227,0.286479,-0.300706,-0.953717,0.000000
15.767336,48.709033,-3.452929,0.000000,0.000000,-1.000000
14.377846,40.338538,-3.452929,0.000000,-0.000000,-1.000000
-31.850231,-14.143228,-3.452929,0.000000,0.000000,-1.000000
9.558072,12.272963,3.452929,-0.000000,0.000000,1.000000
2.384952,-20.445419,3.452929,0.000000,0.000000,1.000000
-40.687987,27.321575,3.452929,-0.000000,-0.000000,1.000000
-9.332110,24.455699,3.452929,0.000000,-0.000000,1.000000
10.360705,13.814164,-3.452929,0.000000,-0.000000,-1.000000
29.116917,-20.553264,3.452929,-0.000000,-0.000000,1.000000
-45.413936,-20.993961,-3.452929,0.000000,0.000000,-1.000000
-31.773652,-42.477426,-2.357590,-0.608761,-0.793353,0.000000
-8.415479,46.638601,-3.452929,0.000000,0.000000,-1.000000
-5.555192,44.888869,-3.452929,0.000000,0.000000,-1.000000
-2.095294,17.186086,3.452929,0.000000,-0.000000,1.000000
3.428173,-29.638634,-3.452929,0.000000,0.000000,-1.000000
-46.258048,-2.980480,-2.573258,0.290286,0.956940,-0.000000
28.936170,13.426665,-3.452929,0.000000,-0.000000,-1.000000
26.699373,-1.605859,3.452929,-0.000000,-0.000000,1.000000
-11.167450,40.476882,3.452929,0.000000,0.000000,1.000000
18.431822,-6.770544,-3.452929,0.000000,0.000000,-1.000000
31.515251,14.474642,3.452929,0.000000,-0.000000,1.000000
-10.724708,38.607237,3.452929,0.000000,0.000000,1.000000
18.326482,3.663695,-3.452929,0.000000,0.000000,-1.000000
-9.850206,-29.324514,-3.452929,0.000000,0.000000,-1.000000
-23.824663,-5.875739,-3.452929,0.000000,0.000000,-1.000000
-18.605264,-42.032654,-3.452929,0.000000,-0.000000,-1.000000
18.584576,28.374187,-3.452929,0.000000,0.000000,-1.000000
-21.899892,24.921825,-3.452929,0.000000,0.000000,-1.000000
25.495250,36.172405,3.452929,-0.000000,0.000000,1.000000
0.660425,-21.807422,-3.452929,0.000000,0.000000,-1.000000
14.670577,50.990656,-2.676603,0.300706,0.953717,0.000000
-5.583504,48.626956,3.452929,-0.000000,-0.000000,1.000000
22.026870,31.516887,-3.452929,0.000000,0.000000,-1.000000
-29.403800,-29.953202,-1.402222,-0.773010,-0.634394,0.000000
13.982347,14.921138,-3.452929,0.000000,-0.000000,-1.000000
7.991348,42.473278,-3.452929,0.000000,0.000000,-1.000000
6.697298,13.698860,0.454171,-0.471397,-0.881921,0.000000
39.244258,7.010001,-3.452929,0.000000,0.000000,-1.000000
18.825383,22.884867,3.452929,0.000000,-0.000000,1.000000
16.252784,16.839031,3.452929,0.000000,-0.000000,1.000000
-15.296734,-0.156343,0.722028,0.995185,0.098017,-0.000000
16.905733,-9.261392,-3.452929,0.000000,0.000000,-1.000000
39.014234,23.216381,3.452929,0.000000,-0.000000,1.000000
23.920782,-13.678744,3.452929,-0.000000,0.000000,1.000000
-28.572724,-21.600605,3.452929,0.000000,-0.000000,1.000000
43.491700,-2.730648,2.477526,0.471398,0.881921,0.000000
-32.569755,-22.951944,-3.452929,0.000000,0.000000,-1.000000
48.928212,19.697190,3.452929,0.000000,-0.000000,1.000000
6.493103,-41.109964,-3.452929,0.000000,0.000000,-1.000000
6.224464,-50.622747,-3.452929,0.000000,0.000000,-1.000000
12.941500,8.114218,-0.002067,-0.881921,-0.471397,0.000000
-7.599891,13.216414,-0.247287,0.471397,-0.881921,0.000000
27.497992,33.597306,-3.452929,0.000000,0.000000,-1.000000
15.294246,-0.181611,2.903904,-0.995185,0.098017,0.000000
-20.648359,14.215754,-3.452929,0.000000,0.000000,-1.000000
34.757858,34.234680,-3.452929,0.000000,0.000000,-1.000000
-22.902405,-12.580681,-3.452929,0.000000,-0.000000,-1.000000
12.694761,-17.963763,3.452929,-0.000000,0.000000,1.000000
-48.058571,-13.052408,3.452929,0.000000,-0.000000,1.000000
35.609437,-38.874888,-3.452929,0.000000,0.000000,-1.000000
-4.591790,35.896682,3.452929,-0.000000,-0.000000,1.000000
-11.142906,-38.535590,3.452929,-0.000000,0.000000,1.000000
9.647367,45.701715,3.452929,0.000000,-0.000000,1.000000
-4.884809,41.980160,3.452929,-0.000000,-0.000000,1.000000
-32.244313,27.149107,-3.452929,0.000000,-0.000000,-1.000000
-4.252871,-27.952718,3.452929,-0.000000,0.000000,1.000000
-46.057583,-26.396624,3.439056,-0.887011,-0.461749,0.000000
-42.020828,6.850905,-3.452929,0.000000,-0.000000,-1.000000
-20.881112,3.765077,3.452929,-0.000000,-0.000000,1.000000
-47.013098,-5.524809,3.452929,0.000000,-0.000000,1.000000
31.411654,35.163833,-3.452929,0.000000,-0.000000,-1.000000
14.209663,-5.651694,-0.924572,-0.956940,0.290285,0.000000
10.915355,47.829857,3.452929,0.000000,-0.000000,1.000000
-3.200470,25.801760,-3.452929,0.000000,0.000000,-1.000000
-31.526879,-28.726348,-3.452929,0.000000,-0.000000,-1.000000
-18.982461,18.250598,-3.452929,0.000000,0.000000,-1.000000
31.665870,-25.789090,-3.452929,0.000000,-0.000000,-1.000000
29.536628,44.074626,-3.311613,0.537299,0.843392,0.000000
-41.744061,23.597937,-3.452929,0.000000,0.000000,-1.000000
-32.502068,-24.070415,3.452929,0.000000,-0.000000,1.000000
52.567569,-7.081594,-1.172629,0.991445,-0.130526,0.000000
-23.385810,-0.572713,-3.452929,0.000000,0.000000,-1.000000
-9.327448,44.056322,3.452929,0.000000,0.000000,1.000000
52.575239,-7.023335,-1.654506,0.991445,-0.130526,0.000000
-35.590009,-3.523053,-3.452929,0.000000,0.000000,-1.000000
-29.265158,34.323046,3.452929,-0.000000,-0.000000,1.000000
47.233986,-24.136777,2.500361,0.887011,-0.461749,0.000000
-24.174881,-9.569527,-3.452929,0.000000,0.000000,-1.000000
18.004224,37.615445,-3.452929,0.000000,0.000000,-1.000000
-2.261586,-21.839292,3.452929,0.000000,-0.000000,1.000000
-50.756831,-1.301385,-3.452929,0.000000,0.000000,-1.000000
11.205111,-12.989450,-3.452929,0.000000,0.000000,-1.000000
-16.180629,38.619908,-3.452929,0.000000,0.000000,-1.000000
-32.635543,41.816074,-1.416760,-0.608761,0.793353,0.000000
-23.212725,-47.715017,-3.269159,-0.461749,-0.887011,-0.000000
-45.683141,-13.969135,-3.452929,0.000000,0.000000,-1.000000
-28.238035,-14.031842,3.452929,-0.000000,0.000000,1.000000
-0.263802,-41.959458,-2.155175,0.098017,-0.995185,-0.000000
-26.221804,-14.652909,3.452929,0.000000,-0.000000,1.000000
-12.670421,16.449815,3.452929,-0.000000,0.000000,1.000000
31.876864,-24.576680,-3.452929,0.000000,-0.000000,-1.000000
43.009441,-28.517751,3.452929,-0.000000,0.000000,1.000000
-13.052834,42.303101,-3.452929,0.000000,0.000000,-1.000000
12.384717,41.815469,3.452929,0.000000,-0.000000,1.000000
-3.948262,-46.915944,-3.452929,0.000000,-0.000000,-1.000000
-7.538817,34.762154,-3.452929,0.000000,0.000000,-1.000000
-15.339884,7.707316,3.452929,-0.000000,0.000000,1.000000
-25.041829,-26.557838,-3.452929,0.000000,0.000000,-1.000000
12.566138,-37.534349,-3.452929,0.000000,0.000000,-1.000000
32.406779,35.057375,-1.499454,-0.098017,-0.995185,0.000000
-33.321466,-1.898930,-3.452929,0.000000,0.000000,-1.000000
11.760479,-24.909285,3.452929,0.000000,-0.000000,1.000000
-31.262804,-21.786878,3.452929,0.000000,-0.000000,1.000000
-32.954434,-20.671640,-3.452929,0.000000,0.000000,-1.000000
-28.572295,-39.333564,3.452929,-0.000000,0.000000,1.000000
5.462339,27.915286,-3.452929,0.000000,0.000000,-1.000000
12.925586,44.104573,-3.452929,0.000000,0.000000,-1.000000
-26.086653,-1.755264,-3.452929,0.000000,0.000000,-1.000000
27.496502,-23.183524,-3.452929,0.000000,0.000000,-1.000000
-42.862789,-20.065521,3.452929,-0.000000,0.000000,1.000000
15.441057,-14.364813,-3.452929,0.000000,0.000000,-1.000000
-0.826136,48.691278,-3.452929,0.000000,-0.000000,-1.000000
2.040704,47.567756,-2.552439,-0.634394,-0.773010,0.000000
7.393009,33.562423,-3.452929,0.000000,0.000000,-1.000000
-28.284069,-31.059816,3.452929,0.000000,-0.000000,1.000000
32.486607,-35.049513,2.899901,-0.098017,0.995185,0.000000
21.839912,-6.578007,-3.452929,0.000000,0.000000,-1.000000
2.216146,-26.356939,-3.452929,0.000000,0.000000,-1.000000
35.115956,-12.992504,-3.452929,0.000000,0.000000,-1.000000
-0.701492,-34.045702,-3.452929,0.000000,-0.000000,-1.000000
6.679313,-42.357707,-3.452929,0.000000,0.000000,-1.000000
-14.308371,49.184294,-3.452929,0.000000,0.000000,-1.000000
32.535744,35.044370,2.947191,-0.290288,-0.956939,0.000000
4.447903,-20.993375,-3.452929,0.000000,0.000000,-1.000000
-3.246153,-52.929600,3.452929,-0.000000,-0.000000,1.000000
12.853391,-23.423390,3.452929,-0.000000,-0.000000,1.000000
3.566421,-21.599376,-3.452929,0.000000,0.000000,-1.000000
15.413671,-17.488314,3.452929,-0.000000,-0.000000,1.000000
13.349146,-27.909549,-3.452929,0.000000,0.000000,-1.000000
22.789216,38.924355,-3.452929,0.000000,0.000000,-1.000000
16.532411,19.809593,3.452929,0.000000,-0.000000,1.000000
-33.783971,26.353195,-3.452929,0.000000,0.000000,-1.000000
22.200474,-41.913635,-3.452929,0.000000,0.000000,-1.000000
-22.577369,-8.282237,-3.452929,0.000000,0.000000,-1.000000
41.562693,-0.213705,3.452929,0.000000,0.000000,1.000000
9.185864,21.425693,3.452929,0.000000,-0.000000,1.000000
35.078992,-32.187294,-1.166698,-0.995185,0.098017,0.000000
11.683700,30.230860,3.452929,0.000000,-0.000000,1.000000
-19.493433,32.870210,-3.452929,0.000000,0.000000,-1.000000
27.193950,-0.537570,3.452929,0.000000,0.000000,1.000000
9.626194,11.813045,2.729396,-0.634393,-0.773010,0.000000
-1.585139,21.651380,3.452929,0.000000,-0.000000,1.000000
-0.166427,-15.295741,-1.672373,0.098017,0.995185,0.000000
-16.196653,-20.205077,-3.452929,0.000000,0.000000,-1.000000
-1.588933,15.155636,-1.698417,0.098017,-0.995185,0.000000
-23.562618,-43.908074,-3.452929,0.000000,0.000000,-1.000000
-0.064169,-24.407312,-3.452929,0.000000,-0.000000,-1.000000
30.634323,28.987521,-1.797623,0.471397,0.881921,0.000000
-29.792842,-12.892177,-3.452929,0.000000,0.000000,-1.000000
-50.141171,10.935542,3.452929,-0.000000,-0.000000,1.000000
-31.817795,-14.070100,-3.452929,0.000000,0.000000,-1.000000
-15.310544,11.851196,3.452929,-0.000000,0.000000,1.000000
10.850849,-49.814398,3.452929,0.000000,-0.000000,1.000000
18.757119,-33.488734,3.452929,-0.000000,-0.000000,1.000000
-10.129005,-40.089930,3.452929,-0.000000,0.000000,1.000000
-34.002492,14.147177,-3.452929,0.000000,0.000000,-1.000000
16.782458,2.098703,3.452929,0.000000,-0.000000,1.000000
-19.578099,-44.179318,-3.452929,0.000000,-0.000000,-1.000000
19.945145,39.405980,3.452929,0.000000,-0.000000,1.000000
16.675648,-0.573900,-3.452929,0.000000,0.000000,-1.000000
-15.397384,8.230813,-3.452929,0.000000,-0.000000,-1.000000
8.672067,19.234737,-3.452929,0.000000,0.000000,-1.000000
4.965977,51.967557,-3.452929,0.000000,0.000000,-1.000000
30.681067,-28.962535,-2.604061,0.471397,-0.881921,0.000000
45.967237,19.320150,-3.452929,0.000000,0.000000,-1.000000
2.504126,37.964846,3.452929,0.000000,-0.000000,1.000000
5.187752,-25.673442,-3.452929,0.000000,0.000000,-1.000000
-15.498862,-0.414345,-3.452929,0.000000,0.000000,-1.000000
35.454058,-9.856530,3.452929,-0.000000,-0.000000,1.000000
23.245904,8.836977,-3.452929,0.000000,0.000000,-1.000000
-18.903354,-30.716190,-3.452929,0.000000,-0.000000,-1.000000
44.246082,26.766234,3.452929,0.000000,-0.000000,1.000000
-47.229811,-23.753513,-3.452929,0.000000,-0.000000,-1.000000
-0.126403,15.299683,1.392972,0.098017,-0.995185,0.000000
-18.259715,12.273961,-3.452929,0.000000,0.000000,-1.000000
-12.676583,12.524044,3.452929,-0.000000,-0.000000,1.000000
45.308404,26.707857,-3.452929,0.000000,0.000000,-1.000000
-39.591089,-25.975195,-3.452929,0.000000,0.000000,-1.000000
-9.387742,12.008738,-1.271848,0.634393,-0.773010,0.000000
34.927262,30.899979,1.717248,-0.956939,0.290289,0.000000
16.896082,-28.252955,-3.452929,0.000000,0.000000,-1.000000
-21.841552,0.681208,-3.452929,-0.000000,-0.000000,-1.000000
15.456244,-17.711465,-3.452929,0.000000,-0.000000,-1.000000
18.567374,-24.467307,3.452929,-0.000000,0.000000,1.000000
15.301871,-0.104189,0.852665,-0.995185,0.098017,0.000000
25.697165,-0.830195,-3.452929,-0.000000,-0.000000,-1.000000
-40.973046,26.945812,-3.452929,0.000000,0.000000,-1.000000
38.330056,27.482663,3.452929,0.000000,-0.000000,1.000000
-18.410339,-17.469214,-3.452929,0.000000,-0.000000,-1.000000
-33.063257,37.506553,-3.452929,0.000000,0.000000,-1.000000
-38.961107,17.297635,-3.452929,0.000000,0.000000,-1.000000
18.543401,-29.602998,3.452929,-0.000000,0.000000,1.000000
-43.516742,-15.020958,3.452929,0.000000,-0.000000,1.000000
18.323003,-5.228190,-3.452929,0.000000,0.000000,-1.000000
-26.173688,13.265041,-3.452929,0.000000,0.000000,-1.000000
42.161426,1.172423,0.807438,0.956939,-0.290288,0.000000
26.716443,18.754808,3.452929,0.000000,-0.000000,1.000000
28.287115,27.654185,3.452929,0.000000,-0.000000,1.000000
-2.040879,-53.003606,-1.391026,-0.043619,-0.999048,0.000000
4.577436,-21.121227,-3.452929,0.000000,0.000000,-1.000000
-1.243596,-49.477636,3.452929,-0.000000,-0.000000,1.000000
7.929607,-13.040177,-0.505649,-0.471397,0.881921,0.000000
22.346000,48.156426,-2.350277,0.382683,0.923880,0.000000
-17.546198,-40.403353,3.452929,-0.000000,0.000000,1.000000
-0.641789,53.064691,-1.953895,-0.043619,0.999048,0.000000
-39.691512,21.742164,3.452929,-0.000000,-0.000000,1.000000
-41.029921,31.826121,3.452929,-0.000000,-0.000000,1.000000
-3.119862,-28.391118,3.452929,0.000000,-0.000000,1.000000
-32.417106,-14.463322,3.452929,0.000000,-0.000000,1.000000
15.189281,-8.414697,-3.452929,0.000000,0.000000,-1.000000
-14.022352,-41.550635,3.452929,-0.000000,0.000000,1.000000
-39.292597,5.237763,-3.452929,0.000000,0.000000,-1.000000
27.758937,45.207139,-0.045594,0.537299,0.843392,-0.000000
-21.260530,-32.494977,3.452929,-0.000000,0.000000,1.000000
34.951012,29.330845,3.452929,0.000000,-0.000000,1.000000
-38.481583,36.517080,-1.153685,-0.737277,0.675590,0.000000
36.374546,-23.680435,-3.452929,0.000000,-0.000000,-1.000000
21.492461,12.476747,-3.452929,0.000000,0.000000,-1.000000
-0.082019,37.684123,3.452929,-0.000000,0.000000,1.000000
-6.992224,-39.555426,3.452929,-0.000000,0.000000,1.000000
26.206362,30.786700,-3.452929,0.000000,-0.000000,-1.000000
26.301061,-27.131631,-3.452929,0.000000,-0.000000,-1.000000
16.709945,38.247088,-3.452929,0.000000,0.000000,-1.000000
-51.872560,-11.084878,0.710543,-0.976296,-0.216439,0.000000
-28.116248,-41.269236,-3.452929,0.000000,-0.000000,-1.000000
-14.707489,-36.968443,-3.452929,0.000000,-0.000000,-1.000000
24.193874,4.528256,3.452929,0.000000,-0.000000,1.000000
-18.161570,2.001460,3.452929,-0.000000,0.000000,1.000000
-37.839215,35.217815,3.452929,-0.000000,-0.000000,1.000000
-27.501530,33.736308,-3.452929,0.000000,0.000000,-1.000000
40.116357,-18.649899,-3.452929,0.000000,-0.000000,-1.000000
19.208399,39.468127,3.452929,0.000000,-0.000000,1.000000
-16.560275,36.973130,-3.452929,0.000000,0.000000,-1.000000
-1.804541,50.274007,-3.452929,0.000000,-0.000000,-1.000000
10.954177,18.039009,3.452929,0.000000,-0.000000,1.000000
7.313341,-16.177101,3.452929,-0.000000,-0.000000,1.000000
-52.997541,-2.179781,-1.365833,-0.999048,-0.043619,-0.000000
-11.757173,48.773978,3.452929,0.000000,0.000000,1.000000
-20.090215,31.592863,3.452929,-0.000000,-0.000000,1.000000
-15.516412,-14.391503,-3.452929,0.000000,0.000000,-1.000000
21.823579,-14.502146,-3.452929,0.000000,-0.000000,-1.000000
18.656326,13.143841,-3.452929,0.000000,0.000000,-1.000000
-4.778576,22.594493,-3.452929,0.000000,0.000000,-1.000000
-26.094217,-46.215006,-0.289490,-0.461749,-0.887011,-0.000000
2.789308,-39.676799,-3.452929,0.000000,0.000000,-1.000000
-45.686216,-25.251902,-3.452929,0.000000,-0.000000,-1.000000
-8.034216,36.552880,3.452929,0.000000,0.000000,1.000000
-11.433337,-14.799772,-3.452929,0.000000,0.000000,-1.000000
-22.979980,-23.319204,3.452929,0.000000,-0.000000,1.000000
-43.219320,8.581115,-3.452929,0.000000,0.000000,-1.000000
33.378523,18.605747,-3.452929,0.000000,0.000000,-1.000000
34.839314,1.756801,3.452929,0.000000,0.000000,1.000000
-15.066423,2.494732,0.707333,0.995185,-0.098017,0.000000
-41.123167,23.369831,-3.452929,0.000000,0.000000,-1.000000
-4.273552,-30.776616,3.452929,-0.000000,0.000000,1.000000
-15.015720,33.174801,3.452929,0.000000,0.000000,1.000000
-31.100600,-5.778180,-3.452929,0.000000,0.000000,-1.000000
26.024479,-1.525077,-3.452929,0.000000,0.000000,-1.000000
-34.924183,-30.889830,-2.176251,0.956939,-0.290289,0.000000
-6.910051,49.409144,-3.452929,0.000000,0.000000,-1.000000
-28.671621,44.625695,1.731005,-0.537299,0.843392,0.000000
-33.044007,-26.861987,-3.452929,0.000000,0.000000,-1.000000
34.919254,-7.212687,3.452929,-0.000000,0.000000,1.000000
30.173984,26.640913,-3.452929,0.000000,0.000000,-1.000000
23.366922,6.785560,3.452929,0.000000,-0.000000,1.000000
51.236891,0.537134,3.452929,-0.000000,-0.000000,1.000000
-35.179027,-16.041062,3.452929,0.000000,-0.000000,1.000000
-52.869831,-4.785686,-1.621456,-0.991445,-0.130526,-0.000000
-15.256353,-48.459027,3.452929,-0.000000,0.000000,1.000000
20.357267,-45.752767,-3.452929,0.000000,0.000000,-1.000000
-40.781820,33.983410,-2.081951,-0.793353,0.608761,0.000000
-20.844171,39.113954,-3.452929,0.000000,0.000000,-1.000000
0.210463,-25.822246,3.452929,-0.000000,-0.000000,1.000000
6.506039,34.635516,-3.452929,0.000000,0.000000,-1.000000
19.804559,21.129276,-3.452929,0.000000,0.000000,-1.000000
-12.271845,48.853024,3.452929,0.000000,0.000000,1.000000
-29.822516,40.175752,-3.452929,0.000000,0.000000,-1.000000
2.921753,34.978334,-3.452929,0.000000,0.000000,-1.000000
-16.211724,43.385900,-3.452929,0.000000,0.000000,-1.000000
-38.767179,-5.871042,3.452929,0.000000,-0.000000,1.000000
16.462884,-20.857600,-3.452929,0.000000,0.000000,-1.000000
24.207765,-15.841848,-3.452929,0.000000,-0.000000,-1.000000
13.059182,-44.764242,3.452929,0.000000,-0.000000,1.000000
-48.310945,-0.133917,-0.235625,0.995185,0.098017,-0.000000
26.175362,-18.469163,3.452929,-0.000000,-0.000000,1.000000
35.426597,-7.002724,-3.452929,0.000000,-0.000000,-1.000000
2.747662,40.155112,-3.452929,0.000000,0.000000,-1.000000
-20.397870,48.963368,2.234744,-0.382683,0.923880,0.000000
-40.908759,-32.998398,-3.452929,0.000000,0.000000,-1.000000
-30.033630,-12.511634,-3.452929,0.000000,0.000000,-1.000000
48.511612,10.885431,3.452929,0.000000,-0.000000,1.000000
-0.895055,-15.223977,-0.012990,0.098017,0.995185,0.000000
9.966414,-45.951073,3.452929,0.000000,-0.000000,1.000000
29.170552,19.361600,-3.452929,0.000000,0.000000,-1.000000
-8.787972,12.500956,3.091324,0.634393,-0.773010,0.000000
15.315548,-23.758076,3.452929,-0.000000,0.000000,1.000000
-5.085304,14.381476,-0.477208,0.290285,-0.956940,0.000000
-14.414686,-4.975823,1.240535,0.956940,0.290285,0.000000
-17.514686,-8.495652,-3.452929,0.000000,0.000000,-1.000000
-30.532430,29.041984,-2.740951,-0.471397,0.881921,0.000000
-39.176683,5.140478,-3.452929,0.000000,0.000000,-1.000000
30.130263,29.258490,-2.892225,0.634394,0.773010,0.000000
16.301751,-44.372261,3.452929,0.000000,-0.000000,1.000000
22.772378,45.938593,3.452929,0.000000,-0.000000,1.000000
-9.337354,-29.107768,-3.452929,0.000000,0.000000,-1.000000
1.516763,30.461064,3.452929,0.000000,-0.000000,1.000000
43.106703,12.807162,-3.452929,0.000000,0.000000,-1.000000
14.232011,51.128935,1.492995,0.300706,0.953717,-0.000000
29.819502,42.351112,-3.452929,0.000000,0.000000,-1.000000
27.574056,-28.594703,-3.452929,0.000000,-0.000000,-1.000000
40.031982,-32.541530,3.452929,-0.000000,0.000000,1.000000
5.168854,-23.672394,3.452929,0.000000,-0.000000,1.000000
33.910602,-0.062486,-3.452929,0.000000,0.000000,-1.000000
23.263851,44.905194,3.452929,0.000000,-0.000000,1.000000
-15.057096,13.122807,-3.452929,0.000000,-0.000000,-1.000000
25.087983,7.794825,3.452929,0.000000,-0.000000,1.000000
32.172144,-27.536950,-3.452929,-0.000000,-0.000000,-1.000000
-7.098786,27.912435,3.452929,0.000000,0.000000,1.000000
14.195078,-24.967667,-3.452929,0.000000,0.000000,-1.000000
-28.096082,0.150970,3.452929,-0.000000,-0.000000,1.000000
5.234438,37.542419,-3.452929,0.000000,0.000000,-1.000000
19.743461,44.100115,3.452929,0.000000,-0.000000,1.000000
-31.245651,42.882576,2.322307,-0.608761,0.793353,0.000000
-6.512376,-19.345051,-3.452929,0.000000,0.000000,-1.000000
-4.089307,-48.754936,3.452929,0.000000,0.000000,1.000000
11.948027,-51.681204,-2.730338,0.216439,-0.976296,0.000000
37.028505,-3.660411,-3.452929,0.000000,0.000000,-1.000000
39.696654,-32.869429,-3.452929,0.000000,-0.000000,-1.000000
-39.490482,3.093278,-3.452929,0.000000,0.000000,-1.000000
-39.799099,-4.508243,-3.452929,0.000000,0.000000,-1.000000
-0.454974,49.138940,-3.452929,0.000000,-0.000000,-1.000000
1.072663,21.852831,-3.452929,0.000000,0.000000,-1.000000
-2.393754,43.033029,-1.656957,0.773012,0.634392,-0.000000
-38.461100,33.351486,3.452929,-0.000000,0.000000,1.000000
2.105009,22.209275,-3.452929,0.000000,-0.000000,-1.000000
-2.258710,-26.024799,3.452929,0.000000,-0.000000,1.000000
14.596177,-8.009209,-3.452929,0.000000,0.000000,-1.000000
31.537395,12.791264,3.452929,0.000000,-0.000000,1.000000
-4.537439,-28.591694,-3.452929,0.000000,0.000000,-1.000000
13.481665,46.476549,-3.452929,0.000000,0.000000,-1.000000
5.269318,38.245014,3.452929,0.000000,-0.000000,1.000000
-31.962280,26.423892,-3.452929,0.000000,-0.000000,-1.000000
8.159402,-46.172163,3.452929,0.000000,0.000000,1.000000
5.551159,-34.414015,-3.452929,0.000000,0.000000,-1.000000
-0.042514,-21.996041,-3.452929,0.000000,-0.000000,-1.000000
8.255562,-37.017270,3.452929,0.000000,-0.000000,1.000000
-16.718649,-8.027022,3.452929,0.000000,-0.000000,1.000000
-11.522970,-51.775437,-1.044187,-0.216439,-0.976296,0.000000
-31.971511,-25.336173,3.452929,0.000000,-0.000000,1.000000
35.157431,24.847449,-3.452929,0.000000,0.000000,-1.000000
-6.391440,-14.936290,-3.452929,0.000000,0.000000,-1.000000
-15.562944,-5.528473,-3.452929,0.000000,0.000000,-1.000000
-53.066153,-0.608316,-3.234084,-0.999048,-0.043619,-0.000000
-46.870623,15.239324,-3.452929,0.000000,0.000000,-1.000000
-0.535875,-41.986255,0.737860,0.098017,-0.995185,0.000000
-18.470240,40.664781,-3.452929,0.000000,0.000000,-1.000000
33.552216,23.773134,3.452929,0.000000,-0.000000,1.000000
12.256417,-9.085943,3.163275,-0.773010,0.634393,0.000000
-37.687902,36.138449,3.452929,-0.000000,-0.000000,1.000000
3.967616,15.915150,3.452929,-0.000000,0.000000,1.000000
-17.256647,-21.795184,3.452929,0.000000,-0.000000,1.000000
46.082310,-19.749751,3.452929,-0.000000,0.000000,1.000000
-22.719615,-26.452377,-3.452929,0.000000,0.000000,-1.000000
-11.210652,47.240298,-3.452929,0.000000,0.000000,-1.000000
6.367290,41.166722,-3.452929,0.000000,0.000000,-1.000000
-1.932411,-42.520293,-3.452929,0.000000,-0.000000,-1.000000
-8.681788,-30.513905,3.452929,0.000000,-0.000000,1.000000
10.644269,-15.542593,3.452929,-0.000000,0.000000,1.000000
18.755165,-49.643799,2.087563,0.382683,-0.923880,0.000000
-33.963302,27.365988,-3.452929,0.000000,0.000000,-1.000000
1.591706,22.058133,-3.452929,0.000000,0.000000,-1.000000
-46.757548,-25.052005,-2.505564,-0.887011,-0.461749,0.000000
34.714612,-38.242558,3.452929,0.000000,-0.000000,1.000000
-52.642894,-6.509439,-2.398526,-0.991445,-0.130526,-0.000000
14.921752,-35.533535,3.452929,0.000000,-0.000000,1.000000
25.931926,-4.358586,3.452929,-0.000000,0.000000,1.000000
31.374979,-5.648837,-3.452929,0.000000,0.000000,-1.000000
-15.114002,-25.944368,-3.452929,0.000000,0.000000,-1.000000
39.401186,-21.335024,3.452929,-0.000000,0.000000,1.000000
-3.137525,-44.541905,1.222184,0.995185,-0.098017,0.000000
47.633607,14.429980,-3.452929,0.000000,0.000000,-1.000000
-36.281978,16.787548,-3.452929,0.000000,0.000000,-1.000000
-23.758691,-23.569737,3.452929,-0.000000,0.000000,1.000000
-26.346706,-15.460745,3.452929,0.000000,-0.000000,1.000000
-48.718185,-20.989795,0.245749,-0.923880,-0.382683,0.000000
14.044309,-13.966566,-3.452929,0.000000,-0.000000,-1.000000
47.741791,-1.887161,3.452929,-0.000000,-0.000000,1.000000
-19.445120,-44.131984,3.452929,-0.000000,0.000000,1.000000
-10.275861,-21.065681,-3.452929,0.000000,0.000000,-1.000000
-20.897302,4.520492,-3.452929,0.000000,0.000000,-1.000000
14.635012,6.110143,-3.452929,0.000000,-0.000000,-1.000000
28.026661,40.815987,3.452929,0.000000,-0.000000,1.000000
44.261393,11.589779,3.452929,0.000000,-0.000000,1.000000
-26.211253,-4.493620,-3.452929,0.000000,0.000000,-1.000000
50.496932,8.644843,3.452929,0.000000,-0.000000,1.000000
-23.293781,19.749181,3.452929,-0.000000,-0.000000,1.000000
-19.814085,14.187225,3.452929,-0.000000,0.000000,1.000000
-3.063477,43.568208,3.452929,0.000000,0.000000,1.000000
-37.476765,22.002958,-3.452929,0.000000,0.000000,-1.000000
-7.781021,13.119598,-2.381099,0.471397,-0.881921,0.000000
-17.739705,-18.661090,-3.452929,0.000000,0.000000,-1.000000
40.521903,-14.972223,3.452929,-0.000000,0.000000,1.000000
39.628655,0.637626,-3.452929,0.000000,-0.000000,-1.000000
-34.309873,-29.120324,3.452929,0.000000,-0.000000,1.000000
-28.199402,16.826661,3.452929,-0.000000,-0.000000,1.000000
-40.385360,7.300675,-3.452929,0.000000,0.000000,-1.000000
-12.097758,-27.298209,-3.452929,0.000000,-0.000000,-1.000000
5.590285,47.331669,3.452929,0.000000,-0.000000,1.000000
13.527328,-11.215515,-3.452929,0.000000,0.000000,-1.000000
2.105051,-18.725732,-3.452929,0.000000,0.000000,-1.000000
-25.873059,-11.777060,-3.452929,0.000000,0.000000,-1.000000
16.099062,31.991354,-3.452929,0.000000,0.000000,-1.000000
-19.179775,37.841774,3.452929,0.000000,0.000000,1.000000
52.668404,-6.315672,-3.401123,0.991445,-0.130526,0.000000
-9.673799,-50.564676,3.452929,-0.000000,0.000000,1.000000
7.776247,22.818754,3.452929,0.000000,-0.000000,1.000000
-18.673341,45.735704,3.452929,0.000000,0.000000,1.000000
-3.119016,44.456256,-2.169319,0.956940,0.290285,-0.000000
-11.001459,45.160763,3.452929,0.000000,0.000000,1.000000
-18.034287,39.894986,3.452929,0.000000,0.000000,1.000000
-4.474249,-23.814189,-3.452929,0.000000,-0.000000,-1.000000
-43.484403,-26.210704,3.452929,0.000000,-0.000000,1.000000
-15.633103,-23.298646,3.452929,-0.000000,0.000000,1.000000
15.989560,25.399707,-3.452929,0.000000,0.000000,-1.000000
8.143242,-12.925987,2.808772,-0.471397,0.881921,0.000000
-4.688030,25.065282,-3.452929,0.000000,0.000000,-1.000000
-53.034970,-1.322524,0.524187,-0.999048,-0.043619,-0.000000
-41.844499,29.923836,-3.452929,0.000000,0.000000,-1.000000
1.718655,-21.333167,-3.452929,0.000000,0.000000,-1.000000
-30.673323,-23.646495,3.452929,0.000000,-0.000000,1.000000
-40.947156,4.831431,3.452929,-0.000000,-0.000000,1.000000
-31.467904,-26.930721,3.452929,0.000000,-0.000000,1.000000
37.624145,30.454478,-3.452929,0.000000,0.000000,-1.000000
0.400674,15.272670,-2.099365,-0.098017,-0.995185,0.000000
-31.442333,-1.186663,3.452929,0.000000,-0.000000,1.000000
-29.908561,-15.435159,3.452929,-0.000000,0.000000,1.000000
8.074760,-28.398275,3.452929,0.000000,-0.000000,1.000000
43.404817,8.394933,3.452929,0.000000,-0.000000,1.000000
-26.375519,3.132703,3.452929,-0.000000,0.000000,1.000000
35.111420,9.177914,-3.452929,0.000000,0.000000,-1.000000
13.091089,49.938672,-3.452929,0.000000,0.000000,-1.000000
40.875433,-25.268088,3.452929,-0.000000,0.000000,1.000000
-15.310337,39.371219,3.452929,0.000000,0.000000,1.000000
-6.895579,-13.592876,2.575006,0.471397,0.881921,0.000000
-23.361892,-42.158220,3.452929,0.000000,-0.000000,1.000000
5.110492,28.254770,3.452929,0.000000,-0.000000,1.000000
34.049043,-36.684710,-3.452929,0.000000,0.000000,-1.000000
17.791619,-2.106562,-3.452929,0.000000,0.000000,-1.000000
-11.261884,39.938310,3.452929,0.000000,0.000000,1.000000
2.894017,41.747702,3.452929,0.000000,-0.000000,1.000000
14.686079,4.081160,1.770021,-0.956940,-0.290285,0.000000
37.246754,-10.414577,3.452929,-0.000000,-0.000000,1.000000
-22.831350,-35.651467,3.452929,-0.000000,0.000000,1.000000
-21.624514,20.458545,3.452929,-0.000000,-0.000000,1.000000
-32.835568,-19.584964,3.452929,0.000000,-0.000000,1.000000
-38.168425,19.985095,-3.452929,0.000000,0.000000,-1.000000
-0.771052,-29.187001,-3.452929,0.000000,-0.000000,-1.000000
-21.722142,15.393778,3.452929,-0.000000,0.000000,1.000000
-29.290005,4.158344,3.452929,-0.000000,-0.000000,1.000000
-18.976824,-37.143838,3.452929,0.000000,-0.000000,1.000000
-28.253020,6.276265,3.452929,-0.000000,-0.000000,1.000000
-0.259858,-35.512771,-3.452929,0.000000,-0.000000,-1.000000
29.089900,34.707182,-3.452929,0.000000,-0.000000,-1.000000
0.349727,-20.788980,3.452929,-0.000000,-0.000000,1.000000
21.022144,24.118625,-3.452929,0.000000,-0.000000,-1.000000
3.827187,-16.663114,3.452929,0.000000,0.000000,1.000000
1.340684,-48.017895,3.443537,-0.471397,0.881921,0.000000
40.237383,34.600961,-1.045502,0.737277,0.675590,0.000000
6.706946,-45.628160,3.452929,0.000000,-0.000000,1.000000
17.152500,47.176761,3.452929,0.000000,-0.000000,1.000000
-33.276254,18.652244,3.452929,-0.000000,-0.000000,1.000000
-16.594964,-29.937914,-3.452929,0.000000,0.000000,-1.000000
-34.025145,40.749795,1.267231,-0.608761,0.793353,0.000000
20.342693,2.993569,3.452929,0.000000,-0.000000,1.000000
40.702745,-11.714228,-3.452929,0.000000,-0.000000,-1.000000
-8.405828,41.470903,3.452929,0.000000,0.000000,1.000000
-45.033351,-20.703641,3.452929,0.000000,-0.000000,1.000000
-5.366393,-43.330815,3.452929,-0.000000,0.000000,1.000000
-10.331008,11.234619,1.254844,0.634393,-0.773010,0.000000
27.890144,7.449301,3.452929,0.000000,-0.000000,1.000000
-47.256521,-17.487740,3.452929,0.000000,-0.000000,1.000000
-39.451993,15.063812,-3.452929,0.000000,0.000000,-1.000000
-15.235636,40.204372,3.452929,0.000000,0.000000,1.000000
31.712691,-19.535592,-3.452929,0.000000,-0.000000,-1.000000
39.333266,-18.665046,3.452929,-0.000000,-0.000000,1.000000
-52.945399,-3.374040,1.901330,-0.999048,-0.043619,0.000000
24.644436,29.955993,3.452929,0.000000,-0.000000,1.000000
30.295710,-5.486857,3.452929,-0.000000,0.000000,1.000000
25.648058,18.129948,3.452929,0.000000,-0.000000,1.000000
-20.018448,0.135508,3.452929,-0.000000,-0.000000,1.000000
-51.007919,-7.413141,3.452929,0.000000,-0.000000,1.000000
50.019815,4.584673,-3.452929,0.000000,0.000000,-1.000000
0.727002,-49.199329,3.452929,0.000000,-0.000000,1.000000
-18.032595,30.168810,3.452929,-0.000000,-0.000000,1.000000
17.086700,15.123994,3.452929,0.000000,-0.000000,1.000000
39.465038,21.270140,3.452929,0.000000,-0.000000,1.000000
1.256667,-53.037845,-1.794651,0.043619,-0.999048,0.000000
45.036084,4.367477,-3.452929,0.000000,0.000000,-1.000000
-45.159943,-6.582250,3.452929,0.000000,-0.000000,1.000000
-18.551495,9.804017,-3.452929,0.000000,-0.000000,-1.000000
-20.674315,-46.605549,3.452929,-0.000000,0.000000,1.000000
6.115350,36.174224,-3.452929,0.000000,-0.000000,-1.000000
3.213034,-24.340978,3.452929,0.000000,0.000000,1.000000
28.718213,-31.883900,2.420570,0.995185,-0.098017,0.000000
-28.769394,32.457517,-2.582159,-0.995185,-0.098017,0.000000
-52.658739,6.389090,-1.413492,-0.991445,0.130526,0.000000
44.127620,25.301386,-3.452929,0.000000,0.000000,-1.000000
22.661047,26.465692,3.452929,0.000000,-0.000000,1.000000
22.999844,9.253976,3.452929,0.000000,-0.000000,1.000000
-30.556330,22.984027,-3.452929,0.000000,0.000000,-1.000000
-19.691134,-1.454844,-3.452929,0.000000,0.000000,-1.000000
-30.682907,-43.314384,-1.929493,-0.608761,-0.793353,0.000000
-7.611187,-52.497846,3.030151,-0.130526,-0.991445,0.000000
-17.472986,-31.352767,3.452929,0.000000,-0.000000,1.000000
-2.385197,-41.657429,3.452929,0.000000,0.000000,1.000000
-24.612426,-4.762989,3.452929,0.000000,-0.000000,1.000000
-16.973405,-4.126022,-3.452929,0.000000,0.000000,-1.000000
26.972060,32.756173,-3.452929,0.000000,-0.000000,-1.000000
12.834273,-28.809084,-3.452929,0.000000,0.000000,-1.000000
25.493814,14.734210,3.452929,-0.000000,0.000000,1.000000
-43.180205,-21.832263,3.452929,-0.000000,0.000000,1.000000
-26.082548,17.709117,3.452929,-0.000000,-0.000000,1.000000
0.799347,15.233404,0.644990,-0.098017,-0.995185,0.000000
36.261202,19.747319,-3.452929,0.000000,0.000000,-1.000000
-11.923980,-37.598545,3.452929,-0.000000,0.000000,1.000000
28.753510,32.296242,3.181895,0.995185,-0.098017,0.000000
-20.475642,-47.938812,3.452929,-0.000000,0.000000,1.000000
-50.790742,15.304624,1.945410,-0.953717,0.300706,0.000000
38.058195,-26.171011,3.452929,-0.000000,0.000000,1.000000
-5.132256,-41.784272,-3.452929,0.000000,-0.000000,-1.000000
23.879525,-2.331480,3.452929,-0.000000,-0.000000,1.000000
26.848432,-38.729164,-3.452929,0.000000,-0.000000,-1.000000
-20.860107,7.706950,3.452929,-0.000000,-0.000000,1.000000
-33.222756,38.052889,3.452929,0.000000,-0.000000,1.000000
22.479148,-13.762915,3.452929,-0.000000,0.000000,1.000000
52.996515,2.203290,-2.885258,0.999048,0.043619,0.000000
5.601664,30.028228,-3.452929,0.000000,0.000000,-1.000000
-11.796717,-51.714749,-2.083625,-0.216439,-0.976296,0.000000
13.567993,-51.322067,1.604535,0.216439,-0.976296,0.000000
-16.518984,5.540210,-3.452929,0.000000,-0.000000,-1.000000
18.845425,36.867201,-3.452929,0.000000,0.000000,-1.000000
26.029712,0.190825,3.452929,0.000000,0.000000,1.000000
-5.258491,-45.444375,3.452929,-0.000000,0.000000,1.000000
-24.700547,3.956794,-3.452929,0.000000,-0.000000,-1.000000
-14.585559,5.809262,-3.452929,0.000000,-0.000000,-1.000000
-5.980346,-37.405461,3.452929,-0.000000,0.000000,1.000000
31.393026,-5.162061,-3.452929,0.000000,0.000000,-1.000000
-11.649100,-32.406963,3.452929,-0.000000,0.000000,1.000000
43.907290,23.226823,-3.452929,0.000000,0.000000,-1.000000
0.929199,50.357633,-3.452929,0.000000,0.000000,-1.000000
-12.812175,37.681073,3.452929,0.000000,0.000000,1.000000
28.533798,-11.346637,-3.452929,0.000000,-0.000000,-1.000000
-27.154284,15.820835,3.452929,-0.000000,-0.000000,1.000000
-14.783608,-18.462852,-3.452929,0.000000,0.000000,-1.000000
40.372302,9.488780,3.452929,0.000000,-0.000000,1.000000
7.438553,-52.520574,-2.566600,0.130526,-0.991445,0.000000
-25.096164,5.588633,3.452929,-0.000000,-0.000000,1.000000
-1.607332,-48.623454,3.452929,0.000000,-0.000000,1.000000
24.456964,7.086257,3.452929,0.000000,-0.000000,1.000000
6.370797,-45.355840,-3.452929,0.000000,0.000000,-1.000000
-51.394672,4.178444,-3.452929,0.000000,-0.000000,-1.000000
-30.854150,-13.129997,3.452929,0.000000,-0.000000,1.000000
-29.797047,-22.918163,3.452929,0.000000,-0.000000,1.000000
7.288385,-13.382917,-2.332179,-0.471397,0.881921,0.000000
-6.898568,-25.916895,-3.452929,0.000000,-0.000000,-1.000000
39.424485,1.738428,-3.452929,0.000000,-0.000000,-1.000000
-31.505441,13.032174,-3.452929,0.000000,0.000000,-1.000000
-30.970394,-35.626750,3.452929,0.000000,-0.000000,1.000000
-31.575254,-28.748612,-2.145035,-0.098017,-0.995185,0.000000
38.606563,15.575860,3.452929,0.000000,-0.000000,1.000000
-37.765132,-12.754357,-3.452929,0.000000,0.000000,-1.000000
-29.782499,29.543892,0.992105,-0.634394,0.773010,0.000000
-37.559871,18.802608,3.452929,-0.000000,-0.000000,1.000000
32.541304,-35.042683,0.542776,-0.290288,0.956939,0.000000
34.318497,-22.513805,-3.452929,0.000000,-0.000000,-1.000000
-24.276842,21.539649,-3.452929,0.000000,0.000000,-1.000000
-42.640780,31.560765,-0.968064,-0.793353,0.608761,0.000000
