x,y,z,nx,ny,nz
13.842866,30.890405,4.191336,-0.339354,-0.717503,0.608299
15.721327,38.977781,-0.285457,-0.334015,-0.933508,0.130370
35.087196,7.079105,-0.914066,0.896350,0.224524,0.382290
23.874277,38.233034,1.909263,0.475053,0.792578,0.382289
29.479498,31.551108,-4.858095,0.409129,0.451405,-0.792999
29.928700,27.903868,-2.409653,-0.451405,-0.409129,0.792999
29.902627,26.644248,2.940580,-0.283841,-0.257259,-0.923716
36.391156,19.107383,2.292972,-0.550730,-0.260476,-0.793000
33.036900,25.298374,1.600772,-0.742198,-0.550452,-0.382289
15.669030,35.886465,3.172417,-0.055873,-0.118134,-0.991424
35.513993,25.166508,-4.563999,0.637512,0.472811,-0.608299
40.989239,1.688095,6.130656,0.382616,0.018797,0.923716
34.270962,14.098037,6.294149,-0.360684,-0.129055,0.923716
35.865170,4.363119,5.920940,-0.378931,-0.056209,0.923716
33.252730,29.348599,-3.479474,0.588098,0.533021,-0.608300
40.544429,19.630554,1.963710,0.835324,0.395079,0.382290
22.733558,39.028118,1.634906,0.509715,0.850408,0.130372
33.964019,9.642708,5.487007,-0.590966,-0.148029,0.792999
9.587386,44.193800,1.361187,0.240907,0.961752,0.130372
12.654983,40.978575,-5.110527,0.205241,0.573611,-0.792999
38.979808,10.351309,-6.364774,0.126765,0.031753,-0.991424
24.940139,20.864052,1.697375,-0.734628,-0.665827,0.130372
13.427737,35.213133,2.974746,0.129055,0.360683,-0.923717
39.973579,3.770928,2.915329,-0.382616,-0.018797,-0.923716
33.207972,24.205753,2.273329,-0.489333,-0.362914,-0.792999
35.697372,17.068038,-3.116106,-0.118134,-0.055873,0.991424
32.107207,6.845568,2.465590,-0.896350,-0.224524,0.382289
32.125379,8.230560,-3.303163,-0.769921,-0.192855,-0.608300
11.173662,32.537385,-4.803668,-0.205241,-0.573610,-0.792999
8.747997,39.265956,-2.872059,-0.093080,-0.371598,0.923716
27.332425,19.086582,-3.513219,-0.637512,-0.472811,-0.608300
34.874910,27.472960,-3.441045,0.637512,0.472810,-0.608300
43.607105,10.053827,2.693046,0.896350,0.224524,0.382290
38.462527,14.505972,2.262145,-0.747311,-0.267392,-0.608299
24.176492,34.068480,-1.213383,-0.550451,-0.742198,0.382290
41.264104,16.650781,3.331391,0.747310,0.267392,0.608300
7.144116,35.199347,-1.409957,-0.980019,0.198906,-0.000000
41.779422,4.798885,0.013878,-0.980734,-0.145478,-0.130373
40.837368,10.438520,-5.645686,0.590966,0.148030,-0.792998
22.933739,38.117984,-3.300426,0.408047,0.680785,-0.608300
39.297660,17.719648,4.915146,0.550731,0.260477,0.792999
22.069708,23.754519,1.174020,-0.665827,-0.734627,0.130372
23.807253,29.044871,2.905338,0.228199,0.307690,-0.923716
34.094424,13.384376,-2.317224,0.573610,0.205241,0.792999
41.689499,12.752223,4.522482,0.747310,0.267392,0.608300
37.427657,7.689730,6.477562,-0.126765,-0.031753,0.991424
31.658573,8.166915,-2.189729,-0.896350,-0.224524,-0.382289
11.566838,43.315318,-2.488582,0.224523,0.896351,-0.382289
34.340030,10.396335,5.804746,-0.371597,-0.093080,0.923716
36.941764,3.685152,2.679982,0.602628,0.089392,-0.792999
33.054998,7.738803,4.323869,-0.769921,-0.192855,0.608300
20.556385,27.747532,4.905673,-0.362914,-0.489333,0.792999
39.018019,0.000000,-3.366843,-0.000000,-1.000000,0.000000
37.148758,19.589119,-0.575556,-0.896274,-0.423906,0.130373
39.586003,0.000000,-6.118480,0.000000,-1.000000,0.000000
23.495808,23.426784,-3.271409,-0.684671,-0.620549,-0.382290
7.273903,35.838809,2.527485,-0.980019,0.198906,-0.000000
12.164276,29.975870,0.410301,-0.334014,-0.933508,0.130372
14.625250,34.671901,2.940633,0.163786,0.346297,-0.923717
8.686932,42.800859,-1.003666,-0.980019,0.198906,-0.000000
13.037427,38.944430,6.115155,0.129055,0.360684,0.923716
30.770442,28.637858,0.013593,-0.734627,-0.665827,-0.130373
33.692330,25.002702,-5.743592,0.307691,0.228199,-0.923716
8.296612,32.718617,-4.074961,-0.192855,-0.769921,-0.608300
27.417424,35.985877,1.074056,0.590615,0.796352,0.130373
26.162330,30.639367,-6.372021,0.087760,0.096828,-0.991424
6.455168,31.804868,-0.297516,-0.980019,0.198906,-0.000000
31.706543,7.331789,-1.811721,-0.896350,-0.224524,-0.382289
22.148471,24.394663,-2.806222,-0.620549,-0.684671,-0.382290
15.553380,42.294952,1.921499,0.311300,0.870027,0.382290
34.287932,14.549165,2.782809,0.550732,0.260476,-0.792998
13.099728,42.695407,-3.008153,0.311300,0.870027,-0.382289
32.391459,26.844590,0.037856,-0.734627,-0.665827,-0.130373
17.186164,28.859768,-3.860073,-0.408047,-0.680785,-0.608300
29.960521,29.440210,-0.479658,-0.734627,-0.665827,0.130373
40.790065,0.071680,-2.540524,-0.608491,-0.029894,0.792997
33.248865,0.131733,-3.372049,-0.792751,-0.038945,-0.608300
44.832327,3.979130,-2.136058,0.922929,0.045341,-0.382290
24.331335,37.351596,3.168731,0.475053,0.792578,0.382289
24.123824,23.133763,-3.626458,-0.588099,-0.533022,-0.608299
25.202196,34.928384,4.940589,0.362914,0.489333,0.792999
29.374210,15.807917,3.511290,-0.680786,-0.408047,0.608300
35.649527,11.951299,-6.400772,-0.123042,-0.044025,-0.991424
15.373859,38.899883,1.118462,-0.311301,-0.870027,-0.382290
27.874778,23.882847,2.380317,0.451404,0.409129,-0.792999
27.760622,32.996674,4.922039,0.409129,0.451405,0.792999
39.227928,0.000000,-4.063121,0.000000,-1.000000,0.000000
40.994402,15.220346,4.291508,0.747311,0.267392,0.608299
32.094329,20.868130,6.488388,-0.112089,-0.067183,0.991424
41.283900,14.244304,4.364893,0.747311,0.267392,0.608299
32.184931,3.206631,0.299768,-0.980734,-0.145478,0.130372
24.380086,27.392382,-2.362258,0.409129,0.451404,0.792999
14.364793,40.115534,5.292276,0.205241,0.573611,0.792999
15.439223,31.722133,5.478126,-0.260476,-0.550731,0.792999
38.797412,9.758436,6.407084,0.126764,0.031753,0.991424
15.652949,42.276517,-1.882374,0.311300,0.870027,-0.382289
29.025850,15.897964,3.096840,-0.792578,-0.475053,0.382290
40.911282,13.596157,-4.915612,0.573611,0.205241,-0.792999
32.821322,7.150590,-3.841620,-0.769921,-0.192855,-0.608300
34.666697,22.111408,2.260741,-0.680786,-0.408047,-0.608299
8.643684,37.093437,3.116638,0.031753,0.126764,-0.991425
33.607566,30.251583,1.221453,0.734627,0.665827,0.130372
33.451059,23.166606,-6.277557,0.307691,0.228199,-0.923716
32.509444,23.952928,6.357686,0.104964,0.077847,0.991424
9.253136,39.272822,2.818395,-0.093080,-0.371597,-0.923716
40.296266,20.009958,2.113863,0.835324,0.395079,0.382290
41.243562,14.805341,-4.167833,0.747310,0.267391,-0.608300
28.913547,15.632619,2.534278,-0.792578,-0.475053,0.382290
29.609399,26.068288,6.480938,0.096828,0.087760,0.991424
27.762335,22.930418,-1.431093,0.684670,0.620549,0.382291
8.335791,35.056913,-1.581128,0.224524,0.896350,0.382291
24.501021,22.350382,3.304693,-0.588099,-0.533021,0.608299
15.312463,39.104479,-0.425772,-0.334015,-0.933508,0.130370
31.090286,9.003961,0.598214,-0.961752,-0.240906,0.130371
8.253508,40.665362,3.212630,-0.980019,0.198906,-0.000000
11.078954,30.671985,1.989611,-0.311300,-0.870027,0.382290
31.885121,17.099132,1.733702,0.680786,0.408047,-0.608299
22.933424,34.872922,1.368900,-0.475053,-0.792578,-0.382290
34.140134,12.250038,1.905755,0.747311,0.267392,-0.608299
21.309308,37.047971,5.198255,0.313204,0.522548,0.792999
27.762900,20.604749,-4.937290,-0.489333,-0.362914,-0.792999
40.305926,14.755020,5.053560,0.573611,0.205241,0.792999
21.176287,39.427900,2.784683,0.475053,0.792578,0.382289
8.722501,42.976110,3.629661,-0.980019,0.198906,-0.000000
10.368243,44.106465,0.562555,0.240907,0.961752,0.130372
21.769475,28.678333,1.510989,0.550451,0.742198,-0.382291
26.670892,31.052310,6.173527,0.257259,0.283842,0.923716
37.727602,16.768362,2.035544,-0.717504,-0.339354,-0.608299
43.553066,12.587484,-0.544167,0.961752,0.240907,-0.130372
34.722472,27.311645,-3.726188,0.637512,0.472810,-0.608300
34.525105,11.213947,-1.923264,0.747311,0.267392,0.608298
32.571915,14.501450,-5.725048,-0.346298,-0.163787,-0.923716
32.414088,1.154274,-1.247283,-0.990271,-0.048649,-0.130372
8.262133,32.218306,3.430791,-0.192855,-0.769921,0.608300
32.617080,24.184976,-2.647457,-0.489333,-0.362914,0.792999
19.102019,26.151753,-0.887292,-0.590615,-0.796352,-0.130372
10.481548,36.476056,6.445304,-0.031753,-0.126765,0.991424
35.761449,21.004934,5.944194,0.328576,0.196941,0.923716
38.629868,13.552781,2.392198,-0.573612,-0.205241,-0.792998
35.696118,1.271619,-5.754362,-0.382616,-0.018797,-0.923716
25.007078,20.722913,1.353751,-0.734628,-0.665827,0.130372
18.796691,26.256723,-0.145273,-0.590615,-0.796352,-0.130372
29.827801,34.126846,-0.459702,0.665828,0.734627,-0.130373
27.674599,31.003669,-1.666833,-0.533021,-0.588098,0.608300
28.448615,22.790436,2.108046,0.637512,0.472811,-0.608299
42.339760,13.499696,-3.395054,0.747311,0.267392,-0.608299
21.517558,24.697836,-2.325073,-0.620549,-0.684671,-0.382290
41.132355,6.422442,1.543203,-0.914041,-0.135585,-0.382290
45.109868,2.571682,-1.491952,0.990271,0.048649,-0.130371
29.019787,14.149437,0.118405,-0.896274,-0.423906,0.130372
8.429118,34.985866,1.469359,0.224523,0.896350,-0.382291
24.470667,21.293648,-1.245970,-0.734627,-0.665827,-0.130372
20.176933,32.518102,-3.140717,0.067183,0.112089,0.991424
14.026681,42.953937,1.592681,0.334014,0.933508,0.130372
24.669908,30.268102,3.189940,-0.077847,-0.104964,-0.991424
35.743156,1.696710,0.980767,0.922930,0.045341,-0.382290
23.085582,28.374629,6.097440,-0.228199,-0.307691,0.923716
23.198725,26.796039,5.598188,-0.409129,-0.451404,0.792999
32.417518,4.449805,2.251041,-0.914041,-0.135585,0.382289
28.504972,30.875411,-0.100775,-0.665827,-0.734627,0.130373
34.912016,28.733304,-1.625119,0.734627,0.665827,-0.130373
39.481507,13.981457,-5.773549,0.360684,0.129055,-0.923716
36.049513,26.320561,-2.955925,0.742198,0.550451,-0.382289
41.584740,15.980866,-3.189718,0.870027,0.311301,-0.382289
20.061548,32.729123,-6.505500,-0.067183,-0.112089,-0.991424
26.015971,24.365607,0.206270,0.734628,0.665827,-0.130370
30.212896,19.730716,-1.627477,0.680786,0.408047,0.608299
14.043096,29.255723,1.394638,-0.423906,-0.896274,0.130372
10.244732,35.202414,-2.337387,0.148029,0.590965,0.792999
36.747141,4.223795,-2.592800,0.602628,0.089391,0.793000
8.230861,40.553780,-2.172497,-0.980019,0.198906,0.000000
32.652470,16.791341,-2.383481,0.550730,0.260475,0.793000
41.585055,13.411648,-4.360930,0.747310,0.267391,-0.608300
18.241105,40.897851,-2.627398,0.395079,0.835324,-0.382290
43.647553,12.312712,-0.354871,0.961752,0.240907,-0.130372
10.857958,31.390195,3.369320,-0.267392,-0.747311,0.608300
35.318874,27.922565,-2.067733,0.742198,0.550452,-0.382288
26.497402,20.377156,3.641217,-0.637512,-0.472811,0.608300
16.137102,32.801132,2.271123,0.339354,0.717504,-0.608299
22.397769,33.470787,2.867278,-0.228199,-0.307690,-0.923716
21.201049,39.736509,2.106025,0.395079,0.835325,0.382289
39.715545,20.020252,-3.330431,0.717503,0.339353,-0.608300
27.802507,16.665383,1.118331,-0.850408,-0.509715,0.130372
18.668216,37.666819,-0.008350,-0.423906,-0.896274,0.130370
37.113481,7.771360,-6.440005,-0.126765,-0.031753,-0.991424
6.662127,32.824566,3.591076,-0.980019,0.198906,-0.000000
36.425399,25.689696,3.134530,0.742199,0.550452,0.382288
23.636922,32.565877,-6.376524,0.077847,0.104964,-0.991424
28.371941,24.351222,2.849137,0.283842,0.257259,-0.923716
32.316560,12.396380,-4.960396,-0.573611,-0.205241,-0.792999
26.266356,36.874147,0.862826,0.590615,0.796352,0.130373
16.244662,28.091036,-1.355495,-0.509715,-0.850408,-0.130372
33.314960,20.176772,-3.197755,-0.112089,-0.067183,0.991424
38.578029,18.042507,-5.308875,0.550731,0.260477,-0.792999
35.980301,25.267429,3.996855,0.637512,0.472811,0.608299
33.245816,16.535956,2.711668,0.550732,0.260476,-0.792998
23.969841,33.537760,6.050242,0.228199,0.307691,0.923716
39.702007,20.132630,3.283707,0.717503,0.339354,0.608299
8.925445,43.976025,0.363326,-0.980019,0.198906,-0.000000
32.076043,23.087991,-3.122742,-0.104964,-0.077847,0.991424
39.657779,10.341213,-2.358028,-0.590967,-0.148030,0.792998
7.156912,35.262392,3.956390,-0.980018,0.198906,0.000000
31.898924,25.221648,2.616177,-0.489333,-0.362914,-0.792998
28.976240,21.400851,1.558585,0.742198,0.550452,-0.382288
25.846377,37.149798,1.081670,0.590615,0.796352,0.130373
42.910714,9.200187,-4.115905,0.769921,0.192855,-0.608300
35.494810,4.021572,0.671806,0.980734,0.145479,-0.130373
38.009117,20.598844,4.845511,0.522549,0.313203,0.792999
42.165960,16.833010,0.045024,0.933508,0.334014,0.130372
14.531463,40.399289,-5.043887,0.205241,0.573611,-0.792999
42.745929,0.375845,-5.213157,0.608489,0.029893,-0.792999
13.722700,33.912028,2.272853,0.205241,0.573610,-0.792999
31.925711,16.462886,5.830577,-0.346298,-0.163787,0.923716
43.888817,8.206853,2.995558,0.914041,0.135585,0.382290
31.674350,29.807480,-4.603342,0.588098,0.533021,-0.608300
32.301233,8.657569,-3.661119,-0.769921,-0.192855,-0.608300
41.013492,18.754069,-1.844590,0.835325,0.395079,-0.382289
39.185605,10.208654,6.343030,0.126764,0.031753,0.991424
23.446456,23.419682,3.171493,-0.684671,-0.620549,0.382290
8.826281,36.058677,2.710716,0.148029,0.590965,-0.792999
27.503653,17.851360,-2.368351,-0.792578,-0.475053,-0.382290
22.816000,28.543121,2.226959,0.472812,0.637512,-0.608299
29.113513,30.679114,5.543288,0.409129,0.451405,0.792999
34.044195,11.404092,1.253122,0.870026,0.311301,-0.382291
24.207686,34.031783,5.826924,0.228199,0.307691,0.923716
40.362762,0.000000,2.981527,-0.000000,-1.000000,0.000000
41.441466,18.149192,-1.182401,0.896274,0.423906,-0.130372
23.718763,35.638809,5.175186,0.313203,0.522548,0.792999
16.836345,34.383785,-3.142868,0.055873,0.118134,0.991424
30.664608,32.339845,-3.146986,0.620549,0.684671,-0.382289
15.161591,29.428775,3.136054,-0.395079,-0.835325,0.382290
7.734104,35.831112,-2.337250,0.148029,0.590965,0.792999
32.797136,26.155673,-0.831722,-0.796352,-0.590615,0.130374
35.872652,11.725220,-6.418424,-0.123042,-0.044025,-0.991424
20.138170,33.133752,3.207695,0.067183,0.112089,-0.991424
11.432130,39.830421,1.853148,-0.192854,-0.769920,-0.608301
34.798286,1.576198,5.137116,-0.608489,-0.029893,0.792999
35.686935,3.914611,-5.820532,-0.378931,-0.056209,-0.923716
10.634870,38.049149,3.125944,-0.031753,-0.126764,-0.991425
30.823725,28.141122,5.834302,0.283842,0.257259,0.923716
38.444359,23.542606,-1.883288,0.792578,0.475053,-0.382289
45.211036,2.081614,0.906374,0.990271,0.048649,0.130372
28.876515,20.697218,5.666782,-0.489333,-0.362914,0.792999
8.028673,39.557588,5.739716,-0.980018,0.198907,0.000000
16.191424,32.001621,1.146327,0.395079,0.835324,-0.382290
30.092413,12.232668,1.420008,-0.933508,-0.334015,0.130372
31.215918,20.274922,6.348878,-0.112089,-0.067183,0.991424
32.003177,5.381359,-1.359221,-0.980734,-0.145478,-0.130372
33.090672,27.840551,-4.827294,0.451405,0.409129,-0.792999
41.528676,0.089001,1.763789,-0.792750,-0.038946,-0.608301
33.924947,23.222894,-2.280711,-0.489333,-0.362914,0.792998
16.619458,40.462802,-4.329580,0.267392,0.747311,-0.608299
21.026941,25.848838,-3.466564,-0.472811,-0.637512,-0.608300
42.506450,3.844759,5.266150,0.608490,0.029893,0.792999
10.839031,41.477595,-5.093806,0.148029,0.590966,-0.792999
14.524547,34.651031,-6.393170,-0.055873,-0.118134,-0.991424
28.759232,34.932128,-1.379381,0.665828,0.734627,-0.130373
44.509047,8.023570,-1.317880,0.980734,0.145478,-0.130372
25.056393,20.678829,-1.406488,-0.734627,-0.665827,-0.130372
42.860208,0.000000,-1.578429,0.000000,-1.000000,0.000000
27.563782,16.917146,-0.545457,-0.850408,-0.509715,-0.130372
19.397797,40.989472,0.229889,0.423906,0.896274,0.130372
36.007504,21.643957,-5.720427,0.328576,0.196941,-0.923716
25.625475,22.595146,4.606280,-0.588098,-0.533021,0.608300
13.370764,29.429494,-0.403168,-0.423906,-0.896274,-0.130372
27.330400,19.978241,4.204154,-0.637511,-0.472811,0.608300
25.536650,20.071516,1.522099,-0.796352,-0.590615,0.130372
29.967545,28.138735,-6.098055,0.283841,0.257259,-0.923716
24.898200,35.800574,-4.472202,0.472811,0.637511,-0.608300
30.614913,30.191529,5.023657,0.451405,0.409129,0.792999
36.757112,6.113437,6.356539,-0.129266,-0.019175,0.991424
21.981248,34.688307,-2.302884,-0.313203,-0.522548,0.792999
30.438172,11.557658,1.847304,-0.870027,-0.311300,0.382290
32.511492,8.212501,-3.786138,-0.769921,-0.192855,-0.608300
27.647340,24.758618,2.702684,0.451404,0.409129,-0.792999
9.668278,43.737551,-2.613628,0.224524,0.896349,-0.382291
35.909018,7.986181,6.193061,-0.371597,-0.093080,0.923716
35.797629,0.914482,-1.019501,0.922930,0.045341,0.382288
30.326384,23.442154,-6.497123,-0.104964,-0.077847,-0.991424
45.214877,2.216041,-0.827034,0.990271,0.048649,-0.130372
20.865601,27.998936,-5.202318,-0.362914,-0.489333,-0.792999
35.676730,14.008163,-6.495484,-0.123042,-0.044025,-0.991424
32.228504,32.009140,-0.016185,0.734627,0.665828,-0.130372
7.653119,34.907116,0.822631,0.240906,0.961755,-0.130354
28.599361,27.630205,3.066458,-0.283842,-0.257259,-0.923716
30.424214,12.902937,-2.976928,-0.835325,-0.395079,-0.382290
32.908374,26.581928,5.555638,0.489333,0.362914,0.792999
14.888648,28.865764,1.463086,-0.423906,-0.896274,0.130372
17.128989,31.981514,-5.970844,-0.196941,-0.328577,-0.923716
25.577654,37.418389,0.658414,0.590615,0.796352,0.130373
15.422391,42.578615,0.704288,0.334014,0.933508,0.130372
44.491481,1.307759,3.275766,0.922929,0.045341,0.382290
43.618547,8.530855,3.413948,0.785117,0.116461,0.608300
29.553727,33.427069,-3.003027,0.620549,0.684671,-0.382289
7.844500,38.650164,-3.468262,-0.980019,0.198906,-0.000000
44.750247,3.107412,2.437606,0.922929,0.045341,0.382290
26.098547,20.339467,3.119241,-0.742198,-0.550452,0.382290
28.884660,16.939115,3.722212,-0.680785,-0.408047,0.608300
15.159557,28.767336,1.667286,-0.423906,-0.896274,0.130372
18.929949,38.356034,-5.171550,0.260477,0.550732,-0.792999
22.963145,34.731845,5.892935,0.196941,0.328576,0.923716
17.363403,32.718184,-6.287346,-0.163787,-0.346298,-0.923716
29.248165,22.793125,-2.670414,0.489332,0.362913,0.792999
31.512266,12.615987,4.292070,-0.747311,-0.267392,0.608299
32.088534,15.539213,-0.297965,0.896274,0.423906,0.130374
27.610260,20.154791,4.634680,-0.637511,-0.472811,0.608300
35.463388,21.733634,-5.894855,0.328576,0.196941,-0.923716
18.430638,27.741929,3.443825,-0.408047,-0.680785,0.608300
37.215907,19.307297,-0.894961,-0.835324,-0.395079,0.382290
25.627479,34.410555,5.065494,0.362914,0.489333,0.792999
8.679026,39.238852,2.889913,-0.093080,-0.371598,-0.923716
27.346568,21.275238,4.987233,-0.489333,-0.362914,0.792999
30.219726,20.419117,2.121061,0.637511,0.472811,-0.608301
12.494997,34.063159,-5.989043,-0.129055,-0.360684,-0.923716
34.824232,2.762987,5.201762,-0.608490,-0.029893,0.792999
10.298162,42.846815,3.848679,0.192855,0.769921,0.608300
14.263736,30.376909,3.820448,-0.339354,-0.717503,0.608299
25.398163,29.448775,3.207201,-0.087760,-0.096828,-0.991424
44.194338,2.584492,3.583912,0.792751,0.038946,0.608300
34.960626,6.385413,-5.663717,-0.602629,-0.089391,-0.792999
30.520476,31.388043,-4.255380,0.533021,0.588098,-0.608300
27.474186,36.027327,0.563724,0.590615,0.796352,0.130373
14.549462,35.523904,6.500555,-0.044025,-0.123042,0.991424
28.814791,29.128458,-6.167607,0.257259,0.283841,-0.923716
27.107614,30.998716,-2.168439,-0.533021,-0.588098,0.608300
43.876916,11.108769,-0.887556,0.961752,0.240907,-0.130372
32.842436,23.129294,2.895863,-0.307690,-0.228199,-0.923716
22.610774,32.698466,-6.443060,0.077847,0.104964,-0.991424
37.395075,0.000000,-5.733622,0.000000,-1.000000,0.000000
30.871899,26.447416,-6.291204,0.283842,0.257259,-0.923716
34.431047,23.124852,5.961437,0.307691,0.228199,0.923716
34.141959,0.000000,2.155207,0.000000,-1.000000,0.000000
15.492577,41.968483,-2.714001,0.311301,0.870027,-0.382290
22.423713,25.634007,-4.464311,-0.533021,-0.588098,-0.608300
34.562411,26.942199,4.181093,0.637511,0.472811,0.608300
9.370331,36.226484,6.377804,-0.031753,-0.126765,0.991424
28.477312,26.970331,6.511656,0.096828,0.087760,0.991424
25.522915,30.390741,3.102888,-0.257259,-0.283841,-0.923716
28.103954,35.456709,-1.196237,0.590615,0.796352,-0.130373
31.468592,27.801069,-5.730852,0.283841,0.257259,-0.923716
14.632754,38.579829,6.034633,0.129055,0.360684,0.923716
19.275102,39.065778,4.512543,0.339354,0.717503,0.608299
12.409515,41.710640,-4.617346,0.192855,0.769921,-0.608300
38.917410,17.466681,-5.262319,0.550731,0.260477,-0.792999
25.130675,26.304220,-2.030386,0.533022,0.588100,0.608298
29.950761,16.236404,4.443972,-0.680786,-0.408047,0.608300
37.397234,19.658378,-5.598162,0.550731,0.260477,-0.792999
30.768873,33.354769,-0.004063,0.665828,0.734627,-0.130373
12.572121,38.663340,-6.289921,0.129055,0.360684,-0.923716
39.377041,4.606888,-3.108296,-0.129267,-0.019175,0.991424
11.367710,37.671121,-3.150808,-0.031753,-0.126764,0.991425
20.259272,25.899681,2.617681,-0.550452,-0.742198,0.382290
12.294825,34.313822,2.138824,0.267392,0.747311,-0.608299
38.250869,13.619712,-6.304618,0.360684,0.129055,-0.923716
12.203236,38.077330,2.976635,-0.129055,-0.360684,-0.923716
20.460224,25.232194,1.423329,-0.590615,-0.796352,0.130372
45.090530,2.443075,1.686828,0.990271,0.048649,0.130372
31.243697,24.729983,-3.032963,-0.307690,-0.228199,0.923716
15.855090,33.131672,2.408753,0.260477,0.550732,-0.792998
27.568720,24.434282,6.219097,-0.283842,-0.257259,0.923716
35.068596,15.531627,3.150938,0.118135,0.055873,-0.991424
31.300565,32.826836,0.263461,0.665828,0.734627,0.130372
22.379648,28.266085,5.886887,-0.228199,-0.307691,0.923716
24.938179,20.594168,0.307996,-0.734628,-0.665827,0.130372
11.142196,32.848611,-5.020648,-0.205241,-0.573611,-0.792999
31.843654,18.779709,2.591836,0.522547,0.313203,-0.793000
18.667427,36.525921,-6.139904,0.163787,0.346297,-0.923716
26.834986,36.532058,0.376394,0.590615,0.796352,0.130373
43.607495,9.718367,-2.889153,0.896350,0.224524,-0.382290
38.445814,0.078098,6.507732,-0.130523,-0.006412,0.991424
13.924976,37.672777,-2.894052,-0.129055,-0.360684,0.923716
40.623904,10.622495,-0.347382,-0.961752,-0.240907,0.130368
36.811349,17.837614,2.418232,-0.550730,-0.260476,-0.793000
10.337307,32.232191,4.174867,-0.267392,-0.747311,0.608300
15.269181,28.519947,-0.339412,-0.509715,-0.850408,-0.130372
39.460671,0.645612,6.481029,0.130523,0.006412,0.991424
36.027434,3.964081,-5.963223,-0.378931,-0.056209,-0.923716
14.370918,33.062066,-1.582047,0.395079,0.835324,0.382290
41.645486,16.467161,2.655477,0.870027,0.311301,0.382290
9.208175,34.554524,5.771306,-0.093080,-0.371597,0.923716
33.357133,16.881948,6.371850,-0.118134,-0.055873,0.991424
7.859623,35.433281,1.918500,0.192855,0.769921,-0.608300
42.125746,8.462333,5.054445,0.590966,0.148029,0.792998
33.535534,23.431742,-2.425425,-0.489333,-0.362914,0.792999
45.031889,0.000000,-0.938982,0.000000,-1.000000,0.000000
37.072452,14.411166,3.060535,-0.360685,-0.129055,-0.923716
24.571069,38.097537,0.520924,0.509715,0.850408,0.130373
33.937862,0.000000,1.824405,0.000000,-1.000000,0.000000
13.916040,37.095916,3.109773,-0.044025,-0.123042,-0.991424
35.615509,3.477513,5.765861,-0.382616,-0.018797,0.923716
30.880461,26.338937,6.318784,0.283841,0.257259,0.923716
28.359418,33.584910,-4.025092,0.533021,0.588098,-0.608300
33.914676,11.556848,1.082751,0.870027,0.311301,-0.382290
10.540586,34.381210,1.316953,0.311300,0.870026,-0.382291
31.504314,20.502789,2.926766,0.328576,0.196941,-0.923717
34.059498,3.520028,4.655913,-0.602629,-0.089392,0.792999
29.903587,14.495728,-3.391576,-0.717503,-0.339354,-0.608299
35.749297,27.284076,-2.151432,0.742198,0.550452,-0.382288
9.670071,44.275727,0.604019,0.240907,0.961752,0.130372
22.905975,34.870875,-5.855669,0.196941,0.328577,-0.923716
34.438559,28.410643,-3.046979,0.684671,0.620549,-0.382288
34.167223,25.205349,5.408832,0.489333,0.362914,0.792999
13.706124,29.737417,-2.306294,-0.395079,-0.835325,-0.382290
25.632597,35.727819,3.977628,0.472811,0.637512,0.608299
8.373826,33.687407,-5.044005,-0.148029,-0.590966,-0.792999
31.764623,25.822060,-6.183295,0.307691,0.228199,-0.923716
37.763515,17.659340,-1.401497,-0.835324,-0.395079,0.382290
30.506618,12.283043,-2.593759,-0.870027,-0.311300,-0.382290
19.956089,32.184144,-3.052030,0.196941,0.328577,0.923716
8.179689,36.073200,-6.278609,-0.093080,-0.371597,-0.923716
34.018460,0.000000,1.381353,0.000000,-1.000000,0.000000
36.109167,21.391672,-5.738052,0.328576,0.196941,-0.923716
23.437683,32.467866,-6.402545,0.077847,0.104964,-0.991424
18.314086,30.274516,-5.558833,-0.313203,-0.522548,-0.792999
24.058589,32.986928,6.211800,0.228199,0.307691,0.923716
35.788764,20.479964,-6.046404,0.328576,0.196941,-0.923716
28.576236,25.105349,3.110215,0.096828,0.087760,-0.991424
31.933268,22.905658,-6.500918,0.104964,0.077847,-0.991424
12.703839,33.696428,-1.520056,0.311301,0.870026,0.382291
30.122271,21.064350,2.418626,0.489333,0.362914,-0.792998
31.912960,31.717061,2.203134,0.684671,0.620549,0.382289
30.531150,28.519658,1.192253,-0.684671,-0.620549,-0.382289
22.359687,30.760939,3.109392,0.077847,0.104964,-0.991424
32.118376,22.324651,-6.526941,0.104964,0.077847,-0.991424
43.922528,0.000000,3.649188,0.000000,-1.000000,0.000000
34.119859,11.478526,5.869169,-0.360684,-0.129055,0.923716
37.438644,25.011566,-2.142970,0.792578,0.475053,-0.382289
19.526583,37.274636,-5.706875,0.163787,0.346298,-0.923716
33.457249,27.676178,4.703429,0.451405,0.409129,0.792999
21.569671,30.750397,-2.920669,0.228198,0.307690,0.923717
40.882942,8.350871,-1.404702,-0.896350,-0.224524,0.382290
34.413694,9.259168,-0.150371,0.961752,0.240907,0.130370
35.585916,3.213465,0.671869,0.990271,0.048649,-0.130373
35.234133,14.734754,3.125754,0.118135,0.055873,-0.991424
18.048266,28.192840,3.691972,-0.408047,-0.680785,0.608300
37.702612,7.025956,3.148723,0.129266,0.019175,-0.991424
35.888917,7.744735,6.160645,-0.371597,-0.093080,0.923716
20.310374,27.135345,4.257889,-0.472811,-0.637512,0.608300
19.640256,40.746161,-1.114227,0.423906,0.896274,-0.130372
39.006000,2.247793,6.530525,0.130523,0.006412,0.991424
37.310408,22.728606,-4.341837,0.680785,0.408047,-0.608300
39.044104,13.944578,-5.949494,0.360684,0.129055,-0.923716
30.185927,25.287418,-6.493753,0.096828,0.087760,-0.991424
10.418183,42.823309,-3.840382,0.192855,0.769921,-0.608300
17.474954,40.980057,-3.239556,0.395079,0.835325,-0.382289
28.641931,23.035787,2.407382,0.489332,0.362914,-0.792999
15.508940,38.699119,-1.465369,-0.311301,-0.870027,0.382290
20.995962,30.181939,6.183228,-0.228199,-0.307691,0.923716
34.530764,0.000000,2.372748,0.000000,-1.000000,0.000000
33.923784,18.158175,3.162842,0.112089,0.067183,-0.991424
38.519026,11.115122,2.934010,-0.371597,-0.093080,-0.923716
41.336926,10.768247,5.211851,0.590966,0.148029,0.792999
33.097028,13.215393,-0.015691,0.933508,0.334015,0.130373
38.294569,12.647559,-2.829732,-0.360685,-0.129055,0.923716
15.343521,36.434354,-3.125478,-0.055873,-0.118134,0.991424
29.722952,19.819964,0.542556,0.850408,0.509715,-0.130372
23.615438,30.374356,-3.167065,0.077847,0.104964,0.991424
43.906907,0.000000,-0.051692,0.000000,-1.000000,0.000000
29.772742,26.556657,3.004886,-0.283842,-0.257259,-0.923716
12.414159,30.964126,-3.529948,-0.267392,-0.747311,-0.608299
6.776465,31.603443,-0.267722,-0.240907,-0.961752,-0.130372
38.986078,11.316876,-2.676472,-0.590967,-0.148030,0.792998
14.141344,37.610104,-2.888295,-0.129055,-0.360684,0.923716
11.224591,38.052203,-3.106667,-0.031753,-0.126765,0.991424
31.678560,20.226072,-6.397874,-0.112089,-0.067183,-0.991424
39.339047,14.480618,0.846371,-0.870026,-0.311301,-0.382291
29.094421,24.306691,-3.058739,0.283841,0.257259,0.923716
18.544055,36.089134,-2.687760,-0.260477,-0.550731,0.792999
21.613827,24.227283,1.509732,-0.665827,-0.734627,0.130372
15.935011,28.728493,-2.526385,-0.475053,-0.792578,-0.382290
27.441180,22.832952,0.409651,0.734627,0.665827,-0.130372
39.022085,1.647635,6.532289,0.130523,0.006412,0.991424
32.500560,13.359405,-5.342737,-0.573611,-0.205241,-0.792999
20.277613,28.959836,5.526166,-0.362914,-0.489333,0.792999
35.034957,8.942608,-1.757693,0.769920,0.192854,0.608301
36.843284,17.418338,-6.242406,0.346298,0.163787,-0.923716
42.424226,15.590673,-1.378633,0.933508,0.334014,-0.130372
10.403714,30.553256,0.034005,-0.334015,-0.933508,0.130371
26.907347,32.824448,-5.458498,0.362914,0.489333,-0.792999
20.275010,40.408363,1.372591,0.423906,0.896274,0.130372
31.933958,22.316946,3.198327,-0.104964,-0.077847,-0.991424
33.550647,23.608252,-6.135277,0.307691,0.228199,-0.923716
41.670044,7.822554,5.479008,0.602630,0.089392,0.792998
29.770419,17.606688,4.947263,-0.522548,-0.313203,0.792999
32.300057,17.543435,-6.172516,-0.328577,-0.196941,-0.923716
15.697397,37.892273,2.370539,-0.260476,-0.550730,-0.793000
18.532848,38.737356,-5.037160,0.260477,0.550731,-0.792999
40.769573,0.000000,5.810042,0.000000,-1.000000,0.000000
14.060971,40.944510,4.771275,0.205241,0.573611,0.792999
34.760550,0.000000,1.805786,0.000000,-1.000000,0.000000
34.486522,0.000000,0.738755,0.000000,-1.000000,0.000000
10.659714,39.697069,-6.099635,0.093081,0.371597,-0.923716
22.719846,27.597997,-0.715645,0.665827,0.734627,0.130372
41.445802,5.615506,-1.079956,-0.914041,-0.135585,0.382290
34.410678,0.000000,4.133983,0.000000,-1.000000,0.000000
35.122535,28.304998,1.898256,0.742199,0.550452,0.382288
29.998770,24.594949,3.204212,0.104964,0.077847,-0.991424
8.653171,42.634521,0.070223,-0.980019,0.198906,0.000000
40.323208,11.849002,0.299211,-0.961753,-0.240906,-0.130368
37.974983,21.450769,-4.455243,0.680785,0.408047,-0.608300
29.362012,20.271094,0.356559,0.796352,0.590615,-0.130372
15.507622,34.121841,2.890873,0.163786,0.346297,-0.923717
24.346551,34.151810,5.752637,0.228199,0.307691,0.923716
39.688923,21.705622,-1.343440,0.850408,0.509715,-0.130372
37.760148,17.275235,5.924051,0.346298,0.163787,0.923716
36.113284,16.732604,-3.044025,-0.346298,-0.163787,0.923716
36.393446,13.878773,-6.547352,0.123042,0.044025,-0.991424
8.786929,43.293550,2.059699,-0.980019,0.198906,-0.000000
36.613643,23.351401,4.677911,0.522549,0.313203,0.792999
31.487553,27.571286,1.018798,-0.684671,-0.620549,-0.382289
26.498690,25.884903,2.629911,0.451404,0.409129,-0.792999
35.314797,27.602251,2.536861,0.742199,0.550452,0.382288
28.027065,23.204854,-6.017538,-0.283842,-0.257259,-0.923716
31.778227,16.237386,-0.434799,0.896274,0.423906,0.130372
13.999141,35.752356,3.155726,0.044025,0.123042,-0.991424
8.467026,34.882567,1.249420,0.224523,0.896350,-0.382292
30.779013,18.684494,-1.518423,0.792578,0.475053,0.382289
36.699230,23.839597,4.280592,0.680786,0.408047,0.608299
8.432437,41.546951,3.682663,-0.980019,0.198906,-0.000000
41.246361,8.200369,-0.228266,-0.980734,-0.145478,0.130375
24.341690,37.201876,-3.381246,0.408047,0.680785,-0.608300
15.342099,29.158082,2.731122,-0.395079,-0.835325,0.382290
19.581959,39.337547,4.020798,0.339353,0.717503,0.608300
29.916412,29.210870,-1.171226,-0.684671,-0.620549,0.382289
29.476859,17.613170,-4.756381,-0.522548,-0.313203,-0.792999
41.690278,12.445229,-4.631796,0.769921,0.192855,-0.608300
39.366296,3.207823,3.128139,-0.130524,-0.006412,-0.991424
44.310847,8.942171,-1.689977,0.961752,0.240907,-0.130372
19.671872,25.802438,-1.335135,-0.590615,-0.796352,-0.130372
34.450583,2.160880,-4.892354,-0.608489,-0.029893,-0.792999
39.865556,0.000000,3.075312,-0.000000,-1.000000,0.000000
36.335256,0.928758,-6.012125,-0.382616,-0.018797,-0.923716
22.761630,38.993843,1.714556,0.475053,0.792578,0.382289
35.241322,0.730756,5.445199,-0.608489,-0.029893,0.792999
6.746919,33.242340,0.581593,-0.980019,0.198906,-0.000000
17.784202,34.623441,-6.552454,0.055873,0.118134,-0.991424
43.954458,0.000000,0.702662,0.000000,-1.000000,0.000000
33.224241,10.062941,5.014148,-0.590966,-0.148029,0.792999
40.298130,1.172271,6.367369,0.130523,0.006412,0.991424
14.005092,35.231972,-3.062765,0.129055,0.360684,0.923716
39.716758,13.738640,0.073792,-0.933509,-0.334015,-0.130368
7.533951,37.120074,-3.956749,-0.980019,0.198906,0.000000
8.980348,44.246532,1.451847,-0.980019,0.198906,-0.000000
8.926515,43.981295,2.251731,-0.980019,0.198906,-0.000000
32.556858,3.648383,-2.299959,-0.914041,-0.135585,-0.382290
34.840416,19.758832,6.402354,0.112089,0.067183,0.991424
14.966938,34.189213,6.363074,-0.055873,-0.118134,0.991424
8.678653,37.316671,3.146300,0.031753,0.126764,-0.991425
30.077022,20.982030,6.144838,-0.307691,-0.228199,0.923716
31.141463,9.708191,1.941846,-0.870027,-0.311300,0.382290
11.013755,43.655763,2.015181,0.224524,0.896350,0.382289
28.924938,34.753829,-1.537777,0.665828,0.734627,-0.130373
7.473326,33.195203,-4.417158,-0.192855,-0.769921,-0.608300
39.594716,11.442911,-2.148060,-0.769920,-0.192855,0.608301
36.409041,1.465003,2.121981,0.792752,0.038945,-0.608299
11.149593,34.984820,-2.382888,0.205241,0.573610,0.792999
21.109149,26.552575,4.267994,-0.472811,-0.637512,0.608300
44.789448,0.633882,2.636334,0.922930,0.045341,0.382289
44.035929,0.163685,3.945343,0.792751,0.038946,0.608300
26.377930,23.703279,-5.620498,-0.451404,-0.409129,-0.792999
45.402776,0.519659,0.032808,0.990271,0.048649,0.130371
32.512709,22.867260,3.070429,-0.307690,-0.228199,-0.923716
35.332581,5.211057,-0.778734,0.980734,0.145479,0.130370
36.174577,22.454504,5.321473,0.522548,0.313203,0.792999
19.602596,39.821072,3.438958,0.339353,0.717503,0.608300
21.773918,31.185190,3.108313,0.077847,0.104964,-0.991424
8.346614,41.124097,1.572533,-0.980019,0.198906,-0.000000
14.992587,35.872907,-3.212155,-0.055873,-0.118134,0.991424
22.537824,29.210475,-6.240540,-0.228199,-0.307691,-0.923716
30.033376,17.248779,4.979179,-0.522548,-0.313203,0.792999
26.695557,24.724685,2.052979,0.588099,0.533022,-0.608299
21.721669,24.032940,0.965399,-0.665827,-0.734627,0.130372
20.028512,36.207903,5.993564,0.196941,0.328576,0.923716
28.607613,25.027921,-6.455169,-0.096828,-0.087760,-0.991424
40.092437,5.848090,2.715576,-0.602629,-0.089392,-0.792999
33.526663,23.466446,-2.415017,-0.489333,-0.362914,0.792999
22.739328,28.841856,-6.167534,-0.228199,-0.307691,-0.923716
22.755044,27.842283,1.306936,0.550451,0.742198,-0.382291
40.665483,7.733241,-1.924248,-0.785118,-0.116461,0.608299
7.932220,35.916448,-2.437828,0.148029,0.590967,0.792998
38.645946,14.154468,2.191322,-0.747311,-0.267392,-0.608299
33.501004,19.002714,-3.172273,0.112089,0.067183,0.991424
33.153278,15.384485,6.099573,-0.346298,-0.163787,0.923716
29.196996,31.990626,4.753655,0.409129,0.451405,0.792999
37.472141,12.058390,-3.145572,-0.123042,-0.044025,0.991425
33.718363,15.063185,-2.556088,0.550732,0.260477,0.792998
7.080432,34.885571,3.291328,-0.980019,0.198906,-0.000000
14.283801,31.405463,4.878680,-0.260476,-0.550731,0.792999
17.705271,41.608390,1.478256,0.423906,0.896274,0.130372
17.349906,41.467747,-2.303156,0.395079,0.835324,-0.382290
18.505916,40.202262,3.601143,0.339353,0.717503,0.608300
9.392851,39.389164,-2.735238,-0.148029,-0.590967,0.792998
29.245391,25.820759,-6.538400,0.096828,0.087760,-0.991424
37.419274,25.005232,2.190512,0.742198,0.550452,0.382289
36.186087,26.275044,2.756310,0.742199,0.550452,0.382288
24.786360,37.815271,1.520396,0.509715,0.850408,0.130373
33.828985,0.572143,-4.156271,-0.792751,-0.038945,-0.608300
42.081419,0.000000,2.941004,-0.000000,-1.000000,0.000000
32.045232,27.147737,0.440580,-0.734627,-0.665827,-0.130373
6.908283,34.037388,1.746214,-0.980019,0.198906,-0.000000
34.445422,15.347203,-6.415033,-0.118134,-0.055873,-0.991424
38.982640,15.763323,0.143068,-0.933508,-0.334015,-0.130370
40.023813,1.207688,2.946680,-0.382615,-0.018797,-0.923716
15.411619,41.740898,3.290342,0.267392,0.747311,0.608299
7.711103,37.992911,5.421915,-0.980019,0.198906,0.000000
9.660659,39.431173,2.653941,-0.148029,-0.590965,-0.793000
39.083286,20.719229,-3.686254,0.717503,0.339353,-0.608300
33.357994,0.000000,-0.576748,0.000000,-1.000000,0.000000
22.255915,33.118147,6.426491,0.077847,0.104964,0.991424
19.432699,31.685552,-6.344902,-0.067183,-0.112089,-0.991424
27.616405,23.457849,-5.961810,-0.283842,-0.257259,-0.923716
21.209114,30.684614,2.809683,0.228198,0.307690,-0.923717
14.378512,36.578636,-6.502177,0.044025,0.123042,-0.991425
36.452716,0.000000,-2.713247,0.000000,-1.000000,0.000000
35.257472,0.000000,-1.309421,0.000000,-1.000000,0.000000
30.398986,32.598436,-3.115026,0.620549,0.684671,-0.382289
40.777992,0.000000,-4.734159,0.000000,-1.000000,0.000000
34.219183,26.580808,4.747294,0.489333,0.362914,0.792999
41.961825,16.991585,-1.100431,0.933508,0.334014,-0.130372
37.187658,17.717359,6.060281,0.346297,0.163787,0.923716
37.803341,18.095952,5.762334,0.346298,0.163787,0.923716
15.053962,42.547529,-1.753355,0.311300,0.870027,-0.382289
31.924453,16.241816,5.790907,-0.346298,-0.163787,0.923716
31.891818,19.741486,6.389146,-0.112089,-0.067183,0.991424
35.206538,3.168581,-5.510406,-0.608490,-0.029893,-0.792999
33.460172,4.854263,-4.148409,-0.785117,-0.116461,-0.608300
20.407232,40.307764,1.634264,0.423906,0.896274,0.130372
34.168895,0.000000,0.300015,0.000000,-1.000000,0.000000
14.790184,37.506583,-6.368733,0.044025,0.123042,-0.991424
34.528832,16.314047,-3.130716,0.118134,0.055873,0.991424
26.229420,23.219812,-5.286527,-0.451404,-0.409129,-0.792999
28.501365,29.938264,-1.972404,-0.533021,-0.588098,0.608300
40.852041,4.953102,-6.083398,0.378931,0.056209,-0.923716
26.937231,33.305189,5.148173,0.362914,0.489333,0.792999
8.961247,44.152416,1.813287,-0.980019,0.198906,-0.000000
34.636231,22.163214,6.097495,0.328577,0.196941,0.923716
32.687314,23.304708,2.904199,-0.307690,-0.228199,-0.923716
27.218627,29.162947,-3.007904,-0.257259,-0.283842,0.923716
41.084253,2.765917,-2.171586,-0.792750,-0.038945,0.608301
26.426952,19.643307,2.754437,-0.742198,-0.550452,0.382290
32.915463,4.032458,-3.288029,-0.785117,-0.116461,-0.608300
38.051626,0.565772,6.458990,-0.130523,-0.006412,0.991424
38.415165,7.306348,6.530244,0.129266,0.019175,0.991424
11.892777,38.057227,6.429056,0.044025,0.123042,0.991424
33.184885,15.242077,-6.086171,-0.346298,-0.163787,-0.923716
27.451399,32.112929,-5.584636,0.409129,0.451405,-0.792999
7.526763,34.881891,-0.403052,0.240906,0.961753,0.130369
38.498108,16.754382,0.516308,-0.896274,-0.423906,-0.130370
16.399147,40.790961,4.023271,0.267392,0.747311,0.608299
24.702671,32.138139,6.335415,0.228199,0.307691,0.923716
33.994552,22.197748,-6.318386,0.328576,0.196941,-0.923716
32.509977,26.407301,1.027048,-0.742198,-0.550452,-0.382289
33.502950,11.287951,5.531683,-0.573611,-0.205241,0.792999
15.531859,28.450549,-0.913733,-0.509715,-0.850408,-0.130372
18.083492,27.049696,-1.717517,-0.550452,-0.742198,-0.382290
41.174712,8.952766,5.671634,0.590966,0.148029,0.792999
40.699476,9.042180,1.428858,-0.896350,-0.224523,-0.382290
10.841187,37.986949,-6.476033,0.031753,0.126765,-0.991424
34.154117,16.983614,-3.123802,0.118134,0.055873,0.991424
34.174141,0.000000,0.627635,0.000000,-1.000000,0.000000
40.166957,9.047538,-2.183208,-0.769922,-0.192856,0.608299
34.414478,0.000000,0.389659,0.000000,-1.000000,0.000000
11.353820,43.834545,-0.747304,0.240906,0.961752,-0.130372
15.385313,41.116140,4.069436,0.267392,0.747311,0.608299
40.807933,8.997070,5.820291,0.371597,0.093080,0.923716
33.095014,15.655963,-2.317887,0.550732,0.260477,0.792998
31.920641,19.518940,-2.865097,0.328577,0.196942,0.923716
19.076142,26.680330,2.429706,-0.550452,-0.742198,0.382290
34.572772,0.562401,4.925856,-0.608489,-0.029893,0.792999
34.622483,9.257029,-1.103583,0.896350,0.224523,0.382291
37.333641,24.330354,-3.207177,0.792578,0.475053,-0.382289
33.821963,22.306037,6.344889,0.112089,0.067183,0.991424
13.779294,33.311082,-5.874812,-0.129055,-0.360684,-0.923716
31.388225,24.774847,6.411854,0.104964,0.077847,0.991424
30.146131,20.614837,2.196058,0.637511,0.472811,-0.608301
40.916080,0.702340,-2.420054,-0.608491,-0.029894,0.792997
38.998096,15.635942,-5.731155,0.360684,0.129055,-0.923716
39.091883,0.000000,-4.322479,0.000000,-1.000000,0.000000
38.237728,21.458560,4.155962,0.680785,0.408047,0.608300
12.369189,43.548749,-0.979380,0.240906,0.961752,-0.130372
45.316833,0.425924,0.720595,0.990271,0.048649,0.130371
20.713722,26.066620,-3.451350,-0.472811,-0.637512,-0.608300
37.745154,22.450319,4.041960,0.680786,0.408047,0.608299
21.621496,28.201389,5.673178,-0.362914,-0.489333,0.792999
11.719519,40.292327,-0.766301,-0.240906,-0.961753,0.130368
44.049350,0.000000,2.670924,0.000000,-1.000000,0.000000
36.271767,14.112503,6.552074,0.123042,0.044025,0.991425
38.850661,5.122358,-6.515702,0.129266,0.019175,-0.991424
41.337670,9.513094,-5.445596,0.590966,0.148030,-0.792998
14.019814,41.877456,3.734376,0.267391,0.747310,0.608300
17.371184,41.718579,-1.733086,0.395079,0.835324,-0.382290
20.095148,25.382445,0.687228,-0.590615,-0.796352,0.130372
22.229025,27.525295,5.534017,-0.362914,-0.489333,0.792999
26.387991,32.368179,-5.842440,0.228199,0.307691,-0.923716
26.198642,24.140381,-0.085334,0.734628,0.665827,0.130372
25.132299,30.420271,6.484596,0.087760,0.096828,0.991424
30.598953,16.868653,5.201732,-0.522548,-0.313203,0.792999
7.263723,35.788651,4.826886,-0.980019,0.198906,0.000000
14.791092,37.854720,-2.632401,-0.205241,-0.573609,0.793000
23.652544,27.585503,-1.973909,0.533022,0.588099,0.608299
23.820993,38.375449,-1.640684,0.509715,0.850408,-0.130373
15.062303,32.708691,-5.875772,-0.163787,-0.346298,-0.923716
7.327990,36.105296,5.103855,-0.980019,0.198906,0.000000
39.453505,11.808467,-2.210894,-0.769920,-0.192855,0.608301
22.851276,39.027337,-1.179762,0.509715,0.850408,-0.130373
32.793507,30.313405,2.904577,0.684671,0.620549,0.382289
37.890637,16.579531,-1.948584,-0.717503,-0.339354,0.608299
6.755955,33.286860,-3.360096,-0.980019,0.198906,0.000000
28.347689,34.852918,2.360236,0.550452,0.742198,0.382288
35.266378,5.466425,0.565684,0.980734,0.145479,-0.130373
33.142226,14.268793,1.631171,0.717503,0.339354,-0.608299
7.379301,31.877053,2.239420,-0.224524,-0.896350,0.382289
32.479133,2.105062,-1.824976,-0.922930,-0.045341,-0.382289
34.246667,0.000000,1.602352,0.000000,-1.000000,0.000000
41.850458,8.935614,-5.171250,0.590966,0.148030,-0.792998
18.197435,31.183814,-1.685567,0.408047,0.680785,0.608301
26.710281,27.794676,3.175951,0.087760,0.096828,-0.991424
40.504503,6.408953,-2.339207,-0.602629,-0.089391,0.792999
9.416460,34.455245,0.747540,0.240906,0.961752,-0.130373
19.303304,36.733756,-1.793631,-0.339354,-0.717503,0.608300
42.043663,6.178751,5.380380,0.602630,0.089392,0.792998
28.522906,23.314265,2.461380,0.489332,0.362914,-0.792999
38.669441,14.586347,6.006127,0.360684,0.129055,0.923716
19.242060,30.353962,-1.330050,0.475053,0.792578,0.382289
43.484122,9.838903,-3.107632,0.896350,0.224524,-0.382290
30.445203,21.607890,-6.365677,-0.104964,-0.077846,-0.991424
33.505207,12.681202,-1.066436,0.870026,0.311300,0.382291
23.566459,38.701915,0.506320,0.509715,0.850408,0.130373
37.259704,8.054791,-3.119036,0.126764,0.031753,0.991424
20.474177,29.656581,1.545138,0.550451,0.742198,-0.382291
29.911711,14.184442,-3.181459,-0.835325,-0.395079,-0.382290
27.207825,35.581311,-2.587363,0.550452,0.742199,-0.382288
19.687216,36.861306,-1.277155,-0.395079,-0.835324,0.382290
38.472073,0.000000,6.081939,-0.000000,-1.000000,0.000000
20.128258,29.046466,5.511270,-0.362914,-0.489333,0.792999
29.807877,14.182586,2.952657,-0.835325,-0.395079,0.382290
10.087798,38.024111,3.146667,-0.031753,-0.126764,-0.991425
12.902620,33.854339,1.841506,0.267392,0.747311,-0.608299
32.496565,18.873114,-6.398673,-0.112089,-0.067183,-0.991424
25.383389,25.221726,5.766891,-0.283841,-0.257259,0.923716
35.511032,18.540802,2.949190,-0.346297,-0.163787,-0.923716
18.541883,27.053919,-2.385744,-0.550452,-0.742198,-0.382290
13.083199,38.560704,2.563762,-0.205242,-0.573612,-0.792998
30.288609,16.783514,4.963604,-0.522548,-0.313203,0.792999
23.513968,29.104874,6.373439,-0.077847,-0.104964,0.991424
44.185045,0.000000,1.474075,0.000000,-1.000000,0.000000
24.655974,26.132425,1.312965,0.620548,0.684670,-0.382291
13.693722,40.363603,-5.286521,0.205241,0.573611,-0.792999
8.760641,43.164027,-0.281587,-0.980019,0.198906,0.000001
34.120758,18.567729,-6.561608,-0.112089,-0.067183,-0.991424
37.196268,7.626483,3.081013,0.371597,0.093080,-0.923716
11.519253,36.171302,6.446342,-0.044025,-0.123042,0.991424
9.479635,43.254076,3.592718,0.192855,0.769921,0.608300
38.057412,24.075800,2.022945,0.792578,0.475053,0.382289
12.823352,31.136369,3.921422,-0.267392,-0.747311,0.608299
40.176308,21.038144,0.486568,0.896274,0.423906,0.130372
32.412868,26.703881,0.635830,-0.734627,-0.665827,-0.130373
39.989444,19.878199,2.920456,0.835325,0.395079,0.382289
30.927011,18.156907,5.814903,-0.328576,-0.196941,0.923716
15.558018,33.152832,-2.325868,0.260476,0.550730,0.793000
34.225256,4.008697,-4.836965,-0.602630,-0.089392,-0.792999
12.388368,38.419018,6.362149,0.044025,0.123042,0.991425
24.127669,38.194496,-1.622015,0.509715,0.850408,-0.130373
31.080600,32.351398,2.451035,0.620549,0.684671,0.382289
23.797829,36.324469,-4.692141,0.313203,0.522549,-0.792999
11.824209,40.301406,-0.505866,-0.240906,-0.961753,0.130368
20.517166,32.008635,-3.106174,0.067183,0.112089,0.991424
43.945902,0.962864,-4.011503,0.792751,0.038945,-0.608300
28.966804,22.207974,-2.198390,0.637512,0.472812,0.608299
19.521500,33.075582,6.508074,-0.067183,-0.112089,0.991424
43.619571,0.119188,-4.490800,0.792751,0.038945,-0.608300
35.603002,9.671846,2.528976,0.590965,0.148029,-0.792999
13.154244,42.528890,-3.314555,0.267392,0.747310,-0.608300
8.879661,33.048361,4.662193,-0.148029,-0.590966,0.792999
29.472979,15.029629,3.096266,-0.835325,-0.395079,0.382290
12.730339,33.595905,-1.312862,0.311301,0.870027,0.382290
43.910127,11.031606,-0.785149,0.961752,0.240907,-0.130372
10.896556,34.111159,0.992234,0.311300,0.870026,-0.382291
40.364541,0.267568,-6.364477,0.130523,0.006412,-0.991424
27.845265,31.551572,-5.693045,0.257259,0.283842,-0.923716
38.866060,3.486283,-6.540938,0.130523,0.006412,-0.991424
29.011767,27.972175,-6.370776,0.096828,0.087760,-0.991424
36.106520,12.873683,-3.149703,0.123042,0.044025,0.991424
25.908233,23.442400,5.218534,-0.451405,-0.409129,0.792999
29.204884,13.754954,0.108234,-0.896274,-0.423906,0.130372
36.082110,19.433239,2.390797,-0.522548,-0.313203,-0.792999
38.729908,21.162954,-3.803426,0.680785,0.408047,-0.608300
16.140841,38.744283,0.818857,-0.423906,-0.896274,-0.130370
35.575821,14.071349,-3.137024,0.123042,0.044025,0.991424
37.910961,7.417682,3.183465,0.129266,0.019175,-0.991424
21.378199,37.984644,-4.493110,0.408047,0.680786,-0.608299
16.120036,38.804136,-0.475025,-0.423906,-0.896274,0.130370
36.719621,24.007647,4.145043,0.680786,0.408047,0.608299
39.059873,8.846893,2.944998,-0.371597,-0.093080,-0.923716
38.553785,15.354302,1.777129,-0.747311,-0.267392,-0.608299
17.030950,38.289855,0.900829,-0.395079,-0.835324,-0.382290
31.501408,25.825829,6.270041,0.307691,0.228199,0.923716
39.070812,3.674200,-3.164024,-0.130524,-0.006412,0.991424
29.381962,20.856697,1.562760,0.742198,0.550452,-0.382288
19.991490,25.476897,-0.794574,-0.590615,-0.796352,-0.130372
36.837032,22.741543,4.771578,0.522549,0.313203,0.792999
10.069536,43.928738,1.929690,0.224524,0.896350,0.382289
11.314980,36.784020,6.513313,-0.044025,-0.123042,0.991424
28.389206,29.438341,6.190913,0.257259,0.283841,0.923716
34.984233,0.000000,1.995887,0.000000,-1.000000,0.000000
30.059395,29.060504,-5.813115,0.283841,0.257259,-0.923716
13.791315,39.666401,0.299414,-0.334015,-0.933508,-0.130370
27.265110,36.120619,-0.941029,0.590615,0.796352,-0.130373
35.682917,22.076792,0.587034,-0.850408,-0.509715,-0.130374
45.126034,0.400205,1.851458,0.922930,0.045341,0.382289
35.607894,20.697314,-6.064401,0.328576,0.196941,-0.923716
41.906806,12.352987,4.386982,0.769921,0.192855,0.608300
26.585263,27.744932,-3.160026,0.087760,0.096828,0.991424
34.169456,6.645861,5.091838,-0.602629,-0.089392,0.792999
36.255822,13.480889,-6.543939,-0.123042,-0.044025,-0.991424
33.123373,16.260795,-2.536251,0.550730,0.260475,0.793000
23.176727,32.285730,-3.069584,-0.228199,-0.307690,0.923716
6.976440,34.373198,3.336148,-0.980019,0.198906,-0.000000
9.159169,40.930559,-5.754627,0.093081,0.371597,-0.923716
33.059191,19.873168,-6.530051,-0.112089,-0.067183,-0.991424
40.466858,0.000000,-5.844391,0.000000,-1.000000,0.000000
21.749941,32.310279,3.203007,-0.077847,-0.104964,-0.991424
24.004276,29.827711,-6.488466,-0.077846,-0.104964,-0.991424
35.373396,13.563531,-3.056296,0.360683,0.129055,0.923717
9.383052,31.396147,2.288675,-0.224524,-0.896350,0.382290
37.884642,11.012132,-6.483639,0.126765,0.031753,-0.991424
29.434254,31.999108,-4.616408,0.533021,0.588098,-0.608300
40.134292,20.319043,-2.148361,0.835325,0.395079,-0.382289
35.127942,10.918860,6.184604,-0.360684,-0.129055,0.923716
29.841874,17.351181,4.893433,-0.522548,-0.313203,0.792999
35.037015,1.030441,5.299725,-0.608489,-0.029893,0.792999
41.429866,10.016040,-5.283004,0.590966,0.148030,-0.792998
41.952544,17.326980,0.307603,0.933508,0.334014,0.130372
