x,y,z,nx,ny,nz
-9.049317,4.875520,-12.123950,0.634394,-0.000000,0.773010
29.122589,-23.922151,13.101897,0.000000,0.000000,1.000000
30.055361,-2.767824,2.783174,1.000000,-0.000000,0.000000
-16.646622,27.102119,7.994164,0.896873,0.000000,-0.442288
30.055361,24.321576,-12.035854,1.000000,0.000000,-0.000000
19.394188,8.389720,-3.217034,0.634393,0.000000,0.773010
13.632465,0.349133,-6.554999,-0.881921,0.000000,0.471396
29.190846,26.304090,-13.101897,0.000000,0.000000,-1.000000
-22.133619,27.662683,-4.670304,0.000000,1.000000,0.000000
24.292615,-27.662683,9.763089,-0.000000,-1.000000,0.000000
21.031290,-17.971768,4.052247,0.290284,0.000000,-0.956940
-14.018884,-8.718191,-13.101897,0.000000,0.000000,-1.000000
-8.924304,-10.618065,-13.101897,0.000000,0.000000,-1.000000
9.238340,-12.293075,13.101897,0.000000,-0.000000,1.000000
-20.598792,27.662683,7.530746,-0.000000,1.000000,-0.000000
-12.647921,14.396325,8.396952,0.881921,0.000000,-0.471396
14.376691,10.894612,4.668283,-0.956940,0.000000,-0.290285
-16.501025,17.798545,-8.289406,0.896873,-0.000000,0.442288
30.055361,-3.451926,5.977584,1.000000,-0.000000,0.000000
20.718552,-27.662683,-11.848485,0.000000,-1.000000,0.000000
-17.974380,-9.518286,0.929350,-0.956940,0.000000,-0.290285
21.478401,-10.402638,-13.101897,0.000000,0.000000,-1.000000
30.055361,-7.691039,-5.212828,1.000000,0.000000,-0.000000
-30.055361,-2.416173,9.562678,-1.000000,0.000000,0.000000
-11.441674,-25.576583,9.880673,0.773010,0.000000,-0.634394
21.065549,-24.794704,4.062640,0.290284,0.000000,-0.956940
9.789956,-17.597510,11.516123,-0.634394,0.000000,-0.773010
-9.562787,0.472546,11.702556,0.634394,0.000000,-0.773010
7.615029,10.814928,13.065868,-0.471396,0.000000,-0.881921
-28.045437,19.282339,-13.101897,0.000000,0.000000,-1.000000
19.741731,14.685441,-3.497357,0.471397,0.000000,0.881921
24.815206,3.609737,-3.136057,-0.634392,0.000000,0.773011
-30.055361,-16.995020,4.019776,-1.000000,0.000000,0.000000
29.959366,-19.793553,-13.101897,0.000000,0.000000,-1.000000
-14.186157,-4.667557,-13.101897,0.000000,0.000000,-1.000000
21.826543,9.738536,4.172696,0.098017,0.000000,-0.995185
-14.420253,-15.286844,-4.524678,0.956940,0.000000,0.290285
-10.940675,-19.699271,-10.491141,0.773010,-0.000000,0.634394
14.120388,-0.732808,-13.101897,0.000000,0.000000,-1.000000
14.211616,-27.331988,13.101897,0.000000,0.000000,1.000000
-22.866731,27.447091,-13.101897,0.000000,0.000000,-1.000000
30.055361,16.449851,-12.309439,1.000000,0.000000,-0.000000
21.306924,-27.662683,13.031438,0.000000,-1.000000,0.000000
10.228059,-2.546020,13.101897,0.000000,-0.000000,1.000000
30.055361,-20.110608,1.639372,1.000000,0.000000,-0.000000
-14.383307,3.109395,-4.646473,0.956940,-0.000000,0.290285
-21.631213,21.264585,13.101897,0.000000,-0.000000,1.000000
-30.055361,-25.733243,8.906995,-1.000000,0.000000,0.000000
-27.367022,2.325026,-13.101897,0.000000,0.000000,-1.000000
27.219154,24.966130,13.101897,0.000000,-0.000000,1.000000
-21.389018,20.949268,-4.129603,-0.098017,0.000000,0.995185
30.055361,8.520947,5.495326,1.000000,-0.000000,0.000000
-15.197327,-27.662683,5.246184,0.000000,-1.000000,0.000000
8.664245,-22.214095,-12.439971,-0.634394,0.000000,0.773010
-29.291846,-27.325355,-13.101897,0.000000,0.000000,-1.000000
14.618198,5.084967,-3.872141,-0.956940,0.000000,0.290285
25.693338,19.126370,2.050547,-0.881922,0.000000,-0.471396
21.526375,-27.662683,-10.499576,0.000000,-1.000000,0.000000
-14.923150,-3.944566,-2.667653,0.995185,-0.000000,0.098017
18.353450,18.118999,-13.101897,0.000000,0.000000,-1.000000
23.015900,10.053142,-13.101897,0.000000,0.000000,-1.000000
14.678582,-24.180927,13.101897,0.000000,0.000000,1.000000
21.493472,21.705921,13.101897,0.000000,-0.000000,1.000000
-27.456301,-27.390191,13.101897,0.000000,-0.000000,1.000000
11.979087,-17.652237,-9.225833,-0.773010,0.000000,0.634394
-22.649917,-20.346825,13.101897,0.000000,-0.000000,1.000000
-14.628505,-20.685096,-13.101897,0.000000,0.000000,-1.000000
30.055361,-25.083073,-11.483749,1.000000,0.000000,-0.000000
-17.935723,6.920922,-0.767529,-0.995185,0.000000,0.098017
-30.055361,3.326340,4.049645,-1.000000,0.000000,0.000000
-24.681541,5.246784,3.245752,0.634391,-0.000000,-0.773012
-30.055361,-8.991526,-2.328370,-1.000000,0.000000,0.000000
13.146707,14.318087,-13.101897,0.000000,0.000000,-1.000000
-24.055855,-19.450893,3.664732,0.471397,0.000000,-0.881921
12.696277,2.371739,-13.101897,0.000000,0.000000,-1.000000
10.547021,-13.022032,-10.894815,-0.634394,0.000000,0.773010
18.326686,-27.662683,-6.121923,0.000000,-1.000000,0.000000
-27.582658,-27.662683,2.160017,0.000000,-1.000000,0.000000
-25.865740,-12.593342,1.728006,0.881922,0.000000,-0.471395
-30.055361,-1.485852,2.597887,-1.000000,0.000000,0.000000
-25.825091,7.087217,-13.101897,0.000000,0.000000,-1.000000
-30.055361,11.489131,-10.645554,-1.000000,0.000000,0.000000
-18.374785,-27.662683,-4.129090,0.000000,-1.000000,0.000000
30.055361,-20.976386,-9.000803,1.000000,0.000000,-0.000000
30.055361,13.500659,-0.552615,1.000000,-0.000000,0.000000
-12.267489,-15.486357,-13.101897,0.000000,0.000000,-1.000000
19.284039,-11.321249,13.101897,0.000000,0.000000,1.000000
26.968392,-27.662683,1.318854,-0.000000,-1.000000,0.000000
-10.121582,-11.793854,13.101897,0.000000,-0.000000,1.000000
-8.790538,-8.157264,-12.336325,0.634394,-0.000000,0.773010
30.055361,-4.206352,-2.703397,1.000000,0.000000,-0.000000
-30.055361,-8.258315,-8.713199,-1.000000,0.000000,0.000000
-22.519847,-2.495876,4.149484,0.098017,0.000000,-0.995185
-25.895051,-4.579162,1.673169,0.881922,0.000000,-0.471395
-19.482650,4.345922,-13.101897,0.000000,0.000000,-1.000000
12.269700,-15.352929,8.871720,-0.773010,0.000000,-0.634394
10.177128,-10.814109,11.198379,-0.634394,0.000000,-0.773010
21.560560,-21.976273,-4.146499,0.098017,-0.000000,0.995185
9.553910,-8.918117,13.101897,0.000000,-0.000000,1.000000
21.832177,18.351572,13.101897,0.000000,-0.000000,1.000000
15.008730,11.645083,1.798744,-0.995185,0.000000,-0.098017
24.882477,-27.313839,3.080848,-0.634392,-0.000000,-0.773011
23.352573,-11.273465,3.969391,-0.290285,0.000000,-0.956940
21.181073,-17.870318,-4.097684,0.290284,-0.000000,0.956941
-14.978639,-17.132141,2.104260,0.995185,0.000000,-0.098017
-30.055361,21.865124,11.062601,-1.000000,0.000000,0.000000
-27.928894,9.624573,-13.101897,0.000000,0.000000,-1.000000
10.745847,5.764348,10.728540,-0.773010,0.000000,-0.634394
-12.981514,-27.621370,-7.772843,0.881921,0.000000,0.471396
-25.559068,3.776130,2.301750,0.881922,0.000000,-0.471396
15.160360,-19.083854,-0.259216,-0.995185,0.000000,0.098017
12.860417,-11.722187,-13.101897,0.000000,0.000000,-1.000000
29.997971,5.769258,-13.101897,0.000000,0.000000,-1.000000
19.407280,-7.959001,13.101897,0.000000,0.000000,1.000000
10.649660,-14.352235,13.101897,0.000000,-0.000000,1.000000
25.619221,-27.662683,-10.212171,0.000000,-1.000000,0.000000
12.328443,4.643722,-8.800142,-0.773010,0.000000,0.634394
24.330535,-1.509506,-3.517912,-0.471396,0.000000,0.881922
30.055361,-5.799448,3.672338,1.000000,-0.000000,0.000000
-15.166586,8.558754,-0.195996,0.995185,0.000000,0.098017
-14.197945,8.256824,-5.257528,0.956940,-0.000000,0.290285
30.055361,4.369365,10.315555,1.000000,-0.000000,0.000000
14.994644,23.518351,13.101897,0.000000,-0.000000,1.000000
24.602334,-27.662683,-5.591420,-0.000000,-1.000000,0.000000
15.069840,-3.156484,1.178281,-0.995185,-0.000000,-0.098017
-14.940419,13.048193,13.101897,0.000000,-0.000000,1.000000
19.234796,-5.600375,13.101897,0.000000,0.000000,1.000000
-21.289502,12.368263,13.101897,0.000000,-0.000000,1.000000
-30.055361,21.272361,-8.340023,-1.000000,0.000000,0.000000
-16.735724,27.163020,7.813483,0.896873,0.000000,-0.442288
-21.230223,-6.641031,4.112593,-0.290285,0.000000,-0.956940
30.055361,-8.631647,-1.760885,1.000000,0.000000,-0.000000
-30.055361,3.863796,8.397424,-1.000000,0.000000,0.000000
-29.341102,-11.790962,13.101897,0.000000,-0.000000,1.000000
-9.921141,-7.569462,-13.101897,0.000000,0.000000,-1.000000
30.055361,25.223112,-3.502752,1.000000,-0.000000,0.000000
28.897982,0.572955,-13.101897,0.000000,0.000000,-1.000000
24.957194,-13.647844,13.101897,0.000000,0.000000,1.000000
21.646910,-9.695307,4.155003,0.098017,0.000000,-0.995185
28.586269,27.662683,5.037695,0.000000,1.000000,-0.000000
-22.758031,-3.989144,-4.126025,0.098017,0.000000,0.995185
30.055361,24.778861,2.341373,1.000000,-0.000000,0.000000
15.145433,11.800406,0.410768,-0.995185,0.000000,-0.098017
10.734215,2.691858,10.741190,-0.634394,0.000000,-0.773010
29.715895,7.974742,-13.101897,0.000000,0.000000,-1.000000
18.992264,3.537733,-13.101897,0.000000,0.000000,-1.000000
-30.055361,2.171071,0.737814,-1.000000,0.000000,0.000000
20.014115,27.662683,4.539883,0.000000,1.000000,-0.000000
-10.835739,-23.674886,-13.101897,0.000000,0.000000,-1.000000
-24.215428,12.263992,13.101897,0.000000,-0.000000,1.000000
30.055361,-22.057439,-5.667648,1.000000,0.000000,-0.000000
14.499860,4.970076,-4.262249,-0.956940,0.000000,0.290285
30.055361,25.226713,-9.696313,1.000000,-0.000000,0.000000
18.025023,-5.232206,13.101897,0.000000,0.000000,1.000000
16.305352,27.662683,-11.440565,-0.000000,1.000000,0.000000
28.519541,-17.508092,-13.101897,0.000000,0.000000,-1.000000
15.940992,7.989731,13.101897,0.000000,-0.000000,1.000000
13.844290,16.611408,11.295818,-0.000000,1.000000,0.000000
16.131856,-1.273164,13.101897,0.000000,-0.000000,1.000000
-15.184679,16.543832,0.012302,0.995185,-0.000000,-0.098017
-30.055361,-8.140985,10.535727,-1.000000,0.000000,0.000000
-17.907417,4.211926,-0.480125,-0.995185,0.000000,0.098017
-30.055361,2.081598,10.967152,-1.000000,0.000000,0.000000
-19.708219,-18.799369,-13.101897,0.000000,0.000000,-1.000000
29.715776,-5.690184,13.101897,0.000000,0.000000,1.000000
-13.020864,13.314074,-7.699225,0.881921,-0.000000,0.471396
25.597137,8.824482,13.101897,0.000000,0.000000,1.000000
-20.074355,-15.530002,13.101897,0.000000,-0.000000,1.000000
30.055361,14.839734,5.187204,1.000000,-0.000000,0.000000
15.815631,-3.412865,-13.101897,0.000000,0.000000,-1.000000
15.500818,17.415351,-10.038643,-0.831470,0.000000,0.555570
16.050489,24.925692,-9.203003,-0.896873,0.000000,0.442288
-7.676091,-8.659537,13.101897,0.000000,-0.000000,1.000000
23.352391,27.473028,-13.101897,0.000000,0.000000,-1.000000
-22.811323,-27.662683,-10.460549,0.000000,-1.000000,0.000000
-30.055361,-17.520273,0.709816,-1.000000,0.000000,0.000000
-27.505752,-0.689166,13.101897,0.000000,-0.000000,1.000000
-23.617491,-7.070479,-13.101897,0.000000,0.000000,-1.000000
-11.245640,-15.398548,-13.101897,0.000000,0.000000,-1.000000
15.149312,-13.792699,-0.371385,-0.995185,0.000000,0.098017
20.997307,22.590845,4.041939,0.290284,0.000000,-0.956940
28.450304,23.468886,-13.101897,0.000000,0.000000,-1.000000
19.080293,11.175486,13.101897,0.000000,-0.000000,1.000000
-30.055361,-17.796926,9.288096,-1.000000,0.000000,0.000000
-16.621918,-27.662683,-11.868128,0.000000,-1.000000,0.000000
14.580349,-21.250580,-3.996912,-0.956940,0.000000,0.290285
-14.950843,-27.249992,-2.386485,0.995185,0.000000,0.098017
-23.835459,22.665675,3.782536,0.471396,0.000000,-0.881922
30.055361,7.223583,6.825265,1.000000,-0.000000,0.000000
-16.568274,17.135557,-8.153038,0.896873,-0.000000,0.442288
-30.009511,-19.971977,-13.101897,0.000000,0.000000,-1.000000
30.055361,25.936130,0.231845,1.000000,-0.000000,0.000000
10.995612,4.061397,-13.101897,0.000000,0.000000,-1.000000
-16.545480,21.648484,8.199261,0.896873,0.000000,-0.442288
18.256054,2.406205,-1.748721,0.881922,0.000000,0.471396
25.766967,17.438217,1.912797,-0.881922,0.000000,-0.471396
15.842755,-22.713559,13.101897,0.000000,0.000000,1.000000
-13.627592,-14.170463,13.101897,0.000000,-0.000000,1.000000
-29.175693,-27.662683,9.439249,0.000000,-1.000000,0.000000
-16.204636,-27.662683,1.478021,0.000000,-1.000000,0.000000
-23.867395,6.560085,3.765466,0.471396,0.000000,-0.881922
-14.408579,4.042461,4.563161,0.956940,0.000000,-0.290285
17.630017,19.418054,5.510324,-0.946930,0.000000,-0.321440
-9.964069,-0.701056,11.373233,0.634394,0.000000,-0.773010
-17.499479,26.816683,-5.894877,0.946930,0.000000,0.321440
24.268846,3.783647,-3.550885,-0.471396,0.000000,0.881922
-13.071950,25.806567,-13.096799,0.659341,-0.000000,0.751844
25.220310,12.870637,2.724640,-0.773010,0.000000,-0.634394
-13.650453,13.514494,13.101897,0.000000,-0.000000,1.000000
-27.680245,13.721589,13.101897,0.000000,-0.000000,1.000000
14.936292,-2.205568,2.534221,-0.995185,0.000000,-0.098017
30.055361,-19.133825,9.024557,1.000000,0.000000,-0.000000
-20.441270,-10.536192,13.101897,0.000000,-0.000000,1.000000
10.891987,1.172913,10.550468,-0.773010,0.000000,-0.634394
-17.882389,25.499045,-13.101897,0.000000,0.000000,-1.000000
24.987118,-23.253844,-2.994972,-0.634392,0.000000,0.773011
19.141304,17.096344,13.101897,0.000000,-0.000000,1.000000
30.055361,-18.358057,0.742887,1.000000,0.000000,-0.000000
-12.111648,0.023730,-13.101897,0.000000,0.000000,-1.000000
-29.015021,19.742549,-13.101897,0.000000,0.000000,-1.000000
13.903533,-14.288119,-6.047866,-0.881921,0.000000,0.471396
13.111990,-27.662683,8.317444,-0.000000,-1.000000,0.000000
-11.384353,-25.821982,9.950518,0.773010,0.000000,-0.634394
25.957917,4.098443,-1.517537,-0.956940,0.000000,0.290285
-13.692945,-5.011028,13.101897,0.000000,-0.000000,1.000000
30.055361,11.348462,11.730833,1.000000,-0.000000,0.000000
-30.055361,-0.416142,-8.213450,-1.000000,0.000000,0.000000
-25.651475,-6.050718,-2.128869,0.881922,-0.000000,0.471396
-17.458369,11.458165,-13.101897,0.000000,0.000000,-1.000000
30.055361,6.013914,-3.309800,1.000000,0.000000,-0.000000
17.131828,-7.601809,-13.101897,0.000000,0.000000,-1.000000
-11.383800,9.914219,-13.101897,0.000000,0.000000,-1.000000
-19.374780,12.219383,-13.101897,0.000000,0.000000,-1.000000
-30.055361,21.315166,5.260534,-1.000000,0.000000,0.000000
21.387007,8.457252,13.101897,0.000000,-0.000000,1.000000
-10.207372,-11.466656,13.101897,0.000000,-0.000000,1.000000
15.230640,16.964628,13.101897,0.000000,-0.000000,1.000000
-30.055361,17.290893,0.171019,-1.000000,0.000000,0.000000
13.346036,-2.556075,13.101897,0.000000,-0.000000,1.000000
-30.055361,-20.342843,-2.984934,-1.000000,0.000000,0.000000
-24.897540,27.174827,3.068487,0.634392,0.000000,-0.773012
-16.252662,-27.662683,8.417359,0.000000,-1.000000,0.000000
-28.570998,17.858017,13.101897,0.000000,-0.000000,1.000000
10.603921,-23.466830,-10.848119,-0.634394,0.000000,0.773010
14.805475,5.055789,-3.254773,-0.956940,0.000000,0.290285
-17.993440,-0.235036,0.992181,-0.956940,0.000000,-0.290285
10.315765,12.016397,11.084603,-0.634394,0.000000,-0.773010
-12.917802,-13.978578,-13.101897,0.000000,0.000000,-1.000000
25.140822,-13.251794,2.821496,-0.773011,-0.000000,-0.634393
23.906871,27.662683,9.070226,0.000000,1.000000,-0.000000
-13.927404,-6.791451,13.101897,0.000000,-0.000000,1.000000
-13.733603,4.167723,-6.365783,0.881921,0.000000,0.471396
22.612789,-3.805859,13.101897,0.000000,0.000000,1.000000
18.359990,22.672329,-2.216272,-0.997859,0.000000,0.065403
-26.135877,-25.153053,0.930882,0.956940,0.000000,-0.290285
29.838445,-27.662683,8.640010,-0.000000,-1.000000,0.000000
15.079788,-17.740155,1.077279,-0.995185,-0.000000,-0.098017
28.693668,-27.662683,-1.361357,-0.000000,-1.000000,0.000000
25.327556,3.643299,-2.593960,-0.773011,0.000000,0.634392
16.539373,-6.779482,-13.101897,0.000000,0.000000,-1.000000
-25.013881,-4.803182,-2.973009,0.634392,0.000000,0.773011
18.257933,-3.906270,13.101897,0.000000,0.000000,1.000000
18.629340,16.335012,-2.406523,0.773010,0.000000,0.634394
25.314674,-17.708913,2.609656,-0.773011,-0.000000,-0.634393
-30.055361,5.739857,-12.313065,-1.000000,0.000000,0.000000
15.106110,-16.824017,13.101897,0.000000,0.000000,1.000000
-18.375254,18.960060,1.983388,0.997859,0.000000,-0.065403
-28.378491,18.991319,-13.101897,0.000000,0.000000,-1.000000
-10.891460,-12.474762,-13.101897,0.000000,0.000000,-1.000000
17.897220,-14.221260,-0.376603,0.995185,-0.000000,0.098018
30.055361,-7.253951,5.311162,1.000000,-0.000000,0.000000
-30.055361,-18.468212,-9.360584,-1.000000,0.000000,0.000000
30.055361,-3.726213,0.129034,1.000000,0.000000,-0.000000
-27.924558,11.288366,13.101897,0.000000,-0.000000,1.000000
-17.964834,9.115201,-0.897879,-0.956940,0.000000,0.290285
-17.862493,8.051640,0.024011,-0.995185,-0.000000,-0.098013
-19.608750,-3.744339,3.393120,-0.634393,0.000000,-0.773010
-24.096576,-23.471857,3.642966,0.471397,0.000000,-0.881921
7.801617,-10.104770,13.101897,0.000000,-0.000000,1.000000
-17.787739,-1.993826,-13.101897,0.000000,0.000000,-1.000000
16.095537,-27.662683,10.329310,-0.000000,-1.000000,0.000000
19.996720,-27.662683,10.109449,-0.000000,-1.000000,0.000000
10.674365,-10.292435,-10.790307,-0.634394,0.000000,0.773010
22.988690,-11.237409,-4.079774,-0.290284,0.000000,0.956940
-16.920015,25.789011,-7.439777,0.896873,0.000000,0.442288
-13.769246,-26.542812,-13.101897,0.000000,0.000000,-1.000000
-11.932278,-18.371666,-13.101897,0.000000,0.000000,-1.000000
13.430358,-1.483197,13.101897,0.000000,-0.000000,1.000000
13.361634,10.255916,7.061688,-0.881921,0.000000,-0.471396
-26.184219,10.315570,0.673905,0.995185,0.000000,-0.098017
14.205823,7.964884,-5.231556,-0.956940,0.000000,0.290285
26.912077,-9.498311,-13.101897,0.000000,0.000000,-1.000000
17.720560,13.948537,13.101897,0.000000,-0.000000,1.000000
-30.055361,17.410571,1.435434,-1.000000,0.000000,0.000000
-23.572713,-25.510400,3.902612,0.290285,0.000000,-0.956940
-17.803205,24.574671,-5.000130,0.946930,0.000000,0.321440
-14.184080,-12.457043,13.101897,0.000000,-0.000000,1.000000
-17.553641,-26.439393,-13.101897,0.000000,0.000000,-1.000000
-17.356187,19.732060,13.101897,-0.000000,0.000000,1.000000
-16.600758,27.662683,-11.365375,-0.000000,1.000000,0.000000
30.055361,-24.812620,-9.902857,1.000000,0.000000,-0.000000
-25.645906,12.134057,2.139287,0.881922,0.000000,-0.471396
-26.223167,5.067736,0.278467,0.995185,-0.000000,-0.098017
30.055361,-15.105320,9.069845,1.000000,-0.000000,0.000000
-13.784921,-15.667794,6.269774,0.881921,0.000000,-0.471396
-9.904843,-22.360104,-11.421838,0.634394,0.000000,0.773010
14.824342,9.839042,3.192577,-0.956940,0.000000,-0.290285
-14.923623,19.250790,13.101897,-0.000000,0.000000,1.000000
16.040413,-0.210601,-13.101897,0.000000,0.000000,-1.000000
12.997146,-27.099072,7.743598,-0.881921,0.000000,-0.471396
24.904950,-8.875685,-3.062405,-0.634392,0.000000,0.773011
13.552243,6.907310,-6.705083,-0.881921,0.000000,0.471396
18.367414,25.914148,2.102999,-0.997859,0.000000,-0.065403
26.161221,-15.862044,0.847332,-0.956940,0.000000,-0.290285
19.345365,-26.927033,-3.176966,0.634393,-0.000000,0.773010
-18.369045,18.664324,-2.078121,0.997859,-0.000000,0.065403
-15.138671,-16.999282,0.479421,0.995185,-0.000000,-0.098017
-20.814647,16.748503,13.101897,0.000000,-0.000000,1.000000
13.403091,14.691833,6.984129,-0.881921,0.000000,-0.471396
30.055361,-10.849241,-12.939946,1.000000,0.000000,-0.000000
12.388336,-8.438517,-13.101897,0.000000,0.000000,-1.000000
-18.477821,9.164101,13.101897,0.000000,-0.000000,1.000000
20.708539,27.662683,9.610973,0.000000,1.000000,-0.000000
-21.561290,8.030952,-4.146571,-0.098017,0.000000,0.995185
23.477185,-27.662683,12.940457,-0.000000,-1.000000,0.000000
29.983980,25.593735,13.101897,0.000000,0.000000,1.000000
-30.055361,8.247438,1.752906,-1.000000,0.000000,0.000000
-18.001115,-27.662683,-8.565234,0.000000,-1.000000,0.000000
-9.064195,15.405699,13.101897,0.000000,-0.000000,1.000000
12.436011,-9.541470,8.669070,-0.773010,0.000000,-0.634394
22.129194,-0.439082,13.101897,0.000000,0.000000,1.000000
-9.679254,0.193154,11.606974,0.634394,0.000000,-0.773010
-8.642849,-10.397020,13.101897,0.000000,-0.000000,1.000000
21.203395,13.555316,-4.104455,0.290284,-0.000000,0.956941
-25.010158,-10.918168,13.101897,0.000000,-0.000000,1.000000
18.593195,5.385131,-2.362479,0.773010,0.000000,0.634394
11.999325,-0.953422,13.101897,0.000000,-0.000000,1.000000
-11.888387,5.849926,9.336352,0.773010,0.000000,-0.634394
-13.502851,-25.737813,-13.101897,0.000000,0.000000,-1.000000
18.345432,-21.724773,-13.101897,0.000000,0.000000,-1.000000
14.947728,8.573838,2.418103,-0.995185,0.000000,-0.098017
30.055361,9.752057,-2.142129,1.000000,-0.000000,0.000000
11.936008,14.091659,-13.101897,0.000000,0.000000,-1.000000
25.664869,-23.106421,-2.103811,-0.881922,0.000000,0.471396
-14.861419,-16.122966,-3.070350,0.956940,0.000000,0.290285
-30.055361,20.230636,-4.715814,-1.000000,0.000000,0.000000
14.354557,12.947731,4.741249,-0.956940,0.000000,-0.290285
17.884136,-15.248076,-0.243760,0.995185,-0.000000,0.098018
-27.739586,12.871234,13.101897,0.000000,-0.000000,1.000000
17.808017,19.031442,4.985953,-0.946930,0.000000,-0.321440
-12.846035,-17.729587,13.101897,0.000000,-0.000000,1.000000
13.356501,0.067821,-7.071292,-0.881921,0.000000,0.471396
-28.673201,-19.665059,-13.101897,0.000000,0.000000,-1.000000
24.480474,2.311873,3.410763,-0.634393,0.000000,-0.773010
-12.753134,-10.469759,8.200114,0.881921,0.000000,-0.471396
-30.055361,10.453123,-2.492271,-1.000000,0.000000,0.000000
11.928351,-9.492406,9.287656,-0.773010,0.000000,-0.634394
25.481201,-11.649038,-2.406743,-0.773011,0.000000,0.634392
-26.098744,22.272171,-1.053291,0.956940,0.000000,0.290285
14.935770,15.540428,2.539518,-0.995185,0.000000,-0.098017
9.582701,-20.226722,-13.101897,0.000000,0.000000,-1.000000
17.903317,9.173976,0.438504,0.995185,0.000000,-0.098017
17.427999,16.755188,13.101897,0.000000,-0.000000,1.000000
15.423033,16.611408,-7.583587,-0.000000,1.000000,0.000000
-19.824866,-15.042097,-13.101897,0.000000,0.000000,-1.000000
-18.092186,17.402064,13.101897,0.000000,-0.000000,1.000000
-24.627020,-6.624707,3.290496,0.634391,-0.000000,-0.773012
14.527682,-12.443939,-4.170533,-0.956940,0.000000,0.290285
-27.461388,19.737629,13.101897,0.000000,-0.000000,1.000000
-26.079487,4.133907,-13.101897,0.000000,0.000000,-1.000000
-19.406804,0.059673,-3.227387,-0.634393,0.000000,0.773010
-14.293093,-4.106800,4.943866,0.956940,0.000000,-0.290285
16.929292,15.932526,13.101897,0.000000,-0.000000,1.000000
-20.841332,-9.885112,-3.994624,-0.290285,-0.000000,0.956940
30.055361,0.027141,-7.690947,1.000000,0.000000,-0.000000
-10.832173,-0.578408,13.101897,0.000000,-0.000000,1.000000
-14.958444,16.561979,2.309305,0.995185,-0.000000,-0.098017
25.978047,-26.225070,-1.451176,-0.956940,0.000000,0.290285
-24.624551,10.441311,-3.292523,0.634392,0.000000,0.773011
-25.263759,15.758382,13.101897,0.000000,-0.000000,1.000000
13.759864,9.560758,-6.316652,-0.881921,0.000000,0.471396
30.055361,1.188108,-2.014760,1.000000,0.000000,-0.000000
-14.406878,-10.180946,-4.568769,0.956940,0.000000,0.290285
-22.607157,-27.662683,7.694982,0.000000,-1.000000,0.000000
13.548696,3.130857,-6.711720,-0.881921,0.000000,0.471396
-17.469703,15.211547,13.101897,0.000000,-0.000000,1.000000
9.325822,-21.353439,-11.897029,-0.634394,0.000000,0.773010
10.986506,7.464824,-10.435296,-0.773010,0.000000,0.634394
10.959573,-7.829767,-10.468114,-0.773010,0.000000,0.634394
-16.558570,-19.281575,13.101897,0.000000,-0.000000,1.000000
30.055361,-16.469597,-7.018499,1.000000,0.000000,-0.000000
16.651729,-0.654897,13.101897,0.000000,-0.000000,1.000000
30.055361,20.162851,-8.880368,1.000000,-0.000000,0.000000
-22.335456,23.285333,-4.167645,0.098017,0.000000,0.995185
-15.154667,-23.253755,0.317012,0.995185,0.000000,-0.098017
-18.417078,23.688927,2.049978,-0.881922,0.000000,-0.471396
8.764977,10.820286,-13.101897,0.000000,0.000000,-1.000000
-24.928606,-27.662683,7.201663,0.000000,-1.000000,0.000000
-15.073687,12.604754,1.139226,0.995185,-0.000000,-0.098017
16.241125,18.627098,8.816432,-0.896873,0.000000,-0.442288
-30.055361,19.093294,-5.713511,-1.000000,0.000000,0.000000
19.151574,1.835653,-3.017925,0.634393,0.000000,0.773010
13.447158,20.111340,13.101897,0.000000,-0.000000,1.000000
-30.055361,10.969392,9.659735,-1.000000,0.000000,0.000000
14.961719,23.463779,-13.101897,0.000000,0.000000,-1.000000
20.370501,-11.849553,-3.833442,0.471397,-0.000000,0.881921
-13.691531,-19.530711,-6.444494,0.881921,0.000000,0.471396
19.624900,3.414892,-13.101897,0.000000,0.000000,-1.000000
-18.784284,3.614539,13.101897,0.000000,-0.000000,1.000000
-13.696451,13.061995,-13.101897,0.000000,0.000000,-1.000000
24.638667,9.735837,-3.280938,-0.634392,0.000000,0.773011
-13.185036,6.843700,13.101897,0.000000,-0.000000,1.000000
-29.353127,-27.662683,0.906084,0.000000,-1.000000,0.000000
-25.340546,-16.569186,-13.101897,0.000000,0.000000,-1.000000
-25.912124,-21.946593,-1.641228,0.881922,0.000000,0.471396
-23.003752,23.903624,-13.101897,0.000000,0.000000,-1.000000
-30.055361,-2.304840,-2.687278,-1.000000,0.000000,0.000000
18.675260,2.364699,-2.462475,0.773010,0.000000,0.634394
-30.055361,-5.541656,8.774109,-1.000000,0.000000,0.000000
-30.055361,-7.787188,-7.798602,-1.000000,0.000000,0.000000
-19.304084,-14.416324,-3.143087,-0.634393,0.000000,0.773010
30.055361,8.119097,11.762153,1.000000,-0.000000,0.000000
30.055361,4.443954,-7.493256,1.000000,0.000000,-0.000000
-23.697717,18.851128,3.856160,0.471396,0.000000,-0.881922
-17.268592,19.140908,6.575047,0.946930,0.000000,-0.321440
-21.237315,23.038735,-4.114662,-0.098017,0.000000,0.995185
13.665944,-9.113480,-6.492364,-0.881921,0.000000,0.471396
27.441201,-6.388638,13.101897,0.000000,0.000000,1.000000
-13.751675,-26.884346,6.331973,0.881921,0.000000,-0.471396
-16.723914,-12.688528,-13.101897,0.000000,0.000000,-1.000000
30.055361,22.277279,-4.693983,1.000000,-0.000000,0.000000
23.802335,13.587581,-13.101897,0.000000,0.000000,-1.000000
30.055361,-9.674914,-0.225362,1.000000,0.000000,-0.000000
-30.055361,-9.028907,12.305872,-1.000000,0.000000,0.000000
-12.216577,-15.816695,-8.936451,0.773010,0.000000,0.634394
-17.438861,-16.412908,13.101897,0.000000,-0.000000,1.000000
-13.339978,15.388709,7.102204,0.881921,0.000000,-0.471396
24.001945,9.253817,3.693547,-0.471396,-0.000000,-0.881922
30.055361,20.475821,-3.221910,1.000000,-0.000000,0.000000
14.960446,5.476641,2.288976,-0.995185,0.000000,-0.098017
12.033535,16.611408,10.273739,0.000000,1.000000,-0.000000
15.027894,1.152997,-1.604169,-0.995185,0.000000,0.098017
-17.895401,8.983704,13.101897,0.000000,-0.000000,1.000000
-21.327978,27.662683,12.122490,0.000000,1.000000,0.000000
-22.449263,27.662683,-9.333357,-0.000000,1.000000,0.000000
-24.974512,4.461888,3.005318,0.634392,0.000000,-0.773012
-30.055361,3.269398,2.030611,-1.000000,0.000000,0.000000
-29.717977,27.662683,2.395650,-0.000000,1.000000,0.000000
-22.362602,24.820937,13.101897,-0.000000,0.000000,1.000000
-30.055361,20.166224,-1.090532,-1.000000,0.000000,0.000000
19.469633,-26.637563,3.278949,0.634393,-0.000000,-0.773011
16.842420,-20.746253,13.101897,0.000000,0.000000,1.000000
-24.559849,-5.541049,-13.101897,0.000000,0.000000,-1.000000
15.010206,-25.700793,-1.783757,-0.995185,0.000000,0.098017
-26.246874,-20.966723,0.037764,0.995185,-0.000000,-0.098017
19.416707,8.198369,-3.235514,0.634393,0.000000,0.773010
14.534044,-4.975439,-13.101897,0.000000,0.000000,-1.000000
-25.227396,18.141010,-13.101897,0.000000,0.000000,-1.000000
-16.889713,17.191469,13.101897,0.000000,-0.000000,1.000000
-24.593479,-18.894445,13.101897,0.000000,-0.000000,1.000000
15.224167,-27.662683,-0.088734,-0.000000,-1.000000,0.000000
-30.055361,5.110536,-2.940896,-1.000000,0.000000,0.000000
13.107572,-3.040379,-7.537006,-0.881921,0.000000,0.471396
-19.156747,-14.434587,-3.022171,-0.634393,0.000000,0.773010
13.708074,-27.662683,-9.630691,0.000000,-1.000000,0.000000
-29.417934,-8.547769,13.101897,0.000000,-0.000000,1.000000
10.494268,-12.880737,10.938109,-0.634394,0.000000,-0.773010
-28.185397,-27.662683,4.980161,0.000000,-1.000000,0.000000
-15.002314,-4.504896,-1.863890,0.995185,-0.000000,0.098017
19.844455,7.626581,13.101897,0.000000,-0.000000,1.000000
-18.406193,-25.447020,13.101897,0.000000,-0.000000,1.000000
9.233343,16.409837,13.101897,0.000000,-0.000000,1.000000
15.090956,-14.348367,-0.963888,-0.995185,0.000000,0.098017
11.996290,-0.730327,-9.204871,-0.773010,0.000000,0.634394
-30.055361,15.711291,-2.887443,-1.000000,0.000000,0.000000
30.055361,18.962554,10.910449,1.000000,-0.000000,0.000000
-17.942057,-4.713777,-13.101897,0.000000,0.000000,-1.000000
14.962893,-5.027724,-2.264131,-0.995185,0.000000,0.098017
-21.548682,0.703746,4.145329,-0.098017,0.000000,-0.995185
13.758742,16.611408,8.246293,0.000000,1.000000,-0.000000
28.865874,27.662683,-9.243390,0.000000,1.000000,-0.000000
-21.298582,-6.629563,13.101897,0.000000,-0.000000,1.000000
9.788737,-17.977958,-11.517123,-0.634394,0.000000,0.773010
30.055361,-6.173422,-10.909583,1.000000,0.000000,-0.000000
14.354276,-18.404058,4.742174,-0.956940,0.000000,-0.290285
-14.482097,-3.028215,13.101897,0.000000,-0.000000,1.000000
19.388997,-17.509361,3.212773,0.634393,-0.000000,-0.773011
21.895597,-11.153218,-13.101897,0.000000,0.000000,-1.000000
-24.451516,-12.143302,13.101897,0.000000,-0.000000,1.000000
17.188646,24.298848,13.101897,0.000000,-0.000000,1.000000
14.160704,13.152211,-5.380294,-0.956940,0.000000,0.290285
26.090567,20.469972,1.080250,-0.956940,0.000000,-0.290285
-19.108349,22.840700,13.101897,-0.000000,0.000000,1.000000
15.116647,8.079902,-13.101897,0.000000,0.000000,-1.000000
-21.579070,17.024943,-13.101897,0.000000,0.000000,-1.000000
15.104213,-12.088837,0.829281,-0.995185,-0.000000,-0.098017
13.006585,5.775717,-7.725938,-0.881921,0.000000,0.471396
20.204798,18.494570,-13.101897,0.000000,0.000000,-1.000000
-29.600612,16.832025,13.101897,0.000000,-0.000000,1.000000
-26.890242,-27.662683,2.441082,0.000000,-1.000000,0.000000
13.840863,16.611408,-8.941687,-0.000000,1.000000,-0.000000
-13.710025,22.912572,-13.101897,0.000000,0.000000,-1.000000
-20.884822,-17.563711,4.007817,-0.290285,0.000000,-0.956940
18.493661,0.847061,13.101897,0.000000,-0.000000,1.000000
30.055361,-10.675126,11.983783,1.000000,-0.000000,0.000000
26.239317,13.702739,0.114488,-0.995185,0.000000,-0.098013
26.979753,-27.662683,-4.930861,-0.000000,-1.000000,0.000000
15.777500,-27.662683,10.275193,-0.000000,-1.000000,0.000000
30.055361,13.157238,-2.769141,1.000000,-0.000000,0.000000
14.694561,0.194439,-13.101897,0.000000,0.000000,-1.000000
-17.605001,27.662683,-10.618120,-0.000000,1.000000,0.000000
-30.055361,-26.238834,-10.934331,-1.000000,0.000000,0.000000
9.448076,-27.662683,-12.857399,0.000000,-1.000000,0.000000
18.025351,23.779993,-4.032141,-0.980785,0.000000,0.195090
14.521492,5.791757,-13.101897,0.000000,0.000000,-1.000000
-18.166066,16.901534,3.324721,0.980785,0.000000,-0.195090
-26.187536,-18.059734,-0.640229,0.995185,-0.000000,0.098018
-28.095007,-3.128245,-13.101897,0.000000,0.000000,-1.000000
10.827085,6.406584,-10.629551,-0.773010,0.000000,0.634394
-14.056123,-23.398710,-5.725050,0.956940,-0.000000,0.290285
-23.646381,18.361029,3.880265,0.290285,0.000000,-0.956940
30.055361,-8.903491,4.213610,1.000000,0.000000,-0.000000
-19.250064,-6.030895,-13.101897,0.000000,0.000000,-1.000000
-21.132758,-27.662683,-8.458705,0.000000,-1.000000,0.000000
-23.486276,8.367959,-3.928832,0.290284,-0.000000,0.956941
-28.319784,27.662683,-12.699351,-0.000000,1.000000,0.000000
-22.224830,11.064445,-4.178541,0.098017,-0.000000,0.995185
-26.567154,-16.226510,13.101897,0.000000,-0.000000,1.000000
15.154596,12.164729,13.101897,0.000000,-0.000000,1.000000
26.020265,14.469096,1.312002,-0.956940,0.000000,-0.290285
-25.345215,-3.088132,-13.101897,0.000000,0.000000,-1.000000
-10.848501,-15.757812,13.101897,0.000000,-0.000000,1.000000
11.988920,-19.947230,-9.213852,-0.773010,0.000000,0.634394
-27.825278,-17.140680,-13.101897,0.000000,0.000000,-1.000000
30.055361,-15.868988,10.032948,1.000000,-0.000000,0.000000
-30.055361,-15.601421,11.972467,-1.000000,0.000000,0.000000
-30.055361,22.576177,-12.577779,-1.000000,0.000000,0.000000
-29.621119,18.240176,-13.101897,0.000000,0.000000,-1.000000
30.055361,27.203504,-2.409502,1.000000,-0.000000,0.000000
28.287709,-12.206745,13.101897,0.000000,0.000000,1.000000
-14.809109,-10.357730,-13.101897,0.000000,0.000000,-1.000000
-30.055361,10.173563,7.615632,-1.000000,0.000000,0.000000
17.135866,24.108017,13.101897,0.000000,-0.000000,1.000000
-12.419017,-27.534850,-8.689777,0.773010,0.000000,0.634394
-14.983047,8.149321,-2.059509,0.995185,-0.000000,0.098017
8.892665,6.133197,-13.101897,0.000000,0.000000,-1.000000
30.055361,22.080354,-9.754897,1.000000,-0.000000,0.000000
9.976902,16.611408,11.489230,0.000000,1.000000,-0.000000
-30.055361,-21.261233,9.499031,-1.000000,0.000000,0.000000
-18.813530,-27.662683,12.023223,0.000000,-1.000000,0.000000
18.992305,-3.426110,-2.848795,0.773010,-0.000000,0.634394
-11.965982,0.082737,-9.241802,0.773010,0.000000,0.634394
-12.890316,16.611408,8.336787,-0.000000,1.000000,0.000000
-19.653785,-12.795227,3.430079,-0.634393,0.000000,-0.773010
-30.055361,-22.036953,-9.093848,-1.000000,0.000000,0.000000
-30.055361,-7.111314,6.096470,-1.000000,0.000000,0.000000
14.201820,21.926721,-11.811915,-0.751840,0.000000,0.659346
-30.055361,11.563607,-4.071519,-1.000000,0.000000,0.000000
18.488665,-10.965724,-13.101897,0.000000,0.000000,-1.000000
-14.939189,-9.152535,2.504810,0.995185,0.000000,-0.098017
15.046676,5.194519,1.413470,-0.995185,0.000000,-0.098017
19.776843,21.876826,13.101897,0.000000,-0.000000,1.000000
-24.250817,9.506450,3.560522,0.471399,0.000000,-0.881920
-30.055361,0.519254,5.510703,-1.000000,0.000000,0.000000
15.034370,-4.354544,-1.538410,-0.995185,0.000000,0.098017
-19.251437,-25.445932,13.101897,0.000000,-0.000000,1.000000
-30.055361,13.957178,-0.324357,-1.000000,0.000000,0.000000
-30.055361,-20.515822,-2.219029,-1.000000,0.000000,0.000000
22.936952,18.415832,-4.095468,-0.290284,0.000000,0.956940
28.691443,11.265066,13.101897,0.000000,0.000000,1.000000
29.428210,-22.965780,-13.101897,0.000000,0.000000,-1.000000
-21.151182,-18.300643,-13.101897,0.000000,0.000000,-1.000000
30.055361,3.133894,-7.906386,1.000000,0.000000,-0.000000
-19.319007,-11.715030,-3.155334,-0.634393,0.000000,0.773010
-14.105597,-13.591130,5.561959,0.956940,0.000000,-0.290285
-30.055361,-19.922056,9.558698,-1.000000,0.000000,0.000000
18.239974,23.256564,-2.953158,-0.980785,0.000000,0.195090
27.010001,23.397945,13.101897,0.000000,-0.000000,1.000000
-30.055361,1.163486,-1.853980,-1.000000,0.000000,0.000000
-30.055361,0.419827,12.006018,-1.000000,0.000000,0.000000
-20.949861,-6.919871,13.101897,0.000000,-0.000000,1.000000
-21.764675,-17.913720,13.101897,0.000000,-0.000000,1.000000
19.477842,24.167207,13.101897,0.000000,-0.000000,1.000000
9.433711,-16.415490,-13.101897,0.000000,0.000000,-1.000000
-23.666739,-13.934500,13.101897,0.000000,-0.000000,1.000000
-22.376543,2.162014,-4.163599,0.098017,-0.000000,0.995185
-15.912740,18.196449,-9.422159,0.831470,0.000000,0.555570
17.890868,-6.207911,0.312104,0.995185,-0.000000,-0.098017
29.943310,9.055380,13.101897,0.000000,0.000000,1.000000
8.049385,14.276770,-13.101897,0.000000,0.000000,-1.000000
18.229901,11.343555,1.699791,0.881922,0.000000,-0.471396
-13.963270,-27.662683,-9.984039,0.000000,-1.000000,0.000000
-18.078016,14.345126,1.270992,-0.956940,0.000000,-0.290285
-30.055361,-9.428606,12.692492,-1.000000,0.000000,0.000000
-26.767194,5.936860,13.101897,0.000000,-0.000000,1.000000
21.090808,18.633059,4.070302,0.290284,0.000000,-0.956940
-26.235667,-8.717165,-13.101897,0.000000,0.000000,-1.000000
30.055361,13.652703,10.542512,1.000000,-0.000000,0.000000
-13.516417,-27.120767,6.772110,0.881921,0.000000,-0.471396
15.350859,23.916952,13.101897,0.000000,-0.000000,1.000000
-30.055361,18.732482,9.245482,-1.000000,0.000000,0.000000
14.840750,16.451365,-3.138484,-0.956940,0.000000,0.290285
15.046853,1.152844,-1.411667,-0.995185,0.000000,0.098017
26.136050,11.965215,-0.930309,-0.956940,0.000000,0.290285
-18.542204,-11.813879,2.284071,-0.881922,0.000000,-0.471396
26.376704,2.412881,-13.101897,0.000000,0.000000,-1.000000
-17.924385,-2.394766,-0.652404,-0.995185,0.000000,0.098017
-13.261603,26.192269,12.884027,0.751840,0.000000,-0.659346
-20.353386,16.103902,13.101897,0.000000,-0.000000,1.000000
17.038031,-27.662683,-3.172740,0.000000,-1.000000,0.000000
-26.158332,24.065082,-0.856857,0.956940,0.000000,0.290285
25.691208,-9.909158,2.054532,-0.881922,-0.000000,-0.471396
30.055361,4.086887,1.401224,1.000000,-0.000000,0.000000
-18.610495,-27.662683,11.482270,0.000000,-1.000000,0.000000
-28.371780,11.322143,-13.101897,0.000000,0.000000,-1.000000
-23.558925,3.854507,3.906795,0.290285,0.000000,-0.956940
-21.680505,-20.790799,13.101897,0.000000,-0.000000,1.000000
14.236001,-14.468410,-13.101897,0.000000,0.000000,-1.000000
-30.055361,17.773676,-10.812073,-1.000000,0.000000,0.000000
19.004081,-1.571796,2.863144,0.773010,0.000000,-0.634394
17.957301,26.997965,4.374253,-0.980785,0.000000,-0.195090
-24.645709,7.265653,-3.275159,0.634392,0.000000,0.773011
30.055361,26.016821,1.972812,1.000000,-0.000000,0.000000
-14.757543,25.730696,-11.151033,0.831470,-0.000000,0.555570
-25.763583,11.436713,1.919130,0.881921,-0.000000,-0.471397
22.047159,12.115224,4.194425,0.098017,0.000000,-0.995185
20.499878,-27.662683,-7.020978,0.000000,-1.000000,0.000000
17.107243,11.000771,13.101897,0.000000,-0.000000,1.000000
-21.690793,-17.036249,-13.101897,0.000000,0.000000,-1.000000
16.278330,18.080022,-13.101897,0.000000,0.000000,-1.000000
-14.978216,-15.620277,2.108560,0.995185,0.000000,-0.098017
-15.098944,-26.561786,0.882782,0.995185,0.000000,-0.098017
17.712106,16.745913,-5.268498,-0.946930,0.000000,0.321440
23.149955,6.115524,13.101897,0.000000,0.000000,1.000000
-28.571472,-25.711594,-13.101897,0.000000,0.000000,-1.000000
9.976684,-27.135238,-11.362880,-0.634394,0.000000,0.773010
-30.055361,24.809030,-12.324292,-1.000000,0.000000,0.000000
-26.001698,14.928920,-1.373210,0.956940,0.000000,0.290285
-14.788805,22.158346,-11.104245,0.831470,-0.000000,0.555570
13.766761,19.011782,-13.101897,0.000000,0.000000,-1.000000
-14.024056,-11.119479,-5.822384,0.881921,0.000000,0.471396
-30.055361,-3.593773,0.791916,-1.000000,0.000000,0.000000
30.055361,-8.545621,-5.465296,1.000000,0.000000,-0.000000
15.199873,-23.081546,-13.101897,0.000000,0.000000,-1.000000
-12.398647,4.615661,13.101897,0.000000,-0.000000,1.000000
-21.168714,25.438091,-13.101897,0.000000,0.000000,-1.000000
30.055361,-9.997607,-10.371280,1.000000,0.000000,-0.000000
13.173531,-9.306814,13.101897,0.000000,-0.000000,1.000000
20.677008,-10.394320,-13.101897,0.000000,0.000000,-1.000000
7.883841,15.042905,13.101897,0.000000,-0.000000,1.000000
-12.671465,14.924885,-8.352905,0.881921,-0.000000,0.471396
-30.055361,23.742047,3.840277,-1.000000,0.000000,0.000000
23.590372,-27.662683,10.365083,-0.000000,-1.000000,0.000000
30.055361,8.355698,-0.373395,1.000000,-0.000000,0.000000
-30.055361,25.377039,0.507740,-1.000000,0.000000,0.000000
-30.055361,-3.275753,-7.181280,-1.000000,0.000000,0.000000
25.475533,25.668958,2.413649,-0.773011,0.000000,-0.634392
30.055361,-9.693806,-8.678954,1.000000,0.000000,-0.000000
12.699114,-20.629378,8.301178,-0.881921,0.000000,-0.471396
-13.240820,-21.518952,13.101897,0.000000,-0.000000,1.000000
-28.302935,2.566404,13.101897,0.000000,-0.000000,1.000000
-13.813864,16.738335,12.254294,0.751840,0.000000,-0.659346
-24.925596,21.887128,-13.101897,0.000000,0.000000,-1.000000
-19.782322,8.459109,-13.101897,0.000000,0.000000,-1.000000
24.072367,22.462913,-3.655906,-0.471396,0.000000,0.881922
18.706881,-27.662683,-12.666660,0.000000,-1.000000,0.000000
-22.708269,-10.980461,-13.101897,0.000000,0.000000,-1.000000
-22.512458,-23.461465,13.101897,0.000000,-0.000000,1.000000
-16.748298,-27.662683,-10.103522,0.000000,-1.000000,0.000000
10.872387,-7.102357,-10.574350,-0.773010,0.000000,0.634394
30.055361,-11.704468,1.105594,1.000000,0.000000,-0.000000
-19.011336,-11.128504,13.101897,0.000000,-0.000000,1.000000
-27.734235,-27.662683,6.320940,0.000000,-1.000000,0.000000
-16.763161,-27.662683,-5.501554,0.000000,-1.000000,0.000000
16.802702,15.526545,-13.101897,0.000000,0.000000,-1.000000
-30.055361,21.445417,12.997968,-1.000000,0.000000,0.000000
-14.764430,-27.618290,3.390077,0.956940,0.000000,-0.290285
-30.055361,-3.591546,0.507136,-1.000000,0.000000,0.000000
-14.034329,-10.905477,5.796897,0.956940,0.000000,-0.290285
-30.055361,24.167855,-10.276633,-1.000000,0.000000,0.000000
11.365940,8.681984,9.972955,-0.773010,0.000000,-0.634394
11.968238,-1.254846,-13.101897,0.000000,0.000000,-1.000000
-28.894543,13.665190,13.101897,0.000000,-0.000000,1.000000
30.055361,-22.014325,12.484633,1.000000,-0.000000,0.000000
-26.761511,-21.182366,13.101897,0.000000,-0.000000,1.000000
-30.055361,20.321347,-11.104429,-1.000000,0.000000,0.000000
30.055361,26.242475,-7.197088,1.000000,-0.000000,0.000000
30.055361,8.942962,4.301509,1.000000,-0.000000,0.000000
30.055361,9.179097,10.136449,1.000000,-0.000000,0.000000
-17.963361,18.517896,-4.343788,0.980785,-0.000000,0.195090
18.097544,0.918252,-1.335366,0.956940,-0.000000,0.290285
30.055361,21.206744,-7.971758,1.000000,-0.000000,0.000000
30.055361,-24.516787,10.485661,1.000000,0.000000,-0.000000
-30.055361,-13.234843,10.379137,-1.000000,0.000000,0.000000
24.541398,-20.481845,3.360764,-0.634392,-0.000000,-0.773011
14.175725,5.631816,13.101897,0.000000,-0.000000,1.000000
-20.625466,19.588952,13.101897,0.000000,-0.000000,1.000000
-8.902455,-9.239376,12.244477,0.634394,0.000000,-0.773010
18.859918,-20.688260,-2.687481,0.773010,-0.000000,0.634394
14.250203,-1.852976,-5.085258,-0.956940,0.000000,0.290285
30.055361,-13.743662,7.068956,1.000000,-0.000000,0.000000
15.185382,-0.884798,-0.005162,-0.995185,0.000000,0.098017
30.055361,-12.321738,12.062254,1.000000,-0.000000,0.000000
-30.055361,16.017124,12.082885,-1.000000,0.000000,0.000000
-30.055361,6.166117,11.830134,-1.000000,0.000000,0.000000
-18.397277,27.662683,4.859895,-0.000000,1.000000,-0.000000
25.472462,27.662683,6.661109,-0.000000,1.000000,0.000000
-16.741652,27.662683,-9.041870,-0.000000,1.000000,0.000000
17.928229,-2.475952,-0.691441,0.995185,-0.000000,0.098018
-14.999786,-23.588722,1.889550,0.995185,0.000000,-0.098017
-12.672274,-14.316605,-8.351391,0.881921,-0.000000,0.471396
-30.055361,10.469287,9.576618,-1.000000,0.000000,0.000000
-30.055361,-20.474979,-8.294323,-1.000000,0.000000,0.000000
-19.030878,-18.867082,2.895796,-0.773011,0.000000,-0.634393
19.695299,-14.691702,13.101897,0.000000,0.000000,1.000000
-24.267687,-4.064015,3.551505,0.471397,0.000000,-0.881921
-15.632132,-1.785722,-13.101897,0.000000,0.000000,-1.000000
-24.326273,16.544607,-13.101897,0.000000,0.000000,-1.000000
-11.475593,16.611408,-12.472562,-0.000000,1.000000,0.000000
-23.978633,27.177351,-3.706007,0.471396,-0.000000,0.881922
30.055361,-1.701634,-4.649732,1.000000,0.000000,-0.000000
30.055361,14.676945,-6.567962,1.000000,-0.000000,0.000000
24.820176,3.395063,13.101897,0.000000,0.000000,1.000000
30.055361,-24.682862,11.563653,1.000000,0.000000,-0.000000
-24.666001,-13.983143,-3.258506,0.634392,-0.000000,0.773011
21.873687,-0.703613,13.101897,0.000000,0.000000,1.000000
-14.790189,-13.937991,3.305164,0.956940,0.000000,-0.290285
-10.817269,-21.070755,10.641512,0.773010,0.000000,-0.634394
-11.735625,-9.205601,-13.101897,0.000000,0.000000,-1.000000
15.238709,-4.191407,-13.101897,0.000000,0.000000,-1.000000
-13.178968,21.566121,-12.978254,0.751840,-0.000000,0.659346
17.739817,23.348801,-5.186864,-0.946930,0.000000,0.321440
-17.861111,3.395232,0.009974,-0.995185,-0.000000,-0.098013
-16.105319,-25.245783,-13.101897,0.000000,0.000000,-1.000000
30.055361,-12.792833,-12.506265,1.000000,0.000000,-0.000000
-20.166969,21.349944,13.101897,-0.000000,0.000000,1.000000
12.509096,6.034744,-13.101897,0.000000,0.000000,-1.000000
-30.055361,-26.100622,-5.197645,-1.000000,0.000000,0.000000
-30.055361,-16.365761,-13.063220,-1.000000,0.000000,0.000000
9.485726,15.822006,11.765799,-0.634394,0.000000,-0.773010
9.800095,15.551284,13.101897,0.000000,-0.000000,1.000000
-21.224513,27.662683,-5.209060,-0.000000,1.000000,0.000000
-14.741707,10.866123,3.464987,0.956940,0.000000,-0.290285
27.655752,-22.678785,13.101897,0.000000,0.000000,1.000000
-22.704252,-1.708836,4.131322,0.098017,0.000000,-0.995185
14.432276,-13.540675,13.101897,0.000000,0.000000,1.000000
30.055361,-12.503961,-6.724621,1.000000,0.000000,-0.000000
-19.096008,4.706485,2.972324,-0.634394,0.000000,-0.773010
21.064731,27.662683,-8.468940,-0.000000,1.000000,0.000000
25.231028,7.069608,2.711579,-0.773010,0.000000,-0.634394
18.317886,13.602355,1.864402,0.881922,0.000000,-0.471396
8.361398,-24.824017,-12.666925,-0.471396,0.000000,0.881921
-11.550452,-25.503197,13.101897,0.000000,-0.000000,1.000000
-13.729140,-7.174451,6.374134,0.881921,0.000000,-0.471396
-30.055361,6.942506,10.430650,-1.000000,0.000000,0.000000
-17.925974,27.607472,-4.531740,0.980785,0.000000,0.195090
-26.212043,-11.414715,0.391408,0.995185,-0.000000,-0.098017
13.538433,9.306479,-13.101897,0.000000,0.000000,-1.000000
26.528003,-27.662683,7.098648,-0.000000,-1.000000,0.000000
24.328272,6.413147,-13.101897,0.000000,0.000000,-1.000000
-30.055361,19.988327,-10.374279,-1.000000,0.000000,0.000000
-9.728750,13.321135,-11.566354,0.634394,-0.000000,0.773010
-23.203912,-3.388813,-4.014487,0.290286,-0.000000,0.956940
11.549883,-14.772289,9.748820,-0.773010,0.000000,-0.634394
-17.070719,-27.662683,-12.442082,0.000000,-1.000000,0.000000
24.282982,-27.662683,-10.899319,0.000000,-1.000000,0.000000
-8.040459,5.232064,13.101897,0.000000,-0.000000,1.000000
-23.990518,-20.349088,3.699655,0.471397,0.000000,-0.881921
-14.905029,-22.055060,2.851641,0.995185,0.000000,-0.098017
-13.252946,-0.231237,7.265030,0.881921,0.000000,-0.471396
11.789607,9.639841,9.456716,-0.773010,0.000000,-0.634394
30.055361,-26.634894,-0.227428,1.000000,0.000000,-0.000000
30.055361,-3.462259,-6.001489,1.000000,0.000000,-0.000000
-12.924762,-8.126367,7.879020,0.881921,0.000000,-0.471396
13.410065,-0.038439,-6.971081,-0.881921,0.000000,0.471396
-24.876706,22.089196,-3.085585,0.634392,0.000000,0.773011
15.174621,12.808043,-0.114419,-0.995185,0.000000,0.098017
-17.028659,18.415122,13.101897,0.000000,-0.000000,1.000000
-9.168139,-5.401748,12.026435,0.634394,0.000000,-0.773010
-18.713010,12.709626,2.508474,-0.773010,0.000000,-0.634394
-21.408963,-27.662683,12.332872,0.000000,-1.000000,0.000000
24.207329,-27.662683,7.825829,0.000000,-1.000000,0.000000
9.170547,-1.704329,-13.101897,0.000000,0.000000,-1.000000
-12.169441,16.611408,10.748055,-0.000000,1.000000,-0.000000
-16.793400,-27.662683,-10.829800,0.000000,-1.000000,0.000000
-13.423275,-7.261212,-6.946367,0.881921,0.000000,0.471396
11.325700,14.852430,10.021987,-0.773010,0.000000,-0.634394
-15.255475,20.346885,-13.101897,0.000000,0.000000,-1.000000
12.057898,7.573827,13.101897,0.000000,-0.000000,1.000000
-10.546213,13.377419,13.101897,0.000000,-0.000000,1.000000
30.055361,23.278757,-4.836105,1.000000,-0.000000,0.000000
19.182266,-15.987268,3.043114,0.634393,-0.000000,-0.773011
-18.418343,15.125372,-13.101897,0.000000,0.000000,-1.000000
-30.055361,8.016888,8.211660,-1.000000,0.000000,0.000000
21.473616,-27.662683,-4.293255,0.000000,-1.000000,0.000000
-15.586871,20.879949,9.909856,0.831470,0.000000,-0.555570
20.905952,19.220261,-4.014226,0.290284,-0.000000,0.956941
30.055361,21.410546,-6.864542,1.000000,-0.000000,0.000000
28.183511,-2.958749,-13.101897,0.000000,0.000000,-1.000000
-10.772638,-23.443226,13.101897,0.000000,-0.000000,1.000000
-10.681035,-25.116781,-13.101897,0.000000,0.000000,-1.000000
-23.433523,-19.864173,3.944835,0.290285,0.000000,-0.956940
-8.981208,10.192637,12.179846,0.634394,0.000000,-0.773010
25.998668,0.966453,-13.101897,0.000000,0.000000,-1.000000
9.353247,8.587699,11.874522,-0.634394,0.000000,-0.773010
30.055361,15.280717,-4.601447,1.000000,-0.000000,0.000000
-21.112748,-5.794901,-4.076958,-0.290284,0.000000,0.956940
-22.082707,-14.554424,13.101897,0.000000,-0.000000,1.000000
-22.314528,-24.674371,-4.169707,0.098017,-0.000000,0.995185
20.737958,16.346870,-3.963266,0.290284,-0.000000,0.956941
-14.964960,16.552511,2.243152,0.995185,-0.000000,-0.098017
-28.606585,6.831695,13.101897,0.000000,-0.000000,1.000000
7.744278,-20.203321,13.101897,0.000000,-0.000000,1.000000
-14.051165,-3.622994,13.101897,0.000000,-0.000000,1.000000
-21.140764,23.270741,-13.101897,0.000000,0.000000,-1.000000
-24.016407,15.456352,13.101897,0.000000,-0.000000,1.000000
21.041771,-15.303334,-13.101897,0.000000,0.000000,-1.000000
-14.947359,-14.879554,2.421858,0.995185,0.000000,-0.098017
