x,y,z,nx,ny,nz
-31.561436,19.703959,2.512302,-0.956941,-0.290283,0.000000
9.336964,1.931107,-1.718094,0.995185,0.098017,-0.000000
16.638576,25.885209,-3.738545,0.000000,-0.000000,-1.000000
-13.308667,27.213160,-2.639559,-0.000000,1.000000,0.000000
-22.037678,-26.602916,3.738545,0.000000,-0.000000,1.000000
42.720144,-18.743548,3.738545,-0.000000,0.000000,1.000000
7.498830,-18.606869,3.408986,0.290285,0.956940,0.000000
16.259224,-0.217344,-3.601861,-0.773010,0.634394,0.000000
48.993941,-9.749861,3.738545,-0.000000,0.000000,1.000000
32.594564,-22.958275,3.738545,-0.000000,-0.000000,1.000000
26.034576,-10.035199,3.738545,-0.000000,0.000000,1.000000
-10.072852,7.205087,3.738545,0.000000,0.000000,1.000000
-43.369673,27.213160,-3.712313,-0.000000,1.000000,0.000000
-24.450202,13.457669,3.738545,0.000000,0.000000,1.000000
-50.287322,-5.755181,3.738545,0.000000,-0.000000,1.000000
17.402655,1.250328,3.738545,0.000000,-0.000000,1.000000
52.793587,19.565006,-3.738545,0.000000,0.000000,-1.000000
3.676243,-25.962593,-3.738545,0.000000,0.000000,-1.000000
-7.621201,2.607575,0.603446,0.956940,-0.290285,0.000000
-26.879513,1.801978,3.738545,0.000000,-0.000000,1.000000
53.210461,-16.889142,-0.933543,1.000000,0.000000,-0.000000
-7.218228,13.725838,3.738545,0.000000,-0.000000,1.000000
40.700873,-27.213160,-2.256669,0.000000,-1.000000,0.000000
-17.310334,-13.571586,-3.738545,0.000000,0.000000,-1.000000
-20.988639,12.889981,-3.738545,0.000000,0.000000,-1.000000
-18.846250,4.925410,-3.738545,0.000000,0.000000,-1.000000
-1.995852,-16.253086,-3.738545,0.000000,0.000000,-1.000000
-53.210461,-6.650854,-1.546115,-1.000000,0.000000,0.000000
-44.859924,24.531651,-3.738545,0.000000,-0.000000,-1.000000
21.596710,-13.490318,3.738545,-0.000000,0.000000,1.000000
14.487951,26.671388,3.738545,-0.000000,0.000000,1.000000
51.551538,-8.220498,3.738545,-0.000000,0.000000,1.000000
-52.170606,6.669640,3.738545,0.000000,-0.000000,1.000000
37.457955,14.943750,3.738545,0.000000,-0.000000,1.000000
-26.450245,-26.625934,-3.738545,0.000000,0.000000,-1.000000
-40.183733,0.977116,-3.738545,0.000000,0.000000,-1.000000
52.166983,7.097614,-3.738545,0.000000,0.000000,-1.000000
-53.210461,14.788891,3.004726,-1.000000,0.000000,0.000000
-51.060716,2.268269,3.738545,0.000000,-0.000000,1.000000
-41.008252,-9.270179,3.738545,0.000000,-0.000000,1.000000
-51.824457,24.579618,-3.738545,0.000000,0.000000,-1.000000
41.088295,-17.868071,-3.738545,0.000000,0.000000,-1.000000
-21.298894,27.213160,2.963648,0.000000,1.000000,0.000000
10.772457,-7.470009,3.738545,0.000000,-0.000000,1.000000
48.208913,-27.213160,-3.030437,0.000000,-1.000000,0.000000
-29.894877,-3.811614,-3.738545,0.000000,0.000000,-1.000000
6.219798,20.052219,3.738545,0.000000,-0.000000,1.000000
-11.852589,16.154112,-3.738545,0.000000,0.000000,-1.000000
-36.064738,22.384169,-2.608278,0.098017,-0.995185,0.000000
-24.325442,-11.830997,-3.738545,0.000000,0.000000,-1.000000
25.480746,-14.621819,3.738545,-0.000000,0.000000,1.000000
-52.763708,-8.962659,3.738545,0.000000,-0.000000,1.000000
-15.798999,12.267453,-3.738545,0.000000,0.000000,-1.000000
-38.723602,26.589187,-3.738545,0.000000,-0.000000,-1.000000
-34.237586,27.213160,0.406219,0.000000,1.000000,0.000000
44.312999,27.213160,-2.613682,-0.000000,1.000000,0.000000
-10.552386,23.294994,-3.738545,-0.000000,0.000000,-1.000000
-5.692065,-10.582839,-3.738545,0.000000,0.000000,-1.000000
35.614466,21.001902,-3.738545,0.000000,0.000000,-1.000000
17.157751,27.213160,-1.568851,-0.000000,1.000000,0.000000
24.715430,-10.990320,-3.738545,0.000000,0.000000,-1.000000
38.249058,-23.302469,-3.738545,0.000000,0.000000,-1.000000
-39.880417,10.417303,3.738545,0.000000,-0.000000,1.000000
-28.738917,18.828198,3.738545,0.000000,-0.000000,1.000000
-5.965122,-14.000580,-3.738545,0.000000,0.000000,-1.000000
-27.532907,-10.283753,3.738545,0.000000,-0.000000,1.000000
17.737016,7.099010,-3.738545,0.000000,-0.000000,-1.000000
-0.516109,27.213160,-0.475840,-0.000000,1.000000,0.000000
-17.023353,-4.526851,3.738545,0.000000,-0.000000,1.000000
9.348407,1.814918,0.310939,0.995185,0.098017,0.000000
16.215627,10.227575,-3.738545,0.000000,0.000000,-1.000000
-11.178773,-19.766699,3.738545,0.000000,-0.000000,1.000000
51.240006,-24.360079,-3.738545,0.000000,0.000000,-1.000000
21.842576,14.154930,3.738545,-0.000000,0.000000,1.000000
47.134715,-27.213160,-3.029955,0.000000,-1.000000,0.000000
22.537248,23.815468,-3.738545,0.000000,0.000000,-1.000000
53.210461,-22.209109,0.951190,1.000000,0.000000,-0.000000
25.067271,0.201191,3.738545,-0.000000,0.000000,1.000000
-11.478208,4.995803,-3.738545,0.000000,0.000000,-1.000000
48.710781,-10.125366,-3.738545,0.000000,0.000000,-1.000000
7.801837,11.718246,-3.738545,0.000000,0.000000,-1.000000
31.133720,23.369862,3.738545,0.000000,-0.000000,1.000000
48.406489,11.694317,3.738545,-0.000000,0.000000,1.000000
-45.735924,20.725517,-3.738545,0.000000,0.000000,-1.000000
38.628861,14.942235,-3.738545,0.000000,0.000000,-1.000000
-48.062755,26.795747,-3.738545,0.000000,-0.000000,-1.000000
53.210461,1.272098,-0.411899,1.000000,0.000000,-0.000000
-33.378831,8.911861,-3.738545,0.000000,0.000000,-1.000000
-3.438974,-2.664064,1.587791,-0.098017,0.995185,0.000000
34.936789,-25.535328,-3.738545,0.000000,0.000000,-1.000000
49.158083,14.023494,-3.738545,0.000000,0.000000,-1.000000
50.162318,27.213160,0.667157,-0.000000,1.000000,0.000000
15.389133,-23.650724,3.738545,0.000000,-0.000000,1.000000
53.210461,12.351331,-2.607478,1.000000,0.000000,-0.000000
53.071003,15.086448,-3.738545,0.000000,0.000000,-1.000000
13.595888,27.213160,2.973662,0.000000,1.000000,0.000000
11.869252,17.033064,3.738545,0.000000,-0.000000,1.000000
-14.922368,25.298596,3.738545,-0.000000,0.000000,1.000000
5.315111,12.687959,-3.738545,0.000000,0.000000,-1.000000
25.420293,24.135754,-3.738545,0.000000,0.000000,-1.000000
0.069642,-26.294082,3.738545,0.000000,-0.000000,1.000000
7.193536,15.525106,3.738545,0.000000,-0.000000,1.000000
35.916244,22.796999,3.738545,0.000000,-0.000000,1.000000
-0.509501,3.142737,-3.348670,-0.881921,-0.471397,0.000000
-22.297194,27.213160,2.712817,0.000000,1.000000,0.000000
7.210331,25.799015,-3.738545,0.000000,-0.000000,-1.000000
-47.097255,-25.309989,-3.738545,0.000000,0.000000,-1.000000
-42.300565,-12.924765,3.738545,0.000000,-0.000000,1.000000
15.213772,27.213160,1.561889,0.000000,1.000000,0.000000
16.596944,-15.058539,-3.738545,0.000000,0.000000,-1.000000
29.514559,-20.888080,-3.738545,0.000000,0.000000,-1.000000
21.876549,-18.150339,-3.738545,0.000000,0.000000,-1.000000
35.553016,-25.301438,3.738545,0.000000,-0.000000,1.000000
-11.553652,-9.883835,-3.738545,0.000000,0.000000,-1.000000
-11.261066,-3.638463,3.738545,0.000000,-0.000000,1.000000
13.786982,-27.213160,0.715453,0.000000,-1.000000,0.000000
20.049406,-5.230114,-3.738545,0.000000,0.000000,-1.000000
-29.869517,-21.775469,3.738545,0.000000,0.000000,1.000000
53.210461,-20.339758,-0.967053,1.000000,0.000000,-0.000000
51.493287,23.187236,3.738545,-0.000000,0.000000,1.000000
-49.859787,27.213160,2.205513,0.000000,1.000000,0.000000
37.220893,12.258408,-3.738545,0.000000,0.000000,-1.000000
-53.103934,14.142652,-3.738545,0.000000,0.000000,-1.000000
49.341415,-27.213160,1.279969,0.000000,-1.000000,0.000000
53.210461,-4.274171,-1.036950,1.000000,0.000000,-0.000000
-3.553325,16.900743,3.738545,0.000000,-0.000000,1.000000
2.068683,6.218235,3.738545,0.000000,-0.000000,1.000000
-26.248108,-7.417388,-3.738545,0.000000,0.000000,-1.000000
27.244578,3.430605,3.738545,-0.000000,0.000000,1.000000
-36.189746,13.414156,-3.738545,0.000000,0.000000,-1.000000
50.565816,-6.457048,-3.738545,0.000000,0.000000,-1.000000
-49.493305,7.809023,-3.738545,0.000000,0.000000,-1.000000
-14.607132,-10.339596,3.738545,0.000000,-0.000000,1.000000
34.373814,-2.441508,3.738545,-0.000000,0.000000,1.000000
39.036336,25.438959,3.738545,0.000000,-0.000000,1.000000
-32.319390,6.582282,3.738545,0.000000,-0.000000,1.000000
25.374653,27.213160,-1.557811,-0.000000,1.000000,0.000000
45.985643,27.213160,3.507543,0.000000,1.000000,0.000000
-6.167729,-15.692383,3.738545,0.000000,0.000000,1.000000
27.329126,9.120893,3.738545,0.000000,-0.000000,1.000000
8.702504,-22.010084,-3.738545,0.000000,0.000000,-1.000000
51.191331,26.571220,-3.738545,0.000000,0.000000,-1.000000
47.134393,-20.244017,-3.738545,0.000000,0.000000,-1.000000
-47.133813,20.233189,-3.738545,0.000000,0.000000,-1.000000
50.889483,-15.373684,3.738545,-0.000000,0.000000,1.000000
53.210461,11.825164,-0.086126,1.000000,-0.000000,0.000000
15.759357,-7.373818,3.738545,0.000000,-0.000000,1.000000
28.594122,-12.435309,3.738545,-0.000000,0.000000,1.000000
6.991869,-2.762024,3.738545,-0.000000,0.000000,1.000000
-42.500409,18.750678,-3.738545,0.000000,0.000000,-1.000000
-23.690993,10.414403,-3.738545,0.000000,0.000000,-1.000000
-39.369629,20.681649,3.738545,-0.000000,0.000000,1.000000
-18.110939,2.199857,3.738545,0.000000,-0.000000,1.000000
21.677857,4.879773,-3.738545,0.000000,0.000000,-1.000000
0.597592,-7.701867,-3.738545,0.000000,0.000000,-1.000000
-36.769691,5.413877,3.738545,0.000000,-0.000000,1.000000
-49.412836,25.204183,3.738545,-0.000000,0.000000,1.000000
12.346654,-16.690902,-0.916590,-0.881921,0.471398,0.000000
34.007530,-5.154562,3.738545,-0.000000,0.000000,1.000000
-31.904878,1.502544,3.738545,0.000000,-0.000000,1.000000
-25.851381,5.238277,3.738545,0.000000,-0.000000,1.000000
25.999971,25.233883,-3.738545,-0.000000,0.000000,-1.000000
-53.210461,-2.666871,-0.229078,-1.000000,0.000000,0.000000
16.194294,-0.296462,0.408258,-0.773010,0.634394,0.000000
-51.267206,15.156736,-3.738545,0.000000,0.000000,-1.000000
-15.072414,-16.756843,-3.738545,0.000000,0.000000,-1.000000
-8.609207,-14.436632,3.738545,0.000000,-0.000000,1.000000
31.017433,6.216943,-3.738545,0.000000,0.000000,-1.000000
-46.115216,-26.611395,3.738545,0.000000,-0.000000,1.000000
27.867028,-26.076502,-3.738545,0.000000,0.000000,-1.000000
-49.446793,17.524551,3.738545,0.000000,-0.000000,1.000000
-51.153501,-18.100293,-3.738545,0.000000,0.000000,-1.000000
34.227606,12.504058,3.738545,0.000000,-0.000000,1.000000
32.573153,3.100664,3.738545,-0.000000,0.000000,1.000000
-49.781314,10.576003,-3.738545,0.000000,0.000000,-1.000000
-51.334875,-12.004500,-3.738545,0.000000,0.000000,-1.000000
11.750691,-2.018692,-3.738545,0.000000,0.000000,-1.000000
-16.882248,-3.538022,3.738545,0.000000,-0.000000,1.000000
2.125733,-1.055700,3.738545,-0.000000,0.000000,1.000000
47.267773,-27.213160,0.757576,0.000000,-1.000000,0.000000
4.419285,12.900261,3.738545,0.000000,-0.000000,1.000000
34.791960,-27.213160,-2.249540,0.000000,-1.000000,0.000000
31.205724,21.306361,3.738545,0.000000,-0.000000,1.000000
-53.210461,-19.310969,2.501872,-1.000000,0.000000,0.000000
17.766884,25.846127,-3.738545,0.000000,-0.000000,-1.000000
8.865317,-10.610096,3.738545,0.000000,0.000000,1.000000
43.741201,27.213160,0.125875,-0.000000,1.000000,0.000000
-46.230763,15.942190,3.738545,0.000000,-0.000000,1.000000
44.705199,16.800755,3.738545,-0.000000,0.000000,1.000000
21.498610,-14.042249,-3.738545,-0.000000,-0.000000,-1.000000
-41.066014,19.984508,-3.738545,0.000000,-0.000000,-1.000000
27.111175,22.723599,-3.738545,0.000000,0.000000,-1.000000
41.388613,-8.664596,-3.738545,0.000000,0.000000,-1.000000
25.991055,18.977283,3.738545,0.000000,-0.000000,1.000000
37.730398,27.213160,0.624269,-0.000000,1.000000,0.000000
6.659591,19.839598,-3.738545,0.000000,0.000000,-1.000000
-53.210461,-1.864103,0.644104,-1.000000,0.000000,0.000000
52.756110,-3.885748,-3.738545,0.000000,0.000000,-1.000000
12.394402,-8.623617,3.738545,-0.000000,0.000000,1.000000
10.783038,23.447208,3.738545,0.000000,0.000000,1.000000
-53.210461,2.792821,-2.305680,-1.000000,0.000000,0.000000
-35.730760,-2.754815,3.738545,0.000000,-0.000000,1.000000
17.036751,20.066780,-3.738545,0.000000,0.000000,-1.000000
-14.178202,-27.213160,-3.726648,0.000000,-1.000000,0.000000
-22.679798,18.549671,-3.738545,0.000000,0.000000,-1.000000
-46.902762,17.774564,3.738545,0.000000,-0.000000,1.000000
38.939705,13.862610,-3.738545,0.000000,0.000000,-1.000000
-8.246847,20.667277,3.738545,0.000000,-0.000000,1.000000
26.370045,-17.427828,-3.738545,0.000000,0.000000,-1.000000
-9.541361,-4.230212,-3.738545,0.000000,0.000000,-1.000000
4.172506,-5.155518,3.738545,-0.000000,0.000000,1.000000
-32.369577,5.894968,-3.738545,0.000000,0.000000,-1.000000
35.377186,7.483785,3.738545,-0.000000,0.000000,1.000000
53.210461,-8.538603,-0.410729,1.000000,0.000000,-0.000000
12.671295,-14.003952,2.129101,-0.956940,-0.290284,0.000000
-22.121444,-6.989242,-3.738545,0.000000,0.000000,-1.000000
53.210461,-17.579468,0.296841,1.000000,0.000000,-0.000000
23.877397,6.976224,3.738545,0.000000,-0.000000,1.000000
14.214844,-11.162394,-3.738545,-0.000000,-0.000000,-1.000000
-26.810770,26.080816,-3.738545,0.000000,-0.000000,-1.000000
40.499376,26.983007,-3.738545,0.000000,-0.000000,-1.000000
24.364274,24.454708,3.738545,0.000000,-0.000000,1.000000
-33.490116,-27.213160,-0.485210,0.000000,-1.000000,0.000000
-0.443762,-0.558677,-0.659864,-0.881921,0.471397,0.000000
-25.139318,-24.224292,3.738545,0.000000,-0.000000,1.000000
-26.765434,1.242448,3.738545,0.000000,-0.000000,1.000000
21.009210,-9.566829,-3.738545,0.000000,0.000000,-1.000000
-6.439493,-27.213160,-1.017913,0.000000,-1.000000,0.000000
6.777961,-11.569495,-0.305585,0.471397,-0.881921,0.000000
31.197181,2.651095,3.738545,-0.000000,0.000000,1.000000
-21.052183,12.861587,3.738545,0.000000,0.000000,1.000000
42.277665,-9.820826,-3.738545,0.000000,0.000000,-1.000000
-34.260475,14.730258,-0.171525,-0.290285,0.956940,0.000000
53.210461,12.158341,3.670295,1.000000,-0.000000,0.000000
-26.042196,-4.219687,3.738545,0.000000,-0.000000,1.000000
-20.845656,17.863136,3.738545,0.000000,-0.000000,1.000000
-52.537963,-26.724685,-3.738545,0.000000,0.000000,-1.000000
-34.681348,6.369036,3.738545,0.000000,-0.000000,1.000000
47.612901,-18.359163,-3.738545,0.000000,0.000000,-1.000000
-53.210461,2.504087,2.051083,-1.000000,0.000000,0.000000
-47.767628,17.205098,3.738545,0.000000,-0.000000,1.000000
52.674590,-18.516975,-3.738545,0.000000,0.000000,-1.000000
-11.285104,23.244710,3.738545,0.000000,0.000000,1.000000
-1.057568,6.897094,-3.738545,0.000000,0.000000,-1.000000
-13.590389,-24.385041,3.738545,0.000000,-0.000000,1.000000
-14.750755,-3.545509,3.738545,0.000000,-0.000000,1.000000
-29.458679,-16.725656,-3.738545,0.000000,0.000000,-1.000000
10.378012,25.182073,-3.738545,0.000000,-0.000000,-1.000000
-53.210461,22.387310,-0.944938,-1.000000,0.000000,0.000000
-45.724234,-27.213160,-3.273766,0.000000,-1.000000,0.000000
44.253073,27.213160,-2.993327,-0.000000,1.000000,0.000000
42.076901,2.136586,-3.738545,0.000000,0.000000,-1.000000
12.937751,-15.752700,-3.738545,0.000000,0.000000,-1.000000
51.257944,23.175256,3.738545,-0.000000,0.000000,1.000000
11.732493,-27.213160,2.360081,0.000000,-1.000000,0.000000
33.084574,19.972362,-3.738545,0.000000,0.000000,-1.000000
-51.792016,21.924200,3.738545,0.000000,-0.000000,1.000000
-32.719165,-1.948291,-3.738545,0.000000,0.000000,-1.000000
32.269170,-27.213160,2.346341,0.000000,-1.000000,0.000000
8.766146,-18.850075,2.964535,0.098017,0.995185,0.000000
-9.393354,-11.537340,-3.738545,0.000000,0.000000,-1.000000
35.602183,0.091253,3.738545,-0.000000,0.000000,1.000000
-20.072850,-2.816960,3.738545,0.000000,-0.000000,1.000000
-15.550019,6.075248,-3.738545,0.000000,0.000000,-1.000000
52.711617,-1.662993,3.738545,-0.000000,0.000000,1.000000
14.541165,-3.527622,-3.738545,0.000000,0.000000,-1.000000
39.016148,0.545316,-3.738545,0.000000,0.000000,-1.000000
-10.478409,-23.069349,-3.738545,0.000000,0.000000,-1.000000
-40.397138,-26.526166,-3.738545,0.000000,0.000000,-1.000000
-22.438034,24.380655,3.738545,-0.000000,0.000000,1.000000
35.717885,2.111978,-3.738545,0.000000,0.000000,-1.000000
41.770143,9.872259,-3.738545,0.000000,0.000000,-1.000000
-2.235581,-12.151653,-3.738545,0.000000,0.000000,-1.000000
44.760495,22.431525,3.738545,-0.000000,0.000000,1.000000
-36.228522,27.213160,-3.052007,-0.000000,1.000000,0.000000
26.609557,-3.890334,3.738545,-0.000000,0.000000,1.000000
44.559719,-2.672850,-3.738545,0.000000,0.000000,-1.000000
-12.953003,-17.483557,-3.738545,0.000000,0.000000,-1.000000
33.344482,25.574632,-3.738545,-0.000000,0.000000,-1.000000
-37.431846,15.203652,2.198877,0.471396,0.881921,-0.000000
-53.210461,-5.681230,0.415503,-1.000000,0.000000,0.000000
-27.271559,-2.777038,-3.738545,0.000000,0.000000,-1.000000
-29.444735,-27.210768,-3.738545,0.000000,0.000000,-1.000000
41.444598,13.788634,-3.738545,0.000000,0.000000,-1.000000
53.210461,-7.181543,-2.338897,1.000000,0.000000,-0.000000
41.344674,15.264779,3.738545,0.000000,-0.000000,1.000000
2.895907,-13.352134,3.738545,0.000000,0.000000,1.000000
10.727227,-10.058444,3.738545,-0.000000,0.000000,1.000000
-45.947316,-16.856029,-3.738545,0.000000,0.000000,-1.000000
-18.974956,-2.900725,-3.738545,0.000000,0.000000,-1.000000
48.337632,21.779432,-3.738545,0.000000,0.000000,-1.000000
-5.029828,21.446848,-3.738545,0.000000,0.000000,-1.000000
13.811344,12.352609,-3.738545,0.000000,0.000000,-1.000000
52.704588,-20.356322,-3.738545,0.000000,0.000000,-1.000000
34.730764,6.185464,3.738545,-0.000000,0.000000,1.000000
-22.952743,-25.582553,3.738545,0.000000,-0.000000,1.000000
-33.675756,22.096365,-1.007124,-0.471396,-0.881922,0.000000
1.408396,4.490159,3.738545,-0.000000,0.000000,1.000000
-17.487913,-0.180030,3.738545,0.000000,-0.000000,1.000000
28.347965,21.415671,3.738545,0.000000,-0.000000,1.000000
45.280334,10.730899,3.738545,-0.000000,0.000000,1.000000
23.269708,2.429361,3.738545,0.000000,-0.000000,1.000000
-28.653384,-23.252039,-3.738545,0.000000,0.000000,-1.000000
-1.816381,-2.085842,2.025574,-0.471397,0.881921,0.000000
-17.567396,12.369504,-3.738545,0.000000,0.000000,-1.000000
11.446336,6.303548,3.738545,0.000000,-0.000000,1.000000
5.827891,-17.552845,-3.738545,0.000000,0.000000,-1.000000
-53.154410,-21.479912,-3.738545,0.000000,0.000000,-1.000000
3.578942,-2.750442,-3.738545,-0.000000,-0.000000,-1.000000
16.825834,3.922001,-3.525003,-0.881922,-0.471396,0.000000
-7.856400,0.977622,2.807411,0.995185,0.098017,0.000000
7.186331,-6.865135,3.738545,-0.000000,0.000000,1.000000
-21.680021,-2.622040,-3.738545,0.000000,0.000000,-1.000000
-51.978104,13.460492,3.738545,0.000000,-0.000000,1.000000
52.996248,-6.042341,-3.738545,0.000000,0.000000,-1.000000
-48.044442,27.213160,-1.315712,0.000000,1.000000,0.000000
0.224255,14.419146,3.738545,0.000000,-0.000000,1.000000
21.663856,-27.213160,2.496078,0.000000,-1.000000,0.000000
-1.522107,26.534321,-3.738545,0.000000,-0.000000,-1.000000
-20.535159,3.905437,3.738545,0.000000,-0.000000,1.000000
35.835554,-23.421784,3.738545,-0.000000,-0.000000,1.000000
-21.227645,2.435141,3.738545,0.000000,-0.000000,1.000000
40.152873,19.303919,3.738545,0.000000,-0.000000,1.000000
-42.994494,9.360574,3.738545,0.000000,-0.000000,1.000000
0.117849,27.213160,-1.096545,-0.000000,1.000000,0.000000
3.507745,20.123041,3.738545,0.000000,-0.000000,1.000000
-52.782903,13.498858,3.738545,0.000000,-0.000000,1.000000
-31.775574,10.789834,3.738545,0.000000,-0.000000,1.000000
-5.674059,-27.213160,2.481561,0.000000,-1.000000,0.000000
31.587303,-27.213160,1.443476,0.000000,-1.000000,0.000000
14.246306,8.322637,-3.738545,0.000000,-0.000000,-1.000000
-34.723486,14.628852,-2.786327,-0.098016,0.995185,0.000000
33.485440,19.026910,3.738545,-0.000000,0.000000,1.000000
-50.535346,16.451771,3.738545,0.000000,-0.000000,1.000000
3.117223,0.030261,3.738545,-0.000000,0.000000,1.000000
24.947351,-10.004474,-3.738545,0.000000,0.000000,-1.000000
-28.311441,-8.931708,-3.738545,0.000000,0.000000,-1.000000
31.185052,-11.823120,3.738545,-0.000000,0.000000,1.000000
35.789262,19.287668,3.738545,0.000000,-0.000000,1.000000
-33.507377,27.213160,3.596229,0.000000,1.000000,0.000000
-49.952934,-16.011148,3.738545,0.000000,-0.000000,1.000000
-1.129912,-10.854024,3.738545,0.000000,-0.000000,1.000000
0.106740,27.213160,-3.460182,-0.000000,1.000000,0.000000
-39.162898,17.597069,-3.738545,0.000000,0.000000,-1.000000
-43.838555,20.283378,-3.738545,0.000000,0.000000,-1.000000
-39.931201,27.213160,2.100920,0.000000,1.000000,0.000000
30.348350,-19.575513,-3.738545,0.000000,0.000000,-1.000000
-8.773642,-0.226442,-3.738545,0.000000,0.000000,-1.000000
1.563178,27.213160,-0.849397,-0.000000,1.000000,0.000000
2.605311,5.642081,3.738545,-0.000000,0.000000,1.000000
-40.823693,-5.255016,-3.738545,0.000000,0.000000,-1.000000
-31.206620,-27.213160,-0.013856,0.000000,-1.000000,0.000000
2.438728,-7.971955,-3.738545,0.000000,0.000000,-1.000000
16.614128,4.318076,-0.605195,-0.881922,-0.471396,0.000000
31.314111,10.752206,-3.738545,0.000000,0.000000,-1.000000
30.983509,-9.956122,3.738545,-0.000000,0.000000,1.000000
31.434428,0.689915,3.738545,-0.000000,0.000000,1.000000
10.545745,13.335934,3.738545,0.000000,-0.000000,1.000000
-52.367133,5.447919,3.738545,0.000000,-0.000000,1.000000
-53.210461,11.341743,3.711520,-1.000000,0.000000,0.000000
51.952154,15.114477,3.738545,-0.000000,0.000000,1.000000
-21.785224,22.876935,-3.738545,-0.000000,0.000000,-1.000000
-4.346009,5.134020,-3.329462,0.098017,-0.995185,0.000000
8.223323,-3.005247,-3.738545,0.000000,0.000000,-1.000000
-53.210461,-12.741442,-2.146980,-1.000000,0.000000,0.000000
-39.757348,5.532043,-3.738545,0.000000,0.000000,-1.000000
43.848891,6.283099,3.738545,-0.000000,0.000000,1.000000
-16.309060,-0.506070,-3.738545,0.000000,0.000000,-1.000000
-22.727559,27.213160,0.538581,0.000000,1.000000,0.000000
-1.544213,-25.117733,-3.738545,0.000000,0.000000,-1.000000
42.656027,-3.861115,3.738545,-0.000000,0.000000,1.000000
50.837157,-8.124832,-3.738545,0.000000,0.000000,-1.000000
-30.130997,21.843921,-3.738545,-0.000000,0.000000,-1.000000
-12.397753,21.900003,3.738545,0.000000,0.000000,1.000000
-48.638923,-6.448781,3.738545,0.000000,-0.000000,1.000000
38.685772,27.213160,-2.203080,-0.000000,1.000000,0.000000
6.518126,16.507964,3.738545,0.000000,-0.000000,1.000000
47.994202,-1.881683,-3.738545,0.000000,0.000000,-1.000000
-35.594055,-25.872242,3.738545,0.000000,-0.000000,1.000000
-48.745055,27.213160,-2.317288,0.000000,1.000000,0.000000
-28.168632,16.207309,-3.738545,0.000000,0.000000,-1.000000
11.473014,7.884433,3.738545,0.000000,-0.000000,1.000000
47.906862,3.939296,-3.738545,0.000000,0.000000,-1.000000
-52.783602,25.623492,3.738545,0.000000,-0.000000,1.000000
19.385119,-1.660765,3.738545,0.000000,0.000000,1.000000
38.050372,22.539515,3.738545,0.000000,-0.000000,1.000000
-5.942303,-3.343492,3.738545,0.000000,-0.000000,1.000000
-14.522726,13.569507,-3.738545,0.000000,0.000000,-1.000000
-3.570891,9.391693,-3.738545,0.000000,0.000000,-1.000000
-26.539128,3.644252,3.738545,0.000000,-0.000000,1.000000
51.624000,-10.225297,-3.738545,0.000000,0.000000,-1.000000
21.022492,-19.541134,-3.738545,0.000000,0.000000,-1.000000
-6.105433,-25.970344,-3.738545,0.000000,0.000000,-1.000000
-50.711333,-17.229197,-3.738545,0.000000,0.000000,-1.000000
37.026921,-12.558431,-3.738545,0.000000,0.000000,-1.000000
51.866991,-2.711932,-3.738545,0.000000,0.000000,-1.000000
53.210461,-20.875851,-2.037537,1.000000,0.000000,-0.000000
29.416846,-12.032127,3.738545,-0.000000,0.000000,1.000000
1.704942,-27.213160,-3.001734,0.000000,-1.000000,0.000000
16.147561,12.977268,3.738545,0.000000,0.000000,1.000000
-7.803212,0.453504,-3.723841,0.956940,0.290285,-0.000000
22.262800,14.809860,-3.738545,0.000000,-0.000000,-1.000000
-50.533858,-1.694610,3.738545,0.000000,-0.000000,1.000000
27.348440,8.712161,-3.738545,0.000000,0.000000,-1.000000
7.408804,7.778228,3.738545,-0.000000,0.000000,1.000000
6.568012,-27.213160,-2.592512,0.000000,-1.000000,0.000000
-53.210461,-1.504431,3.113319,-1.000000,0.000000,0.000000
36.631903,-12.909929,3.738545,-0.000000,0.000000,1.000000
-31.834464,22.907659,-3.738545,0.000000,-0.000000,-1.000000
43.596356,17.399726,3.738545,0.000000,-0.000000,1.000000
-31.538110,9.109234,-3.738545,0.000000,0.000000,-1.000000
49.327692,20.761320,3.738545,-0.000000,0.000000,1.000000
53.210461,26.077414,-2.675321,1.000000,-0.000000,0.000000
-31.281904,-9.981675,-3.738545,0.000000,0.000000,-1.000000
0.653339,-27.213160,3.066966,0.000000,-1.000000,0.000000
45.983052,15.142838,3.738545,-0.000000,0.000000,1.000000
-9.508936,-24.194071,3.738545,0.000000,-0.000000,1.000000
-38.217280,-19.887264,-3.738545,0.000000,0.000000,-1.000000
39.893681,27.213160,0.159528,-0.000000,1.000000,0.000000
-34.290319,-4.892977,3.738545,0.000000,-0.000000,1.000000
-26.222520,-2.072549,-3.738545,0.000000,0.000000,-1.000000
50.375764,-21.721967,3.738545,-0.000000,0.000000,1.000000
-28.428534,15.651963,-3.738545,0.000000,0.000000,-1.000000
15.439385,5.572134,3.408173,-0.634394,-0.773010,0.000000
-10.741779,5.865185,-3.738545,0.000000,0.000000,-1.000000
22.914399,-24.634869,3.738545,0.000000,-0.000000,1.000000
20.453044,24.910196,3.738545,0.000000,0.000000,1.000000
1.293802,-7.538628,3.738545,0.000000,-0.000000,1.000000
-28.871879,19.771617,-3.738545,-0.000000,0.000000,-1.000000
6.530796,-11.737180,0.181689,0.634393,-0.773011,0.000000
25.385058,24.927377,3.738545,0.000000,0.000000,1.000000
-32.531444,-16.806880,-3.738545,0.000000,0.000000,-1.000000
5.759928,-9.229601,-3.738545,0.000000,-0.000000,-1.000000
30.445694,24.730460,3.738545,0.000000,-0.000000,1.000000
12.303383,21.653939,3.738545,0.000000,-0.000000,1.000000
-29.942829,9.834133,3.738545,0.000000,-0.000000,1.000000
-5.865680,26.804887,3.738545,-0.000000,0.000000,1.000000
0.861335,10.669850,3.738545,0.000000,-0.000000,1.000000
-38.404739,-16.698596,-3.738545,0.000000,0.000000,-1.000000
28.485814,4.649399,3.738545,-0.000000,0.000000,1.000000
38.994638,-0.473388,3.738545,-0.000000,0.000000,1.000000
42.157322,-20.769305,-3.738545,0.000000,0.000000,-1.000000
-17.105480,-20.570313,-3.738545,0.000000,0.000000,-1.000000
16.544924,7.716462,-3.738545,0.000000,-0.000000,-1.000000
24.191700,26.977615,3.738545,-0.000000,0.000000,1.000000
29.514971,18.665748,3.738545,0.000000,-0.000000,1.000000
-31.403061,18.063636,-3.506265,-0.995185,0.098019,0.000000
-51.931804,11.385676,-3.738545,0.000000,0.000000,-1.000000
12.132104,-12.736186,-3.581840,-0.881921,-0.471397,0.000000
4.285901,19.475362,-3.738545,0.000000,0.000000,-1.000000
-2.648438,-27.213160,-3.614093,0.000000,-1.000000,0.000000
-52.173295,24.643200,3.738545,0.000000,-0.000000,1.000000
-28.823944,-23.098348,-3.738545,0.000000,0.000000,-1.000000
10.115203,7.096397,-3.738545,0.000000,0.000000,-1.000000
45.056141,27.213160,1.673248,-0.000000,1.000000,0.000000
16.752889,4.058472,-0.361203,-0.881922,-0.471396,0.000000
42.468983,-3.000344,3.738545,-0.000000,0.000000,1.000000
23.659469,27.213160,-0.653345,-0.000000,1.000000,0.000000
-44.033582,24.007326,3.738545,-0.000000,0.000000,1.000000
-53.210461,-12.449093,3.408879,-1.000000,0.000000,0.000000
11.372342,-9.867194,3.738545,-0.000000,0.000000,1.000000
31.343852,-27.213160,2.087696,0.000000,-1.000000,0.000000
-0.719675,-1.034983,1.037960,-0.773010,0.634393,0.000000
50.262855,-1.694455,-3.738545,0.000000,0.000000,-1.000000
-1.598236,-23.835910,-3.738545,0.000000,0.000000,-1.000000
14.795260,-7.479189,3.738545,-0.000000,0.000000,1.000000
25.243782,-12.622073,3.738545,-0.000000,0.000000,1.000000
-11.898173,-26.152209,3.738545,0.000000,-0.000000,1.000000
41.446818,-1.209756,-3.738545,0.000000,0.000000,-1.000000
13.758131,10.636292,-3.738545,0.000000,-0.000000,-1.000000
-25.784807,11.908145,3.738545,0.000000,0.000000,1.000000
6.902916,24.975440,3.738545,-0.000000,0.000000,1.000000
-47.309403,13.549300,-3.738545,0.000000,0.000000,-1.000000
-3.976141,13.218769,-3.738545,0.000000,0.000000,-1.000000
29.447611,17.627852,-3.738545,0.000000,0.000000,-1.000000
22.670987,19.161603,-3.738545,0.000000,0.000000,-1.000000
-18.219395,-0.964140,-3.738545,0.000000,0.000000,-1.000000
11.634616,20.492054,3.738545,0.000000,-0.000000,1.000000
-53.210461,15.475697,-0.514835,-1.000000,0.000000,0.000000
-45.634599,-16.873372,3.738545,0.000000,-0.000000,1.000000
18.409475,-22.141804,-3.738545,0.000000,0.000000,-1.000000
50.003237,-1.048212,-3.738545,0.000000,0.000000,-1.000000
28.687127,-27.213160,1.831288,0.000000,-1.000000,0.000000
33.629183,-5.449077,-3.738545,0.000000,0.000000,-1.000000
1.899993,9.121249,-3.738545,0.000000,0.000000,-1.000000
-32.126613,-9.329273,3.738545,0.000000,-0.000000,1.000000
-26.879323,-21.170125,-3.738545,0.000000,0.000000,-1.000000
21.196851,7.695256,3.738545,0.000000,-0.000000,1.000000
-8.847952,-18.452053,3.738545,0.000000,-0.000000,1.000000
-23.901616,-2.791011,-3.738545,0.000000,0.000000,-1.000000
53.210461,-25.540826,3.709090,1.000000,-0.000000,0.000000
-48.979151,1.380637,3.738545,0.000000,-0.000000,1.000000
-39.770206,-7.057551,-3.738545,0.000000,0.000000,-1.000000
53.210461,-1.366541,-0.186626,1.000000,0.000000,-0.000000
-44.551312,-6.021399,3.738545,0.000000,-0.000000,1.000000
-21.383006,-27.213160,-2.756954,0.000000,-1.000000,0.000000
-43.655692,3.746554,-3.738545,0.000000,0.000000,-1.000000
-6.644101,-1.625486,1.330049,0.634393,0.773010,-0.000000
-24.935166,-12.017789,-3.738545,0.000000,0.000000,-1.000000
-10.996001,26.517259,3.738545,-0.000000,0.000000,1.000000
-3.448561,18.064240,-3.738545,0.000000,0.000000,-1.000000
4.218579,3.891684,-3.738545,0.000000,-0.000000,-1.000000
-39.078952,17.445401,3.557082,0.956939,0.290288,0.000000
-38.914664,20.751717,-3.738545,0.000000,-0.000000,-1.000000
49.668747,17.234561,3.738545,-0.000000,0.000000,1.000000
-28.389780,14.254201,-3.738545,0.000000,0.000000,-1.000000
48.236632,27.213160,1.299614,-0.000000,1.000000,0.000000
6.444128,-5.243244,-3.738545,-0.000000,-0.000000,-1.000000
53.195519,3.945569,-3.738545,0.000000,0.000000,-1.000000
0.683294,8.940360,3.738545,0.000000,-0.000000,1.000000
-53.058721,27.213160,0.135971,0.000000,1.000000,0.000000
48.117481,-19.671024,-3.738545,0.000000,0.000000,-1.000000
1.700561,27.213160,-1.538843,-0.000000,1.000000,0.000000
-20.719825,19.457053,3.738545,0.000000,-0.000000,1.000000
-53.210461,4.351346,3.137855,-1.000000,0.000000,0.000000
-32.530188,15.713350,3.725808,-0.634394,0.773010,0.000000
25.407708,-23.245916,3.738545,0.000000,-0.000000,1.000000
-14.232418,-0.849813,3.738545,0.000000,-0.000000,1.000000
-41.889848,8.699795,3.738545,0.000000,-0.000000,1.000000
28.098264,-9.459603,3.738545,-0.000000,0.000000,1.000000
7.173144,19.499920,3.738545,0.000000,-0.000000,1.000000
44.924424,11.163235,3.738545,-0.000000,0.000000,1.000000
11.330506,14.118653,3.738545,0.000000,-0.000000,1.000000
1.209885,8.293112,3.738545,0.000000,-0.000000,1.000000
14.190377,13.055581,3.738545,0.000000,-0.000000,1.000000
-47.290620,-20.564979,3.738545,0.000000,-0.000000,1.000000
-52.213785,12.440341,3.738545,0.000000,-0.000000,1.000000
-32.224106,-27.213160,-2.102228,0.000000,-1.000000,0.000000
-50.623362,-4.924185,3.738545,0.000000,-0.000000,1.000000
4.646790,-18.358810,3.738545,0.000000,-0.000000,1.000000
-22.660197,1.749116,-3.738545,0.000000,0.000000,-1.000000
-19.280610,-2.663918,-3.738545,0.000000,0.000000,-1.000000
-26.327713,-20.983415,3.738545,0.000000,0.000000,1.000000
42.691195,-18.884254,3.738545,-0.000000,0.000000,1.000000
-20.873146,-15.105760,-3.738545,0.000000,0.000000,-1.000000
-8.125260,1.292403,3.738545,0.000000,0.000000,1.000000
-2.040376,-10.606768,-3.738545,0.000000,0.000000,-1.000000
-0.923958,25.160384,3.738545,-0.000000,0.000000,1.000000
-31.357898,-25.338426,-3.738545,0.000000,0.000000,-1.000000
-37.082606,-16.948310,3.738545,0.000000,-0.000000,1.000000
-18.699025,4.159000,-3.738545,0.000000,0.000000,-1.000000
-17.819084,-26.049282,-3.738545,0.000000,0.000000,-1.000000
-3.805192,-8.880659,3.738545,0.000000,-0.000000,1.000000
-29.120526,9.448394,3.738545,0.000000,-0.000000,1.000000
53.210461,-5.693336,2.302532,1.000000,-0.000000,0.000000
-6.841556,21.005417,-3.738545,0.000000,0.000000,-1.000000
-24.639501,-14.225949,3.738545,0.000000,-0.000000,1.000000
3.487278,4.277729,3.738545,0.000000,-0.000000,1.000000
36.406237,-27.213160,2.386472,0.000000,-1.000000,0.000000
20.577626,14.679941,-3.738545,0.000000,-0.000000,-1.000000
30.581834,-10.777776,-3.738545,0.000000,0.000000,-1.000000
-2.958983,8.540699,-3.738545,0.000000,0.000000,-1.000000
-53.210461,6.661644,-0.304642,-1.000000,0.000000,0.000000
9.725692,-19.409448,-3.738545,0.000000,0.000000,-1.000000
-22.197225,-5.618975,3.738545,0.000000,-0.000000,1.000000
36.733947,12.725097,3.738545,-0.000000,0.000000,1.000000
-7.271065,19.379036,3.738545,0.000000,-0.000000,1.000000
-15.672048,23.275045,-3.738545,-0.000000,0.000000,-1.000000
49.204046,26.626464,-3.738545,0.000000,0.000000,-1.000000
-3.904318,24.522695,3.738545,-0.000000,0.000000,1.000000
2.648019,8.828837,3.738545,0.000000,-0.000000,1.000000
-5.524297,-4.505633,3.738545,0.000000,-0.000000,1.000000
20.661875,-25.092989,-3.738545,0.000000,0.000000,-1.000000
-52.682709,-27.213160,-3.710856,0.000000,-1.000000,0.000000
-14.663624,-19.816763,3.738545,0.000000,-0.000000,1.000000
24.538569,-15.949498,3.738545,-0.000000,0.000000,1.000000
-44.688350,21.755290,-3.738545,0.000000,0.000000,-1.000000
13.106072,7.970899,-3.738545,0.000000,-0.000000,-1.000000
44.358140,26.841300,-3.738545,0.000000,-0.000000,-1.000000
12.347422,13.423246,-3.738545,0.000000,0.000000,-1.000000
-51.639852,20.249474,-3.738545,0.000000,0.000000,-1.000000
14.790271,16.287941,3.738545,0.000000,-0.000000,1.000000
-53.210461,16.547809,-1.879227,-1.000000,0.000000,0.000000
-27.261474,-12.552869,-3.738545,0.000000,0.000000,-1.000000
-43.662710,-14.373364,-3.738545,0.000000,0.000000,-1.000000
22.242621,5.259988,3.738545,0.000000,-0.000000,1.000000
42.450381,-14.329538,-3.738545,0.000000,0.000000,-1.000000
50.302076,3.270936,-3.738545,0.000000,0.000000,-1.000000
17.668961,11.169908,-3.738545,0.000000,0.000000,-1.000000
-34.598267,-25.647533,-3.738545,0.000000,0.000000,-1.000000
42.523893,18.111114,-3.738545,0.000000,0.000000,-1.000000
19.184812,16.370025,3.738545,0.000000,-0.000000,1.000000
-53.210461,23.204416,-2.675756,-1.000000,0.000000,0.000000
-50.236311,-27.213160,1.900517,0.000000,-1.000000,0.000000
25.522766,-25.825819,-3.738545,0.000000,0.000000,-1.000000
-32.858341,-27.213160,3.087951,0.000000,-1.000000,0.000000
-23.827656,-24.624320,-3.738545,0.000000,0.000000,-1.000000
-2.530121,-3.196108,-3.738545,0.000000,0.000000,-1.000000
53.210461,-2.793332,1.761122,1.000000,-0.000000,0.000000
-12.301091,-22.857038,-3.738545,0.000000,0.000000,-1.000000
32.052449,-27.063343,-3.738545,0.000000,0.000000,-1.000000
-2.935959,-19.020150,3.738545,0.000000,-0.000000,1.000000
-19.211952,5.980560,3.738545,0.000000,-0.000000,1.000000
16.481693,20.491079,3.738545,0.000000,-0.000000,1.000000
-19.042551,-26.683148,-3.738545,0.000000,0.000000,-1.000000
-14.125868,6.077826,3.738545,0.000000,0.000000,1.000000
-46.463275,17.320725,-3.738545,0.000000,0.000000,-1.000000
40.529492,25.602313,3.738545,0.000000,-0.000000,1.000000
13.464099,-1.998703,-3.738545,0.000000,0.000000,-1.000000
51.583839,18.395118,-3.738545,0.000000,0.000000,-1.000000
49.268589,22.761821,-3.738545,0.000000,0.000000,-1.000000
-53.210461,-22.335043,2.197094,-1.000000,0.000000,0.000000
-10.600800,-27.213160,2.266965,0.000000,-1.000000,0.000000
17.659170,3.448028,3.738545,0.000000,-0.000000,1.000000
-38.825504,9.686152,-3.738545,0.000000,0.000000,-1.000000
14.137769,-16.317033,3.738545,-0.000000,-0.000000,1.000000
52.924422,-7.427331,-3.738545,0.000000,0.000000,-1.000000
26.109506,-3.220755,-3.738545,0.000000,0.000000,-1.000000
-1.785731,-24.022684,-3.738545,0.000000,0.000000,-1.000000
25.233636,-0.782973,-3.738545,0.000000,0.000000,-1.000000
-11.263799,-5.098303,3.738545,0.000000,-0.000000,1.000000
33.563805,24.094990,-3.738545,0.000000,0.000000,-1.000000
-25.453701,-6.670936,-3.738545,0.000000,0.000000,-1.000000
-46.085281,-7.306366,-3.738545,0.000000,0.000000,-1.000000
-50.490931,-24.002493,3.738545,0.000000,-0.000000,1.000000
-0.122543,0.286850,-2.752156,-0.956940,0.290285,0.000000
13.252109,-18.718164,-3.738545,0.000000,0.000000,-1.000000
-49.455846,-14.211098,3.738545,0.000000,-0.000000,1.000000
-47.564228,24.688356,-3.738545,0.000000,-0.000000,-1.000000
-33.934914,-27.213160,-2.146107,0.000000,-1.000000,0.000000
14.807026,-20.497327,-3.738545,0.000000,0.000000,-1.000000
-40.744017,10.877566,-3.738545,0.000000,0.000000,-1.000000
3.859771,-27.030364,3.738545,0.000000,-0.000000,1.000000
24.711254,-10.836807,-3.738545,0.000000,0.000000,-1.000000
-22.574098,-12.846282,-3.738545,0.000000,0.000000,-1.000000
50.420495,2.717295,3.738545,-0.000000,0.000000,1.000000
24.213489,12.072617,3.738545,0.000000,0.000000,1.000000
24.759382,-9.554056,-3.738545,0.000000,0.000000,-1.000000
52.624093,6.717054,3.738545,-0.000000,0.000000,1.000000
-35.847493,22.405566,-2.932820,0.098017,-0.995185,0.000000
27.391720,27.213160,-0.530955,-0.000000,1.000000,0.000000
-50.225775,-0.793806,-3.738545,0.000000,0.000000,-1.000000
32.722590,15.136828,3.738545,0.000000,-0.000000,1.000000
8.979741,17.793527,3.738545,0.000000,-0.000000,1.000000
3.149404,27.213160,-0.466229,-0.000000,1.000000,0.000000
20.459600,20.273847,3.738545,0.000000,-0.000000,1.000000
-2.315374,-4.403613,-3.738545,0.000000,0.000000,-1.000000
46.508624,10.008451,3.738545,-0.000000,0.000000,1.000000
17.833492,-22.382307,-3.738545,0.000000,0.000000,-1.000000
-1.631736,-1.954279,0.973635,-0.634393,0.773010,0.000000
-14.785623,-0.850760,-3.738545,0.000000,0.000000,-1.000000
-53.210461,-2.132150,-2.937173,-1.000000,0.000000,0.000000
-41.990250,0.202715,-3.738545,0.000000,0.000000,-1.000000
-18.916652,-23.932198,3.738545,0.000000,-0.000000,1.000000
-38.990632,13.694568,-3.738545,0.000000,0.000000,-1.000000
-17.204469,27.213160,1.636494,0.000000,1.000000,0.000000
-53.210461,-20.248301,1.779882,-1.000000,0.000000,0.000000
-52.031794,1.232023,-3.738545,0.000000,0.000000,-1.000000
25.933580,-20.166332,-3.738545,0.000000,0.000000,-1.000000
-29.393061,-27.213160,-3.002079,0.000000,-1.000000,0.000000
53.210461,4.512874,-2.019167,1.000000,0.000000,-0.000000
-23.690434,-6.573096,3.738545,0.000000,-0.000000,1.000000
11.349762,-23.840388,-3.738545,0.000000,0.000000,-1.000000
13.060138,-1.629475,-0.851972,0.098017,0.995185,0.000000
-45.729150,-6.899573,3.738545,0.000000,-0.000000,1.000000
-10.810153,7.252030,-3.738545,0.000000,0.000000,-1.000000
-37.515634,-20.021105,3.738545,0.000000,-0.000000,1.000000
-2.963817,27.213160,-2.387999,-0.000000,1.000000,0.000000
-17.178685,-22.205661,-3.738545,0.000000,0.000000,-1.000000
53.210461,-4.915566,-1.936200,1.000000,0.000000,-0.000000
4.956975,-14.360105,-1.379049,0.995185,-0.098017,0.000000
50.853951,-1.362326,3.738545,-0.000000,0.000000,1.000000
-15.879858,-18.663891,-3.738545,0.000000,0.000000,-1.000000
-16.924392,27.213160,0.550665,0.000000,1.000000,0.000000
46.740608,5.466118,-3.738545,0.000000,0.000000,-1.000000
-10.207691,-15.110326,-3.738545,0.000000,0.000000,-1.000000
-10.271283,-23.300960,3.738545,0.000000,-0.000000,1.000000
-11.692087,14.982870,-3.738545,0.000000,0.000000,-1.000000
3.771164,-0.846477,3.738545,-0.000000,0.000000,1.000000
1.944687,-27.213160,0.922192,0.000000,-1.000000,0.000000
-2.908300,27.213160,-0.947753,-0.000000,1.000000,0.000000
53.210461,11.122223,2.632141,1.000000,-0.000000,0.000000
-43.864531,27.213160,-0.408885,0.000000,1.000000,0.000000
2.154854,-19.412082,-3.738545,0.000000,0.000000,-1.000000
28.069029,-2.370290,3.738545,-0.000000,0.000000,1.000000
1.072463,23.600699,-3.738545,-0.000000,0.000000,-1.000000
8.633348,4.570363,-3.738545,0.000000,-0.000000,-1.000000
40.320883,25.114601,3.738545,0.000000,-0.000000,1.000000
-28.303056,24.439954,3.738545,-0.000000,0.000000,1.000000
17.494454,-27.213160,-2.848937,0.000000,-1.000000,0.000000
-7.859065,20.353043,-3.738545,0.000000,0.000000,-1.000000
-4.467049,-24.404415,-3.738545,0.000000,0.000000,-1.000000
23.135482,24.624673,-3.738545,-0.000000,0.000000,-1.000000
-15.531396,8.154034,-3.738545,0.000000,0.000000,-1.000000
-3.241139,-15.186695,3.738545,0.000000,0.000000,1.000000
-21.234206,-27.213160,-2.689915,0.000000,-1.000000,0.000000
19.856027,14.572469,3.738545,0.000000,-0.000000,1.000000
-7.543629,21.869743,-3.738545,-0.000000,0.000000,-1.000000
-22.106368,4.426978,-3.738545,0.000000,0.000000,-1.000000
-2.617451,23.442036,-3.738545,-0.000000,0.000000,-1.000000
12.113547,-1.462127,3.370405,0.290285,0.956940,0.000000
17.392693,12.018079,-3.738545,0.000000,-0.000000,-1.000000
-6.797454,-20.205707,-3.738545,0.000000,0.000000,-1.000000
-47.706680,4.097021,3.738545,0.000000,-0.000000,1.000000
-1.522799,15.563824,-3.738545,0.000000,0.000000,-1.000000
45.425354,-8.132799,3.738545,-0.000000,0.000000,1.000000
14.487800,-1.428185,-1.497430,-0.290285,0.956940,0.000000
-42.707578,-9.142405,3.738545,0.000000,-0.000000,1.000000
34.767044,25.798456,3.738545,0.000000,0.000000,1.000000
-17.193678,24.569122,3.738545,-0.000000,0.000000,1.000000
41.150475,-14.745008,-3.738545,0.000000,0.000000,-1.000000
-34.162580,-18.124474,3.738545,0.000000,-0.000000,1.000000
28.467734,15.952392,-3.738545,0.000000,0.000000,-1.000000
29.830322,-16.618533,3.738545,-0.000000,0.000000,1.000000
27.874280,-16.170547,-3.738545,-0.000000,-0.000000,-1.000000
-12.501158,14.447339,3.738545,0.000000,-0.000000,1.000000
-53.210461,-13.117900,-2.112698,-1.000000,0.000000,0.000000
-18.583266,-14.419492,3.738545,0.000000,-0.000000,1.000000
26.431302,-11.590263,-3.738545,0.000000,0.000000,-1.000000
-0.441904,-18.241007,3.738545,0.000000,-0.000000,1.000000
-26.821087,-17.853728,3.738545,0.000000,-0.000000,1.000000
-37.173149,5.893393,-3.738545,0.000000,0.000000,-1.000000
3.508386,-25.932341,-3.738545,0.000000,0.000000,-1.000000
-30.970032,-17.375868,-3.738545,0.000000,0.000000,-1.000000
-53.210461,18.070117,-1.906583,-1.000000,0.000000,0.000000
38.372040,25.033002,3.738545,0.000000,-0.000000,1.000000
-26.631354,16.570800,-3.738545,0.000000,0.000000,-1.000000
-5.534489,-2.366103,-1.990113,0.471397,0.881921,0.000000
30.824764,-7.882280,-3.738545,0.000000,0.000000,-1.000000
-41.971074,4.502686,3.738545,0.000000,-0.000000,1.000000
31.686231,18.557797,3.738545,0.000000,-0.000000,1.000000
-2.185206,-20.870550,-3.738545,0.000000,0.000000,-1.000000
16.323065,7.463343,-3.738545,0.000000,-0.000000,-1.000000
-16.013468,-21.588034,-3.738545,0.000000,0.000000,-1.000000
22.511438,-14.844444,3.738545,-0.000000,0.000000,1.000000
-35.185457,-10.549842,3.738545,0.000000,-0.000000,1.000000
-53.210461,-23.854432,-0.560208,-1.000000,0.000000,0.000000
51.161887,-12.238027,3.738545,-0.000000,0.000000,1.000000
-48.153486,-0.290349,-3.738545,0.000000,0.000000,-1.000000
-40.057073,-4.241019,-3.738545,0.000000,0.000000,-1.000000
-31.184684,1.702685,-3.738545,0.000000,0.000000,-1.000000
24.634027,-17.480233,-3.738545,0.000000,0.000000,-1.000000
38.399703,24.880140,3.738545,0.000000,-0.000000,1.000000
22.461723,-24.210299,3.738545,0.000000,-0.000000,1.000000
4.268424,13.352170,3.738545,0.000000,-0.000000,1.000000
-18.981464,-25.646819,-3.738545,0.000000,0.000000,-1.000000
-15.232388,-3.006104,3.738545,0.000000,-0.000000,1.000000
-37.509153,0.141422,3.738545,0.000000,-0.000000,1.000000
46.938415,3.013978,3.738545,-0.000000,0.000000,1.000000
41.558567,-6.792656,-3.738545,0.000000,0.000000,-1.000000
24.600560,18.772041,-3.738545,0.000000,0.000000,-1.000000
52.844890,26.211565,3.738545,-0.000000,0.000000,1.000000
40.897432,-26.571612,3.738545,0.000000,-0.000000,1.000000
46.664609,-23.161228,3.738545,-0.000000,0.000000,1.000000
9.085875,-8.774571,3.738545,0.000000,-0.000000,1.000000
-16.350961,17.940121,3.738545,0.000000,-0.000000,1.000000
-16.032999,-4.265759,-3.738545,0.000000,0.000000,-1.000000
-42.628636,0.298573,-3.738545,0.000000,0.000000,-1.000000
-12.279569,7.917544,3.738545,0.000000,-0.000000,1.000000
9.757238,12.707988,3.738545,0.000000,-0.000000,1.000000
27.797026,5.586340,3.738545,0.000000,0.000000,1.000000
-13.575177,12.202517,3.738545,0.000000,-0.000000,1.000000
31.241365,2.365068,3.738545,-0.000000,0.000000,1.000000
49.403048,24.945460,3.738545,0.000000,-0.000000,1.000000
40.159065,19.919430,3.738545,-0.000000,0.000000,1.000000
-28.798232,10.449526,3.738545,0.000000,-0.000000,1.000000
37.291890,8.338696,-3.738545,0.000000,0.000000,-1.000000
-30.388993,-5.912396,3.738545,0.000000,-0.000000,1.000000
-1.065940,3.917978,3.715745,-0.773010,-0.634393,0.000000
46.018990,2.407588,-3.738545,0.000000,0.000000,-1.000000
53.210461,-21.372019,2.013179,1.000000,0.000000,-0.000000
0.077392,23.292308,-3.738545,-0.000000,0.000000,-1.000000
33.264523,-2.928384,-3.738545,0.000000,0.000000,-1.000000
46.818040,-13.855677,-3.738545,0.000000,0.000000,-1.000000
-23.038915,21.604743,3.738545,0.000000,0.000000,1.000000
-0.212281,-0.008977,-2.007460,-0.956940,0.290285,0.000000
-19.682824,11.799784,-3.738545,0.000000,0.000000,-1.000000
33.870915,0.803327,3.738545,-0.000000,0.000000,1.000000
-13.491102,-19.661768,-3.738545,0.000000,0.000000,-1.000000
3.593747,-24.606866,-3.738545,0.000000,0.000000,-1.000000
49.217426,21.090161,-3.738545,0.000000,0.000000,-1.000000
-49.773571,-27.213160,-3.191158,0.000000,-1.000000,0.000000
-53.210461,-10.942730,-3.138700,-1.000000,0.000000,0.000000
26.561960,9.240629,-3.738545,0.000000,0.000000,-1.000000
-53.210461,7.560191,2.269780,-1.000000,0.000000,0.000000
-52.996644,20.528084,3.738545,0.000000,-0.000000,1.000000
39.921519,-12.499568,-3.738545,0.000000,0.000000,-1.000000
-8.300563,-3.061898,-3.738545,0.000000,0.000000,-1.000000
-20.223887,27.213160,2.804077,0.000000,1.000000,0.000000
-20.294868,10.354729,3.738545,0.000000,-0.000000,1.000000
-28.857644,27.213160,0.469614,0.000000,1.000000,0.000000
22.988438,-22.339867,3.738545,0.000000,-0.000000,1.000000
-53.210461,-19.556038,-1.015840,-1.000000,0.000000,0.000000
-31.371567,18.383384,-2.292875,-0.995185,0.098019,0.000000
-47.156328,20.436856,-3.738545,0.000000,0.000000,-1.000000
49.542547,21.062202,-3.738545,0.000000,0.000000,-1.000000
-19.650561,-16.994771,3.738545,0.000000,-0.000000,1.000000
-53.210461,1.808718,-2.763381,-1.000000,0.000000,0.000000
-24.724714,-8.982487,3.738545,0.000000,-0.000000,1.000000
53.210461,-3.646619,1.874169,1.000000,-0.000000,0.000000
-27.484910,3.048522,3.738545,0.000000,-0.000000,1.000000
12.513640,-12.082290,-3.738545,-0.000000,-0.000000,-1.000000
47.450480,-7.294363,3.738545,-0.000000,0.000000,1.000000
9.483671,25.708178,3.738545,-0.000000,0.000000,1.000000
39.142343,9.038115,3.738545,-0.000000,0.000000,1.000000
1.929087,-7.809016,3.738545,0.000000,-0.000000,1.000000
37.528464,20.785415,-3.738545,0.000000,0.000000,-1.000000
-15.744676,27.213160,1.172639,0.000000,1.000000,0.000000
5.049510,6.280048,3.738545,-0.000000,0.000000,1.000000
9.002391,-27.213160,-1.666010,0.000000,-1.000000,0.000000
14.188222,-17.302235,3.738545,-0.000000,-0.000000,1.000000
2.296043,-9.822165,3.738545,0.000000,-0.000000,1.000000
-29.021676,-1.380742,-3.738545,0.000000,0.000000,-1.000000
26.784852,22.151530,-3.738545,0.000000,0.000000,-1.000000
-31.487137,15.196594,3.738545,0.000000,-0.000000,1.000000
47.075272,26.892370,-3.738545,0.000000,-0.000000,-1.000000
22.730396,-6.020540,-3.738545,0.000000,0.000000,-1.000000
23.898713,21.147487,3.738545,0.000000,-0.000000,1.000000
-53.210461,18.471021,-2.086794,-1.000000,0.000000,0.000000
-44.790630,-15.708771,3.738545,0.000000,-0.000000,1.000000
-37.940933,13.389657,3.738545,0.000000,-0.000000,1.000000
-17.334347,-25.130306,3.738545,0.000000,-0.000000,1.000000
-53.083259,22.726659,-3.738545,0.000000,0.000000,-1.000000
12.997386,17.757216,-3.738545,0.000000,0.000000,-1.000000
26.375056,-14.516817,-3.738545,-0.000000,-0.000000,-1.000000
41.950685,8.827437,3.738545,-0.000000,0.000000,1.000000
10.965448,21.029122,-3.738545,0.000000,0.000000,-1.000000
-14.620239,27.213160,1.550506,0.000000,1.000000,0.000000
-2.385049,-2.389802,-3.517240,-0.471397,0.881921,0.000000
-31.245968,-11.662666,-3.738545,0.000000,0.000000,-1.000000
-3.169299,15.151743,-3.738545,0.000000,0.000000,-1.000000
-1.619518,5.706952,-3.738545,0.000000,-0.000000,-1.000000
-33.302769,-3.037322,-3.738545,0.000000,0.000000,-1.000000
-50.711305,12.659336,3.738545,0.000000,-0.000000,1.000000
-25.332461,11.570659,-3.738545,0.000000,0.000000,-1.000000
27.478128,-4.924287,-3.738545,0.000000,0.000000,-1.000000
36.234062,-17.597822,3.738545,-0.000000,0.000000,1.000000
