x,y,z,nx,ny,nz
0.011877,-0.494595,-0.121123,0.090609,0.371391,-0.924045
0.013663,-0.535774,-0.066100,0.187947,0.371391,-0.909255
-0.027468,-0.222767,0.128741,-0.208662,0.000000,0.977988
-0.054520,-0.502498,0.097035,-0.454800,0.371391,0.809460
0.119789,-0.129488,0.054584,0.909983,0.000000,0.414646
0.129876,-0.313745,-0.021471,0.986608,0.000000,-0.163107
-0.058475,0.085396,0.259587,0.000000,1.000000,0.000000
-0.067231,-0.103985,-0.113176,-0.510726,0.000000,-0.859744
0.009523,-0.048597,-0.363696,-0.000000,0.000000,-1.000000
-0.128917,-0.482301,0.026633,-0.979319,0.000000,0.202322
-0.269665,-0.085396,0.089245,0.000000,-1.000000,0.000000
-0.351531,0.067336,-0.118523,-0.866025,0.000000,-0.500000
-0.100021,-0.505190,0.040093,-0.861816,0.371391,0.345459
-0.086922,-0.202509,-0.098860,-0.660309,0.000000,-0.750994
0.021029,-0.154865,-0.129948,0.159751,0.000000,-0.987157
-0.072526,-0.109586,0.109858,-0.550945,0.000000,0.834541
-0.037987,-0.085396,-0.051478,0.000000,-1.000000,0.000000
0.145078,0.052024,-0.363696,-0.000000,0.000000,-1.000000
0.004496,-0.565681,-0.027766,0.148399,0.371391,-0.916541
0.194950,-0.039594,-0.363696,-0.000000,0.000000,-1.000000
0.080531,-0.465477,0.104132,0.611756,0.000000,0.791046
-0.054939,-0.543899,-0.014428,-0.898026,0.371391,-0.235834
0.037503,-0.341824,-0.126184,0.284895,0.000000,-0.958559
-0.061424,-0.310952,-0.116430,-0.466613,0.000000,-0.884462
0.059395,-0.085396,0.113666,0.000000,-1.000000,0.000000
0.035217,-0.467068,0.126841,0.267523,0.000000,0.963551
-0.112541,-0.501452,0.005545,-0.927352,0.371391,0.045695
0.352374,-0.020363,0.117063,0.866025,0.000000,0.500000
-0.108856,-0.462278,0.074022,-0.826925,0.000000,0.562312
0.128727,-0.260470,0.027535,0.977879,0.000000,0.209170
-0.124108,-0.204130,-0.043887,-0.942790,0.000000,-0.333387
0.131046,-0.444061,-0.012484,0.995493,0.000000,-0.094833
0.042527,-0.540165,-0.044727,0.639778,0.371391,-0.672869
0.006179,-0.172078,0.131494,0.046939,0.000000,0.998898
-0.234531,0.030839,-0.321172,-0.866025,0.000000,-0.500000
0.046264,-0.198234,-0.123242,0.351443,0.000000,-0.936209
0.391593,-0.023049,0.049134,0.866025,0.000000,0.500000
-0.024431,-0.403461,-0.129352,-0.185591,0.000000,-0.982627
-0.248346,-0.057396,0.297244,-0.866025,0.000000,0.500000
-0.040971,-0.541449,0.043871,-0.633723,0.371391,0.678575
0.055755,-0.188907,0.119249,0.423542,0.000000,0.905876
-0.332168,0.037270,0.152060,-0.866025,0.000000,0.500000
0.001766,0.007999,-0.363696,-0.000000,0.000000,-1.000000
0.184702,-0.007805,-0.363696,-0.000000,0.000000,-1.000000
0.239135,0.037953,-0.313198,0.866025,0.000000,-0.500000
0.048017,-0.123703,-0.122569,0.364765,0.000000,-0.931100
0.059624,-0.234742,-0.117362,0.452937,0.000000,-0.891542
0.049921,-0.237807,0.121806,0.379230,0.000000,0.925303
0.334331,-0.071943,-0.148314,0.866025,0.000000,-0.500000
-0.020658,-0.261350,-0.130008,-0.156926,0.000000,-0.987610
0.081594,-0.264277,0.103302,0.619829,0.000000,0.784737
0.131218,-0.390372,0.010521,0.996801,0.000000,0.079924
0.026238,-0.533458,0.065486,0.345326,0.371391,0.861870
-0.121766,-0.173569,0.050019,-0.924998,0.000000,0.379972
0.064850,0.085396,0.251406,0.000000,1.000000,0.000000
0.233185,0.075797,0.323503,0.866025,0.000000,0.500000
-0.125088,-0.402647,-0.041010,-0.950234,0.000000,-0.311537
-0.068208,-0.514072,-0.067647,-0.659238,0.371391,-0.653816
-0.229073,0.000598,-0.330626,-0.866025,0.000000,-0.500000
-0.086932,-0.384681,-0.098852,-0.660382,0.000000,-0.750930
0.182590,0.085396,0.097110,0.000000,1.000000,0.000000
0.060936,-0.518372,0.066782,0.625824,0.371391,0.685866
0.129928,-0.036418,0.363696,0.000000,0.000000,1.000000
-0.131570,-0.439638,-0.004253,-0.999478,0.000000,-0.032311
0.130736,-0.228406,0.015395,0.993138,0.000000,0.116952
-0.090677,0.046671,0.363696,0.000000,0.000000,1.000000
0.085216,-0.513100,-0.047055,0.812794,0.371391,-0.448814
0.146143,-0.048323,0.363696,0.000000,0.000000,1.000000
0.071895,-0.508442,0.074422,0.645097,0.371391,0.667772
0.111305,-0.471903,0.070285,0.845536,0.000000,0.533919
0.022243,-0.202987,0.129746,0.168972,0.000000,0.985621
-0.299108,0.035223,-0.209322,-0.866025,0.000000,-0.500000
-0.232194,0.085396,-0.048547,0.000000,1.000000,0.000000
-0.024727,0.018771,-0.363696,-0.000000,0.000000,-1.000000
-0.053882,-0.311086,-0.120106,-0.409319,0.000000,-0.912391
-0.049762,-0.526859,0.061658,-0.583125,0.371391,0.722519
0.040321,-0.553055,0.019406,0.836619,0.371391,0.402663
0.103620,-0.506310,-0.023643,0.905211,0.371391,-0.206546
-0.398000,-0.028725,0.038037,-0.866025,0.000000,0.500000
-0.309220,0.061219,0.191807,-0.866025,0.000000,0.500000
0.129157,-0.367896,0.025442,0.981146,0.000000,0.193268
-0.083514,-0.263927,0.101756,-0.634418,0.000000,0.772990
0.323360,0.081684,0.167317,0.866025,0.000000,0.500000
-0.037780,-0.072564,0.363696,0.000000,0.000000,1.000000
0.155618,-0.076799,-0.363696,-0.000000,0.000000,-1.000000
-0.023516,-0.085396,-0.020313,0.000000,-1.000000,0.000000
0.112688,-0.145814,-0.068046,0.856036,0.000000,-0.516915
0.062359,-0.173419,-0.115932,0.473711,0.000000,-0.880680
0.031120,-0.283278,-0.127908,0.236403,0.000000,-0.971655
0.098288,-0.473200,-0.087569,0.746647,0.000000,-0.665220
-0.096812,-0.303358,0.089198,-0.735435,0.000000,0.677595
0.117998,-0.159042,-0.058355,0.896374,0.000000,-0.443299
-0.295576,-0.035662,-0.215440,-0.866025,0.000000,-0.500000
0.002969,-0.455481,-0.131605,0.022556,0.000000,-0.999746
-0.296661,0.085396,-0.099369,0.000000,1.000000,0.000000
0.237547,-0.044818,-0.315949,0.866025,0.000000,-0.500000
-0.200943,0.062420,-0.363696,-0.000000,0.000000,-1.000000
-0.037920,-0.085396,0.242836,0.000000,-1.000000,0.000000
0.070087,-0.531763,0.019605,0.894154,0.371391,0.250114
0.088473,-0.327982,0.097475,0.672087,0.000000,0.740473
0.310961,-0.063994,-0.188792,0.866025,0.000000,-0.500000
-0.079635,-0.448649,0.104819,-0.604951,0.000000,0.796263
-0.122582,-0.266777,0.047984,-0.931198,0.000000,0.364515
-0.004240,-0.150058,-0.131571,-0.032213,0.000000,-0.999481
0.116559,-0.019184,0.363696,0.000000,0.000000,1.000000
-0.036716,-0.341308,-0.126415,-0.278918,0.000000,-0.960315
-0.114784,-0.085396,0.206977,0.000000,-1.000000,0.000000
0.062761,-0.066638,0.363696,0.000000,0.000000,1.000000
-0.124908,-0.345359,0.041553,-0.948872,0.000000,0.315662
0.007069,-0.369357,-0.131449,0.053702,0.000000,-0.998557
0.057022,0.085396,-0.136861,0.000000,1.000000,0.000000
0.016366,-0.523772,-0.081672,0.182431,0.371391,-0.910378
0.085451,-0.503383,0.069485,0.720371,0.371391,0.585777
0.091389,-0.272226,-0.094746,0.694240,0.000000,-0.719744
0.026555,-0.092997,-0.128933,0.201724,0.000000,-0.979442
0.290954,-0.031081,0.223445,0.866025,0.000000,0.500000
-0.028808,-0.315356,-0.128448,-0.218842,0.000000,-0.975760
-0.056462,-0.514670,0.076747,-0.550213,0.371391,0.747887
-0.127598,-0.165618,0.032366,-0.969303,0.000000,0.245870
-0.029685,0.056480,0.363696,0.000000,0.000000,1.000000
0.034429,-0.489408,-0.123836,0.248705,0.371391,-0.894547
-0.097380,-0.185304,0.088577,-0.739754,0.000000,0.672878
-0.060335,-0.502156,0.094065,-0.501289,0.371391,0.781523
0.055971,-0.295540,0.119147,0.425186,0.000000,0.905106
-0.284310,0.021547,-0.234953,-0.866025,0.000000,-0.500000
-0.117509,-0.143606,0.059333,-0.892663,0.000000,0.450725
-0.010221,-0.128752,0.131242,-0.077642,0.000000,0.996981
-0.110170,-0.325802,-0.072051,-0.836911,0.000000,-0.547339
-0.373753,-0.035396,0.080033,-0.866025,0.000000,0.500000
0.128274,-0.185874,0.029571,0.974442,0.000000,0.224641
-0.071171,-0.323480,0.110741,-0.540652,0.000000,0.841246
-0.053116,-0.207938,-0.120447,-0.403496,0.000000,-0.914981
-0.069989,-0.036416,-0.363696,-0.000000,0.000000,-1.000000
-0.398479,-0.024656,0.037207,-0.866025,0.000000,0.500000
-0.346085,0.008758,-0.127955,-0.866025,0.000000,-0.500000
0.316021,0.085396,0.149320,0.000000,1.000000,0.000000
0.016612,-0.481695,-0.130587,0.126195,0.000000,-0.992005
-0.021577,-0.324416,0.129859,-0.163911,0.000000,0.986475
0.004148,-0.562697,0.031787,0.120130,0.371391,0.920672
0.051049,-0.427980,0.121337,0.387799,0.000000,0.921744
-0.383460,-0.007416,-0.063221,-0.866025,0.000000,-0.500000
0.107687,-0.159445,0.075713,0.818045,0.000000,0.575155
-0.005417,-0.326883,-0.131527,-0.041152,0.000000,-0.999153
0.072373,-0.479633,0.109959,0.549786,0.000000,0.835306
-0.124508,-0.489819,-0.029659,-0.903204,0.371391,-0.215155
0.130266,-0.286109,0.018964,0.989569,0.000000,0.144062
-0.078051,-0.251328,0.106004,-0.592915,0.000000,0.805265
-0.161498,0.085396,-0.267877,0.000000,1.000000,0.000000
-0.394265,-0.052729,-0.044505,-0.866025,0.000000,-0.500000
-0.051416,-0.547488,-0.008267,-0.916704,0.371391,-0.147386
-0.078668,-0.089060,0.105547,-0.597601,0.000000,0.801794
-0.152425,-0.046259,0.363696,0.000000,0.000000,1.000000
0.124558,-0.218408,0.042592,0.946210,0.000000,0.323555
-0.090372,-0.107483,0.095717,-0.686515,0.000000,0.727116
0.111026,-0.249747,0.070725,0.843414,0.000000,0.537264
0.004924,-0.085396,-0.027693,0.000000,-1.000000,0.000000
0.059537,-0.076375,-0.363696,-0.000000,0.000000,-1.000000
0.041279,-0.276126,0.124999,0.313578,0.000000,0.949562
-0.182166,0.047522,0.363696,0.000000,0.000000,1.000000
0.282931,0.074633,-0.237342,0.866025,0.000000,-0.500000
-0.014912,-0.562544,-0.028603,-0.429226,0.371391,-0.823307
-0.322321,-0.084743,-0.169116,-0.866025,0.000000,-0.500000
0.039078,-0.005673,0.363696,0.000000,0.000000,1.000000
0.086979,-0.089652,0.098811,0.660737,0.000000,0.750618
0.219515,0.004002,0.347181,0.866025,0.000000,0.500000
0.277392,0.068412,-0.246935,0.866025,0.000000,-0.500000
-0.404130,-0.069514,-0.027419,-0.866025,0.000000,-0.500000
-0.084355,-0.225202,0.101060,-0.640803,0.000000,0.767705
0.126144,-0.157482,0.037636,0.958259,0.000000,0.285903
-0.072660,-0.150818,0.109770,-0.551963,0.000000,0.833869
-0.069759,-0.115755,0.111636,-0.529925,0.000000,0.848045
-0.365758,-0.008303,-0.093881,-0.866025,0.000000,-0.500000
0.385250,0.052622,-0.060119,0.866025,0.000000,-0.500000
-0.089498,-0.139395,-0.096535,-0.679875,0.000000,-0.733328
-0.316663,-0.073200,0.178915,-0.866025,0.000000,0.500000
-0.185131,0.085396,-0.276382,0.000000,1.000000,0.000000
0.283899,0.080102,-0.235666,0.866025,0.000000,-0.500000
0.049633,-0.067040,0.363696,0.000000,0.000000,1.000000
0.041272,-0.201198,-0.125002,0.313521,0.000000,-0.949581
-0.113132,-0.242578,0.067305,-0.859411,0.000000,0.511285
0.306946,-0.060343,-0.195747,0.866025,0.000000,-0.500000
0.120790,-0.085396,-0.091359,0.000000,-1.000000,0.000000
-0.260585,0.018446,-0.276045,-0.866025,0.000000,-0.500000
0.121842,0.051404,-0.363696,-0.000000,0.000000,-1.000000
0.017325,-0.498242,0.115613,0.137598,0.371391,0.918224
-0.396834,0.075551,0.040056,-0.866025,0.000000,0.500000
-0.115718,-0.365225,0.062754,-0.879058,0.000000,0.476714
-0.094572,-0.043738,-0.363696,-0.000000,0.000000,-1.000000
0.085798,-0.483355,-0.099838,0.651764,0.000000,-0.758422
0.213929,0.038579,0.356857,0.866025,0.000000,0.500000
-0.182174,0.054300,-0.363696,-0.000000,0.000000,-1.000000
0.268462,-0.071966,0.262403,0.866025,0.000000,0.500000
0.049985,-0.548943,-0.004206,0.925208,0.371391,-0.077845
0.154242,-0.085396,0.140701,0.000000,-1.000000,0.000000
0.096429,-0.500402,0.060919,0.784954,0.371391,0.495900
-0.184522,-0.085396,0.231681,0.000000,-1.000000,0.000000
-0.417459,0.075315,-0.004332,-0.866025,0.000000,-0.500000
-0.022866,-0.089989,-0.129638,-0.173703,0.000000,-0.984798
0.129158,-0.241407,0.025435,0.981156,0.000000,0.193220
0.378276,0.061605,0.072198,0.866025,0.000000,0.500000
-0.075097,-0.222207,0.108117,-0.570477,0.000000,0.821313
-0.015908,-0.565406,-0.023635,-0.518424,0.371391,-0.770263
0.117167,-0.251857,-0.060007,0.890060,0.000000,-0.455844
-0.014137,-0.131487,0.130878,-0.107394,0.000000,0.994216
0.062253,-0.250086,-0.115989,0.472908,0.000000,-0.881112
-0.124775,-0.138319,0.041953,-0.947857,0.000000,0.318697
-0.023926,-0.085396,-0.017846,0.000000,-1.000000,0.000000
-0.339086,-0.035284,-0.140078,-0.866025,0.000000,-0.500000
0.101152,-0.482956,-0.084244,0.768406,0.000000,-0.639963
0.172502,-0.002814,-0.363696,-0.000000,0.000000,-1.000000
0.006835,-0.085396,0.039566,0.000000,-1.000000,0.000000
0.324330,0.080360,-0.165637,0.866025,0.000000,-0.500000
0.049975,-0.400961,-0.121784,0.379637,0.000000,-0.925135
-0.298538,-0.085396,-0.199354,0.000000,-1.000000,0.000000
0.297496,-0.061447,-0.212113,0.866025,0.000000,-0.500000
-0.088322,-0.519538,-0.009863,-0.922742,0.371391,-0.103039
0.124045,0.006803,-0.363696,-0.000000,0.000000,-1.000000
-0.055965,-0.542078,0.019300,-0.877749,0.371391,0.302698
0.131567,-0.370432,-0.004349,0.999454,0.000000,-0.033036
-0.124256,-0.290536,0.043465,-0.943918,0.000000,0.330181
0.343294,0.070068,0.132789,0.866025,0.000000,0.500000
-0.375397,0.060691,-0.077186,-0.866025,0.000000,-0.500000
-0.032981,-0.192980,0.127440,-0.250543,0.000000,0.968106
-0.070275,-0.173763,-0.111311,-0.533847,0.000000,-0.845581
-0.177956,0.053886,0.363696,0.000000,0.000000,1.000000
0.057825,-0.057630,0.363696,0.000000,0.000000,1.000000
-0.027043,-0.499880,-0.111516,-0.218814,0.371391,-0.902325
-0.034372,-0.522524,0.077674,-0.375722,0.371391,0.849060
-0.037684,-0.299673,0.126130,-0.286269,0.000000,0.958149
0.041566,-0.555461,-0.001119,0.928140,0.371391,-0.024992
0.041825,-0.553642,0.013586,0.883059,0.371391,0.286839
0.005786,-0.479846,0.131512,0.043957,0.000000,0.999033
-0.338941,0.017363,0.140330,-0.866025,0.000000,0.500000
-0.242326,-0.043868,-0.307671,-0.866025,0.000000,-0.500000
0.023995,0.043805,-0.363696,-0.000000,0.000000,-1.000000
0.022769,-0.243436,0.129655,0.172963,0.000000,0.984928
0.046987,-0.550493,-0.010389,0.906580,0.371391,-0.200453
-0.045946,-0.521260,0.073411,-0.492587,0.371391,0.787037
-0.002178,-0.085396,-0.001379,0.000000,-1.000000,0.000000
-0.099279,-0.498352,0.061451,-0.789480,0.371391,0.488662
0.313321,-0.003300,-0.184705,0.866025,0.000000,-0.500000
-0.127193,-0.096219,0.033922,-0.966229,0.000000,0.257687
-0.117744,-0.267153,0.058866,-0.894444,0.000000,0.447180
0.114914,-0.438509,0.064215,0.872951,0.000000,0.487808
-0.017332,-0.437650,-0.130493,-0.131664,0.000000,-0.991294
0.090883,0.085396,-0.342108,0.000000,1.000000,0.000000
-0.037689,-0.534153,-0.058550,-0.502553,0.371391,-0.780711
0.114553,-0.141699,0.064856,0.870209,0.000000,0.492682
-0.128795,-0.092571,0.027215,-0.978396,0.000000,0.206738
0.020148,-0.175360,-0.130088,0.153059,0.000000,-0.988217
0.057653,-0.532180,0.043509,0.741116,0.371391,0.559299
0.231646,-0.040040,-0.326169,0.866025,0.000000,-0.500000
-0.057237,-0.538231,0.029216,-0.826973,0.371391,0.422119
0.147570,0.085396,0.002760,0.000000,1.000000,0.000000
0.224867,0.013451,0.337912,0.866025,0.000000,0.500000
0.112484,-0.412472,-0.068383,0.854488,0.000000,-0.519472
-0.065145,-0.082340,0.363696,0.000000,0.000000,1.000000
-0.173795,0.074790,0.363696,0.000000,0.000000,1.000000
0.131636,-0.243804,-0.000875,0.999978,0.000000,-0.006647
-0.082271,-0.085396,-0.212666,0.000000,-1.000000,0.000000
-0.085906,-0.151103,0.099744,-0.652589,0.000000,0.757712
-0.207472,-0.017991,0.363696,0.000000,0.000000,1.000000
-0.419855,-0.021058,0.000181,-0.866025,0.000000,0.500000
-0.127657,-0.098738,0.032133,-0.969749,0.000000,0.244103
0.045492,-0.014696,0.363696,0.000000,0.000000,1.000000
0.116680,-0.116118,-0.060947,0.886366,0.000000,-0.462985
-0.121747,-0.368762,-0.050066,-0.924853,0.000000,-0.380325
0.150458,-0.028227,-0.363696,-0.000000,0.000000,-1.000000
0.026543,-0.079563,-0.363696,-0.000000,0.000000,-1.000000
-0.351878,0.032009,0.117922,-0.866025,0.000000,0.500000
-0.125651,-0.012515,0.363696,0.000000,0.000000,1.000000
-0.131593,-0.372529,0.003482,-0.999650,0.000000,0.026453
0.113877,-0.358149,0.066037,0.865071,0.000000,0.501649
0.092756,-0.270178,0.093408,0.704626,0.000000,0.709579
-0.016706,-0.542715,0.055918,-0.265788,0.371391,0.889621
-0.129686,-0.292165,-0.022591,-0.985164,0.000000,-0.171617
0.090793,-0.150847,0.095318,0.689709,0.000000,0.724087
-0.179027,-0.074934,-0.363696,-0.000000,0.000000,-1.000000
0.017159,0.085396,0.001312,0.000000,1.000000,0.000000
-0.107438,-0.317348,0.076065,-0.816156,0.000000,0.577832
0.147808,-0.074875,-0.363696,-0.000000,0.000000,-1.000000
0.390541,-0.034215,-0.050956,0.866025,0.000000,-0.500000
0.122924,-0.329977,0.047102,0.933794,0.000000,0.357810
-0.073245,-0.246897,0.109380,-0.556409,0.000000,0.830909
-0.120839,-0.390732,-0.052218,-0.917958,0.000000,-0.396677
-0.277815,0.010518,0.246203,-0.866025,0.000000,0.500000
0.070693,-0.156177,-0.111046,0.537022,0.000000,-0.843568
0.020392,-0.565755,0.019232,0.675466,0.371391,0.637036
0.087352,-0.494259,-0.085379,0.663985,0.371391,-0.648993
-0.361665,-0.004197,0.100970,-0.866025,0.000000,0.500000
-0.043613,-0.546780,0.030131,-0.763895,0.371391,0.527762
0.009946,-0.085396,-0.060489,0.000000,-1.000000,0.000000
-0.069635,-0.196696,0.111713,-0.528982,0.000000,0.848633
0.371530,0.078293,0.083884,0.866025,0.000000,0.500000
-0.070896,-0.533034,0.005433,-0.925762,0.371391,0.070945
-0.026388,-0.485537,-0.128967,-0.200458,0.000000,-0.979702
0.079942,-0.333930,-0.104586,0.607279,0.000000,-0.794489
-0.259919,-0.077588,-0.277199,-0.866025,0.000000,-0.500000
-0.049537,-0.549029,0.007143,-0.918972,0.371391,0.132514
-0.285777,-0.040015,0.232412,-0.866025,0.000000,0.500000
0.314992,-0.070206,0.181810,0.866025,0.000000,0.500000
0.306795,0.062997,0.196008,0.866025,0.000000,0.500000
0.218965,-0.070406,0.348134,0.866025,0.000000,0.500000
0.122408,-0.413482,-0.048427,0.929875,0.000000,-0.367875
0.348261,0.051067,-0.124187,0.866025,0.000000,-0.500000
0.331426,-0.085396,-0.064200,0.000000,-1.000000,0.000000
-0.059268,-0.165662,-0.117542,-0.450235,0.000000,-0.892910
-0.121136,-0.199417,-0.051525,-0.920214,0.000000,-0.391415
-0.288640,0.001723,0.227453,-0.866025,0.000000,0.500000
0.109633,-0.035170,0.363696,0.000000,0.000000,1.000000
-0.189194,-0.017317,-0.363696,-0.000000,0.000000,-1.000000
0.416384,0.063908,-0.006195,0.866025,0.000000,-0.500000
0.057609,-0.004108,0.363696,0.000000,0.000000,1.000000
0.225230,-0.085396,0.035234,0.000000,-1.000000,0.000000
0.074495,-0.508171,0.072332,0.666130,0.371391,0.646792
-0.245674,-0.043436,0.301872,-0.866025,0.000000,0.500000
-0.107811,-0.145829,0.075535,-0.818991,0.000000,0.573806
-0.076131,-0.351327,0.107391,-0.578331,0.000000,0.815802
0.076040,-0.177954,0.107455,0.577644,0.000000,0.816289
-0.036498,0.085396,-0.075684,0.000000,1.000000,0.000000
0.084250,-0.326397,0.101147,0.640008,0.000000,0.768368
0.125925,-0.342922,-0.038363,0.956594,0.000000,-0.291423
-0.037647,-0.349792,-0.126141,-0.285984,0.000000,-0.958234
0.210566,0.070017,0.362681,0.866025,0.000000,0.500000
-0.090610,-0.496906,-0.076620,-0.708979,0.371391,-0.599515
0.063638,-0.184891,-0.115235,0.483425,0.000000,-0.875386
-0.087662,0.031728,-0.363696,-0.000000,0.000000,-1.000000
0.026914,-0.515161,-0.090723,0.264069,0.371391,-0.890133
-0.204585,0.085396,-0.188358,0.000000,1.000000,0.000000
-0.402419,0.024700,-0.030382,-0.866025,0.000000,-0.500000
0.270341,0.085396,0.020226,0.000000,1.000000,0.000000
-0.275512,-0.002982,-0.250192,-0.866025,0.000000,-0.500000
0.224246,0.078978,0.338987,0.866025,0.000000,0.500000
-0.023701,-0.454625,0.129488,-0.180049,0.000000,0.983658
0.255189,0.041496,-0.285391,0.866025,0.000000,-0.500000
-0.165126,0.085396,-0.044425,0.000000,1.000000,0.000000
-0.039265,-0.534857,-0.056379,-0.530632,0.371391,-0.761904
0.020375,-0.558515,-0.031555,0.503650,0.371391,-0.780004
-0.128053,-0.387675,-0.030516,-0.972760,0.000000,-0.231816
0.146998,0.032269,-0.363696,-0.000000,0.000000,-1.000000
-0.023869,0.074562,0.363696,0.000000,0.000000,1.000000
-0.009664,-0.555324,-0.040628,-0.214857,0.371391,-0.903275
-0.343347,0.079739,-0.132697,-0.866025,0.000000,-0.500000
0.078236,-0.515326,-0.052851,0.769376,0.371391,-0.519740
-0.109225,-0.178677,0.073476,-0.829733,0.000000,0.558161
0.383076,-0.036136,0.063885,0.866025,0.000000,0.500000
-0.106437,-0.050867,0.363696,0.000000,0.000000,1.000000
0.321577,-0.040448,-0.170405,0.866025,0.000000,-0.500000
-0.396495,-0.004231,-0.040642,-0.866025,0.000000,-0.500000
0.086897,-0.319095,0.098882,0.660116,0.000000,0.751164
0.225770,-0.003899,-0.336347,0.866025,0.000000,-0.500000
0.054209,0.076575,-0.363696,-0.000000,0.000000,-1.000000
-0.098103,-0.065057,-0.363696,-0.000000,0.000000,-1.000000
0.013168,-0.199682,0.130979,0.100035,0.000000,0.994984
-0.121862,-0.414892,0.049785,-0.925726,0.000000,0.378195
0.120342,-0.099515,-0.053354,0.914180,0.000000,-0.405308
-0.011683,-0.545798,-0.053029,-0.199771,0.371391,-0.906731
0.040610,-0.531177,-0.061321,0.512654,0.371391,-0.774115
-0.204789,0.085396,0.038087,0.000000,1.000000,0.000000
0.006997,-0.115119,0.131453,0.053154,0.000000,0.998586
0.286244,-0.016001,-0.231603,0.866025,0.000000,-0.500000
-0.061434,-0.192925,-0.116425,-0.466683,0.000000,-0.884425
0.104141,-0.282569,-0.080520,0.791108,0.000000,-0.611677
0.037280,-0.135719,-0.126250,0.283203,0.000000,-0.959060
-0.071401,-0.478723,-0.110593,-0.542398,0.000000,-0.840122
-0.044094,-0.549284,0.022957,-0.823544,0.371391,0.428771
0.122569,-0.087445,-0.048018,0.931098,0.000000,-0.364769
0.374579,0.015717,-0.078602,0.866025,0.000000,-0.500000
0.411454,-0.057464,0.014734,0.866025,0.000000,0.500000
-0.093290,-0.123233,-0.092875,-0.708679,0.000000,-0.705531
-0.051281,-0.264058,0.121240,-0.389559,0.000000,0.921002
-0.378623,-0.022758,-0.071598,-0.866025,0.000000,-0.500000
-0.016567,-0.085396,0.133015,0.000000,-1.000000,0.000000
-0.011807,-0.391307,0.131108,-0.089696,0.000000,0.995969
-0.025700,-0.152401,0.129106,-0.195228,0.000000,0.980758
-0.035265,-0.559650,0.007565,-0.907823,0.371391,0.194745
0.042793,-0.257275,0.124489,0.325082,0.000000,0.945686
-0.129979,-0.481764,-0.020837,-0.987393,0.000000,-0.158286
-0.131020,-0.471520,0.012753,-0.995296,0.000000,0.096879
-0.109684,-0.085570,0.072789,-0.833219,0.000000,0.552943
0.280150,-0.080319,-0.242158,0.866025,0.000000,-0.500000
0.017616,0.085396,-0.020216,0.000000,1.000000,0.000000
0.323374,-0.075918,-0.167292,0.866025,0.000000,-0.500000
0.128620,-0.319578,0.028031,0.977065,0.000000,0.212939
-0.158427,0.061320,-0.363696,-0.000000,0.000000,-1.000000
0.033360,-0.326492,-0.127342,0.253422,0.000000,-0.967356
-0.349437,-0.012173,0.122150,-0.866025,0.000000,0.500000
0.274043,-0.045349,-0.252736,0.866025,0.000000,-0.500000
-0.126350,-0.170611,-0.036937,-0.959826,0.000000,-0.280596
0.068909,-0.425899,0.112162,0.523470,0.000000,0.852044
-0.128740,-0.364069,0.027474,-0.977977,0.000000,0.208710
-0.052246,-0.387148,-0.120827,-0.396885,0.000000,-0.917868
0.175004,0.069458,-0.363696,-0.000000,0.000000,-1.000000
0.120890,-0.230965,0.052101,0.918343,0.000000,0.395785
-0.266811,0.028342,0.265262,-0.866025,0.000000,0.500000
0.117630,-0.206546,-0.059092,0.893584,0.000000,-0.448897
0.127780,-0.380046,0.031638,0.970688,0.000000,0.240343
0.018958,-0.544808,0.052273,0.316559,0.371391,0.872846
-0.084021,-0.265015,0.101338,-0.638265,0.000000,0.769817
0.193090,-0.046711,0.363696,0.000000,0.000000,1.000000
0.062087,-0.314132,-0.116078,0.471647,0.000000,-0.881787
-0.122983,-0.305072,0.046947,-0.934243,0.000000,0.356637
-0.212703,0.065955,-0.358980,-0.866025,0.000000,-0.500000
0.091744,-0.250021,-0.094403,0.696933,0.000000,-0.717136
0.064430,-0.523696,-0.052952,0.717308,0.371391,-0.589524
-0.124993,-0.234146,-0.041297,-0.949517,0.000000,-0.313716
0.114663,-0.244232,0.064662,0.871045,0.000000,0.491204
-0.115631,-0.340213,0.062915,-0.878395,0.000000,0.477936
0.006126,-0.085396,-0.005355,0.000000,-1.000000,0.000000
-0.284713,-0.007938,0.234254,-0.866025,0.000000,0.500000
-0.037077,-0.360642,0.126310,-0.281656,0.000000,0.959516
-0.084651,-0.030244,0.363696,0.000000,0.000000,1.000000
0.112316,-0.377381,-0.068657,0.853216,0.000000,-0.521557
-0.162141,0.085396,-0.212694,0.000000,1.000000,0.000000
-0.130244,-0.295820,-0.019114,-0.989402,0.000000,-0.145202
-0.413121,0.030977,-0.011846,-0.866025,0.000000,-0.500000
0.010275,-0.445929,0.131237,0.078051,0.000000,0.996949
0.003335,-0.260321,0.131597,0.025335,0.000000,0.999679
-0.068012,-0.121031,0.112708,-0.516654,0.000000,0.856194
-0.077639,-0.515785,0.052654,-0.768427,0.371391,0.521142
0.125327,-0.245493,-0.040272,0.952055,0.000000,-0.305928
-0.023619,-0.323913,-0.129503,-0.179424,0.000000,-0.983772
0.215727,0.063794,0.353741,0.866025,0.000000,0.500000
0.089539,-0.299871,0.096497,0.680185,0.000000,0.733040
0.374321,0.037395,-0.079049,0.866025,0.000000,-0.500000
0.126069,-0.085068,-0.363696,-0.000000,0.000000,-1.000000
0.110122,-0.343576,-0.072125,0.836545,0.000000,-0.547898
-0.055728,-0.030316,-0.363696,-0.000000,0.000000,-1.000000
-0.032020,-0.523262,-0.077624,-0.354060,0.371391,-0.858318
0.306264,0.054332,0.196927,0.866025,0.000000,0.500000
0.414933,-0.008899,-0.008708,0.866025,0.000000,-0.500000
0.031854,-0.410382,0.127727,0.241983,0.000000,0.970280
-0.013402,-0.444081,-0.130955,-0.101805,0.000000,-0.994804
-0.137436,-0.027864,-0.363696,-0.000000,0.000000,-1.000000
0.328854,0.063252,-0.157801,0.866025,0.000000,-0.500000
0.005455,-0.085396,0.003531,0.000000,-1.000000,0.000000
-0.115015,-0.498123,-0.021789,-0.912252,0.371391,-0.172817
0.266747,0.010329,0.265373,0.866025,0.000000,0.500000
-0.311402,0.042690,0.188028,-0.866025,0.000000,0.500000
-0.364509,-0.017339,0.096044,-0.866025,0.000000,0.500000
-0.128561,-0.297794,0.028301,-0.976617,0.000000,0.214987
0.101428,-0.328956,-0.083912,0.770502,0.000000,-0.637438
0.046713,-0.451186,-0.123072,0.354855,0.000000,-0.934921
0.153927,0.034542,-0.363696,-0.000000,0.000000,-1.000000
-0.093196,-0.504755,-0.055227,-0.798763,0.371391,-0.473336
0.264731,-0.065803,-0.268865,0.866025,0.000000,-0.500000
0.122292,-0.341030,-0.048717,0.928998,0.000000,-0.370084
-0.128387,-0.152662,-0.029077,-0.975300,0.000000,-0.220883
-0.343826,0.026797,0.131869,-0.866025,0.000000,0.500000
-0.074025,-0.528123,-0.023179,-0.886054,0.371391,-0.277447
-0.079341,-0.085396,0.124456,0.000000,-1.000000,0.000000
0.053397,-0.212573,-0.120323,0.405633,0.000000,-0.914036
0.005867,-0.552114,-0.045611,0.118449,0.371391,-0.920890
0.233020,0.047086,0.323789,0.866025,0.000000,0.500000
0.214004,-0.078040,0.356726,0.866025,0.000000,0.500000
0.238613,-0.074654,0.314103,0.866025,0.000000,0.500000
-0.010050,-0.085396,0.004704,0.000000,-1.000000,0.000000
0.173858,0.080586,0.363696,0.000000,0.000000,1.000000
-0.009829,-0.141002,0.131272,-0.074664,0.000000,0.997209
-0.266505,0.028344,-0.265792,-0.866025,0.000000,-0.500000
0.017702,-0.308750,0.130443,0.134476,0.000000,0.990917
-0.002119,-0.387269,-0.131622,-0.016098,0.000000,-0.999870
0.036435,0.085396,-0.019436,0.000000,1.000000,0.000000
-0.058735,-0.353654,-0.117809,-0.446182,0.000000,-0.894942
0.322528,0.068856,-0.168758,0.866025,0.000000,-0.500000
0.020639,-0.491991,0.123419,0.153138,0.371391,0.915761
-0.226949,0.031132,-0.334306,-0.866025,0.000000,-0.500000
-0.110233,-0.486011,0.071954,-0.837393,0.000000,0.546602
0.288755,-0.085396,-0.187569,0.000000,-1.000000,0.000000
0.338294,-0.083696,0.141449,0.866025,0.000000,0.500000
0.055306,-0.462129,0.119457,0.420132,0.000000,0.907463
-0.005112,0.058771,0.363696,0.000000,0.000000,1.000000
-0.126303,-0.333922,-0.037100,-0.959463,0.000000,-0.281834
-0.226031,-0.059912,0.335896,-0.866025,0.000000,0.500000
0.070081,-0.232273,-0.111434,0.532374,0.000000,-0.846509
-0.304704,-0.085396,-0.163694,0.000000,-1.000000,0.000000
-0.024465,-0.273367,-0.129346,-0.185847,0.000000,-0.982579
0.127336,-0.433319,0.033382,0.967312,0.000000,0.253588
-0.042793,-0.143176,0.124489,-0.325082,0.000000,0.945686
-0.125311,-0.242938,0.040325,-0.951926,0.000000,0.306327
0.025102,-0.017560,-0.363696,-0.000000,0.000000,-1.000000
0.067085,-0.535694,0.008347,0.921373,0.371391,0.114636
-0.102230,0.018080,-0.363696,-0.000000,0.000000,-1.000000
-0.404749,0.016626,0.026347,-0.866025,0.000000,0.500000
0.006510,0.033426,0.363696,0.000000,0.000000,1.000000
-0.028655,-0.085396,-0.005721,0.000000,-1.000000,0.000000
-0.329431,-0.055714,-0.156801,-0.866025,0.000000,-0.500000
0.091553,-0.451548,0.094588,0.695483,0.000000,0.718543
-0.083041,-0.380140,0.102142,-0.630823,0.000000,0.775927
-0.123104,-0.232809,-0.046628,-0.935166,0.000000,-0.354209
-0.341797,-0.012136,-0.135383,-0.866025,0.000000,-0.500000
-0.210967,0.016961,-0.361987,-0.866025,0.000000,-0.500000
-0.211625,0.035202,-0.360848,-0.866025,0.000000,-0.500000
-0.022738,-0.310262,-0.129660,-0.172732,0.000000,-0.984969
-0.033872,-0.085396,0.057841,0.000000,-1.000000,0.000000
0.055867,-0.131375,-0.119196,0.424392,0.000000,-0.905478
-0.114742,-0.140443,0.064523,-0.871639,0.000000,0.490148
-0.357872,0.058396,-0.107540,-0.866025,0.000000,-0.500000
0.235916,0.084528,0.318774,0.866025,0.000000,0.500000
0.103433,-0.369105,0.081428,0.785730,0.000000,0.618570
-0.335256,0.021633,-0.146712,-0.866025,0.000000,-0.500000
-0.378032,-0.000524,-0.072622,-0.866025,0.000000,-0.500000
0.416872,-0.019117,0.005349,0.866025,0.000000,0.500000
-0.071933,-0.531317,-0.014424,-0.910355,0.371391,-0.182544
0.266780,0.066287,0.265315,0.866025,0.000000,0.500000
-0.037344,-0.265384,-0.126231,-0.283688,0.000000,-0.958917
-0.087738,-0.503195,-0.066981,-0.737999,0.371391,-0.563406
0.069793,0.085396,0.049499,0.000000,1.000000,0.000000
-0.140682,0.081217,0.363696,0.000000,0.000000,1.000000
0.120657,-0.428183,0.052638,0.916572,0.000000,0.399869
-0.248325,0.065308,-0.297282,-0.866025,0.000000,-0.500000
-0.387453,0.036377,-0.056304,-0.866025,0.000000,-0.500000
-0.033499,-0.213246,0.127305,-0.254474,0.000000,0.967080
-0.040389,-0.522110,0.075341,-0.438677,0.371391,0.818310
0.079117,-0.085396,-0.051265,0.000000,-1.000000,0.000000
-0.115983,-0.311876,0.062264,-0.881065,0.000000,0.472994
0.136614,0.071890,-0.363696,-0.000000,0.000000,-1.000000
0.179012,0.078292,0.363696,0.000000,0.000000,1.000000
0.085286,-0.204975,-0.100275,0.647877,0.000000,-0.761745
-0.084379,-0.173316,0.101040,-0.640985,0.000000,0.767553
-0.102630,0.030860,0.363696,0.000000,0.000000,1.000000
-0.341944,0.050446,0.135128,-0.866025,0.000000,0.500000
-0.127785,-0.104964,0.031620,-0.970723,0.000000,0.240202
0.114134,-0.036600,-0.363696,-0.000000,0.000000,-1.000000
0.287860,0.013379,0.228804,0.866025,0.000000,0.500000
0.032033,-0.550260,-0.036319,0.614163,0.371391,-0.696328
-0.045813,-0.487141,-0.123281,-0.323423,0.371391,-0.870326
-0.057233,-0.529160,0.050313,-0.697333,0.371391,0.613022
-0.004694,0.085396,-0.011257,0.000000,1.000000,0.000000
0.135365,0.085396,-0.046061,0.000000,1.000000,0.000000
0.085848,-0.521833,-0.000483,0.928462,0.371391,-0.005228
0.131308,-0.237962,0.009332,0.997484,0.000000,0.070892
0.356682,0.072842,-0.109601,0.866025,0.000000,-0.500000
0.067285,0.085396,-0.013557,0.000000,1.000000,0.000000
0.101151,-0.155615,0.084245,0.768399,0.000000,0.639971
-0.122269,-0.434801,0.048777,-0.928818,0.000000,0.370537
-0.102656,-0.325808,0.082405,-0.779827,0.000000,0.625995
0.364078,-0.073385,0.096791,0.866025,0.000000,0.500000
-0.345695,0.046083,-0.128631,-0.866025,0.000000,-0.500000
-0.246752,0.085396,0.210197,0.000000,1.000000,0.000000
-0.018352,-0.522857,-0.082484,-0.201643,0.371391,-0.906316
0.053365,-0.181276,0.120337,0.405387,0.000000,0.914145
-0.131550,0.029360,0.363696,0.000000,0.000000,1.000000
-0.078603,-0.216658,0.105595,-0.597113,0.000000,0.802157
0.067898,-0.532619,0.022883,0.879854,0.371391,0.296523
0.131444,-0.454842,0.007163,0.998518,0.000000,0.054414
0.056988,-0.148799,0.118664,0.432915,0.000000,0.901435
-0.005485,-0.307403,-0.131525,-0.041665,0.000000,-0.999132
-0.124632,-0.424723,-0.042376,-0.946770,0.000000,-0.321910
-0.024646,-0.498031,0.114560,-0.195283,0.371391,0.907708
0.020406,-0.564605,-0.021365,0.641295,0.371391,-0.671424
-0.128404,-0.266327,0.029002,-0.975429,0.000000,0.220313
-0.168449,0.054863,0.363696,0.000000,0.000000,1.000000
0.006377,-0.518359,0.090197,0.065480,0.371391,0.926165
0.331204,0.078407,0.153730,0.866025,0.000000,0.500000
0.038097,0.069362,-0.363696,-0.000000,0.000000,-1.000000
-0.081701,-0.379574,0.103217,-0.620646,0.000000,0.784091
0.215327,-0.079358,-0.354434,0.866025,0.000000,-0.500000
-0.206630,0.001020,0.363696,0.000000,0.000000,1.000000
-0.302308,0.039637,0.203779,-0.866025,0.000000,0.500000
-0.037831,-0.532206,0.061488,-0.486537,0.371391,0.790791
0.107166,-0.349048,0.076448,0.814087,0.000000,0.580743
-0.128474,-0.280324,0.028693,-0.975957,0.000000,0.217965
-0.129275,-0.111827,0.024837,-0.982039,0.000000,0.188677
0.061186,-0.467367,0.116555,0.464804,0.000000,0.885414
0.324618,0.083697,-0.165137,0.866025,0.000000,-0.500000
-0.032236,-0.138360,-0.127631,-0.244882,0.000000,-0.969553
-0.037116,0.014599,0.363696,0.000000,0.000000,1.000000
0.065419,-0.157424,0.114233,0.496961,0.000000,0.867773
-0.023337,-0.528035,0.074097,-0.278918,0.371391,0.885592
0.127098,-0.326343,0.034279,0.965501,0.000000,0.260398
-0.227564,-0.051298,0.333240,-0.866025,0.000000,0.500000
0.374531,0.004067,-0.078685,0.866025,0.000000,-0.500000
0.215689,0.000893,-0.353808,0.866025,0.000000,-0.500000
0.089077,0.085396,-0.264521,0.000000,1.000000,0.000000
0.070102,-0.369438,-0.111421,0.532530,0.000000,-0.846411
-0.005540,-0.206817,-0.131522,-0.042087,0.000000,-0.999114
0.126371,-0.366340,0.036868,0.959981,0.000000,0.280065
0.127086,-0.250518,0.034320,0.965417,0.000000,0.260710
-0.035071,-0.128927,-0.126881,-0.266415,0.000000,-0.963858
0.109052,-0.114417,0.073732,0.828421,0.000000,0.560106
0.055710,-0.085396,0.115376,0.000000,-1.000000,0.000000
-0.032379,-0.203094,0.127595,-0.245970,0.000000,0.969278
-0.019068,-0.050089,-0.363696,-0.000000,0.000000,-1.000000
0.069779,-0.533007,0.013844,0.910725,0.371391,0.180689
-0.037148,-0.555610,0.018242,-0.833410,0.371391,0.409263
0.357240,0.029045,0.108635,0.866025,0.000000,0.500000
0.066462,-0.017363,0.363696,0.000000,0.000000,1.000000
-0.077597,-0.521989,-0.036245,-0.841234,0.371391,-0.392931
0.011083,-0.146985,-0.131172,0.084191,0.000000,-0.996450
-0.076367,-0.509319,0.068102,-0.692958,0.371391,0.617963
0.118726,-0.319124,-0.056860,0.901904,0.000000,-0.431936
0.113641,-0.341891,0.066441,0.863281,0.000000,0.504724
-0.291004,-0.011026,0.223359,-0.866025,0.000000,0.500000
0.083802,-0.239385,-0.101519,0.636605,0.000000,-0.771190
0.069954,-0.445232,0.111513,0.531411,0.000000,0.847114
0.372262,-0.032646,0.082616,0.866025,0.000000,0.500000
-0.071788,0.085396,-0.295690,0.000000,1.000000,0.000000
-0.248481,-0.047389,0.297010,-0.866025,0.000000,0.500000
-0.281797,0.069860,-0.239306,-0.866025,0.000000,-0.500000
0.225220,0.041690,0.337301,0.866025,0.000000,0.500000
-0.360586,-0.053389,0.102838,-0.866025,0.000000,0.500000
-0.104313,-0.275369,0.080297,-0.792416,0.000000,0.609981
-0.049463,-0.397381,0.121993,-0.375750,0.000000,0.926721
-0.030446,-0.267824,-0.128070,-0.231286,0.000000,-0.972886
0.076964,0.017391,-0.363696,-0.000000,0.000000,-1.000000
0.127621,-0.159423,0.032276,0.969476,0.000000,0.245187
-0.065160,0.056456,-0.363696,-0.000000,0.000000,-1.000000
0.028870,-0.083710,-0.363696,-0.000000,0.000000,-1.000000
-0.130732,-0.269775,0.015424,-0.993112,0.000000,0.117166
0.301992,-0.061759,-0.204327,0.866025,0.000000,-0.500000
-0.079551,-0.315956,-0.104883,-0.604315,0.000000,-0.796746
0.230179,0.085396,-0.273891,0.000000,1.000000,0.000000
0.014714,-0.554615,0.040080,0.319990,0.371391,0.871594
0.041138,-0.300143,0.125046,0.312509,0.000000,0.949915
-0.002291,0.085396,-0.001133,0.000000,1.000000,0.000000
-0.321341,-0.038063,-0.170813,-0.866025,0.000000,-0.500000
-0.055595,-0.505089,-0.092464,-0.478435,0.371391,-0.795719
0.278757,0.001383,-0.244571,0.866025,0.000000,-0.500000
-0.057149,-0.312438,-0.118587,-0.434133,0.000000,-0.900849
0.150954,0.085396,-0.091355,0.000000,1.000000,0.000000
0.064668,0.085396,-0.269789,0.000000,1.000000,0.000000
-0.077421,-0.495688,0.092032,-0.597703,0.371391,0.710507
0.173073,-0.085396,-0.016783,0.000000,-1.000000,0.000000
-0.315167,-0.006084,0.181507,-0.866025,0.000000,0.500000
0.131484,-0.165132,0.006380,0.998825,0.000000,0.048468
-0.301089,-0.008361,0.205892,-0.866025,0.000000,0.500000
0.001312,-0.532778,0.071428,0.017054,0.371391,0.928320
-0.328781,-0.020928,0.157926,-0.866025,0.000000,0.500000
-0.227056,0.042510,0.334119,-0.866025,0.000000,0.500000
-0.033186,-0.493838,-0.118129,-0.251115,0.371391,-0.893874
0.043235,0.085396,0.001282,0.000000,1.000000,0.000000
0.238576,0.049556,-0.314166,0.866025,0.000000,-0.500000
-0.062900,-0.317843,-0.115639,-0.477819,0.000000,-0.878458
-0.018200,-0.538478,-0.061293,-0.264292,0.371391,-0.890067
0.118148,-0.218979,-0.058051,0.897512,0.000000,-0.440989
-0.107652,0.049490,-0.363696,-0.000000,0.000000,-1.000000
0.044447,-0.525531,-0.067692,0.509610,0.371391,-0.776123
0.129652,-0.314315,-0.022788,0.984903,0.000000,-0.173109
-0.301090,0.045667,-0.205890,-0.866025,0.000000,-0.500000
0.047326,-0.127642,0.122838,0.359512,0.000000,0.933140
-0.104002,-0.429798,-0.080700,-0.790054,0.000000,-0.613038
0.022268,-0.555715,-0.034720,0.501247,0.371391,-0.781550
0.283377,-0.014452,0.236570,0.866025,0.000000,0.500000
-0.038086,-0.293645,0.126009,-0.289321,0.000000,0.957232
0.072241,0.005331,0.363696,0.000000,0.000000,1.000000
-0.331846,0.060899,-0.152619,-0.866025,0.000000,-0.500000
-0.241959,-0.055816,0.308307,-0.866025,0.000000,0.500000
-0.015942,-0.085396,0.016370,0.000000,-1.000000,0.000000
0.025344,-0.168577,0.129176,0.192526,0.000000,0.981292
-0.121855,-0.415174,0.049802,-0.925674,0.000000,0.378323
-0.070138,-0.515003,-0.063837,-0.686652,0.371391,-0.624963
0.034873,-0.559869,0.007996,0.904994,0.371391,0.207497
-0.231952,0.046078,-0.325640,-0.866025,0.000000,-0.500000
0.179022,0.049332,0.363696,0.000000,0.000000,1.000000
0.272249,0.085396,0.176641,0.000000,1.000000,0.000000
-0.411701,0.070899,0.014306,-0.866025,0.000000,0.500000
-0.081117,-0.082548,-0.363696,-0.000000,0.000000,-1.000000
0.203268,-0.085396,0.068583,0.000000,-1.000000,0.000000
0.122949,-0.477349,0.047036,0.933987,0.000000,0.357307
0.088985,0.045745,-0.363696,-0.000000,0.000000,-1.000000
-0.147518,-0.083115,-0.363696,-0.000000,0.000000,-1.000000
-0.021428,-0.085396,-0.034103,0.000000,-1.000000,0.000000
-0.012689,-0.512781,-0.096938,-0.120512,0.371391,-0.920623
-0.098691,-0.085396,0.116362,0.000000,-1.000000,0.000000
0.047310,-0.516218,0.080346,0.471108,0.371391,0.800079
-0.265771,0.061459,-0.267063,-0.866025,0.000000,-0.500000
0.306274,0.071540,-0.196910,0.866025,0.000000,-0.500000
-0.094359,0.085396,-0.141388,0.000000,1.000000,0.000000
0.088899,-0.193585,0.097086,0.675327,0.000000,0.737519
0.059069,-0.539833,0.019336,0.882403,0.371391,0.288848
-0.257650,-0.001322,-0.281129,-0.866025,0.000000,-0.500000
0.045616,0.014753,0.363696,0.000000,0.000000,1.000000
-0.061331,-0.350031,-0.116479,-0.465906,0.000000,-0.884834
-0.124577,-0.052258,0.363696,0.000000,0.000000,1.000000
0.123783,-0.388653,-0.044794,0.940325,0.000000,-0.340278
-0.129469,-0.085396,-0.067896,0.000000,-1.000000,0.000000
-0.290368,0.021113,0.224459,-0.866025,0.000000,0.500000
-0.053162,-0.455050,0.120427,-0.403849,0.000000,0.914826
-0.049417,-0.445537,0.122011,-0.375399,0.000000,0.926863
0.076039,0.055446,-0.363696,-0.000000,0.000000,-1.000000
-0.240533,0.052863,-0.310778,-0.866025,0.000000,-0.500000
0.068864,-0.085396,0.228263,0.000000,-1.000000,0.000000
-0.381872,0.053667,-0.065970,-0.866025,0.000000,-0.500000
-0.258319,-0.085396,-0.100131,0.000000,-1.000000,0.000000
0.127073,-0.306687,0.034371,0.965312,0.000000,0.261101
0.056428,-0.436809,0.118931,0.428659,0.000000,0.903466
0.077320,-0.140539,0.106538,0.587364,0.000000,0.809323
-0.119305,-0.304722,-0.055634,-0.906304,0.000000,-0.422627
-0.120810,-0.239310,0.052286,-0.917737,0.000000,0.397189
-0.042932,-0.415800,0.124441,-0.326133,0.000000,0.945324
0.125398,-0.490455,-0.021064,0.915648,0.371391,-0.153811
-0.080468,-0.335058,-0.104181,-0.611280,0.000000,-0.791414
0.003288,-0.085396,0.101210,0.000000,-1.000000,0.000000
0.091868,-0.085396,0.085630,0.000000,-1.000000,0.000000
0.067435,-0.281893,-0.113055,0.512272,0.000000,-0.858823
-0.078937,-0.449395,0.105346,-0.599644,0.000000,0.800267
-0.032809,-0.534135,0.061444,-0.437334,0.371391,0.819029
-0.269158,0.025652,0.261196,-0.866025,0.000000,0.500000
0.112556,-0.111988,-0.068264,0.855034,0.000000,-0.518572
-0.009116,-0.495864,-0.119688,-0.070516,0.371391,-0.925795
0.130943,-0.265642,0.013520,0.994712,0.000000,0.102703
-0.131532,-0.249112,0.005311,-0.999186,0.000000,0.040348
0.067774,-0.352979,0.112852,0.514846,0.000000,0.857283
0.116918,-0.097535,0.060490,0.888170,0.000000,0.459516
0.077431,0.003643,-0.363696,-0.000000,0.000000,-1.000000
-0.023063,-0.102692,0.129603,-0.175197,0.000000,0.984533
-0.386996,-0.060832,0.057095,-0.866025,0.000000,0.500000
-0.123468,-0.323341,0.045657,-0.937927,0.000000,0.346833
-0.023134,-0.503131,-0.108018,-0.194444,0.371391,-0.907888
-0.057211,-0.408992,0.118557,-0.434603,0.000000,0.900622
0.016291,-0.085396,-0.207344,0.000000,-1.000000,0.000000
-0.340987,0.028899,0.136785,-0.866025,0.000000,0.500000
0.129575,-0.205201,0.023219,0.984322,0.000000,0.176383
0.232136,0.085066,-0.325322,0.866025,0.000000,-0.500000
0.416602,0.001276,0.005816,0.866025,0.000000,0.500000
0.125681,-0.060375,-0.363696,-0.000000,0.000000,-1.000000
-0.076078,-0.085396,0.222737,0.000000,-1.000000,0.000000
0.141372,-0.022404,0.363696,0.000000,0.000000,1.000000
0.025376,-0.144606,-0.129170,0.192768,0.000000,-0.981244
-0.003784,-0.174149,-0.131585,-0.028743,0.000000,-0.999587
0.069316,-0.093492,0.111911,0.526559,0.000000,0.850139
-0.034807,-0.556854,0.019194,-0.813048,0.371391,0.448354
0.109503,-0.477853,-0.073062,0.831840,0.000000,-0.555016
0.106499,0.018222,0.363696,0.000000,0.000000,1.000000
0.130467,-0.473383,0.017526,0.991097,0.000000,0.133139
0.016466,-0.482393,0.130605,0.125087,0.000000,0.992146
0.001894,-0.566860,0.026508,0.066186,0.371391,0.926115
0.116167,-0.292685,-0.061919,0.882467,0.000000,-0.470374
-0.130826,-0.400546,-0.014610,-0.993822,0.000000,-0.110982
0.250172,0.015277,-0.294082,0.866025,0.000000,-0.500000
0.066032,-0.323231,-0.113880,0.501612,0.000000,-0.865093
0.278855,0.036655,0.244402,0.866025,0.000000,0.500000
0.216652,0.008820,-0.352141,0.866025,0.000000,-0.500000
0.030011,0.082067,0.363696,0.000000,0.000000,1.000000
0.013444,-0.556074,-0.038495,0.306121,0.371391,-0.876561
0.119670,-0.253468,0.054845,0.909074,0.000000,0.416634
-0.384834,0.074811,0.060840,-0.866025,0.000000,0.500000
0.107989,-0.340583,0.075281,0.820341,0.000000,0.571874
0.131638,-0.156282,-0.000366,0.999996,0.000000,-0.002782
-0.049001,-0.056129,-0.363696,-0.000000,0.000000,-1.000000
-0.337015,-0.000748,-0.143665,-0.866025,0.000000,-0.500000
-0.392074,0.069597,-0.048301,-0.866025,0.000000,-0.500000
-0.262172,-0.053829,0.273297,-0.866025,0.000000,0.500000
-0.073146,-0.527443,-0.028396,-0.865543,0.371391,-0.336012
-0.131000,-0.307272,-0.012954,-0.995147,0.000000,-0.098403
0.372499,0.061966,-0.082205,0.866025,0.000000,-0.500000
0.340838,0.010103,-0.137043,0.866025,0.000000,-0.500000
-0.025339,-0.391409,-0.129177,-0.192486,0.000000,-0.981300
0.406084,-0.051710,0.024034,0.866025,0.000000,0.500000
0.276512,-0.071166,-0.248459,0.866025,0.000000,-0.500000
0.101691,0.059489,-0.363696,-0.000000,0.000000,-1.000000
-0.120174,-0.373734,0.053730,-0.912909,0.000000,0.408164
0.030423,-0.478634,-0.128075,0.231109,0.000000,-0.972928
0.282891,-0.080658,-0.237411,0.866025,0.000000,-0.500000
0.277968,-0.028668,-0.245937,0.866025,0.000000,-0.500000
0.037165,-0.519950,0.080128,0.390667,0.371391,0.842287
0.389066,0.076391,-0.053509,0.866025,0.000000,-0.500000
-0.386110,0.014091,-0.058631,-0.866025,0.000000,-0.500000
-0.110248,-0.288005,0.071932,-0.837501,0.000000,0.546436
-0.082377,0.029231,0.363696,0.000000,0.000000,1.000000
0.243300,0.052627,0.305984,0.866025,0.000000,0.500000
0.123119,-0.450687,0.046589,0.935278,0.000000,0.353915
-0.222613,0.085396,0.108083,0.000000,1.000000,0.000000
0.095736,-0.383737,-0.090352,0.727262,0.000000,-0.686360
0.040257,-0.250379,0.125332,0.305814,0.000000,0.952091
-0.391266,-0.081213,-0.049700,-0.866025,0.000000,-0.500000
0.110848,-0.493862,0.052542,0.838995,0.371391,0.397689
-0.338236,-0.012475,0.141551,-0.866025,0.000000,0.500000
0.266882,-0.000005,0.265140,0.866025,0.000000,0.500000
0.065285,-0.524764,0.049602,0.739302,0.371391,0.561696
0.000361,-0.508133,0.103883,0.003223,0.371391,0.928471
-0.186327,-0.058729,0.363696,0.000000,0.000000,1.000000
-0.384396,-0.004702,0.061599,-0.866025,0.000000,0.500000
0.130200,-0.370690,-0.019410,0.989070,0.000000,-0.147449
0.061925,-0.286913,-0.116164,0.470414,0.000000,-0.882446
0.038488,-0.448824,-0.125887,0.292374,0.000000,-0.956304
-0.120607,-0.411077,0.052752,-0.916195,0.000000,0.400732
-0.130806,-0.137562,0.014786,-0.993672,0.000000,0.112322
0.131093,-0.454282,0.011979,0.995851,0.000000,0.090995
0.110728,-0.467599,0.071191,0.841147,0.000000,0.540806
-0.027051,0.033356,0.363696,0.000000,0.000000,1.000000
0.217106,0.079080,0.351353,0.866025,0.000000,0.500000
-0.091153,-0.363112,-0.094973,-0.692450,0.000000,-0.721465
-0.043192,-0.072986,0.363696,0.000000,0.000000,1.000000
0.103759,-0.174126,0.081012,0.788205,0.000000,0.615412
0.005224,-0.527180,0.078637,0.061545,0.371391,0.926435
0.114720,-0.108441,0.064561,0.871477,0.000000,0.490437
0.103115,-0.479336,-0.081830,0.783318,0.000000,-0.621621
-0.075402,-0.217431,-0.107904,-0.572797,0.000000,-0.819697
0.082694,-0.118577,0.102423,0.628191,0.000000,0.778059
0.129120,-0.163390,0.025626,0.980869,0.000000,0.194671
0.025537,-0.057219,-0.363696,-0.000000,0.000000,-1.000000
-0.124004,-0.260768,0.044180,-0.941999,0.000000,0.335615
0.126445,-0.226011,0.036611,0.960547,0.000000,0.278118
0.138984,0.085396,-0.101739,0.000000,1.000000,0.000000
0.248647,-0.036151,0.296723,0.866025,0.000000,0.500000
0.025311,-0.533521,0.065760,0.333522,0.371391,0.866506
-0.029190,-0.344841,-0.128362,-0.221741,0.000000,-0.975106
0.072742,-0.265609,0.109715,0.552584,0.000000,0.833458
0.042090,-0.370910,0.124729,0.319741,0.000000,0.947505
0.039675,-0.513884,0.087761,0.382476,0.371391,0.846039
0.327490,0.004444,0.160163,0.866025,0.000000,0.500000
0.124734,-0.461566,0.042074,0.947548,0.000000,0.319614
-0.044345,-0.544779,0.033612,-0.739944,0.371391,0.560849
0.131456,-0.342797,0.006933,0.998612,0.000000,0.052670
-0.021081,-0.491563,-0.123916,-0.155717,0.371391,-0.915326
0.041936,-0.514591,0.085669,0.408217,0.371391,0.833923
0.079209,-0.129439,-0.105141,0.601715,0.000000,-0.798711
0.138158,0.021339,0.363696,0.000000,0.000000,1.000000
-0.126177,-0.114023,-0.037526,-0.958506,0.000000,-0.285071
-0.120344,-0.158884,0.053349,-0.914198,0.000000,0.405269
0.066195,-0.409555,0.113785,0.502851,0.000000,0.864373
0.077235,-0.176141,-0.106600,0.586719,0.000000,-0.809791
-0.352250,-0.020931,-0.117278,-0.866025,0.000000,-0.500000
0.075659,-0.299596,-0.107725,0.574743,0.000000,-0.818334
0.241795,-0.085396,-0.047525,0.000000,-1.000000,0.000000
0.028795,-0.418450,0.128451,0.218746,0.000000,0.975782
-0.359099,0.058483,-0.105414,-0.866025,0.000000,-0.500000
-0.037929,-0.487365,-0.125621,-0.268370,0.371391,-0.888846
0.083943,-0.523269,-0.001605,0.928307,0.371391,-0.017749
-0.382093,-0.016713,-0.065588,-0.866025,0.000000,-0.500000
0.299060,-0.000658,-0.209405,0.866025,0.000000,-0.500000
0.414645,0.066556,-0.009205,0.866025,0.000000,-0.500000
0.042024,-0.475550,0.124751,0.319239,0.000000,0.947674
-0.046687,-0.429684,0.123082,-0.354661,0.000000,0.934995
-0.393622,0.011677,-0.045619,-0.866025,0.000000,-0.500000
0.371166,0.070934,0.084513,0.866025,0.000000,0.500000
0.276010,0.055115,0.249329,0.866025,0.000000,0.500000
-0.013639,-0.514073,0.095091,-0.131820,0.371391,0.919071
0.000186,-0.290759,-0.131639,0.001416,0.000000,-0.999999
0.095869,-0.488719,-0.086971,0.687669,0.371391,-0.623843
0.012022,0.085396,-0.002099,0.000000,1.000000,0.000000
0.063262,-0.300095,-0.115442,0.480571,0.000000,-0.876956
-0.102628,-0.439942,-0.082439,-0.779619,0.000000,-0.626255
0.049942,0.085396,-0.012254,0.000000,1.000000,0.000000
-0.122212,-0.388916,-0.048918,-0.928391,0.000000,-0.371605
-0.046598,-0.288446,-0.123116,-0.353984,0.000000,-0.935251
0.057447,-0.512548,0.079485,0.543869,0.371391,0.752513
-0.046125,-0.513915,-0.084504,-0.444841,0.371391,-0.814976
0.125765,-0.461171,0.038884,0.955378,0.000000,0.295384
0.347337,0.044368,-0.125788,0.866025,0.000000,-0.500000
-0.190646,0.041603,-0.363696,-0.000000,0.000000,-1.000000
-0.063741,-0.217268,0.115178,-0.484210,0.000000,0.874952
-0.050392,-0.024295,-0.363696,-0.000000,0.000000,-1.000000
0.098682,-0.104322,0.087125,0.749641,0.000000,0.661845
