x,y,z,nx,ny,nz
0.151124,0.003831,0.275201,0.481341,0.000000,0.876533
-0.038917,0.106676,-0.080701,0.000000,1.000000,0.000000
0.078858,0.031753,0.000704,-0.999960,0.000000,-0.008933
0.004264,-0.060937,0.313936,0.013581,0.000000,0.999908
0.070931,0.086141,-0.430588,0.162541,0.000000,-0.986702
0.134174,0.060469,-0.486739,0.265748,0.000000,-0.964043
0.148915,0.071078,-0.433755,0.324714,0.000000,-0.945812
0.044428,0.086560,-0.065156,-0.563372,0.000000,0.826203
0.169207,0.008588,-0.264468,0.538935,0.000000,-0.842348
0.359050,0.026598,-0.351915,0.714166,0.000000,-0.699976
0.365408,-0.106676,-0.286392,0.000000,-1.000000,0.000000
0.258045,-0.088734,0.178848,0.821892,0.000000,0.569644
-0.106622,-0.062716,-0.469471,-0.221471,0.000000,-0.975167
0.254425,-0.106676,-0.074307,0.000000,-1.000000,0.000000
0.430984,0.058144,0.149522,0.944759,0.000000,0.327767
-0.221486,-0.106676,0.121720,0.000000,-1.000000,0.000000
0.313668,0.033725,0.013653,0.999054,0.000000,0.043484
-0.200088,-0.106676,-0.261469,0.000000,-1.000000,0.000000
-0.109412,0.106676,-0.262238,0.000000,1.000000,0.000000
-0.407587,0.106676,0.144204,0.000000,1.000000,0.000000
-0.112467,0.106676,-0.016986,0.000000,1.000000,0.000000
0.348255,-0.027550,-0.358276,0.697007,0.000000,-0.717064
-0.285436,0.089543,-0.130769,-0.909132,0.000000,-0.416508
0.036044,-0.016013,0.070142,-0.457056,0.000000,-0.889438
-0.410275,0.106676,-0.027516,0.000000,1.000000,0.000000
0.176564,-0.106676,-0.095047,0.000000,-1.000000,0.000000
-0.125090,0.046789,0.486768,-0.248895,0.000000,0.968531
0.194959,0.106676,0.237616,0.000000,1.000000,0.000000
-0.267091,-0.087086,-0.165034,-0.850704,0.000000,-0.525646
-0.458161,0.035151,-0.142873,-0.954659,0.000000,-0.297700
0.141456,0.106676,0.312941,0.000000,1.000000,0.000000
0.356576,-0.003388,0.340623,0.723097,0.000000,0.690746
-0.037589,-0.009995,-0.069326,0.476651,0.000000,0.879092
0.020801,-0.106676,-0.176444,0.000000,-1.000000,0.000000
0.105970,-0.106676,-0.023876,0.000000,-1.000000,0.000000
0.347858,-0.014490,-0.307732,0.748984,0.000000,-0.662588
-0.182905,0.106676,0.270743,0.000000,1.000000,0.000000
-0.005305,-0.106676,-0.147629,0.000000,-1.000000,0.000000
0.033611,-0.106676,-0.314349,0.000000,-1.000000,0.000000
-0.261185,-0.098060,-0.331341,-0.619061,0.000000,-0.785343
-0.311309,0.041596,0.040752,-0.991540,0.000000,0.129798
-0.068364,-0.045198,0.427453,-0.157925,0.000000,0.987451
0.207096,-0.106676,0.435503,0.000000,-1.000000,0.000000
0.335973,-0.014575,-0.272851,0.776257,0.000000,-0.630417
0.289676,0.059921,0.121087,0.922636,0.000000,0.385672
0.277756,0.091783,-0.146375,0.884671,0.000000,-0.466215
-0.169981,-0.083617,-0.263971,-0.541400,0.000000,-0.840765
-0.153999,-0.064747,0.273603,-0.490497,0.000000,0.871443
0.417502,-0.100415,0.060492,0.989666,0.000000,0.143392
-0.147628,-0.060028,0.439407,-0.318478,0.000000,0.947930
0.156354,0.035580,0.272264,0.497998,0.000000,0.867178
0.390206,-0.106676,0.044613,0.000000,-1.000000,0.000000
0.156899,0.053251,-0.271950,0.499734,0.000000,-0.866179
0.092803,0.006115,-0.455362,0.199696,0.000000,-0.979858
-0.005325,0.018314,0.313920,-0.016960,0.000000,0.999856
-0.173017,-0.042829,0.261991,-0.551070,0.000000,0.834459
0.093974,0.105288,-0.456600,0.201588,0.000000,-0.979470
0.076331,0.084848,0.019817,-0.967911,0.000000,-0.251293
0.084925,-0.028703,-0.446812,0.186727,0.000000,-0.982412
-0.276556,-0.025976,0.148631,-0.880849,0.000000,0.473398
-0.302453,0.106676,0.312204,0.000000,1.000000,0.000000
-0.447157,0.011870,-0.085237,-0.982313,0.000000,-0.187248
0.333705,0.030766,0.267031,0.780792,0.000000,0.624791
0.257687,-0.051557,0.179364,0.820751,0.000000,0.571286
-0.068748,0.061515,0.038637,0.871761,0.000000,-0.489931
0.224184,-0.106676,-0.167308,0.000000,-1.000000,0.000000
-0.267193,0.036626,-0.333769,-0.624949,0.000000,-0.780666
0.065997,-0.106676,0.254701,0.000000,-1.000000,0.000000
-0.150558,-0.038333,0.426064,-0.333179,0.000000,0.942863
0.158984,0.098275,0.270737,0.506374,0.000000,0.862314
0.169666,0.106676,0.116404,0.000000,1.000000,0.000000
-0.070600,0.106676,-0.201884,0.000000,1.000000,0.000000
-0.335976,-0.019562,-0.272860,-0.776251,0.000000,-0.630424
0.075797,0.106676,0.099975,0.000000,1.000000,0.000000
0.296131,-0.086781,0.344220,0.652169,0.000000,0.758074
0.329411,-0.055427,0.256568,0.788935,0.000000,0.614477
0.153837,-0.027446,0.408533,0.352404,0.000000,0.935848
0.241260,-0.106676,0.386035,0.000000,-1.000000,0.000000
0.279946,-0.047757,-0.142142,0.891647,0.000000,-0.452731
0.162533,-0.086236,0.268621,0.517678,0.000000,0.855576
-0.005554,-0.077484,-0.313916,-0.017689,0.000000,-0.999844
-0.467387,0.106676,0.027261,0.000000,1.000000,0.000000
0.054511,0.106676,0.162041,0.000000,1.000000,0.000000
0.030476,-0.016840,0.312483,0.097069,0.000000,0.995278
-0.121542,-0.106676,-0.038477,0.000000,-1.000000,0.000000
-0.227769,0.106676,-0.095202,0.000000,1.000000,0.000000
-0.223627,-0.106676,0.330755,0.000000,-1.000000,0.000000
-0.072150,-0.064735,-0.031835,0.914899,0.000000,0.403683
-0.178498,-0.035986,0.258288,-0.568526,0.000000,0.822665
0.329962,0.046922,0.257873,0.787919,0.000000,0.615778
-0.157514,-0.046741,-0.382513,-0.380768,0.000000,-0.924671
0.033394,-0.016621,0.071442,-0.423449,0.000000,-0.905920
-0.313841,0.003044,-0.008827,-0.999605,0.000000,-0.028115
-0.160949,-0.106676,-0.417674,0.000000,-1.000000,0.000000
-0.070475,-0.029987,0.035389,0.893658,0.000000,-0.448749
-0.279091,0.013992,0.143813,-0.888924,0.000000,0.458055
-0.358142,0.064681,0.347633,-0.717556,0.000000,0.696501
-0.145668,-0.012261,-0.447499,-0.309530,0.000000,-0.950890
-0.457062,-0.005429,-0.094412,-0.979325,0.000000,-0.202293
-0.273354,0.078440,-0.336165,-0.630899,0.000000,-0.775865
-0.115579,-0.106676,-0.016791,0.000000,-1.000000,0.000000
-0.367497,-0.106676,0.141109,0.000000,-1.000000,0.000000
0.410644,0.085159,-0.153477,0.936715,0.000000,-0.350093
-0.325642,-0.079116,-0.352890,-0.678165,0.000000,-0.734910
0.103455,0.106676,-0.064954,0.000000,1.000000,0.000000
-0.263340,-0.027340,0.170957,-0.838756,0.000000,0.544508
-0.344181,-0.101978,-0.296013,-0.758167,0.000000,-0.652061
-0.243772,0.106676,0.197858,0.000000,1.000000,0.000000
-0.277274,0.099529,0.337640,-0.634640,0.000000,0.772808
0.203842,0.106676,-0.215907,0.000000,1.000000,0.000000
-0.215734,0.106676,0.257035,0.000000,1.000000,0.000000
0.030705,0.097292,0.072638,-0.389354,0.000000,-0.921088
0.108596,0.106676,0.276762,0.000000,1.000000,0.000000
-0.031239,-0.001164,-0.072410,0.396130,0.000000,0.918195
-0.141873,-0.033983,0.461765,-0.293691,0.000000,0.955900
-0.165382,-0.085695,-0.266876,-0.526753,0.000000,-0.850018
-0.023468,-0.049821,0.313087,-0.074747,0.000000,0.997203
0.155239,0.021021,-0.399743,0.362007,0.000000,-0.932175
0.160568,0.106676,-0.107454,0.000000,1.000000,0.000000
-0.146241,-0.067686,0.277827,-0.465788,0.000000,0.884897
0.486805,0.007919,-0.125132,0.968515,0.000000,-0.248955
-0.276664,-0.073091,-0.148430,-0.881192,0.000000,-0.472759
0.144774,0.094385,0.451012,0.305637,0.000000,0.952148
0.034207,-0.000935,0.312096,0.108951,0.000000,0.994047
-0.187824,0.106676,-0.200129,0.000000,1.000000,0.000000
0.152319,0.026727,0.417085,0.343039,0.000000,0.939321
-0.147822,0.075305,0.438576,-0.319396,0.000000,0.947621
0.051869,0.092574,0.059403,-0.657723,0.000000,-0.753260
0.342819,-0.047069,0.291909,0.761377,0.000000,0.648310
-0.129297,0.075379,-0.286106,-0.411820,0.000000,-0.911265
-0.008681,0.003421,0.313845,-0.027649,0.000000,0.999618
-0.034561,0.106676,-0.336324,0.000000,1.000000,0.000000
0.160897,-0.015287,-0.269604,0.512467,0.000000,-0.858707
0.151719,-0.000514,0.420243,0.339573,0.000000,0.940580
-0.329933,0.064738,0.257804,-0.787974,0.000000,0.615709
0.025450,-0.077022,-0.312932,0.081059,0.000000,-0.996709
0.350084,-0.055990,-0.315350,0.743004,0.000000,-0.669287
0.130561,-0.022579,0.285531,0.415844,0.000000,0.909436
-0.149180,0.054242,0.432554,-0.326037,0.000000,0.945357
-0.341880,0.088256,0.289145,-0.763538,0.000000,0.645763
0.362381,0.106676,-0.010939,0.000000,1.000000,0.000000
0.004752,0.029336,-0.313929,0.015136,0.000000,-0.999885
-0.077284,-0.034484,0.015695,0.979996,0.000000,-0.199018
-0.248277,-0.106676,-0.060537,0.000000,-1.000000,0.000000
0.066289,-0.017401,-0.042719,-0.840573,0.000000,0.541698
0.001166,-0.106676,-0.404749,0.000000,-1.000000,0.000000
0.077515,-0.106676,-0.062624,0.000000,-1.000000,0.000000
0.234099,-0.106676,0.212691,0.000000,-1.000000,0.000000
-0.314810,0.106676,0.206241,0.000000,1.000000,0.000000
-0.477065,-0.034401,-0.137317,-0.960983,0.000000,-0.276606
-0.266250,0.055452,0.166389,-0.848023,0.000000,0.529960
-0.170293,0.058311,-0.263770,-0.542393,0.000000,-0.840125
-0.330551,0.009153,-0.259281,-0.786825,0.000000,-0.617177
-0.268033,0.106676,0.203073,0.000000,1.000000,0.000000
-0.420036,-0.032191,-0.062457,-0.989125,0.000000,-0.147077
0.478501,-0.047665,0.116043,0.971830,0.000000,0.235681
-0.476106,0.077511,0.113498,-0.972742,0.000000,0.231890
-0.059870,0.053021,-0.051330,0.759174,0.000000,0.650888
0.060399,0.106676,0.065100,0.000000,1.000000,0.000000
0.015422,0.106676,-0.186765,0.000000,1.000000,0.000000
-0.084148,-0.106676,-0.433231,0.000000,-1.000000,0.000000
-0.182137,-0.106676,-0.005411,0.000000,-1.000000,0.000000
-0.056344,-0.014808,-0.412037,-0.135483,0.000000,-0.990780
-0.000677,0.017180,-0.313965,-0.002156,0.000000,-0.999998
-0.256468,-0.028570,0.181103,-0.816869,0.000000,0.576824
-0.125778,-0.106676,0.068032,0.000000,-1.000000,0.000000
-0.217234,0.106676,-0.000544,0.000000,1.000000,0.000000
0.077002,-0.079495,-0.017023,-0.976423,0.000000,0.215864
0.297432,0.038133,0.344643,0.653350,0.000000,0.757056
-0.143512,-0.023133,-0.455803,-0.300320,0.000000,-0.953838
-0.043256,-0.057959,-0.065940,0.548505,0.000000,0.836148
-0.250430,-0.063454,-0.189365,-0.797636,0.000000,-0.603138
-0.154690,-0.050353,-0.403305,-0.358118,0.000000,-0.933676
0.003106,0.036198,0.313950,0.009891,0.000000,0.999951
-0.339383,-0.052999,-0.282041,-0.769088,0.000000,-0.639143
0.079749,0.106676,0.227639,0.000000,1.000000,0.000000
-0.028835,0.037154,-0.312638,-0.091843,0.000000,-0.995774
-0.489764,0.061748,0.128475,-0.967274,0.000000,0.253735
0.177117,0.100122,-0.259237,0.564130,0.000000,-0.825686
0.039930,-0.044363,-0.068006,-0.506326,0.000000,0.862342
0.228021,-0.106676,-0.247973,0.000000,-1.000000,0.000000
-0.249339,0.106676,0.285814,0.000000,1.000000,0.000000
-0.095852,-0.085200,-0.458568,-0.204602,0.000000,-0.978845
-0.136226,-0.104007,0.282872,-0.433890,0.000000,0.900966
-0.073904,-0.038293,0.027519,0.937139,0.000000,-0.348957
0.155824,0.000739,-0.272568,0.496309,0.000000,-0.868146
-0.020991,0.106676,-0.092942,0.000000,1.000000,0.000000
-0.143178,-0.015029,0.457039,-0.298947,0.000000,0.954270
-0.423230,0.026752,-0.151132,-0.941757,0.000000,-0.336295
-0.174575,0.053535,0.260956,-0.556032,0.000000,0.831161
0.061981,0.106676,-0.335210,0.000000,1.000000,0.000000
-0.295003,0.062650,-0.343849,-0.651141,0.000000,-0.758956
-0.479679,-0.017523,-0.136488,-0.961822,0.000000,-0.273677
-0.346694,-0.025946,0.303913,-0.751979,0.000000,0.659188
-0.166386,-0.103439,0.266251,-0.529952,0.000000,0.848028
0.144618,-0.022158,0.451614,0.304970,0.000000,0.952362
-0.026943,-0.012219,0.312807,-0.085816,0.000000,0.996311
-0.249895,0.071247,-0.190071,-0.795931,0.000000,-0.605387
0.056068,0.052023,0.055458,-0.710963,0.000000,-0.703230
-0.418042,0.020106,-0.060908,-0.989552,0.000000,-0.144177
-0.121384,0.106676,0.084528,0.000000,1.000000,0.000000
-0.048037,0.106676,0.189898,0.000000,1.000000,0.000000
-0.295584,-0.088559,0.344040,-0.651671,0.000000,0.758502
0.143610,0.093614,0.455438,0.300726,0.000000,0.953711
0.312784,-0.068884,-0.027209,0.996238,0.000000,-0.086661
-0.436448,0.042429,-0.075847,-0.985233,0.000000,-0.171217
-0.140551,0.101820,-0.280748,-0.447664,0.000000,-0.894202
0.275464,0.059499,-0.150644,0.877372,0.000000,-0.479811
-0.276702,-0.089154,0.148357,-0.881316,0.000000,0.472528
-0.285405,0.087978,0.130837,-0.909033,0.000000,0.416723
-0.087562,0.106676,-0.125005,0.000000,1.000000,0.000000
-0.066616,0.002221,-0.425289,-0.154751,0.000000,-0.987953
0.053954,0.106676,-0.222678,0.000000,1.000000,0.000000
0.311873,0.002365,0.036187,0.993336,0.000000,0.115258
0.275869,-0.032251,0.149902,0.878660,0.000000,0.477447
0.232200,-0.106676,-0.252529,0.000000,-1.000000,0.000000
-0.264237,0.065468,0.169566,-0.841614,0.000000,0.540080
0.481440,0.007881,0.135921,0.962382,0.000000,0.271701
0.062732,-0.044000,-0.047790,-0.795468,0.000000,0.605995
-0.278190,0.084136,-0.145549,-0.886053,0.000000,-0.463584
-0.347513,0.004070,-0.306590,-0.749880,0.000000,-0.661574
0.269028,-0.106676,-0.013664,0.000000,-1.000000,0.000000
0.269118,-0.106676,0.413027,0.000000,-1.000000,0.000000
0.346140,0.106676,-0.366137,0.000000,1.000000,0.000000
-0.391594,0.042100,0.156393,-0.928677,0.000000,0.370889
0.338023,0.012898,0.278310,0.772000,0.000000,0.635622
0.176799,-0.106123,-0.259454,0.563115,0.000000,-0.826378
-0.277487,-0.022823,-0.146885,-0.883814,0.000000,-0.467838
0.403159,0.106676,0.301721,0.000000,1.000000,0.000000
0.104480,-0.104139,0.467353,0.218172,0.000000,0.975910
0.188628,-0.012965,-0.250986,0.600791,0.000000,-0.799406
0.316268,-0.106054,-0.350343,0.670087,0.000000,-0.742283
-0.070571,0.106676,-0.450116,0.000000,1.000000,0.000000
0.263188,0.106676,-0.077060,0.000000,1.000000,0.000000
0.200076,-0.106676,0.221073,0.000000,-1.000000,0.000000
0.145968,-0.084378,-0.446299,0.310859,0.000000,-0.950456
0.340627,-0.069599,-0.356577,0.690750,0.000000,-0.723094
-0.128473,-0.106676,0.272384,0.000000,-1.000000,0.000000
0.068055,-0.102640,-0.039845,-0.862974,0.000000,0.505248
-0.490871,0.003475,-0.132770,-0.965313,0.000000,-0.261096
0.169630,0.085461,0.264196,0.540284,0.000000,0.841483
0.098450,0.106676,0.264946,0.000000,1.000000,0.000000
-0.266487,0.037475,0.166008,-0.848779,0.000000,0.528748
0.072986,-0.023811,0.029869,-0.925497,0.000000,-0.378755
-0.154116,0.051825,-0.273537,-0.490870,0.000000,-0.871233
-0.060848,0.088555,-0.417963,-0.144063,0.000000,-0.989569
0.046646,0.104952,-0.063587,-0.591491,0.000000,0.806311
0.127616,-0.029102,0.286860,0.406464,0.000000,0.913667
0.467047,-0.097869,-0.104172,0.976017,0.000000,-0.217694
0.312360,0.007858,-0.031707,0.994887,0.000000,-0.100990
-0.040430,0.100171,-0.067709,0.512672,0.000000,0.858584
-0.474257,0.106676,0.031847,0.000000,1.000000,0.000000
0.245479,-0.106676,-0.088384,0.000000,-1.000000,0.000000
0.415867,0.056346,-0.152544,0.938833,0.000000,-0.344374
-0.156683,-0.001444,0.272075,-0.499046,0.000000,0.866576
0.053215,0.106676,0.415916,0.000000,1.000000,0.000000
-0.043260,0.106676,-0.115771,0.000000,1.000000,0.000000
-0.356494,0.002125,0.340267,-0.723379,0.000000,0.690452
0.088595,0.106676,0.067303,0.000000,1.000000,0.000000
-0.284365,0.031020,0.133082,-0.905721,0.000000,0.423874
-0.078860,0.063389,0.000414,0.999986,0.000000,-0.005244
-0.253626,0.050571,0.185062,-0.807816,0.000000,0.589434
0.400122,-0.040032,0.155182,0.932336,0.000000,0.361593
0.145133,0.097989,0.449615,0.307186,0.000000,0.951650
-0.384153,0.106676,0.114744,0.000000,1.000000,0.000000
0.040821,-0.056603,0.311300,0.130019,0.000000,0.991512
0.312109,0.000376,0.034094,0.994087,0.000000,0.108591
0.286279,0.056373,0.128914,0.911816,0.000000,0.410599
-0.183957,0.015924,-0.254429,-0.585914,0.000000,-0.810373
0.464759,0.052829,0.141021,0.956919,0.000000,0.290356
-0.251802,-0.063656,-0.187536,-0.802007,0.000000,-0.597315
0.279192,0.001675,-0.143617,0.889246,0.000000,-0.457429
-0.313015,0.057929,-0.024405,-0.996974,0.000000,-0.077733
-0.059870,0.038433,0.051329,0.759179,0.000000,-0.650882
0.062054,0.106676,0.501075,0.000000,1.000000,0.000000
0.210103,-0.106676,-0.306466,0.000000,-1.000000,0.000000
-0.184703,-0.043632,0.253888,-0.588290,0.000000,0.808650
-0.427774,0.084729,-0.150204,-0.943526,0.000000,-0.331299
-0.222362,-0.106676,-0.021598,0.000000,-1.000000,0.000000
-0.315094,0.029769,-0.350011,-0.669064,0.000000,-0.743205
0.035892,0.073276,0.070220,-0.455125,0.000000,-0.890428
0.282703,-0.058544,-0.136576,0.900429,0.000000,-0.435003
0.043160,0.106676,-0.457717,0.000000,1.000000,0.000000
0.313902,0.008884,0.006300,0.999799,0.000000,0.020067
-0.313900,-0.068796,0.006409,-0.999792,0.000000,0.020412
-0.360392,0.004705,0.360739,-0.706766,0.000000,0.707447
0.312343,0.009487,0.031872,0.994834,0.000000,0.101514
0.337778,0.074675,-0.355912,0.688387,0.000000,-0.725344
-0.468516,-0.051558,0.139925,-0.958180,0.000000,0.286166
-0.182251,0.106676,-0.005514,0.000000,1.000000,0.000000
-0.285343,-0.039899,-0.130971,-0.908837,0.000000,-0.417151
-0.450195,0.097962,0.087999,-0.981426,0.000000,0.191839
0.313784,0.091859,-0.010658,0.999424,0.000000,-0.033948
-0.265925,0.086389,-0.166908,-0.846987,0.000000,-0.531613
-0.191611,0.106676,-0.285184,0.000000,1.000000,0.000000
-0.334711,0.080293,0.269587,-0.778801,0.000000,0.627271
-0.156400,0.024252,-0.391543,-0.370946,0.000000,-0.928655
-0.060274,-0.017987,0.050855,0.764299,0.000000,-0.644862
-0.019502,-0.036118,0.313359,-0.062116,0.000000,0.998069
-0.261392,0.106676,-0.192469,0.000000,1.000000,0.000000
0.289097,0.044730,0.122463,0.920793,0.000000,0.390051
0.189169,0.106676,0.147272,0.000000,1.000000,0.000000
-0.071264,0.028043,0.033773,0.903655,0.000000,-0.428261
0.282189,0.023171,0.137636,0.898789,0.000000,0.438381
0.133344,0.083446,-0.489195,0.262984,0.000000,-0.964800
0.007290,-0.106676,-0.144261,0.000000,-1.000000,0.000000
-0.261529,-0.091576,-0.173715,-0.832987,0.000000,-0.553293
-0.160345,-0.028426,-0.269932,-0.510711,0.000000,-0.859753
0.344496,0.078424,0.296980,0.757409,0.000000,0.652940
-0.272837,0.002688,0.155352,-0.869003,0.000000,0.494807
-0.253637,-0.106676,0.086668,0.000000,-1.000000,0.000000
-0.043113,-0.106676,-0.087365,0.000000,-1.000000,0.000000
-0.466232,-0.037667,0.103356,-0.976298,0.000000,0.216429
-0.313010,-0.065358,0.024467,-0.996959,0.000000,0.077929
-0.394246,0.085073,-0.156032,-0.929826,0.000000,-0.368001
0.273737,0.105065,0.153760,0.871871,0.000000,0.489736
-0.154704,-0.024400,-0.403221,-0.358209,0.000000,-0.933641
-0.156979,0.056305,0.271904,-0.499990,0.000000,0.866031
0.157654,0.042915,-0.381271,0.382119,0.000000,-0.924113
0.156520,-0.106676,0.310537,0.000000,-1.000000,0.000000
0.246195,-0.106676,0.102746,0.000000,-1.000000,0.000000
-0.141612,-0.106676,-0.092151,0.000000,-1.000000,0.000000
0.474533,-0.015356,0.138106,0.960163,0.000000,0.279442
0.312682,-0.001236,0.028354,0.995914,0.000000,0.090308
0.359104,-0.034619,-0.352179,0.713957,0.000000,-0.700189
0.059465,0.057510,0.051798,-0.754047,0.000000,-0.656821
0.486475,-0.106676,-0.083204,0.000000,-1.000000,0.000000
0.313300,0.106551,0.020420,0.997883,0.000000,0.065039
-0.277941,0.103847,-0.146023,-0.885261,0.000000,-0.465094
-0.159091,0.085733,0.270674,-0.506714,0.000000,0.862114
-0.040354,-0.106676,0.364179,0.000000,-1.000000,0.000000
0.289095,0.106676,-0.262201,0.000000,1.000000,0.000000
-0.358697,0.024565,0.350232,-0.715499,0.000000,0.698613
0.076738,-0.048065,-0.018175,-0.973079,0.000000,0.230470
0.332511,0.004308,-0.354638,0.683983,0.000000,-0.729498
-0.090203,-0.106676,-0.389217,0.000000,-1.000000,0.000000
-0.184409,0.100637,0.254101,-0.587355,0.000000,0.809329
0.275888,-0.049192,0.149866,0.878722,0.000000,0.477334
-0.170993,0.106676,-0.118032,0.000000,1.000000,0.000000
-0.052844,-0.058186,0.058538,0.670081,0.000000,-0.742288
-0.190928,0.041375,0.249240,-0.608118,0.000000,0.793846
-0.116547,0.083944,0.478972,-0.236428,0.000000,0.971649
0.111446,0.106676,-0.223923,0.000000,1.000000,0.000000
0.181720,0.017536,0.256031,0.578790,0.000000,0.815476
0.355369,-0.046188,0.335505,0.727137,0.000000,0.686492
-0.276421,-0.014872,-0.337322,-0.633829,0.000000,-0.773473
-0.133818,0.002146,0.284019,-0.426220,0.000000,0.904619
0.145146,0.088172,0.278400,0.462300,0.000000,0.886724
0.260586,-0.017937,0.175126,0.829984,0.000000,0.557788
0.074093,-0.106676,0.109277,0.000000,-1.000000,0.000000
0.019239,0.103831,-0.313375,0.061278,0.000000,-0.998121
0.259469,0.103742,0.176777,0.826426,0.000000,0.563045
0.357120,-0.016215,-0.360104,0.704159,0.000000,-0.710043
-0.278923,-0.085922,-0.144140,-0.888388,0.000000,-0.459094
0.271201,0.014540,0.158191,0.863792,0.000000,0.503849
0.041736,0.043612,0.066912,-0.529234,0.000000,-0.848476
0.092628,0.106676,-0.092573,0.000000,1.000000,0.000000
-0.140209,-0.097276,0.467553,-0.287240,0.000000,0.957859
0.166542,-0.065948,-0.266154,0.530446,0.000000,-0.847719
0.471867,0.004569,0.109076,0.974308,0.000000,0.225220
0.155438,0.043100,0.272788,0.495081,0.000000,0.868847
0.140960,0.054101,0.280543,0.448968,0.000000,0.893548
0.415084,0.051802,0.058641,0.990167,0.000000,0.139887
0.491177,0.010331,0.130092,0.966669,0.000000,0.256029
0.282092,-0.025868,0.137834,0.898482,0.000000,0.439010
-0.127056,0.046190,0.287108,-0.404681,0.000000,0.914458
0.141324,0.053715,-0.280360,0.450126,0.000000,-0.892965
0.070413,-0.106676,0.473708,0.000000,-1.000000,0.000000
0.179557,-0.060131,-0.257553,0.571901,0.000000,-0.820323
-0.313783,0.087498,-0.010700,-0.999419,0.000000,-0.034080
0.303041,-0.106676,-0.408335,0.000000,-1.000000,0.000000
0.075954,-0.106676,-0.264232,0.000000,-1.000000,0.000000
0.299487,0.096958,0.345303,0.655211,0.000000,0.755446
0.054727,0.012811,-0.409863,0.132349,0.000000,-0.991203
-0.277364,-0.028939,-0.147118,-0.883421,0.000000,-0.468579
0.472827,0.102626,-0.138630,0.959605,0.000000,-0.281349
0.282324,-0.074804,0.137359,0.899220,0.000000,0.437498
0.265293,0.021960,0.167910,0.844976,0.000000,0.534804
0.229605,-0.106676,-0.009576,0.000000,-1.000000,0.000000
0.313444,0.051528,-0.018085,0.998340,0.000000,-0.057601
0.462680,0.084561,0.099839,0.977501,0.000000,0.210929
0.064844,-0.104193,-0.044882,-0.822250,0.000000,0.569126
0.278281,0.106676,-0.029862,0.000000,1.000000,0.000000
0.006589,-0.077761,-0.313896,0.020986,0.000000,-0.999780
-0.266785,-0.106676,0.087448,0.000000,-1.000000,0.000000
-0.145736,-0.037493,-0.447228,-0.309830,0.000000,-0.950792
0.187425,-0.043643,0.251885,0.596961,0.000000,0.802270
0.148972,0.038030,0.433501,0.324993,0.000000,0.945717
-0.311495,0.020266,-0.039305,-0.992133,0.000000,-0.125189
0.087316,0.065527,-0.449448,0.190708,0.000000,-0.981647
-0.068809,-0.106676,0.201668,0.000000,-1.000000,0.000000
-0.489163,-0.106676,0.058362,0.000000,-1.000000,0.000000
0.140905,-0.033665,-0.280571,0.448790,0.000000,-0.893637
0.190657,-0.084940,0.249447,0.607256,0.000000,0.794506
0.312919,-0.007343,-0.025616,0.996666,0.000000,-0.081589
-0.219292,0.106676,0.028738,0.000000,1.000000,0.000000
-0.112584,0.051821,-0.475238,-0.230520,0.000000,-0.973068
0.439850,-0.014335,-0.078772,0.984339,0.000000,-0.176285
-0.281553,-0.106676,-0.189258,0.000000,-1.000000,0.000000
0.025413,0.093670,-0.312935,0.080942,0.000000,-0.996719
0.144275,-0.073853,0.452926,0.303514,0.000000,0.952827
0.469827,0.039780,-0.139535,0.958616,0.000000,-0.284702
-0.032520,0.085756,-0.071844,0.412372,0.000000,0.911015
-0.313945,0.064565,-0.003527,-0.999937,0.000000,-0.011234
-0.116896,-0.086683,0.479297,-0.236945,0.000000,0.971523
-0.455188,0.106676,0.128287,0.000000,1.000000,0.000000
0.432027,-0.058908,0.149295,0.945157,0.000000,0.326617
-0.474745,0.044475,0.112067,-0.973251,0.000000,0.229743
-0.072914,-0.036230,-0.030045,0.924580,0.000000,0.380988
0.315666,0.040654,0.350173,0.669562,0.000000,0.742756
-0.428244,-0.046960,0.069007,-0.987264,0.000000,0.159088
0.221202,0.106676,0.191748,0.000000,1.000000,0.000000
-0.142392,0.050890,-0.279819,-0.453528,0.000000,-0.891242
-0.184502,-0.045382,0.254034,-0.587652,0.000000,0.809114
-0.264950,0.041950,-0.168451,-0.843882,0.000000,-0.536529
-0.260393,0.009039,-0.331013,-0.618278,0.000000,-0.785960
0.311460,-0.073279,0.039585,0.992020,0.000000,0.126081
-0.066646,-0.064607,-0.042159,0.845108,0.000000,0.534595
-0.331770,-0.028304,0.262230,-0.784530,0.000000,0.620091
0.270215,-0.068211,0.159869,0.860653,0.000000,0.509192
-0.329932,0.049531,0.257802,-0.787975,0.000000,0.615707
0.125668,0.070873,0.287718,0.400261,0.000000,0.916401
-0.175780,0.102828,-0.260145,-0.559871,0.000000,-0.828580
0.157616,-0.086756,0.381616,0.381744,0.000000,0.924268
0.313667,0.042357,-0.013676,0.999051,0.000000,-0.043559
0.456569,0.080576,-0.093944,0.979480,0.000000,-0.201539
-0.356515,0.025737,0.340359,-0.723306,0.000000,0.690528
-0.045344,0.014316,-0.064522,0.574980,0.000000,0.818167
0.107271,0.106676,0.082495,0.000000,1.000000,0.000000
0.264873,0.027113,0.168572,0.843639,0.000000,0.536911
-0.410117,-0.044445,0.153568,-0.936499,0.000000,0.350670
-0.189177,0.014382,0.250572,-0.602540,0.000000,0.798089
0.267845,-0.076549,-0.334027,0.625582,0.000000,-0.780159
-0.069524,-0.044631,0.428875,-0.160018,0.000000,0.987114
-0.128841,0.106676,-0.294496,0.000000,1.000000,0.000000
-0.257283,-0.096184,0.179943,-0.819464,0.000000,0.573130
0.253883,0.049881,-0.184709,0.808634,0.000000,-0.588312
-0.127620,-0.001469,0.489012,-0.252518,0.000000,0.967592
-0.312571,0.006867,-0.029559,-0.995558,0.000000,-0.094148
-0.260434,0.039036,-0.175353,-0.829498,0.000000,-0.558510
0.274571,-0.078068,-0.152267,0.874526,0.000000,-0.484979
0.160528,-0.056347,0.269824,0.511292,0.000000,0.859407
-0.356940,0.056149,-0.342214,-0.721841,0.000000,-0.692059
0.040455,-0.085747,-0.067694,-0.512987,0.000000,0.858396
-0.448243,-0.106676,-0.145217,0.000000,-1.000000,0.000000
0.172644,0.106676,-0.004385,0.000000,1.000000,0.000000
-0.167364,-0.051229,-0.265638,-0.533066,0.000000,-0.846073
-0.291811,0.106676,-0.410804,0.000000,1.000000,0.000000
-0.125550,-0.012145,0.287769,-0.399886,0.000000,0.916565
-0.266062,0.106676,-0.000237,0.000000,1.000000,0.000000
-0.158230,-0.106676,-0.354154,0.000000,-1.000000,0.000000
0.159503,0.062214,-0.270431,0.508028,0.000000,-0.861341
0.293499,0.058681,0.343351,0.649767,0.000000,0.760134
-0.037982,0.033858,-0.069112,0.481624,0.000000,0.876378
-0.346221,-0.066902,-0.302392,-0.753171,0.000000,-0.657825
-0.475555,-0.068477,-0.112917,-0.972949,0.000000,-0.231020
0.313550,-0.021567,-0.016138,0.998678,0.000000,-0.051400
-0.100863,0.085454,0.463722,-0.212538,0.000000,0.977153
0.144420,0.091289,-0.452374,0.304127,0.000000,-0.952631
0.375939,0.106676,0.187136,0.000000,1.000000,0.000000
0.382724,-0.106676,-0.207815,0.000000,-1.000000,0.000000
-0.152044,-0.106676,0.239150,0.000000,-1.000000,0.000000
0.250020,-0.007980,0.189906,0.796330,0.000000,0.604862
0.173818,0.092342,0.261460,0.553622,0.000000,0.832768
-0.249398,0.086187,0.190721,-0.794350,0.000000,0.607460
0.056656,-0.086941,0.054856,-0.718425,0.000000,-0.695604
-0.109412,0.106676,0.104209,0.000000,1.000000,0.000000
0.423240,-0.059547,0.151130,0.941761,0.000000,0.336283
-0.267489,-0.059174,0.164390,-0.851969,0.000000,0.523592
-0.020259,-0.053063,-0.076215,0.256888,0.000000,0.966441
0.419136,0.098446,-0.151931,0.940140,0.000000,-0.340788
-0.062719,-0.090975,0.047807,0.795301,0.000000,-0.606214
-0.288764,-0.079494,-0.123246,-0.919732,0.000000,-0.392547
0.034121,0.057581,-0.312106,0.108678,0.000000,-0.994077
0.064287,-0.067759,0.422366,0.150474,0.000000,0.988614
-0.120784,-0.082222,0.482881,-0.242656,0.000000,0.970112
0.255217,0.106676,-0.349835,0.000000,1.000000,0.000000
0.041479,0.099609,0.067072,-0.525971,0.000000,-0.850503
0.061652,-0.080414,-0.049174,-0.781780,0.000000,0.623554
-0.359958,-0.092273,-0.356383,-0.710627,0.000000,-0.703569
-0.060680,-0.061685,0.417746,-0.143747,0.000000,0.989614
-0.289295,-0.081078,0.121994,-0.921424,0.000000,0.388559
0.152954,0.072919,0.274188,0.487169,0.000000,0.873308
-0.289139,0.105832,-0.122365,-0.920925,0.000000,-0.389739
-0.317209,0.003776,-0.350608,-0.670905,0.000000,-0.741543
0.269423,0.106676,0.412941,0.000000,1.000000,0.000000
-0.156702,-0.068135,-0.389224,-0.373470,0.000000,-0.927642
0.114665,0.064172,0.477208,0.233633,0.000000,0.972325
-0.423501,0.091040,-0.151078,-0.941863,0.000000,-0.335997
-0.267838,0.039513,0.163820,-0.853082,0.000000,0.521778
0.181090,0.088596,-0.256478,0.576782,0.000000,-0.816898
-0.145366,0.065733,-0.278286,-0.463000,0.000000,-0.886358
-0.027415,-0.039158,0.073943,0.347629,0.000000,-0.937632
0.154381,0.050058,-0.405243,0.356000,0.000000,-0.934486
0.003255,-0.106676,0.139037,0.000000,-1.000000,0.000000
-0.189599,0.101113,-0.250252,-0.603886,0.000000,-0.797070
0.033471,0.106676,-0.302314,0.000000,1.000000,0.000000
-0.258178,-0.106676,-0.433748,0.000000,-1.000000,0.000000
0.005253,-0.106676,-0.197178,0.000000,-1.000000,0.000000
0.139026,0.003745,-0.281507,0.442807,0.000000,-0.896617
-0.176494,0.027754,0.259662,-0.562144,0.000000,0.827039
-0.259253,0.095353,-0.177094,-0.825736,0.000000,-0.564056
0.485798,0.071863,-0.124007,0.968930,0.000000,-0.247334
0.025020,-0.106676,0.153024,0.000000,-1.000000,0.000000
-0.153966,-0.042011,0.407766,-0.353242,0.000000,0.935532
0.001878,0.106676,0.085046,0.000000,1.000000,0.000000
-0.046127,0.106676,0.111144,0.000000,1.000000,0.000000
0.348058,-0.029646,-0.358234,0.696847,0.000000,-0.717219
-0.058184,0.106676,0.083831,0.000000,1.000000,0.000000
0.019712,-0.083011,0.076358,-0.249961,0.000000,-0.968256
-0.271450,-0.031104,-0.157764,-0.864585,0.000000,-0.502487
-0.309543,-0.106676,-0.345567,0.000000,-1.000000,0.000000
0.109822,-0.106676,0.456794,0.000000,-1.000000,0.000000
0.081432,-0.013665,0.442891,0.180834,0.000000,0.983514
-0.266409,-0.016202,0.166133,-0.848531,0.000000,0.529145
0.253718,0.036995,0.184936,0.808109,0.000000,0.589033
-0.027263,0.106676,-0.196925,0.000000,1.000000,0.000000
-0.154168,-0.061582,-0.406546,-0.354577,0.000000,-0.935027
0.166706,-0.106676,-0.215831,0.000000,-1.000000,0.000000
-0.060396,0.044012,0.417378,-0.143212,0.000000,0.989692
-0.023100,-0.106676,0.183248,0.000000,-1.000000,0.000000
-0.351093,0.052730,0.318955,-0.740171,0.000000,0.672419
-0.062856,0.038492,0.047626,0.797041,0.000000,-0.603926
-0.178023,0.033595,-0.258615,-0.567016,0.000000,-0.823707
0.014039,-0.088280,-0.077602,-0.178026,0.000000,0.984026
-0.195055,0.106676,0.082399,0.000000,1.000000,0.000000
0.036064,0.021507,-0.070132,-0.457306,0.000000,0.889309
-0.425800,-0.081450,-0.067027,-0.987836,0.000000,-0.155500
0.266227,-0.030177,-0.166426,0.847950,0.000000,-0.530076
0.268602,0.046764,-0.334325,0.626317,0.000000,-0.779569
0.076400,-0.085458,0.019550,-0.968784,0.000000,-0.247906
-0.340804,-0.027592,-0.286043,-0.765962,0.000000,-0.642886
0.055522,0.047373,-0.410936,0.133894,0.000000,-0.990996
-0.313675,-0.032754,-0.013486,-0.999077,0.000000,-0.042955
-0.308323,0.021070,0.348035,-0.663112,0.000000,0.748520
-0.357188,0.048515,0.343309,-0.720975,0.000000,0.692961
0.068207,-0.000717,0.039585,-0.864895,0.000000,-0.501952
0.025770,-0.085727,-0.312906,0.082079,0.000000,-0.996626
0.126787,0.074390,-0.287227,0.403825,0.000000,-0.914836
-0.067310,-0.005855,-0.426151,-0.156014,0.000000,-0.987755
-0.180495,-0.076431,-0.256896,-0.574889,0.000000,-0.818231
0.072426,-0.009392,0.031202,-0.918401,0.000000,-0.395650
-0.003014,-0.103666,0.078804,0.038224,0.000000,-0.999269
-0.285214,0.075928,0.131252,-0.908425,0.000000,0.418048
0.462187,0.064837,0.141754,0.956045,0.000000,0.293222
-0.329474,0.008927,-0.256717,-0.788819,0.000000,-0.614625
-0.138861,0.106676,-0.272398,0.000000,1.000000,0.000000
0.438743,0.051228,-0.147783,0.947684,0.000000,-0.319211
0.189573,-0.106676,0.454783,0.000000,-1.000000,0.000000
-0.154936,0.082839,0.401727,-0.359841,0.000000,0.933014
-0.332758,0.083898,0.264665,-0.782634,0.000000,0.622482
0.157079,0.038961,0.386210,0.376750,0.000000,0.926315
-0.278249,-0.005964,0.145436,-0.886242,0.000000,0.463223
-0.409831,0.049197,0.054703,-0.991209,0.000000,0.132303
-0.086968,-0.106676,-0.082327,0.000000,-1.000000,0.000000
-0.430184,-0.106676,-0.112479,0.000000,-1.000000,0.000000
-0.130298,0.096648,-0.285651,-0.415008,0.000000,-0.909818
0.091485,0.106676,-0.095654,0.000000,1.000000,0.000000
-0.444524,0.106676,0.057123,0.000000,1.000000,0.000000
-0.002401,0.013681,0.078825,0.030443,0.000000,-0.999537
0.170479,0.098561,-0.263650,0.542986,0.000000,-0.839742
0.161966,-0.043027,-0.268963,0.515871,0.000000,-0.856666
0.352284,-0.029405,0.359126,0.700274,0.000000,0.713874
-0.051775,0.106676,0.249318,0.000000,1.000000,0.000000
-0.043846,0.000552,0.065549,0.555987,0.000000,-0.831191
-0.299434,-0.060807,0.345287,-0.655163,0.000000,0.755488
-0.059281,-0.106676,-0.076619,0.000000,-1.000000,0.000000
-0.139010,0.106676,0.187238,0.000000,1.000000,0.000000
-0.137956,-0.036666,0.282032,-0.439400,0.000000,0.898292
-0.062140,-0.062565,0.048557,0.787961,0.000000,-0.615725
-0.312226,-0.054706,-0.033000,-0.994461,0.000000,-0.105107
-0.176690,-0.106676,0.106806,0.000000,-1.000000,0.000000
-0.019676,0.088502,-0.313348,-0.062670,0.000000,-0.998034
-0.026498,-0.106676,0.101417,0.000000,-1.000000,0.000000
-0.465353,0.092040,0.140850,-0.957119,0.000000,0.289694
0.083144,0.106676,-0.026428,0.000000,1.000000,0.000000
0.210662,0.106676,0.321458,0.000000,1.000000,0.000000
-0.436232,-0.083138,-0.075664,-0.985289,0.000000,-0.170897
-0.280296,-0.035629,-0.141450,-0.892762,0.000000,-0.450528
-0.154303,0.026556,0.273432,-0.491465,0.000000,0.870897
0.057193,-0.080024,0.054296,-0.725240,0.000000,-0.688496
-0.335137,0.097261,0.270680,-0.777949,0.000000,0.628327
-0.018310,-0.009045,0.313431,-0.058319,0.000000,0.998298
0.155902,0.097538,0.395180,0.366983,0.000000,0.930227
0.453674,-0.014131,0.091220,0.980379,0.000000,0.197123
0.010130,0.094823,-0.313802,0.032266,0.000000,-0.999479
-0.139780,-0.092561,-0.281133,-0.445207,0.000000,-0.895428
-0.270976,0.066869,-0.158575,-0.863078,0.000000,-0.505071
-0.473227,-0.097030,-0.110484,-0.973812,0.000000,-0.227355
0.280466,-0.064030,-0.141114,0.893302,0.000000,-0.449457
-0.328880,0.013393,0.255321,-0.789905,0.000000,0.613230
-0.340966,-0.065305,0.286505,-0.765601,0.000000,0.643316
-0.351413,-0.090035,-0.320119,-0.739255,0.000000,-0.673425
0.262781,-0.083848,0.171815,0.836974,0.000000,0.547242
0.140164,-0.106676,-0.358122,0.000000,-1.000000,0.000000
0.327934,0.085358,0.253121,0.791615,0.000000,0.611020
0.078484,-0.042736,0.007710,-0.995209,0.000000,-0.097770
-0.328449,0.078826,0.353617,-0.680552,0.000000,0.732700
0.035258,0.091409,0.311979,0.112298,0.000000,0.993675
0.459477,0.031600,-0.142511,0.955114,0.000000,-0.296237
-0.252256,-0.074183,-0.186925,-0.803452,0.000000,-0.595370
0.436019,0.086658,0.075482,0.985344,0.000000,0.170579
0.212181,0.106676,-0.336264,0.000000,1.000000,0.000000
-0.078591,-0.043865,0.006527,0.996569,0.000000,-0.082762
-0.129098,-0.106676,0.051512,0.000000,-1.000000,0.000000
-0.260577,0.075561,-0.175139,-0.829956,0.000000,-0.557828
-0.007713,-0.025202,-0.313870,-0.024566,0.000000,-0.999698
0.024311,-0.104962,-0.313023,0.077431,0.000000,-0.996998
0.158285,0.106676,0.359277,0.000000,1.000000,0.000000
-0.273131,-0.080467,-0.154835,-0.869939,0.000000,-0.493160
-0.450904,-0.048304,0.088651,-0.981216,0.000000,0.192914
-0.268543,0.066069,0.162662,-0.855327,0.000000,0.518089
-0.457474,0.106676,-0.116010,0.000000,1.000000,0.000000
-0.395874,-0.106676,-0.094137,0.000000,-1.000000,0.000000
-0.331410,-0.048455,-0.261353,-0.785212,0.000000,-0.619227
-0.490917,0.030617,-0.129793,-0.966781,0.000000,-0.255606
0.488331,-0.055165,0.126849,0.967879,0.000000,0.251416
-0.329793,-0.065826,-0.257473,-0.788231,0.000000,-0.615379
0.258563,-0.033587,0.178099,0.823540,0.000000,0.567258
0.264983,-0.041946,-0.168399,0.843987,0.000000,-0.536363
-0.268910,-0.026319,0.334446,-0.626615,0.000000,0.779329
0.030088,0.106676,0.145892,0.000000,1.000000,0.000000
-0.257128,-0.106676,-0.281772,0.000000,-1.000000,0.000000
-0.028064,0.045996,-0.312708,-0.089386,0.000000,-0.995997
-0.353165,0.106676,-0.235997,0.000000,1.000000,0.000000
0.039260,0.043544,-0.311501,0.125045,0.000000,-0.992151
-0.440449,-0.106676,-0.015335,0.000000,-1.000000,0.000000
0.431165,-0.046814,-0.071409,0.986561,0.000000,-0.163393
0.242329,0.106676,0.002979,0.000000,1.000000,0.000000
0.020358,0.097258,0.313305,0.064841,0.000000,0.997896
-0.269681,-0.003571,0.160769,-0.858950,0.000000,0.512059
0.096615,-0.106676,-0.012565,0.000000,-1.000000,0.000000
-0.199296,-0.106676,-0.166827,0.000000,-1.000000,0.000000
-0.019679,-0.048799,0.076367,0.249544,0.000000,-0.968363
-0.087187,-0.106676,-0.072980,0.000000,-1.000000,0.000000
-0.348502,0.074101,-0.309892,-0.747290,0.000000,-0.664499
-0.078234,0.050039,-0.009926,0.992047,0.000000,0.125867
0.174694,-0.106676,-0.218453,0.000000,-1.000000,0.000000
-0.022794,0.047904,-0.075495,0.289037,0.000000,0.957318
0.142092,-0.068186,0.279971,0.452573,0.000000,0.891727
0.360624,0.081371,-0.359789,0.707926,0.000000,-0.706287
0.075154,0.038416,-0.023897,-0.952984,0.000000,0.303022
0.118980,0.106676,0.479832,0.000000,1.000000,0.000000
-0.286023,-0.027914,0.129479,-0.911003,0.000000,0.412400
0.480635,-0.063881,0.136181,0.962126,0.000000,0.272605
0.186107,-0.028789,-0.252861,0.592762,0.000000,-0.805378
-0.267280,0.029450,0.164729,-0.851304,0.000000,0.524673
-0.000279,0.106676,0.262672,0.000000,1.000000,0.000000
-0.460002,-0.106676,-0.083190,0.000000,-1.000000,0.000000
0.340364,-0.057079,-0.356516,0.690532,0.000000,-0.723302
0.287519,0.064329,0.126124,0.915766,0.000000,0.401712
-0.091990,0.106676,-0.483240,0.000000,1.000000,0.000000
0.313415,-0.061433,0.018578,0.998248,0.000000,0.059172
-0.454521,-0.018146,0.092013,-0.980118,0.000000,0.198414
0.345437,-0.007070,-0.299908,0.755117,0.000000,-0.655590
-0.087846,-0.042851,-0.450027,-0.191586,0.000000,-0.981476
-0.062888,-0.019986,-0.047584,0.797444,0.000000,0.603393
-0.007333,0.012829,-0.313880,-0.023357,0.000000,-0.999727
0.154605,-0.079003,-0.403843,0.357530,0.000000,-0.933902
-0.156083,-0.086286,-0.272419,-0.497136,0.000000,-0.867673
-0.163997,0.042590,-0.267730,-0.522340,0.000000,-0.852737
0.040160,0.059782,0.067870,-0.509241,0.000000,-0.860624
0.470148,0.106676,-0.074255,0.000000,1.000000,0.000000
0.261964,0.079179,0.173058,0.834372,0.000000,0.551201
0.312667,0.074276,0.028526,0.995864,0.000000,0.090857
0.122590,0.059370,-0.289043,0.390457,0.000000,-0.920621
0.210963,0.106676,0.101387,0.000000,1.000000,0.000000
-0.084201,0.020243,-0.446005,-0.185512,0.000000,-0.982642
0.289879,-0.106676,-0.053252,0.000000,-1.000000,0.000000
0.257253,0.106676,-0.401034,0.000000,1.000000,0.000000
0.152053,0.102284,0.274689,0.484300,0.000000,0.874902
0.029150,0.027741,-0.312609,0.092845,0.000000,-0.995681
0.282748,0.000628,-0.136484,0.900570,0.000000,-0.434712
0.192342,-0.106676,0.366011,0.000000,-1.000000,0.000000
0.112559,0.106676,0.003325,0.000000,1.000000,0.000000
0.345615,0.106676,-0.199736,0.000000,1.000000,0.000000
0.254096,-0.092379,0.184417,0.809312,0.000000,0.587379
0.003036,-0.106676,0.302158,0.000000,-1.000000,0.000000
0.133212,-0.106676,-0.080911,0.000000,-1.000000,0.000000
-0.101706,-0.106676,-0.154881,0.000000,-1.000000,0.000000
0.259103,0.079921,-0.177313,0.825259,0.000000,-0.564755
0.279633,0.106676,-0.071121,0.000000,1.000000,0.000000
-0.060959,-0.106676,0.053865,0.000000,-1.000000,0.000000
0.311564,0.016698,-0.038754,0.992353,0.000000,-0.123434
-0.091438,-0.106676,-0.134845,0.000000,-1.000000,0.000000
-0.113606,-0.106676,-0.154725,0.000000,-1.000000,0.000000
-0.270775,0.079833,-0.158918,-0.862437,0.000000,-0.506164
0.226489,0.106676,-0.317584,0.000000,1.000000,0.000000
0.327488,0.007319,0.353370,0.679737,0.000000,0.733456
0.312507,0.047812,0.030224,0.995356,0.000000,0.096264
0.439058,-0.098972,-0.078087,0.984550,0.000000,-0.175102
0.151482,0.029918,-0.421460,0.338238,0.000000,-0.941061
0.154941,0.005008,-0.401698,0.359872,0.000000,-0.933002
0.141190,0.088162,-0.464169,0.291013,0.000000,-0.956719
0.407052,0.059945,0.154085,0.935237,0.000000,0.354023
-0.121677,-0.106676,-0.320113,0.000000,-1.000000,0.000000
-0.260446,-0.034096,-0.175334,-0.829537,0.000000,-0.558452
-0.136436,-0.066620,0.479843,-0.273493,0.000000,0.961874
-0.057083,-0.055326,-0.413023,-0.136906,0.000000,-0.990584
0.136964,-0.087450,0.478184,0.275353,0.000000,0.961343
-0.147418,-0.024702,0.440303,-0.317489,0.000000,0.948262
-0.487329,-0.103736,-0.125720,-0.968298,0.000000,-0.249799
-0.396139,0.053598,-0.155766,-0.930639,0.000000,-0.365938
0.132508,0.106676,0.117016,0.000000,1.000000,0.000000
-0.265278,0.015286,-0.167933,-0.844929,0.000000,-0.534878
0.127546,0.033503,-0.488946,0.252412,0.000000,-0.967620
-0.444437,-0.067635,0.082801,-0.983084,0.000000,0.183154
0.129726,0.022405,-0.285912,0.413185,0.000000,-0.910647
0.390670,0.106676,-0.103624,0.000000,1.000000,0.000000
0.473724,-0.098403,0.111001,0.973629,0.000000,0.228136
-0.406977,-0.051683,-0.154097,-0.935206,0.000000,-0.354105
0.186236,0.091556,0.252766,0.593173,0.000000,0.805075
-0.078634,-0.075250,-0.005981,0.997120,0.000000,0.075844
-0.019289,-0.002884,0.076466,0.244597,0.000000,-0.969625
-0.147057,-0.049982,0.277396,-0.468385,0.000000,0.883525
-0.000775,0.045089,-0.313964,-0.002468,0.000000,-0.999997
-0.253549,0.013254,0.185168,-0.807569,0.000000,0.589773
-0.158813,0.106676,0.202800,0.000000,1.000000,0.000000
0.161663,0.106676,-0.191224,0.000000,1.000000,0.000000
-0.181729,-0.106676,0.419773,0.000000,-1.000000,0.000000
0.126484,-0.007109,0.287360,0.402861,0.000000,0.915261
0.312153,0.007609,-0.033680,0.994229,0.000000,-0.107274
-0.276943,0.007675,0.147908,-0.882082,0.000000,0.471096
-0.341794,0.104108,-0.288895,-0.763734,0.000000,-0.645531
-0.174058,-0.106676,-0.172248,0.000000,-1.000000,0.000000
-0.111161,-0.106676,-0.055117,0.000000,-1.000000,0.000000
0.262351,0.051974,-0.172471,0.835604,0.000000,-0.549332
0.175270,-0.036861,0.260489,0.558247,0.000000,0.829675
0.349116,-0.076265,-0.358460,0.697708,0.000000,-0.716382
0.366812,0.106676,0.229105,0.000000,1.000000,0.000000
0.069964,-0.057168,0.036389,-0.887175,0.000000,-0.461434
0.131352,0.089243,-0.492270,0.257808,0.000000,-0.966196
0.064991,0.019403,-0.423254,0.151772,0.000000,-0.988416
0.440008,-0.066881,-0.147488,0.948153,0.000000,-0.317814
0.151271,0.086170,0.422529,0.337063,0.000000,0.941482
-0.071012,0.007806,0.034299,0.900467,0.000000,-0.434924
0.073505,-0.106676,0.210149,0.000000,-1.000000,0.000000
0.354642,0.023546,-0.359609,0.702173,0.000000,-0.712007
-0.263812,-0.106676,-0.246513,0.000000,-1.000000,0.000000
-0.480218,-0.065252,0.117887,-0.971165,0.000000,0.238408
0.113797,0.106676,-0.035493,0.000000,1.000000,0.000000
-0.283534,0.072723,0.134844,-0.903073,0.000000,0.429486
0.185502,0.106676,-0.032056,0.000000,1.000000,0.000000
-0.072562,-0.088388,0.432552,-0.165442,0.000000,0.986220
0.137409,0.106676,0.224636,0.000000,1.000000,0.000000
-0.405675,0.007509,0.154311,-0.934666,0.000000,0.355528
0.069388,0.010361,-0.037476,-0.879869,0.000000,0.475216
0.169060,-0.045104,-0.264562,0.538467,0.000000,-0.842647
0.133948,0.036752,-0.283958,0.426632,0.000000,-0.904425
0.160562,0.029011,-0.269804,0.511399,0.000000,-0.859343
0.003989,0.021378,-0.313940,0.012705,0.000000,-0.999919
-0.285493,0.034592,-0.130644,-0.909314,0.000000,-0.416110
-0.157556,0.106676,-0.286577,0.000000,1.000000,0.000000
-0.012495,-0.006588,-0.313717,-0.039796,0.000000,-0.999208
0.009952,0.015694,0.078231,-0.126202,0.000000,-0.992005
-0.284801,0.044013,-0.132146,-0.907110,0.000000,-0.420893
-0.062909,-0.106676,0.100477,0.000000,-1.000000,0.000000
-0.267083,-0.106676,-0.242994,0.000000,-1.000000,0.000000
-0.107127,0.106676,-0.272563,0.000000,1.000000,0.000000
0.082373,-0.035042,-0.443955,0.182430,0.000000,-0.983219
0.138940,-0.086692,-0.471805,0.282492,0.000000,-0.959270
-0.237437,0.106676,-0.249251,0.000000,1.000000,0.000000
-0.095071,-0.106676,-0.307218,0.000000,-1.000000,0.000000
0.000324,0.071158,-0.313965,0.001033,0.000000,-0.999999
0.012107,0.106676,0.385234,0.000000,1.000000,0.000000
-0.313126,0.023314,0.022941,-0.997327,0.000000,0.073070
0.313254,0.106676,0.219453,0.000000,1.000000,0.000000
0.260525,-0.039032,0.175216,0.829790,0.000000,0.558075
0.313965,0.011794,0.000496,0.999999,0.000000,0.001581
-0.313946,-0.067304,0.003459,-0.999939,0.000000,0.011018
-0.320959,0.104382,-0.351641,-0.674149,0.000000,-0.738595
0.257296,0.049282,-0.179924,0.819506,0.000000,-0.573070
0.080969,-0.028630,0.442365,0.180046,0.000000,0.983658
0.134251,0.090267,0.486510,0.266005,0.000000,0.963972
0.058635,0.055703,-0.415076,0.139875,0.000000,-0.990169
-0.324983,-0.106676,-0.392573,0.000000,-1.000000,0.000000
0.069168,0.012154,0.428441,0.159378,0.000000,0.987218
-0.124621,0.106676,0.023988,0.000000,1.000000,0.000000
-0.023516,0.032612,0.313083,-0.074902,0.000000,0.997191
-0.346096,-0.103062,0.357807,-0.695246,0.000000,0.718772
-0.323836,-0.097224,-0.352414,-0.676621,0.000000,-0.736332
-0.252506,0.012894,-0.186588,-0.804248,0.000000,-0.594294
-0.156383,0.087302,-0.391664,-0.370814,0.000000,-0.928707
0.001884,0.031893,0.313960,0.006001,0.000000,0.999982
-0.484911,-0.087930,0.134784,-0.963474,0.000000,0.267803
0.156919,-0.042454,-0.387510,0.375336,0.000000,-0.926889
-0.050404,-0.106676,-0.199545,0.000000,-1.000000,0.000000
-0.077494,-0.106676,0.153548,0.000000,-1.000000,0.000000
0.156172,0.057637,0.272368,0.497417,0.000000,0.867512
-0.254849,-0.096841,0.328678,-0.612757,0.000000,0.790271
0.325609,0.106676,-0.197525,0.000000,1.000000,0.000000
-0.093610,0.075843,0.456216,-0.200999,0.000000,0.979591
0.177718,-0.068953,-0.258825,0.566044,0.000000,-0.824375
0.255655,0.005598,0.182249,0.814278,0.000000,0.580475
-0.153372,0.035397,-0.411245,-0.349436,0.000000,-0.936960
-0.067306,0.063500,0.041098,0.853469,0.000000,-0.521143
-0.261580,0.103201,0.331503,-0.619450,0.000000,0.785036
-0.274254,-0.078049,0.152836,-0.873517,0.000000,0.486794
0.097522,-0.106676,-0.078448,0.000000,-1.000000,0.000000
-0.070284,-0.007578,-0.035767,0.891237,0.000000,0.453539
0.137200,0.027297,-0.477437,0.276190,0.000000,-0.961103
0.274571,-0.098923,-0.152265,0.874528,0.000000,-0.484975
0.125676,0.034878,0.287715,0.400287,0.000000,0.916390
0.311484,-0.000971,0.039397,0.992096,0.000000,0.125483
0.001702,0.056475,0.313961,0.005420,0.000000,0.999985
-0.176851,-0.002846,0.259419,-0.563281,0.000000,0.826266
0.017675,0.013172,-0.076855,-0.224124,0.000000,0.974561
0.010996,-0.087746,-0.313773,0.035024,0.000000,-0.999386
-0.328513,0.106676,-0.282524,0.000000,1.000000,0.000000
-0.117141,-0.106676,-0.364021,0.000000,-1.000000,0.000000
0.328105,-0.106676,-0.316297,0.000000,-1.000000,0.000000
0.123243,-0.106676,0.147897,0.000000,-1.000000,0.000000
-0.414451,-0.024459,-0.152803,-0.938262,0.000000,-0.345925
-0.115009,-0.004790,-0.477533,-0.234146,0.000000,-0.972201
0.267960,0.070731,-0.163620,0.853471,0.000000,-0.521141
0.042201,-0.043184,0.066620,-0.535126,0.000000,-0.844772
-0.311591,-0.101963,0.038540,-0.992438,0.000000,0.122751
0.312591,-0.031836,0.029345,0.995622,0.000000,0.093467
0.282041,0.106676,-0.021746,0.000000,1.000000,0.000000
0.170438,-0.062709,-0.263676,0.542855,0.000000,-0.839826
0.123276,0.106676,-0.013187,0.000000,1.000000,0.000000
-0.141301,-0.030115,0.280371,-0.450053,0.000000,0.893002
0.220055,-0.106676,0.018094,0.000000,-1.000000,0.000000
0.169046,0.082314,0.264571,0.538422,0.000000,0.842675
-0.093236,-0.091696,-0.455821,-0.200397,0.000000,-0.979715
0.305333,0.106676,-0.082248,0.000000,1.000000,0.000000
-0.156003,0.034903,0.394455,-0.367774,0.000000,0.929915
0.156013,0.041548,0.394387,0.367847,0.000000,0.929886
0.130407,-0.106676,0.351224,0.000000,-1.000000,0.000000
-0.205329,-0.106676,-0.354288,0.000000,-1.000000,0.000000
-0.259996,0.070585,0.330849,-0.617885,0.000000,0.786268
0.429570,-0.022686,-0.070093,0.986948,0.000000,-0.161041
0.156806,0.021675,0.388409,0.374357,0.000000,0.927285
0.423268,0.029176,0.065002,0.988412,0.000000,0.151793
0.028089,0.106676,-0.447332,0.000000,1.000000,0.000000
0.490786,0.010158,0.129643,0.966837,0.000000,0.255394
-0.187100,-0.106676,0.011333,0.000000,-1.000000,0.000000
0.010916,-0.055610,-0.313775,0.034768,0.000000,-0.999395
0.132749,-0.015307,0.490930,0.261029,0.000000,0.965331
-0.480431,-0.078980,0.118118,-0.971082,0.000000,0.238748
-0.110637,0.106676,-0.188494,0.000000,1.000000,0.000000
0.186288,-0.106676,0.471018,0.000000,-1.000000,0.000000
-0.130315,-0.014024,0.285644,-0.415061,0.000000,0.909794
0.146167,-0.092145,-0.277866,0.465552,0.000000,-0.885021
-0.245781,-0.106676,-0.203406,0.000000,-1.000000,0.000000
0.449460,0.034066,0.087327,0.981643,0.000000,0.190726
0.394423,-0.089715,0.156008,0.929902,0.000000,0.367808
-0.152152,-0.092752,0.274634,-0.484614,0.000000,0.874728
0.034082,0.092137,0.312110,0.108554,0.000000,0.994091
0.044387,0.060471,-0.065184,-0.562842,0.000000,0.826565
-0.339441,-0.064757,-0.356302,-0.689768,0.000000,-0.724031
