x,y,z,nx,ny,nz
-2.197750,15.489454,-8.638110,-0.078459,0.996917,0.000000
-12.159730,-9.747829,4.675985,-0.760406,-0.649448,0.000000
7.908930,3.687042,-32.922642,0.000000,0.000000,-1.000000
3.323892,-1.899676,-27.518883,-0.881921,0.471397,0.000000
-3.391993,-1.772266,-9.068399,0.881921,0.471397,-0.000000
-9.219891,12.659420,-6.694958,-0.649448,0.760406,0.000000
7.704878,1.755772,-9.995157,-0.000000,-1.000000,0.000000
2.669958,-15.378665,5.008802,0.233445,-0.972370,0.000000
10.458708,11.601370,-21.904209,0.649448,0.760406,0.000000
-0.586758,-15.616242,-23.245502,-0.078459,-0.996917,0.000000
-2.891828,15.325399,9.926749,-0.233445,0.972370,0.000000
2.760775,-15.356862,2.686182,0.233445,-0.972370,0.000000
-0.436921,-3.802396,-11.057704,0.098017,0.995185,-0.000000
12.565169,-9.330244,-5.973211,0.760406,-0.649448,0.000000
9.580472,2.939833,31.990863,0.972370,0.233446,0.000000
-15.636890,0.324408,-32.350096,-0.996917,0.078459,0.000000
6.476161,-7.622406,32.473038,0.649448,-0.760406,0.000000
7.250291,6.911852,24.121137,0.760406,0.649448,-0.000000
9.960663,-3.622908,10.861238,-0.000000,-0.000000,1.000000
-2.453544,2.937088,-3.252349,0.634393,-0.773010,0.000000
3.376787,3.295843,32.922642,0.000000,-0.000000,1.000000
-0.826052,3.748532,3.180477,0.290285,-0.956940,0.000000
1.341435,3.592192,-24.451214,-0.290285,-0.956940,0.000000
-1.901951,3.322675,29.028599,0.471397,-0.881921,0.000000
0.146678,15.613664,-3.590022,0.078459,0.996917,0.000000
11.207673,-10.919668,-14.983328,0.760406,-0.649448,0.000000
6.521438,-0.686917,4.251699,1.000000,0.000000,0.000000
-3.689570,14.234862,10.861238,-0.000000,-0.000000,1.000000
6.973498,14.012105,-27.402794,0.382683,0.923880,0.000000
-2.685787,-6.331298,-32.922642,0.000000,-0.000000,-1.000000
9.371833,-1.755772,13.834091,0.000000,1.000000,-0.000000
7.405969,-6.729576,19.209843,0.760406,-0.649448,0.000000
-7.880906,-13.439759,6.892943,-0.522499,-0.852640,0.000000
-13.402655,-7.901967,10.861238,0.000000,-0.000000,1.000000
-5.739576,-8.213468,14.380919,-0.522498,-0.852640,0.000000
-0.566746,14.213307,10.861238,-0.000000,0.000000,1.000000
-9.955357,11.982485,-1.020271,-0.649448,0.760406,0.000000
10.536638,7.802663,10.861238,0.000000,-0.000000,1.000000
-7.304210,-13.793159,0.433324,-0.522499,-0.852640,0.000000
-11.347586,10.755851,-18.954676,-0.760406,0.649448,0.000000
2.776377,2.649371,8.455993,-0.773010,-0.634393,0.000000
4.427070,-14.956819,5.747443,0.233445,-0.972370,0.000000
-4.349231,-9.024634,18.593560,-0.382683,-0.923880,0.000000
14.252548,6.393016,-24.111283,0.923880,0.382683,0.000000
10.184976,4.369673,-32.922642,0.000000,0.000000,-1.000000
-2.266703,15.484027,-21.010635,-0.078459,0.996917,0.000000
8.730148,-1.755772,-29.156265,0.000000,1.000000,0.000000
-8.852701,-12.887752,-14.429609,-0.522499,-0.852640,0.000000
-2.864140,-2.542432,-14.374097,0.773010,0.634393,-0.000000
-12.207057,9.749540,-6.751080,-0.760406,0.649448,0.000000
-12.117068,9.854903,-13.437181,-0.760406,0.649448,0.000000
-2.578516,-2.834526,24.238435,0.634393,0.773010,0.000000
14.301046,-6.178990,3.224184,0.923880,-0.382683,0.000000
-9.555114,-2.389753,-32.922642,0.000000,0.000000,-1.000000
-9.878732,-12.096716,-15.820740,-0.649448,-0.760406,0.000000
-1.885211,15.514051,-7.497818,-0.078459,0.996917,0.000000
2.638143,-2.785592,-16.697304,-0.634393,0.773010,0.000000
-3.515889,1.540474,11.641209,0.881921,-0.471397,0.000000
-6.210049,-14.288180,6.869956,-0.382683,-0.923880,0.000000
7.099058,7.088923,28.286181,0.760406,0.649448,-0.000000
-6.222485,-14.323184,-20.205874,-0.382683,-0.923880,0.000000
8.226265,-1.755772,5.664905,0.000000,1.000000,-0.000000
10.539721,11.532178,-16.863151,0.649448,0.760406,0.000000
-7.552421,-6.558103,32.611291,-0.760406,-0.649448,0.000000
10.245476,-11.783488,-6.735357,0.649448,-0.760406,0.000000
3.834423,0.111745,-7.785096,-0.995185,-0.098017,0.000000
8.909568,-7.886678,10.861238,-0.000000,-0.000000,1.000000
4.817841,-8.778309,27.753701,0.522498,-0.852640,0.000000
-2.956945,2.429349,-20.242056,0.773010,-0.634393,0.000000
-1.006727,-15.583190,-5.940363,-0.078459,-0.996917,0.000000
10.150316,11.815974,10.576509,0.649448,0.760406,-0.000000
7.518886,1.755772,30.963091,0.000000,-1.000000,0.000000
6.521438,-0.431897,26.009660,1.000000,0.000000,0.000000
-15.493502,2.146310,-6.685768,-0.996917,0.078459,0.000000
-7.406775,-10.021569,-32.922642,0.000000,0.000000,-1.000000
11.197766,10.874144,9.360313,0.760406,0.649448,-0.000000
2.424503,15.434395,8.330371,0.078459,0.996917,0.000000
7.791591,6.278071,16.582057,0.760406,0.649448,0.000000
8.853696,12.843632,5.654019,0.522499,0.852640,0.000000
14.735287,5.227583,-9.608500,0.923880,0.382683,0.000000
13.665918,-7.582850,-31.491683,0.852640,-0.522499,0.000000
-3.632253,1.209373,-11.408194,0.956940,-0.290285,0.000000
2.796504,-15.386436,-25.044304,0.233445,-0.972370,0.000000
-2.154433,3.182562,-31.719755,0.634393,-0.773010,0.000000
2.385678,-8.362910,32.922642,0.000000,-0.000000,1.000000
-7.015640,9.829333,-32.922642,0.000000,0.000000,-1.000000
7.792936,6.446493,-32.922642,0.000000,0.000000,-1.000000
4.568456,14.922876,6.118167,0.233445,0.972370,0.000000
-15.326448,3.046373,-14.120422,-0.972370,0.233445,0.000000
-12.827630,-8.950812,-30.655314,-0.852640,-0.522499,-0.000000
11.629552,-7.492787,-32.922642,0.000000,-0.000000,-1.000000
11.609239,-10.449494,-17.408646,0.760406,-0.649448,0.000000
-0.303661,11.428453,-32.922642,0.000000,-0.000000,-1.000000
15.624371,0.483478,-5.408702,0.996917,0.078459,-0.000000
-5.496270,-8.362567,20.577617,-0.522498,-0.852640,0.000000
-15.485304,2.250477,-5.484921,-0.996917,0.078459,0.000000
1.406008,15.514553,-0.220174,0.078459,0.996917,0.000000
7.544144,-6.567794,29.176652,0.760406,-0.649448,0.000000
6.353442,14.268940,-20.451260,0.382683,0.923880,0.000000
2.644337,-15.422968,-19.870965,0.233445,-0.972370,0.000000
8.651460,13.011073,-28.483719,0.522499,0.852640,0.000000
5.095585,-14.749807,10.230571,0.382683,-0.923880,0.000000
-8.197009,13.289561,-25.783860,-0.522499,0.852640,0.000000
7.450418,1.755772,11.921299,0.000000,-1.000000,0.000000
1.084341,3.670181,2.316438,-0.290285,-0.956940,0.000000
-14.517999,5.752162,-26.710254,-0.923880,0.382683,0.000000
-10.019552,-0.170637,15.411627,-0.996917,-0.078459,-0.000000
-0.923814,3.718876,-27.490372,0.290285,-0.956940,0.000000
-15.450559,-2.529412,-7.729143,-0.972370,-0.233445,-0.000000
0.307252,10.008801,14.141088,0.078459,0.996917,0.000000
-3.822645,-0.231327,-23.622973,0.995185,0.098017,-0.000000
-5.291480,14.708819,-29.045067,-0.382683,0.923880,0.000000
1.770422,-9.861223,27.239734,0.233446,-0.972370,0.000000
-15.569830,-1.176481,-29.328074,-0.996917,-0.078459,-0.000000
15.544160,1.502640,-4.796290,0.996917,0.078459,-0.000000
-5.040487,5.874921,-32.922642,0.000000,0.000000,-1.000000
13.187898,8.362907,-28.126954,0.852640,0.522499,0.000000
-5.408196,12.523308,10.861238,-0.000000,-0.000000,1.000000
-13.888961,7.218878,-15.506483,-0.852640,0.522499,0.000000
1.909968,-4.397236,32.922642,0.000000,-0.000000,1.000000
0.589220,-10.962355,10.861238,-0.000000,-0.000000,1.000000
15.531700,1.660966,-8.759322,0.996917,0.078459,-0.000000
-8.690830,12.986947,-16.786249,-0.522499,0.852640,0.000000
0.327356,15.636658,-23.296633,0.078459,0.996917,-0.000000
0.220813,3.823680,9.254943,-0.098017,-0.995185,0.000000
10.032982,-0.019093,-5.598204,-1.000000,0.000000,0.000000
-3.388702,9.422498,18.873282,-0.382683,0.923880,0.000000
14.949094,4.459248,2.934289,0.972370,0.233445,-0.000000
-4.756886,-8.815662,24.446834,-0.522498,-0.852640,0.000000
6.521438,0.151006,13.206220,1.000000,0.000000,0.000000
-0.974008,15.585765,-17.960871,-0.078459,0.996917,0.000000
2.024435,15.503094,-11.282228,0.078459,0.996917,0.000000
13.544206,7.710463,7.640619,0.852640,0.522499,-0.000000
15.072415,-4.104498,-29.019748,0.972370,-0.233445,0.000000
-0.421566,-15.629243,-27.747166,-0.078459,-0.996917,0.000000
-2.804320,-15.384560,-30.513091,-0.233445,-0.972370,0.000000
-0.818381,3.750859,20.817685,0.290285,-0.956940,0.000000
-1.978241,15.506730,-25.840238,-0.078459,0.996917,0.000000
-9.784451,-2.090198,12.974334,-0.972370,-0.233446,0.000000
15.642304,-0.255612,-17.794788,0.996917,-0.078459,0.000000
8.439266,13.097595,-0.723280,0.522499,0.852640,0.000000
7.887582,-13.435667,6.789880,0.522499,-0.852640,0.000000
-3.350694,1.849532,-5.707164,0.881921,-0.471397,0.000000
-6.128052,9.364681,-32.922642,0.000000,0.000000,-1.000000
2.093813,15.497634,-7.419950,0.078459,0.996917,-0.000000
-2.768987,-15.393042,-5.362241,-0.233445,-0.972370,0.000000
5.135455,-13.467827,10.861238,-0.000000,0.000000,1.000000
6.521438,-1.223541,-0.324022,1.000000,0.000000,0.000000
8.691629,4.973490,-32.922642,0.000000,0.000000,-1.000000
5.675479,-8.252747,28.205827,0.522498,-0.852640,0.000000
3.925463,-9.200164,17.067422,0.382683,-0.923880,0.000000
14.194064,-6.437266,8.757833,0.923880,-0.382683,0.000000
-7.587682,2.390902,32.922642,-0.000000,0.000000,1.000000
9.596476,-12.337786,-24.935342,0.649448,-0.760406,0.000000
6.664179,-1.755772,8.166732,0.000000,1.000000,-0.000000
-11.865368,-10.092483,7.305973,-0.760406,-0.649448,0.000000
4.559759,13.809441,-32.922642,0.000000,0.000000,-1.000000
8.198665,5.763733,17.920666,0.852640,0.522498,-0.000000
-4.732033,-14.921757,-4.294946,-0.233445,-0.972370,0.000000
3.046333,2.320429,-0.990288,-0.773010,-0.634393,0.000000
7.189619,13.906891,-5.960761,0.522499,0.852640,-0.000000
9.099052,12.736788,-26.225044,0.522499,0.852640,0.000000
9.597077,-2.870669,29.703866,0.972370,-0.233446,0.000000
-3.774119,0.724019,5.113710,0.995185,-0.098017,0.000000
-7.201887,-6.968526,30.606454,-0.760406,-0.649448,0.000000
-15.224972,3.469050,-32.848681,-0.972370,0.233445,0.000000
-8.663251,12.960336,5.522961,-0.522499,0.852640,0.000000
9.843888,-1.755772,-26.988275,0.000000,1.000000,0.000000
14.665118,-5.396983,-5.010553,0.923880,-0.382683,0.000000
6.165056,-7.888115,19.441103,0.649448,-0.760406,0.000000
10.268053,-11.764204,-16.160824,0.649448,-0.760406,0.000000
12.159784,-9.804889,-18.936625,0.760406,-0.649448,0.000000
14.261673,-6.370988,-17.539818,0.923880,-0.382683,0.000000
-3.500140,9.376339,31.332860,-0.382683,0.923880,0.000000
-15.546631,1.471251,-14.709339,-0.996917,0.078459,0.000000
-9.962510,0.895424,32.537788,-0.996917,0.078459,0.000000
13.565876,-7.746105,-32.088907,0.852640,-0.522499,0.000000
-11.955167,-10.044465,-24.845753,-0.760406,-0.649448,0.000000
3.031557,6.344241,-32.922642,0.000000,-0.000000,-1.000000
14.685902,-5.249864,3.661262,0.923880,-0.382683,0.000000
12.186100,9.774077,-14.315825,0.760406,0.649448,0.000000
-9.381895,12.521055,-14.232905,-0.649448,0.760406,0.000000
7.873555,-1.755772,20.254371,0.000000,1.000000,-0.000000
2.897927,2.501262,10.471475,-0.773010,-0.634393,0.000000
15.455671,2.154165,-1.758574,0.996917,0.078459,-0.000000
-10.470788,8.791240,-32.922642,0.000000,0.000000,-1.000000
-0.240978,-3.821694,25.080224,0.098017,0.995185,0.000000
-3.178630,2.159224,31.680883,0.773010,-0.634393,0.000000
-15.566300,1.221329,-32.182383,-0.996917,0.078459,0.000000
-0.255322,-15.528648,-32.922642,0.000000,-0.000000,-1.000000
9.313660,3.651460,18.532327,0.923880,0.382683,0.000000
6.266463,-14.264813,5.364627,0.382683,-0.923880,0.000000
3.771792,0.747642,17.506831,-0.995185,-0.098017,0.000000
15.575676,1.102201,-31.406644,0.996917,0.078459,0.000000
2.898525,2.500533,29.071749,-0.773010,-0.634393,0.000000
7.700836,13.550106,2.991761,0.522499,0.852640,-0.000000
2.775009,-2.651038,32.083041,-0.773010,0.634393,0.000000
2.273533,-15.483490,-29.068487,0.078459,-0.996917,0.000000
-13.626934,-2.767297,10.861238,0.000000,-0.000000,1.000000
8.294032,1.755772,-19.432550,0.000000,-1.000000,-0.000000
-9.604013,-2.841776,14.149681,-0.972370,-0.233446,0.000000
9.456241,3.307238,30.390696,0.923880,0.382683,-0.000000
-3.782904,-0.634825,16.232413,0.995185,0.098017,0.000000
10.032982,0.883020,5.525762,-1.000000,0.000000,0.000000
15.363813,2.731821,4.720980,0.972370,0.233445,0.000000
-4.678628,-8.863618,17.301972,-0.522498,-0.852640,0.000000
-9.772129,-2.141526,28.660653,-0.972370,-0.233446,0.000000
6.521438,-0.159461,-18.386632,1.000000,0.000000,0.000000
-11.581913,10.424366,10.109941,-0.760406,0.649448,0.000000
14.656105,5.418743,-14.923742,0.923880,0.382683,0.000000
15.552396,1.397992,-32.726154,0.996917,0.078459,0.000000
-15.595755,-0.847071,-26.586675,-0.996917,-0.078459,-0.000000
15.566737,-0.742945,-2.879216,0.996917,-0.078459,0.000000
-1.698027,3.431675,-14.792413,0.471397,-0.881921,0.000000
7.194822,1.755772,11.113838,0.000000,-1.000000,0.000000
-11.236282,10.886171,-15.840444,-0.760406,0.649448,0.000000
4.345842,15.014473,-26.030240,0.233445,0.972370,0.000000
2.146917,-15.456242,1.267394,0.078459,-0.996917,0.000000
12.045469,-9.938734,-18.778753,0.760406,-0.649448,0.000000
-2.213390,-10.574581,10.861238,0.000000,-0.000000,1.000000
-9.415092,-12.492702,-31.325585,-0.649448,-0.760406,-0.000000
-3.786319,-0.600144,-22.910340,0.995185,0.098017,-0.000000
-13.800231,-7.363672,-24.265898,-0.852640,-0.522499,-0.000000
6.114054,14.327943,-3.924560,0.382683,0.923880,0.000000
-2.764377,2.663993,5.151529,0.773010,-0.634393,0.000000
15.519720,1.813184,-18.433246,0.996917,0.078459,-0.000000
0.190172,3.826698,25.717394,-0.098017,-0.995185,0.000000
-11.153690,-2.879858,-32.922642,0.000000,0.000000,-1.000000
-9.988617,-0.563710,25.766686,-0.996917,-0.078459,0.000000
2.531553,15.450045,-12.234044,0.233445,0.972370,-0.000000
2.143167,-3.191808,4.533219,-0.634393,0.773010,0.000000
-8.926444,12.842562,-9.166790,-0.522499,0.852640,0.000000
2.523356,-2.879795,21.759447,-0.634393,0.773010,0.000000
-6.875040,7.281732,31.654936,-0.649448,0.760406,0.000000
12.726170,9.116380,-31.704943,0.852640,0.522499,0.000000
-0.285951,3.817265,16.759983,0.098017,-0.995185,0.000000
8.781756,-1.755772,-24.050639,0.000000,1.000000,0.000000
10.142207,-11.871687,-17.756785,0.649448,-0.760406,0.000000
3.586482,1.360259,12.298324,-0.956940,-0.290285,0.000000
-3.263665,2.012352,-4.658194,0.881921,-0.471397,0.000000
9.269817,-12.152197,-32.922642,0.000000,-0.000000,-1.000000
12.988629,-8.688086,-18.013134,0.852640,-0.522499,0.000000
-13.227573,-8.227162,-0.677344,-0.852640,-0.522499,-0.000000
-14.867818,-4.907622,-12.545034,-0.923880,-0.382683,-0.000000
-2.555756,-3.390168,32.922642,0.000000,-0.000000,1.000000
-6.790950,-14.047563,-3.377046,-0.382683,-0.923880,0.000000
15.622747,-0.504101,-28.234418,0.996917,-0.078459,0.000000
-7.283392,-6.873095,24.510799,-0.760406,-0.649448,0.000000
-1.849741,-7.556177,-32.922642,0.000000,-0.000000,-1.000000
-2.510154,-9.683629,26.350949,-0.233446,-0.972370,0.000000
15.598155,-0.343740,4.902719,0.996917,-0.078459,0.000000
-9.665006,-11.987463,-32.922642,0.000000,0.000000,-1.000000
1.069387,-13.146298,-32.922642,0.000000,0.000000,-1.000000
-2.416214,-2.967724,28.942181,0.634393,0.773010,0.000000
2.747144,3.637799,32.922642,0.000000,-0.000000,1.000000
9.476386,12.440352,-21.094905,0.649448,0.760406,-0.000000
-1.267935,9.137496,32.922642,-0.000000,0.000000,1.000000
-14.859541,4.927606,-10.081458,-0.923880,0.382683,0.000000
-13.358478,-8.084547,-20.834068,-0.852640,-0.522499,-0.000000
-7.528082,-6.586601,17.176556,-0.760406,-0.649448,0.000000
-5.535345,-14.607807,-16.780138,-0.382683,-0.923880,0.000000
-15.091993,-3.864030,-1.676392,-0.972370,-0.233445,-0.000000
-6.939057,13.986216,-0.495938,-0.382683,0.923880,0.000000
3.237595,15.280540,-25.466997,0.233445,0.972370,0.000000
-14.903051,4.809949,-25.766597,-0.972370,0.233445,0.000000
-14.323749,-6.124180,3.806006,-0.923880,-0.382683,0.000000
14.068999,-6.739199,2.687708,0.923880,-0.382683,0.000000
-2.208166,15.488634,-23.369162,-0.078459,0.996917,0.000000
-5.543506,8.333621,16.064594,-0.522498,0.852640,0.000000
-4.226159,15.043206,-24.993782,-0.233445,0.972370,0.000000
7.350181,-13.808498,-20.483400,0.522499,-0.852640,0.000000
5.143642,-14.770056,-12.294016,0.382683,-0.923880,0.000000
1.479353,-15.545993,-28.373953,0.078459,-0.996917,0.000000
15.635653,-0.340119,-31.655713,0.996917,-0.078459,0.000000
-3.312993,-1.920067,-14.985020,0.881921,0.471397,-0.000000
-7.154978,-13.884608,-0.556948,-0.522499,-0.852640,0.000000
6.521438,-1.411708,-14.877405,1.000000,0.000000,0.000000
1.336915,-10.902649,-32.922642,0.000000,0.000000,-1.000000
-7.892946,13.475891,-32.549359,-0.522499,0.852640,0.000000
-15.489687,2.194788,-8.108122,-0.996917,0.078459,0.000000
4.975925,-8.681434,32.493874,0.522498,-0.852640,0.000000
9.450018,3.322263,14.204663,0.923880,0.382683,0.000000
10.032982,1.668083,-29.834004,-1.000000,0.000000,0.000000
4.630907,-14.907883,6.064178,0.233445,-0.972370,0.000000
11.638887,-10.414781,-13.660795,0.760406,-0.649448,0.000000
6.521438,0.960313,25.843381,1.000000,0.000000,0.000000
-0.484793,-3.797681,-3.445204,0.098017,0.995185,-0.000000
-14.278005,-6.331558,-29.427904,-0.923880,-0.382683,-0.000000
-1.892744,-9.831856,19.109501,-0.233446,-0.972370,0.000000
1.434097,15.549555,-32.806050,0.078459,0.996917,0.000000
0.231255,3.822652,-29.912061,-0.098017,-0.995185,0.000000
6.665389,-1.755772,25.391524,0.000000,1.000000,-0.000000
-14.311713,-6.153236,-2.280208,-0.923880,-0.382683,-0.000000
3.626131,-1.607119,-32.922642,0.000000,0.000000,-1.000000
-8.766260,-3.920084,-32.922642,0.000000,0.000000,-1.000000
-11.014655,11.077758,0.365106,-0.649448,0.760406,0.000000
-15.621045,-0.525736,-18.304074,-0.996917,-0.078459,-0.000000
-4.223054,15.043952,-15.669139,-0.233445,0.972370,0.000000
2.199587,15.489309,-29.123645,0.078459,0.996917,0.000000
-4.171661,7.353650,-32.922642,0.000000,0.000000,-1.000000
-3.850590,15.133373,-8.148415,-0.233445,0.972370,0.000000
10.032982,-1.516013,-19.306654,-1.000000,0.000000,0.000000
7.328594,-13.778216,9.774722,0.522499,-0.852640,0.000000
2.608991,15.431454,-10.486665,0.233445,0.972370,-0.000000
-8.696074,-12.983733,-29.906866,-0.522499,-0.852640,0.000000
0.140416,10.664346,-32.922642,0.000000,0.000000,-1.000000
3.431214,1.698891,18.300726,-0.881921,-0.471397,0.000000
-1.879690,15.477273,3.912124,-0.078459,0.996917,0.000000
-13.143283,-8.435712,-25.176579,-0.852640,-0.522499,-0.000000
8.395191,-1.755772,-25.128233,0.000000,1.000000,0.000000
-2.236235,15.486425,-23.794467,-0.078459,0.996917,0.000000
-7.761345,3.566800,32.922642,-0.000000,-0.000000,1.000000
7.755728,13.516468,8.975958,0.522499,0.852640,-0.000000
-3.829062,9.240095,29.042359,-0.382683,0.923880,0.000000
-12.812641,0.423326,-32.922642,0.000000,0.000000,-1.000000
-5.498481,8.361212,14.221179,-0.522498,0.852640,0.000000
9.009357,-1.755772,-7.503650,0.000000,1.000000,0.000000
8.854342,1.755772,-8.582690,0.000000,-1.000000,-0.000000
-9.986870,-0.585907,31.329902,-0.996917,-0.078459,0.000000
0.226555,-10.015152,16.679605,0.078459,-0.996917,0.000000
-9.724100,5.399652,10.861238,-0.000000,0.000000,1.000000
7.166944,-13.920786,-6.558148,0.522499,-0.852640,0.000000
2.624833,15.427651,-5.465412,0.233445,0.972370,-0.000000
15.616396,-0.111961,2.960886,0.996917,-0.078459,0.000000
4.459475,-0.821726,32.922642,-0.000000,0.000000,1.000000
-3.772118,-0.744334,-28.929730,0.995185,0.098017,0.000000
-0.849144,-9.966153,22.042711,-0.078459,-0.996917,0.000000
-13.940391,7.049686,7.158087,-0.923880,0.382683,0.000000
-3.081152,2.278001,6.588756,0.773010,-0.634393,0.000000
1.420976,-3.568064,-0.633993,-0.290285,0.956940,0.000000
-7.496246,-6.623876,12.584165,-0.760406,-0.649448,0.000000
-8.339043,-9.588713,10.861238,0.000000,-0.000000,1.000000
1.094344,11.335536,10.861238,-0.000000,0.000000,1.000000
-1.556313,3.507423,6.132017,0.471397,-0.881921,0.000000
11.521691,-10.552000,-22.852431,0.760406,-0.649448,0.000000
7.949154,13.441446,-30.208169,0.522499,0.852640,0.000000
12.064141,-9.916873,-4.591970,0.760406,-0.649448,0.000000
6.034201,-10.525517,-32.922642,0.000000,0.000000,-1.000000
-8.357504,-13.147699,-0.354901,-0.522499,-0.852640,0.000000
9.074023,-4.229995,23.398670,0.923880,-0.382683,0.000000
2.329843,9.726918,14.542675,0.233446,0.972370,0.000000
1.056553,3.678610,32.642534,-0.290285,-0.956940,0.000000
6.521438,-0.747824,-24.908287,1.000000,0.000000,0.000000
2.626491,-9.655699,27.679083,0.233446,-0.972370,0.000000
-13.495540,-7.860881,-14.575972,-0.852640,-0.522499,-0.000000
-9.081067,12.747809,-26.450078,-0.522499,0.852640,0.000000
-5.680044,14.547871,-22.869149,-0.382683,0.923880,0.000000
7.275160,1.755772,-29.813221,0.000000,-1.000000,-0.000000
-8.884715,-12.868134,-30.813706,-0.522499,-0.852640,0.000000
-0.435349,6.576006,32.922642,-0.000000,0.000000,1.000000
14.960627,4.570127,-6.212971,0.972370,0.233445,-0.000000
-8.997860,-4.413869,26.542849,-0.923880,-0.382683,0.000000
10.083545,4.694334,-32.922642,0.000000,0.000000,-1.000000
1.292781,15.560677,-10.622090,0.078459,0.996917,-0.000000
-13.809075,7.349240,-10.526968,-0.852640,0.522499,0.000000
15.513665,-1.890122,-15.047406,0.996917,-0.078459,0.000000
-2.194090,15.489742,-16.668484,-0.078459,0.996917,0.000000
14.431761,-5.960358,-16.460057,0.923880,-0.382683,0.000000
15.568142,1.197925,-9.338411,0.996917,0.078459,-0.000000
-3.219868,15.284795,-8.181082,-0.233445,0.972370,0.000000
13.011847,8.579195,7.487025,0.852640,0.522499,-0.000000
9.589209,12.343993,-18.113119,0.649448,0.760406,-0.000000
12.177593,-9.726914,5.634632,0.760406,-0.649448,0.000000
-4.884571,1.825521,32.922642,-0.000000,0.000000,1.000000
15.291989,-3.189906,-19.643410,0.972370,-0.233445,0.000000
-15.610704,-0.184292,8.222109,-0.996917,-0.078459,-0.000000
-5.049176,8.636546,30.155195,-0.522498,0.852640,0.000000
-12.719198,-9.056753,4.937386,-0.852640,-0.522499,0.000000
-12.702708,9.083663,3.013027,-0.852640,0.522499,0.000000
6.521438,-0.249643,4.296406,1.000000,0.000000,0.000000
2.491771,2.905716,-24.709323,-0.634393,-0.773010,0.000000
3.544930,1.486143,7.613328,-0.881921,-0.471397,0.000000
-14.015768,6.867711,9.560484,-0.923880,0.382683,0.000000
6.521438,-0.271080,29.969759,1.000000,0.000000,0.000000
-2.421188,-15.471869,-15.597957,-0.078459,-0.996917,0.000000
1.749457,3.404185,-20.842371,-0.471397,-0.881921,0.000000
7.804539,-7.520233,10.861238,-0.000000,-0.000000,1.000000
-13.793153,-7.304219,-1.205563,-0.852640,-0.522499,-0.000000
14.427750,5.970041,-29.530584,0.923880,0.382683,0.000000
8.645324,5.034853,24.786602,0.852640,0.522498,0.000000
8.006871,13.362567,-3.121894,0.522499,0.852640,0.000000
0.096778,-10.025365,18.349845,0.078459,-0.996917,0.000000
-15.130716,3.861657,-16.933784,-0.972370,0.233445,0.000000
-15.018093,4.330764,-21.007555,-0.972370,0.233445,0.000000
-14.409614,-6.013825,-8.082858,-0.923880,-0.382683,0.000000
1.020048,-3.689684,-32.216836,-0.290285,0.956940,0.000000
-12.603609,-9.285237,-21.042894,-0.760406,-0.649448,0.000000
-3.823203,0.225659,-2.541599,0.995185,-0.098017,0.000000
10.018160,-1.755772,-19.739160,-0.000000,1.000000,0.000000
-12.512509,-4.903308,-32.922642,0.000000,0.000000,-1.000000
-15.616348,0.585412,-28.467211,-0.996917,0.078459,0.000000
-4.201929,15.010871,-1.969777,-0.233445,0.972370,0.000000
0.603012,15.614963,-22.516262,0.078459,0.996917,-0.000000
-5.839471,14.481834,-29.215281,-0.382683,0.923880,0.000000
-0.641733,-9.982476,17.801969,-0.078459,-0.996917,0.000000
10.329498,-3.312497,-32.922642,0.000000,0.000000,-1.000000
-4.137034,9.112529,30.985460,-0.382683,0.923880,0.000000
-8.617086,-11.061418,10.861238,0.000000,-0.000000,1.000000
-9.036178,4.321360,22.479891,-0.923880,0.382683,0.000000
4.092260,9.131075,30.120017,0.382683,0.923880,-0.000000
-0.386820,-3.807330,-25.809860,0.098017,0.995185,-0.000000
7.278797,6.878476,24.083413,0.760406,0.649448,-0.000000
-9.622039,2.766695,17.117025,-0.972370,0.233446,0.000000
5.080454,7.967793,-32.922642,0.000000,0.000000,-1.000000
-12.713321,-9.137347,-8.159107,-0.852640,-0.522499,0.000000
-0.309901,-10.008592,25.164081,-0.078459,-0.996917,0.000000
-6.380622,-14.257682,-21.617497,-0.382683,-0.923880,0.000000
-5.780490,-8.188396,21.518149,-0.522498,-0.852640,0.000000
7.513158,-13.708625,-9.192973,0.522499,-0.852640,0.000000
-13.557979,7.687989,4.652633,-0.852640,0.522499,0.000000
7.947051,13.442735,-22.172252,0.522499,0.852640,0.000000
5.047203,14.810002,-11.088326,0.382683,0.923880,-0.000000
12.524976,-9.377304,-18.922029,0.760406,-0.649448,0.000000
0.769957,15.564611,4.369701,0.078459,0.996917,0.000000
-15.611014,-0.653193,-30.295781,-0.996917,-0.078459,-0.000000
3.565736,-4.629041,32.922642,0.000000,0.000000,1.000000
0.746476,15.603672,-15.909252,0.078459,0.996917,-0.000000
2.328057,-3.040073,11.330194,-0.634393,0.773010,0.000000
-2.165839,9.766291,11.198358,-0.233446,0.972370,0.000000
-12.394998,9.529489,-28.119702,-0.760406,0.649448,0.000000
-4.327077,-9.033810,27.022438,-0.382683,-0.923880,0.000000
-2.905835,15.360188,-27.816322,-0.233445,0.972370,0.000000
7.178399,-1.755772,-27.577903,0.000000,1.000000,0.000000
15.442517,-2.321302,5.880514,0.996917,-0.078459,0.000000
6.521438,1.671494,25.164446,1.000000,0.000000,0.000000
-0.409086,3.805137,12.835217,0.098017,-0.995185,0.000000
-7.693759,6.392618,18.387774,-0.760406,0.649448,0.000000
-10.465782,-7.515450,10.861238,0.000000,-0.000000,1.000000
9.673750,6.106633,-32.922642,0.000000,0.000000,-1.000000
-4.845701,14.893467,-11.115808,-0.382683,0.923880,0.000000
-1.690186,-7.630377,32.922642,-0.000000,0.000000,1.000000
11.598235,10.462378,-24.465100,0.760406,0.649448,0.000000
14.585394,5.589456,-17.496151,0.923880,0.382683,0.000000
3.237590,15.242388,-1.735108,0.233445,0.972370,0.000000
15.440173,2.351092,-1.893156,0.996917,0.078459,-0.000000
-13.497137,7.858276,-18.165842,-0.852640,0.522499,0.000000
2.500813,-4.322111,32.922642,0.000000,0.000000,1.000000
3.043480,2.323906,21.698419,-0.773010,-0.634393,0.000000
6.521438,1.343387,10.366519,1.000000,0.000000,0.000000
-11.429635,-10.659783,-19.446023,-0.760406,-0.649448,0.000000
-4.756588,14.877709,5.974426,-0.233445,0.972370,0.000000
-1.503775,-9.914632,18.901969,-0.078459,-0.996917,0.000000
6.550624,14.147110,6.117907,0.382683,0.923880,0.000000
-5.083247,14.754917,-3.359815,-0.382683,0.923880,0.000000
-15.525643,1.737921,-5.106041,-0.996917,0.078459,0.000000
-9.198822,-12.675649,-11.956158,-0.522499,-0.852640,0.000000
-13.184249,8.368862,-5.522350,-0.852640,0.522499,0.000000
-15.529079,1.694271,-27.624378,-0.996917,0.078459,0.000000
4.311983,9.040062,14.692112,0.382683,0.923880,0.000000
9.412094,-1.755772,-7.359067,0.000000,1.000000,0.000000
15.569512,1.180519,-4.592117,0.996917,0.078459,-0.000000
3.594880,1.332574,13.045375,-0.956940,-0.290285,0.000000
10.032982,-1.587778,10.229417,-1.000000,0.000000,0.000000
5.686585,14.545161,-9.658938,0.382683,0.923880,-0.000000
15.519413,1.817084,-8.003361,0.996917,0.078459,-0.000000
0.279622,9.592336,-32.922642,0.000000,0.000000,-1.000000
3.290516,1.962117,-14.644009,-0.881921,-0.471397,0.000000
6.521438,0.189850,-31.640191,1.000000,0.000000,0.000000
-10.712481,-8.228660,10.861238,-0.000000,0.000000,1.000000
3.195035,-2.139235,-16.118196,-0.773010,0.634393,0.000000
-6.285878,1.845091,-32.922642,0.000000,-0.000000,-1.000000
-12.082934,-9.894869,-4.539938,-0.760406,-0.649448,0.000000
-11.162025,-10.915991,0.249617,-0.760406,-0.649448,0.000000
0.041493,-3.841342,25.339220,-0.098017,0.995185,0.000000
8.456021,-1.755772,-22.854519,0.000000,1.000000,0.000000
4.956422,14.847605,-14.894528,0.382683,0.923880,-0.000000
14.155285,6.530888,5.593228,0.923880,0.382683,-0.000000
12.093056,-3.513352,-32.922642,0.000000,0.000000,-1.000000
-1.110591,-15.575016,-11.935457,-0.078459,-0.996917,0.000000
6.781098,7.361965,28.594113,0.649448,0.760406,-0.000000
0.476350,3.798512,15.785280,-0.098017,-0.995185,0.000000
10.268595,11.714954,2.226829,0.649448,0.760406,0.000000
6.436456,-14.194399,5.576805,0.382683,-0.923880,0.000000
-8.780720,12.931862,-7.126715,-0.522499,0.852640,0.000000
14.904987,4.801883,-25.161850,0.972370,0.233445,-0.000000
7.458856,-13.698391,-0.465996,0.522499,-0.852640,0.000000
3.370244,-1.812957,-29.963202,-0.881921,0.471397,0.000000
4.503732,0.420523,32.922642,0.000000,-0.000000,1.000000
-1.070378,-11.933613,10.861238,0.000000,-0.000000,1.000000
10.755067,11.348255,-9.759236,0.649448,0.760406,0.000000
-7.105585,13.914876,8.313369,-0.522499,0.852640,0.000000
-3.926277,-9.199827,26.009038,-0.382683,-0.923880,0.000000
9.118406,-4.122845,24.009012,0.923880,-0.382683,0.000000
4.750249,-11.703693,10.861238,-0.000000,0.000000,1.000000
9.210226,3.901171,13.380588,0.923880,0.382683,0.000000
9.606754,2.830361,31.035335,0.972370,0.233446,0.000000
2.997921,-5.161834,32.922642,0.000000,-0.000000,1.000000
7.272039,13.856384,-19.673504,0.522499,0.852640,-0.000000
-1.593891,-3.487337,-24.348685,0.471397,0.881921,-0.000000
11.784935,10.186657,-2.810148,0.760406,0.649448,0.000000
-12.903014,8.827796,-26.556236,-0.852640,0.522499,0.000000
2.768221,-2.659310,-15.420352,-0.773010,0.634393,0.000000
-0.541461,15.619807,-27.559433,-0.078459,0.996917,0.000000
6.116980,10.065989,10.861238,-0.000000,0.000000,1.000000
-0.290037,-15.639595,-6.939850,-0.078459,-0.996917,0.000000
-14.804281,-4.964073,5.635651,-0.923880,-0.382683,-0.000000
-2.853470,-9.601206,18.341599,-0.233446,-0.972370,0.000000
-12.948786,-8.753103,-6.657302,-0.852640,-0.522499,0.000000
6.521438,0.987267,-19.224253,1.000000,0.000000,0.000000
-3.578673,-1.386003,-32.711078,0.956940,0.290285,-0.000000
-8.612346,12.991531,0.772836,-0.522499,0.852640,0.000000
-13.000858,2.879157,-32.922642,0.000000,0.000000,-1.000000
-14.873611,4.773659,-2.168325,-0.972370,0.233445,0.000000
11.391846,10.704029,-18.410261,0.760406,0.649448,-0.000000
10.995278,11.143096,-32.314159,0.649448,0.760406,0.000000
-4.996747,14.830902,-23.514737,-0.382683,0.923880,0.000000
8.011906,6.020116,12.869999,0.760406,0.649448,0.000000
-2.083308,3.225738,-28.169893,0.471397,-0.881921,0.000000
-10.389048,4.266931,10.861238,-0.000000,0.000000,1.000000
-15.534635,-1.623676,-27.943634,-0.996917,-0.078459,-0.000000
7.406240,-1.755772,3.667943,0.000000,1.000000,-0.000000
12.057935,9.505515,10.861238,0.000000,-0.000000,1.000000
9.187960,1.755772,0.639997,0.000000,-1.000000,-0.000000
15.086011,-3.888947,-3.460108,0.972370,-0.233445,0.000000
7.997141,-13.368530,5.170330,0.522499,-0.852640,0.000000
-12.978365,-8.633832,1.530921,-0.852640,-0.522499,0.000000
14.114476,-6.726353,-18.516458,0.923880,-0.382683,0.000000
6.821178,-14.075198,-27.290781,0.382683,-0.923880,0.000000
-15.206873,3.385522,9.501550,-0.972370,0.233445,0.000000
14.223949,6.462061,-4.603031,0.923880,0.382683,-0.000000
6.521438,-1.137478,-30.666113,1.000000,0.000000,0.000000
-11.816703,6.789355,-32.922642,0.000000,0.000000,-1.000000
6.521438,-0.462768,-29.519931,1.000000,0.000000,0.000000
-3.162544,-2.178825,13.117259,0.773010,0.634393,-0.000000
2.052901,15.463641,-0.758849,0.078459,0.996917,0.000000
-5.341941,-14.687918,-32.545968,-0.382683,-0.923880,0.000000
9.462686,1.755772,1.580064,0.000000,-1.000000,-0.000000
2.758535,2.671112,-27.238845,-0.773010,-0.634393,0.000000
-10.578191,2.776004,10.861238,-0.000000,0.000000,1.000000
-11.168118,-1.762672,10.861238,0.000000,-0.000000,1.000000
-11.915205,-6.113964,10.861238,0.000000,-0.000000,1.000000
6.431908,7.660202,11.473213,0.649448,0.760406,0.000000
-0.546471,15.619413,-27.863952,-0.078459,0.996917,0.000000
-15.314449,-3.096353,-8.120459,-0.972370,-0.233445,0.000000
1.322558,-15.558333,-15.436065,0.078459,-0.996917,0.000000
11.154075,9.730973,10.861238,0.000000,-0.000000,1.000000
-9.806027,2.000329,15.551635,-0.972370,0.233446,0.000000
-14.155814,6.529610,6.099740,-0.923880,0.382683,0.000000
-6.398206,7.688986,28.988886,-0.649448,0.760406,0.000000
8.194541,-10.906491,10.861238,-0.000000,0.000000,1.000000
5.047674,14.809807,-14.681356,0.382683,0.923880,-0.000000
1.568740,-9.909519,27.049531,0.078459,-0.996917,0.000000
14.354083,6.147890,-16.083288,0.923880,0.382683,-0.000000
0.857054,-15.557756,-0.125371,0.078459,-0.996917,0.000000
-3.801880,0.442156,-6.247409,0.995185,-0.098017,0.000000
-5.662907,8.260451,25.516529,-0.522498,0.852640,0.000000
2.703648,-2.731834,-17.839717,-0.634393,0.773010,0.000000
-4.612551,-8.904110,31.044569,-0.522498,-0.852640,0.000000
-15.544383,-1.499814,-24.502344,-0.996917,-0.078459,-0.000000
-7.485640,-0.166226,32.922642,0.000000,-0.000000,1.000000
2.465246,2.927485,-9.158162,-0.634393,-0.773010,0.000000
-5.885820,8.123850,15.519321,-0.522498,0.852640,0.000000
-13.112954,-2.805610,-32.922642,0.000000,0.000000,-1.000000
-13.034919,3.102620,-32.922642,0.000000,0.000000,-1.000000
9.174656,-12.690458,-5.664384,0.522499,-0.852640,0.000000
11.759705,-1.619082,10.861238,0.000000,-0.000000,1.000000
-7.461266,-13.696915,-0.947902,-0.522499,-0.852640,0.000000
6.672302,1.755772,28.504428,0.000000,-1.000000,0.000000
6.061903,-14.349545,-0.823334,0.382683,-0.923880,0.000000
1.498102,3.538537,11.817819,-0.471397,-0.881921,0.000000
15.137571,-3.674186,-2.692980,0.972370,-0.233445,0.000000
4.170790,-15.056500,-28.711746,0.233445,-0.972370,0.000000
6.554754,-14.145399,0.854425,0.382683,-0.923880,0.000000
10.032982,0.167653,-7.506767,-1.000000,0.000000,0.000000
0.635557,-3.782832,-18.478023,-0.098017,0.995185,0.000000
-14.972255,-2.439200,10.861238,0.000000,-0.000000,1.000000
-13.296420,8.185816,-25.874240,-0.852640,0.522499,0.000000
-8.766480,12.897078,2.970086,-0.522499,0.852640,0.000000
-14.391534,-6.057475,-12.803679,-0.923880,-0.382683,0.000000
-9.855975,-1.792279,13.221865,-0.972370,-0.233446,0.000000
7.388111,1.755772,30.923199,0.000000,-1.000000,0.000000
-4.483004,4.909505,32.922642,-0.000000,-0.000000,1.000000
-14.909137,4.784598,-17.229906,-0.972370,0.233445,0.000000
0.228960,-10.014962,16.179361,0.078459,-0.996917,0.000000
-15.542349,1.525654,-31.084466,-0.996917,0.078459,0.000000
-3.633072,-1.206673,-29.322838,0.956940,0.290285,-0.000000
12.916436,8.805893,-24.095157,0.852640,0.522499,-0.000000
-2.901313,-15.323121,5.351246,-0.233445,-0.972370,0.000000
7.834282,1.755772,17.140863,0.000000,-1.000000,0.000000
-10.563980,11.511459,-23.727026,-0.649448,0.760406,0.000000
-14.407964,6.017810,-27.457818,-0.923880,0.382683,0.000000
2.417398,-2.966752,20.370435,-0.634393,0.773010,0.000000
-11.989997,10.003684,-4.682189,-0.760406,0.649448,0.000000
13.301952,-6.735893,10.861238,-0.000000,0.000000,1.000000
6.521438,-1.660157,-24.075739,1.000000,0.000000,0.000000
-4.079838,13.019094,-32.922642,0.000000,0.000000,-1.000000
3.767096,-0.764854,-25.357558,-0.956940,0.290285,0.000000
-1.135845,3.654557,-1.460960,0.290285,-0.956940,0.000000
5.706786,10.028550,-32.922642,0.000000,0.000000,-1.000000
7.994730,1.755772,21.201288,0.000000,-1.000000,0.000000
1.212862,-3.631195,18.551569,-0.290285,0.956940,0.000000
9.629290,-2.736491,24.509345,0.972370,-0.233446,0.000000
2.317483,-3.048751,-30.103017,-0.634393,0.773010,0.000000
-7.116968,5.784661,32.922642,-0.000000,-0.000000,1.000000
3.327537,5.116811,32.922642,0.000000,-0.000000,1.000000
15.354168,-2.771996,3.895035,0.972370,-0.233445,0.000000
15.279892,-3.240294,-15.751184,0.972370,-0.233445,0.000000
3.269558,-2.001328,-16.115395,-0.881921,0.471397,0.000000
15.019911,4.323192,-10.299504,0.972370,0.233445,-0.000000
10.733646,11.366551,-19.471602,0.649448,0.760406,0.000000
13.042504,8.600169,-32.185828,0.852640,0.522499,0.000000
8.594686,-5.117485,12.240344,0.852640,-0.522498,0.000000
-10.732442,-10.932697,-32.922642,0.000000,0.000000,-1.000000
6.521438,0.230159,9.689200,1.000000,0.000000,0.000000
-15.158753,-3.744874,-5.512374,-0.972370,-0.233445,0.000000
-0.084847,-15.655744,-10.773581,-0.078459,-0.996917,0.000000
-3.637163,-1.193185,12.942265,0.956940,0.290285,0.000000
3.516337,1.539637,15.032112,-0.881921,-0.471397,0.000000
6.444355,-14.231283,-24.544276,0.382683,-0.923880,0.000000
9.788469,-12.125020,6.950538,0.649448,-0.760406,0.000000
-3.514073,-3.826032,-32.922642,0.000000,0.000000,-1.000000
5.758296,8.201997,23.515938,0.522498,0.852640,0.000000
-7.803174,-6.264510,14.300448,-0.760406,-0.649448,0.000000
14.871311,-4.899191,-29.720947,0.923880,-0.382683,0.000000
-13.074554,8.547869,-20.543294,-0.852640,0.522499,0.000000
-10.344835,-11.649838,0.859845,-0.649448,-0.760406,-0.000000
-6.038147,14.359385,5.168700,-0.382683,0.923880,0.000000
0.133392,3.832291,25.998181,-0.098017,-0.995185,0.000000
11.404260,-10.689494,-10.086743,0.760406,-0.649448,0.000000
-11.320193,-10.787924,-24.395840,-0.760406,-0.649448,0.000000
12.017050,9.914886,-2.003283,0.760406,0.649448,0.000000
8.520355,-1.755772,10.815214,0.000000,1.000000,-0.000000
15.480909,2.306323,-25.361003,0.996917,0.078459,-0.000000
-9.503431,-3.193311,24.150958,-0.923880,-0.382683,-0.000000
-1.440196,15.102064,10.861238,-0.000000,0.000000,1.000000
-11.392170,-10.703650,-8.743047,-0.760406,-0.649448,0.000000
-0.325867,-15.636775,-8.085012,-0.078459,-0.996917,0.000000
6.521438,-1.061375,-21.112298,1.000000,0.000000,0.000000
10.950302,-4.280506,10.861238,-0.000000,-0.000000,1.000000
-7.270125,-6.888630,30.616316,-0.760406,-0.649448,0.000000
2.730798,-2.704909,28.925038,-0.773010,0.634393,0.000000
-15.618711,-0.555395,-21.201882,-0.996917,-0.078459,-0.000000
10.695193,11.399393,-30.145871,0.649448,0.760406,0.000000
-3.239949,2.056721,-11.524070,0.881921,-0.471397,0.000000
7.149172,13.931677,-26.215048,0.522499,0.852640,-0.000000
-0.906238,-15.591099,-15.177131,-0.078459,-0.996917,0.000000
-14.821746,5.018852,-32.438682,-0.923880,0.382683,0.000000
-2.150358,3.185907,-13.516279,0.634393,-0.773010,0.000000
-2.551286,6.516267,-32.922642,0.000000,0.000000,-1.000000
-9.205459,-2.232854,-32.922642,0.000000,0.000000,-1.000000
13.779099,7.335540,-4.152226,0.000000,-0.000000,1.000000
10.610188,-11.471994,-9.108707,0.649448,-0.760406,0.000000
14.892168,-4.848837,-11.155876,0.923880,-0.382683,0.000000
6.521438,0.077879,-8.075651,1.000000,0.000000,0.000000
-13.789130,-7.310784,4.068626,-0.852640,-0.522499,-0.000000
9.234413,-3.842778,11.607196,0.923880,-0.382683,0.000000
5.374773,-14.674318,-26.162500,0.382683,-0.923880,0.000000
7.693984,6.392355,17.453329,0.760406,0.649448,0.000000
0.310205,-15.638007,-15.652569,0.078459,-0.996917,0.000000
-3.786658,-15.148721,-15.837958,-0.233445,-0.972370,0.000000
-1.207538,3.632810,-27.804135,0.290285,-0.956940,0.000000
-2.974993,-2.407357,-22.302554,0.773010,0.634393,-0.000000
12.444412,-9.414509,-1.129406,0.760406,-0.649448,0.000000
-10.731219,-11.368623,-31.236084,-0.649448,-0.760406,-0.000000
-5.322620,-14.695921,-8.793593,-0.382683,-0.923880,0.000000
4.500778,-8.961861,11.069481,0.382683,-0.923880,0.000000
15.638948,0.298254,-9.152443,0.996917,0.078459,0.000000
3.651451,-11.703571,10.861238,-0.000000,-0.000000,1.000000
2.966899,9.573974,20.183619,0.233446,0.972370,0.000000
15.021119,-4.318159,-10.677134,0.972370,-0.233445,0.000000
-2.616956,-9.657988,15.020502,-0.233446,-0.972370,0.000000
-5.987010,2.742866,32.922642,-0.000000,-0.000000,1.000000
-13.322462,-8.072316,-2.211725,-0.852640,-0.522499,-0.000000
0.055385,-15.658062,-29.423300,0.078459,-0.996917,0.000000
-9.731852,-2.309290,26.566844,-0.972370,-0.233446,0.000000
-15.250535,-3.362573,-14.376994,-0.972370,-0.233445,0.000000
-9.949618,-1.059234,31.586897,-0.996917,-0.078459,0.000000
-7.909097,13.422483,-0.734017,-0.522499,0.852640,0.000000
-5.726594,14.488434,0.994645,-0.382683,0.923880,0.000000
9.925846,12.056477,-20.919998,0.649448,0.760406,-0.000000
-15.003338,4.392224,-20.198666,-0.972370,0.233445,0.000000
13.054345,-8.580847,-31.635971,0.852640,-0.522499,0.000000
8.244918,5.688255,16.453992,0.852640,0.522498,-0.000000
10.469900,-11.591811,-14.524676,0.649448,-0.760406,0.000000
15.624412,0.482954,-21.051078,0.996917,0.078459,0.000000
3.604372,-1.301284,-5.372385,-0.956940,0.290285,0.000000
-7.594258,13.658928,-9.764263,-0.522499,0.852640,0.000000
-13.005813,8.660043,-11.469736,-0.852640,0.522499,0.000000
9.847702,-1.755772,-4.327315,0.000000,1.000000,0.000000
15.214695,-3.352943,6.811554,0.972370,-0.233445,0.000000
10.408244,-11.644471,-10.162723,0.649448,-0.760406,0.000000
0.321722,15.637101,-12.022768,0.078459,0.996917,-0.000000
9.092444,4.185522,15.501825,0.923880,0.382683,0.000000
6.521438,-0.980979,-12.282002,1.000000,0.000000,0.000000
10.032982,-0.879370,3.073743,-1.000000,0.000000,0.000000
5.565289,-14.595404,-32.679767,0.382683,-0.923880,0.000000
-10.962980,11.170681,-20.833575,-0.649448,0.760406,0.000000
-10.003607,11.941275,2.466387,-0.649448,0.760406,0.000000
2.627718,14.850740,10.861238,0.000000,-0.000000,1.000000
-3.219361,-2.095238,-23.787602,0.881921,0.471397,0.000000
-6.993253,-7.180768,19.726385,-0.649448,-0.760406,-0.000000
3.690227,-1.018258,19.778988,-0.956940,0.290285,0.000000
6.882820,-1.755772,-18.948799,0.000000,1.000000,-0.000000
0.431966,4.185925,-32.922642,0.000000,-0.000000,-1.000000
6.426093,-7.665169,29.982588,0.649448,-0.760406,0.000000
2.729783,-2.706146,-22.573879,-0.773010,0.634393,0.000000
14.602122,-5.549071,-25.791983,0.923880,-0.382683,0.000000
0.059753,-15.657719,-22.967551,0.078459,-0.996917,0.000000
7.465426,-1.755772,-30.706442,0.000000,1.000000,0.000000
7.569195,13.630776,1.525168,0.522499,0.852640,-0.000000
3.791687,-0.545645,7.402559,-0.995185,0.098017,0.000000
13.184472,-8.368499,-24.507532,0.852640,-0.522499,0.000000
5.629535,14.568792,-15.587414,0.382683,0.923880,-0.000000
8.060892,13.248939,-32.922642,0.000000,0.000000,-1.000000
6.584138,2.603854,32.922642,0.000000,-0.000000,1.000000
2.741071,15.399744,-14.377783,0.233445,0.972370,-0.000000
3.827364,0.183413,30.896737,-0.995185,-0.098017,0.000000
0.331447,-10.006896,32.107129,0.078459,-0.996917,0.000000
13.235431,-2.859353,10.861238,0.000000,-0.000000,1.000000
6.937121,-1.755772,6.807190,0.000000,1.000000,-0.000000
13.447802,7.938783,-13.479665,0.852640,0.522499,-0.000000
-14.206982,6.503023,-32.294256,-0.923880,0.382683,0.000000
4.570915,-4.539585,-32.922642,0.000000,-0.000000,-1.000000
-3.697199,0.995274,11.954586,0.956940,-0.290285,0.000000
-0.915045,-3.721536,8.218411,0.290285,0.956940,0.000000
9.830224,-1.899542,13.457817,0.972370,-0.233446,0.000000
0.251905,-10.013157,31.978602,0.078459,-0.996917,0.000000
-0.015551,3.843897,25.777503,0.098017,-0.995185,-0.000000
-7.889708,-13.477875,-20.053427,-0.522499,-0.852640,0.000000
12.968678,8.720642,-6.931406,0.852640,0.522499,-0.000000
-3.318977,-9.451379,29.018657,-0.382683,-0.923880,0.000000
15.607693,0.695390,-29.033481,0.996917,0.078459,0.000000
15.458789,-2.495134,-31.342229,0.972370,-0.233445,0.000000
1.748204,3.404855,-8.805893,-0.471397,-0.881921,0.000000
8.972163,-1.755772,16.725447,0.000000,1.000000,-0.000000
-14.199445,-6.521219,-11.773166,-0.923880,-0.382683,0.000000
12.624452,-9.203709,5.400374,0.760406,-0.649448,0.000000
-12.683594,-9.185857,-8.830212,-0.852640,-0.522499,0.000000
-6.577130,14.176286,-7.064297,-0.382683,0.923880,0.000000
-1.037021,-3.684535,-22.060939,0.290285,0.956940,-0.000000
13.508371,-7.839944,-25.019078,0.852640,-0.522499,0.000000
15.464886,2.037088,-4.003774,0.996917,0.078459,0.000000
3.824958,0.207843,31.517609,-0.995185,-0.098017,0.000000
-14.606550,5.441438,-3.663726,-0.923880,0.382683,0.000000
-15.655236,-0.091299,-22.612750,-0.996917,-0.078459,-0.000000
1.504937,9.914541,15.210663,0.078459,0.996917,0.000000
-13.090425,8.274074,-32.922642,0.000000,0.000000,-1.000000
-3.704358,6.792081,-32.922642,0.000000,0.000000,-1.000000
10.032982,1.446309,-26.896911,-1.000000,0.000000,0.000000
9.625534,2.752137,27.301128,0.972370,0.233446,0.000000
9.274988,12.612362,-9.600656,0.649448,0.760406,-0.000000
-6.547308,-14.148483,-1.509770,-0.382683,-0.923880,0.000000
-11.323631,-10.726775,10.743881,-0.760406,-0.649448,0.000000
7.555761,1.755772,16.278730,0.000000,-1.000000,0.000000
1.849609,15.516853,-26.493842,0.078459,0.996917,0.000000
-6.239475,-14.316147,-18.771107,-0.382683,-0.923880,0.000000
2.456845,2.934379,-30.602518,-0.634393,-0.773010,0.000000
7.092279,7.096192,14.755740,0.649448,0.760406,0.000000
0.750993,3.771301,13.627808,-0.290285,-0.956940,0.000000
-1.756481,-3.400431,28.374293,0.471397,0.881921,0.000000
-9.525809,3.139287,20.088370,-0.923880,0.382683,0.000000
1.471789,-15.546589,-21.317746,0.078459,-0.996917,0.000000
6.712539,-2.825351,-32.922642,0.000000,-0.000000,-1.000000
-7.208567,-13.895279,-6.903911,-0.522499,-0.852640,0.000000
-0.615919,15.613947,-8.498118,-0.078459,0.996917,0.000000
-3.823957,-0.218006,20.401775,0.995185,0.098017,0.000000
6.265217,-14.265329,7.447227,0.382683,-0.923880,0.000000
-10.868920,11.251016,-24.458845,-0.649448,0.760406,0.000000
13.039285,8.605422,-30.883906,0.852640,0.522499,0.000000
9.639350,-2.694586,14.662619,0.972370,-0.233446,0.000000
9.726349,-1.755772,-10.930773,0.000000,1.000000,0.000000
6.800578,-1.755772,-19.068063,0.000000,1.000000,-0.000000
7.030737,-5.996973,-32.922642,0.000000,-0.000000,-1.000000
6.903458,-1.755772,-20.358349,0.000000,1.000000,-0.000000
5.626918,14.569877,-14.730362,0.382683,0.923880,-0.000000
-15.487250,2.225759,-18.069421,-0.996917,0.078459,0.000000
8.588069,-5.128284,16.782202,0.852640,-0.522498,0.000000
6.521438,0.424993,-9.694856,1.000000,0.000000,0.000000
-12.300570,9.640050,-8.384911,-0.760406,0.649448,0.000000
0.732314,-9.449921,32.922642,0.000000,-0.000000,1.000000
-2.933844,-2.457497,23.495481,0.773010,0.634393,0.000000
0.400104,15.630932,-8.477621,0.078459,0.996917,-0.000000
-15.368003,2.714366,4.388746,-0.972370,0.233445,0.000000
-14.370851,-6.107408,-8.969281,-0.923880,-0.382683,0.000000
6.927369,-1.755772,17.039904,0.000000,1.000000,-0.000000
9.092713,1.755772,10.687802,-0.000000,-1.000000,0.000000
9.640518,2.689723,11.277317,0.972370,0.233446,-0.000000
6.680512,14.093308,4.877713,0.382683,0.923880,0.000000
1.817428,3.367854,1.408839,-0.471397,-0.881921,0.000000
-0.452828,-15.506906,10.861238,-0.000000,0.000000,1.000000
0.371147,10.003772,28.820279,0.078459,0.996917,-0.000000
-2.692345,14.670968,10.861238,-0.000000,-0.000000,1.000000
8.218967,9.462790,10.861238,0.000000,-0.000000,1.000000
-9.672338,-12.272993,-29.652486,-0.649448,-0.760406,-0.000000
-4.548630,-14.927636,6.832964,-0.233445,-0.972370,0.000000
9.319668,3.636955,11.220156,0.923880,0.382683,0.000000
0.820901,-3.750094,27.674211,-0.290285,0.956940,0.000000
9.171240,12.692551,-11.321777,0.522499,0.852640,0.000000
-0.673957,15.609379,-22.685386,-0.078459,0.996917,0.000000
-11.012206,-11.128638,-28.200171,-0.649448,-0.760406,-0.000000
9.970255,8.208411,-32.922642,0.000000,0.000000,-1.000000
-2.759672,-2.669727,-26.061711,0.773010,0.634393,0.000000
-3.765223,-0.771028,-24.115886,0.956940,0.290285,-0.000000
10.899807,10.326710,10.861238,0.000000,-0.000000,1.000000
-2.052259,-15.463692,-2.498878,-0.078459,-0.996917,0.000000
-14.059074,6.197450,-32.922642,0.000000,0.000000,-1.000000
-3.380393,1.793970,-12.226464,0.881921,-0.471397,0.000000
-5.790683,8.182150,11.510873,-0.522498,0.852640,0.000000
-1.671218,3.446005,2.126046,0.471397,-0.881921,0.000000
10.178994,-11.840269,-32.237713,0.649448,-0.760406,0.000000
1.779659,3.388042,11.906643,-0.471397,-0.881921,0.000000
-7.991204,6.044354,20.479481,-0.760406,0.649448,0.000000
12.504985,-9.400710,-22.492570,0.760406,-0.649448,0.000000
-6.966641,-14.014945,-19.603100,-0.382683,-0.923880,0.000000
6.827544,-14.072561,-20.187728,0.382683,-0.923880,0.000000
0.134257,-15.614642,9.732170,0.078459,-0.996917,0.000000
-12.393831,9.473732,9.072150,-0.760406,0.649448,0.000000
3.404585,1.748710,-15.622086,-0.881921,-0.471397,0.000000
-3.248540,15.239760,-3.229408,-0.233445,0.972370,0.000000
-3.564898,1.431413,4.726043,0.956940,-0.290285,0.000000
-9.336366,3.596642,31.594891,-0.923880,0.382683,0.000000
1.638075,-3.463720,-29.034525,-0.471397,0.881921,0.000000
-8.274791,13.198385,6.531301,-0.522499,0.852640,0.000000
-7.931754,-13.452109,-10.738224,-0.522499,-0.852640,0.000000
2.099020,-14.300634,-32.922642,0.000000,0.000000,-1.000000
6.929398,-1.755772,-8.354441,0.000000,1.000000,-0.000000
6.521438,-1.589586,-4.616585,1.000000,0.000000,0.000000
11.909987,-10.097364,-28.320379,0.760406,-0.649448,0.000000
15.198033,3.581262,-28.725870,0.972370,0.233445,0.000000
-1.471920,9.917139,29.652369,-0.078459,0.996917,0.000000
-3.663728,1.105614,20.810100,0.956940,-0.290285,0.000000
13.964757,7.087807,-24.416283,0.923880,0.382683,-0.000000
-0.594150,-3.786910,-5.706466,0.098017,0.995185,-0.000000
12.784367,9.021410,-32.090921,0.852640,0.522499,0.000000
10.032982,-0.542879,-31.554951,-1.000000,0.000000,0.000000
6.249476,7.561886,-32.922642,0.000000,0.000000,-1.000000
2.539360,-2.866661,12.062794,-0.634393,0.773010,0.000000
