x,y,z,nx,ny,nz
-12.622598,8.985056,-3.904207,0.000000,0.000000,-1.000000
-32.114445,-6.436811,30.544974,1.000000,0.000000,-0.000000
-37.051336,-8.758310,-3.904207,0.000000,0.000000,-1.000000
-3.649252,4.569843,-3.904207,0.000000,0.000000,-1.000000
-9.791005,-1.124400,-3.904207,0.000000,0.000000,-1.000000
-39.922859,16.620937,37.364217,-1.000000,0.000000,0.000000
-25.567182,-4.835580,3.904207,0.000000,-0.000000,1.000000
-6.285302,-14.130777,3.904207,0.000000,-0.000000,1.000000
-34.419987,-22.407862,26.604629,0.000000,-1.000000,0.000000
-38.202403,22.407862,0.797836,0.000000,1.000000,0.000000
-22.428813,-0.897225,3.904207,0.000000,-0.000000,1.000000
-3.245301,11.078912,-3.904207,0.000000,-0.000000,-1.000000
37.021128,9.470738,3.904207,0.000000,-0.000000,1.000000
8.677794,13.118957,3.904207,0.000000,-0.000000,1.000000
-39.922859,-3.474301,44.206483,-1.000000,0.000000,0.000000
15.841629,18.391790,-3.904207,0.000000,-0.000000,-1.000000
23.268677,-8.589580,-3.904207,0.000000,0.000000,-1.000000
-32.114445,-10.256387,54.949307,1.000000,-0.000000,0.000000
-32.378308,12.803770,55.900471,0.000000,0.000000,1.000000
14.973966,19.300977,3.904207,0.000000,-0.000000,1.000000
-32.114445,15.478944,28.740731,1.000000,0.000000,0.000000
-37.432705,-22.407862,28.773878,0.000000,-1.000000,0.000000
-38.790398,6.829934,-3.904207,0.000000,0.000000,-1.000000
-13.071810,18.418306,3.904207,0.000000,-0.000000,1.000000
32.878729,4.809484,-3.904207,0.000000,0.000000,-1.000000
3.413648,-16.824397,3.803834,-0.290283,0.956941,0.000000
34.054253,-22.407862,-1.523315,0.000000,-1.000000,0.000000
29.695398,22.295095,3.904207,0.000000,-0.000000,1.000000
-39.922859,-2.447051,51.739721,-1.000000,0.000000,-0.000000
-32.114445,0.307773,19.938115,1.000000,0.000000,-0.000000
2.393443,8.120611,3.904207,0.000000,-0.000000,1.000000
-32.114445,0.580050,38.008122,1.000000,-0.000000,-0.000000
28.930434,-16.119521,3.904207,-0.000000,-0.000000,1.000000
-32.114445,0.526230,48.659806,1.000000,-0.000000,0.000000
-15.666445,-2.345474,-1.235604,0.634393,-0.773011,0.000000
-39.922859,20.153066,15.146730,-1.000000,0.000000,0.000000
6.578149,-20.997107,3.904207,0.000000,-0.000000,1.000000
6.225156,-13.361220,3.322092,-0.995185,0.098017,0.000000
-32.114445,17.096592,30.418340,1.000000,0.000000,0.000000
-39.922859,-13.491469,43.106501,-1.000000,0.000000,0.000000
-38.654368,8.309003,37.880937,-0.000000,0.634393,0.773011
-37.174322,-18.613250,55.900471,0.000000,0.000000,1.000000
-39.922859,-6.266289,49.743155,-1.000000,0.000000,-0.000000
-39.922859,2.992036,15.323231,-1.000000,0.000000,0.000000
16.084005,-11.795585,-3.904207,0.000000,0.000000,-1.000000
-39.922859,-0.579674,28.577472,-1.000000,0.000000,0.000000
-39.922859,-16.394779,22.311780,-1.000000,0.000000,0.000000
-32.114445,-14.884048,28.319142,1.000000,0.000000,-0.000000
-19.642304,2.418768,3.904207,0.000000,-0.000000,1.000000
-22.348269,-22.230805,3.904207,0.000000,-0.000000,1.000000
-35.419735,-7.658735,-3.904207,0.000000,0.000000,-1.000000
-38.918833,-7.855078,55.900471,0.000000,-0.000000,1.000000
-39.922859,18.256859,28.523218,-1.000000,0.000000,0.000000
39.922859,3.361682,3.006043,1.000000,-0.000000,0.000000
-39.922859,2.274445,22.307995,-1.000000,0.000000,0.000000
-15.897384,-9.402092,-0.017557,0.634393,0.773011,0.000000
5.580701,-15.098329,-2.104200,-0.881921,0.471397,0.000000
-21.303499,-16.619249,3.904207,0.000000,-0.000000,1.000000
-39.922859,2.265823,47.538972,-1.000000,0.000000,-0.000000
12.637977,-0.205297,3.904207,0.000000,-0.000000,1.000000
5.162948,-22.407862,3.847850,0.000000,-1.000000,0.000000
16.952330,14.215555,3.904207,0.000000,-0.000000,1.000000
-39.279810,-22.407862,16.596212,0.000000,-1.000000,0.000000
-39.922859,20.421313,34.186074,-1.000000,0.000000,0.000000
-32.114445,-21.733431,43.417330,1.000000,0.000000,-0.000000
-32.114445,0.048605,52.387762,1.000000,-0.000000,0.000000
-39.922859,17.128890,11.818509,-1.000000,0.000000,0.000000
28.144483,-22.407862,-0.751264,0.000000,-1.000000,0.000000
-7.557736,-9.568187,3.904207,-0.000000,-0.000000,1.000000
-32.114445,-6.695548,36.243423,1.000000,0.000000,-0.000000
-39.922859,8.580199,4.571167,-1.000000,0.000000,0.000000
-39.922859,0.264985,45.958316,-1.000000,0.000000,-0.000000
13.527103,22.407862,3.548737,0.000000,1.000000,0.000000
-32.888307,-22.407862,53.310499,0.000000,-1.000000,0.000000
-32.114445,-11.689659,52.520301,1.000000,-0.000000,0.000000
16.263404,-22.407862,-0.304741,0.000000,-1.000000,0.000000
39.178453,15.728674,3.904207,0.000000,-0.000000,1.000000
-20.948454,-15.399017,3.904207,0.000000,-0.000000,1.000000
-39.922859,6.413747,31.256455,-1.000000,0.000000,0.000000
5.850052,-10.846150,-1.526048,-0.881921,-0.471397,0.000000
-3.580160,-4.005914,3.904207,0.000000,-0.000000,1.000000
9.197643,14.528506,3.904207,0.000000,-0.000000,1.000000
39.922859,-16.720732,-1.514936,1.000000,0.000000,-0.000000
-39.922859,17.619934,30.716851,-1.000000,0.000000,0.000000
-39.922859,3.971749,17.136253,-1.000000,0.000000,0.000000
-16.127493,22.289590,-3.904207,0.000000,-0.000000,-1.000000
19.694854,8.490458,3.904207,0.000000,0.000000,1.000000
-32.114445,-13.414198,53.041266,1.000000,-0.000000,0.000000
-32.114445,-20.002781,30.592510,1.000000,0.000000,-0.000000
-39.922859,0.542040,27.734073,-1.000000,0.000000,0.000000
-39.922859,2.008862,1.242164,-1.000000,0.000000,0.000000
-35.213563,22.407862,-3.687502,-0.000000,1.000000,0.000000
-36.680029,-1.093686,-3.904207,0.000000,0.000000,-1.000000
-32.114445,-12.485131,12.147869,1.000000,0.000000,-0.000000
-38.770845,-22.407862,32.663843,0.000000,-1.000000,0.000000
-30.821252,-22.407862,0.892683,0.000000,-1.000000,0.000000
-39.922859,2.106355,52.310362,-1.000000,0.000000,-0.000000
-32.921079,-1.446355,55.900471,0.000000,0.000000,1.000000
-31.872887,2.913570,-3.904207,0.000000,0.000000,-1.000000
-17.830801,1.262641,3.904207,0.000000,-0.000000,1.000000
-32.114445,18.804719,13.451009,1.000000,0.000000,0.000000
23.690983,11.881968,-3.904207,0.000000,-0.000000,-1.000000
23.102146,6.199468,2.620649,-0.773011,-0.634393,-0.000000
38.840620,16.727675,-3.904207,0.000000,0.000000,-1.000000
23.734085,0.866366,-1.984130,-0.881921,0.471398,0.000000
39.922859,12.579623,2.469979,1.000000,-0.000000,0.000000
-24.627575,20.109643,-3.904207,0.000000,-0.000000,-1.000000
-39.922859,10.177311,26.934722,-1.000000,0.000000,0.000000
9.833825,22.407862,3.109675,0.000000,1.000000,0.000000
22.328600,16.959295,-3.904207,0.000000,-0.000000,-1.000000
2.283311,13.369743,3.904207,0.000000,-0.000000,1.000000
18.936657,22.407862,1.835585,-0.000000,1.000000,0.000000
-32.114445,-6.372217,26.398985,1.000000,0.000000,-0.000000
30.070125,7.395105,3.904207,0.000000,-0.000000,1.000000
-39.922859,-5.369292,54.498796,-1.000000,0.000000,-0.000000
-0.090986,10.778848,3.904207,0.000000,-0.000000,1.000000
-35.597751,-22.407862,53.398889,0.000000,-1.000000,0.000000
-7.869521,12.690349,3.904207,0.000000,-0.000000,1.000000
-39.854885,-22.407862,23.239380,0.000000,-1.000000,0.000000
11.998546,1.321339,-3.904207,0.000000,0.000000,-1.000000
39.922859,-6.533898,-1.259243,1.000000,0.000000,-0.000000
39.922859,11.973863,-0.150210,1.000000,-0.000000,0.000000
21.482653,-12.591317,-3.904207,0.000000,0.000000,-1.000000
28.386889,-7.327168,-3.904207,0.000000,0.000000,-1.000000
-36.506439,21.623429,55.900471,0.000000,-0.000000,1.000000
16.966831,21.479127,3.904207,0.000000,-0.000000,1.000000
-4.257022,-9.145931,-3.904207,0.000000,0.000000,-1.000000
-0.746895,22.407862,-1.634226,-0.000000,1.000000,0.000000
-20.320963,12.557803,-3.904207,0.000000,0.000000,-1.000000
-19.355581,22.407862,-0.667992,0.000000,1.000000,0.000000
31.051149,-1.382089,3.904207,0.000000,-0.000000,1.000000
-32.114445,11.378466,26.918844,1.000000,-0.000000,-0.000000
-32.114445,-8.724497,19.126841,1.000000,0.000000,-0.000000
15.914269,-3.432356,3.904207,-0.000000,0.000000,1.000000
36.903963,-11.833716,-3.904207,0.000000,0.000000,-1.000000
-39.922859,-0.679456,19.360909,-1.000000,0.000000,0.000000
30.756979,-3.833734,3.904207,0.000000,-0.000000,1.000000
-39.015527,22.407862,51.965543,0.000000,1.000000,0.000000
-33.884316,17.113144,-3.904207,0.000000,0.000000,-1.000000
39.922859,9.115714,0.291487,1.000000,-0.000000,0.000000
-9.833387,-19.566223,-3.904207,0.000000,0.000000,-1.000000
-32.114445,-4.429603,26.823399,1.000000,0.000000,-0.000000
31.238810,0.374805,3.904207,0.000000,-0.000000,1.000000
-39.922859,-20.336260,51.976582,-1.000000,0.000000,0.000000
10.727676,6.395795,3.904207,0.000000,-0.000000,1.000000
-36.743209,6.765346,40.226562,-0.000000,0.956940,0.290285
-3.380167,-11.237562,-3.904207,0.000000,0.000000,-1.000000
-35.984123,22.407862,36.494223,0.000000,1.000000,0.000000
5.828322,-19.104172,-3.904207,0.000000,0.000000,-1.000000
-19.391620,-22.407862,1.081318,0.000000,-1.000000,0.000000
-39.783506,6.510665,55.900471,0.000000,-0.000000,1.000000
-2.326384,-13.828621,2.484422,0.956940,0.290285,0.000000
-32.114445,8.884835,48.987885,1.000000,-0.000000,0.000000
-39.922859,-2.588669,17.471645,-1.000000,0.000000,0.000000
33.231517,-21.487499,-3.904207,0.000000,0.000000,-1.000000
-39.135220,-22.047156,55.900471,0.000000,0.000000,1.000000
8.636532,6.369832,3.904207,-0.000000,0.000000,1.000000
25.021339,22.407862,-2.726938,-0.000000,1.000000,0.000000
-39.922859,-15.442654,11.791778,-1.000000,0.000000,0.000000
-24.634407,16.640350,3.904207,0.000000,-0.000000,1.000000
10.449428,-13.951717,-3.904207,0.000000,0.000000,-1.000000
-28.982076,17.792989,3.904207,0.000000,-0.000000,1.000000
18.622595,7.264859,3.869368,0.290285,-0.956940,0.000000
28.229214,21.713059,3.904207,0.000000,-0.000000,1.000000
-32.114445,15.428159,46.092631,1.000000,0.000000,0.000000
-39.922859,-10.703622,22.664621,-1.000000,0.000000,0.000000
-23.348305,16.931588,-3.904207,0.000000,-0.000000,-1.000000
39.080063,-22.407862,-0.051817,0.000000,-1.000000,0.000000
-7.444470,-8.540687,3.904207,-0.000000,0.000000,1.000000
-8.058885,-2.102287,-3.904207,0.000000,0.000000,-1.000000
-7.694141,-3.860282,3.904207,0.000000,-0.000000,1.000000
-39.922859,-13.270418,55.882256,-1.000000,0.000000,-0.000000
-35.372193,-22.407862,42.621464,0.000000,-1.000000,0.000000
21.469662,-22.407862,2.477362,0.000000,-1.000000,0.000000
32.130012,6.599151,3.904207,0.000000,-0.000000,1.000000
38.007423,19.036028,-3.904207,0.000000,0.000000,-1.000000
4.617398,-21.230855,3.904207,0.000000,-0.000000,1.000000
-39.922859,-10.085765,10.296663,-1.000000,0.000000,0.000000
-32.114445,8.070507,6.428249,1.000000,0.000000,-0.000000
9.905173,22.407862,0.711021,-0.000000,1.000000,0.000000
-38.679101,15.314267,40.628313,0.000000,-0.995185,0.098017
-39.922859,5.654526,22.898908,-1.000000,0.000000,0.000000
1.616281,-17.080044,-3.848547,0.098018,0.995185,-0.000000
-32.114445,15.803602,53.100982,1.000000,-0.000000,0.000000
-13.413425,-15.240967,-3.904207,0.000000,0.000000,-1.000000
7.116872,-9.555797,3.904207,0.000000,-0.000000,1.000000
-39.922859,0.490441,43.530696,-1.000000,0.000000,0.000000
-32.114445,6.437776,26.077059,1.000000,-0.000000,-0.000000
16.985763,-5.646413,3.904207,-0.000000,-0.000000,1.000000
-24.635880,-22.407862,-1.724178,0.000000,-1.000000,0.000000
28.097915,-14.364864,3.904207,-0.000000,-0.000000,1.000000
-39.922859,-14.403226,19.717614,-1.000000,0.000000,0.000000
39.922859,15.281365,-2.505360,1.000000,-0.000000,0.000000
-39.922859,14.215908,17.366971,-1.000000,0.000000,0.000000
10.487842,-22.407862,1.104161,0.000000,-1.000000,0.000000
16.055356,17.156500,-3.904207,0.000000,-0.000000,-1.000000
32.610129,22.407862,1.787370,-0.000000,1.000000,0.000000
-16.088572,-0.087156,-3.904207,0.000000,0.000000,-1.000000
-33.649592,-4.935579,-3.904207,0.000000,0.000000,-1.000000
-39.922859,-12.640426,4.138639,-1.000000,0.000000,0.000000
-39.922859,11.172909,36.493316,-1.000000,0.000000,0.000000
-34.498481,-10.319972,-3.904207,0.000000,0.000000,-1.000000
12.157997,-21.795783,-3.904207,0.000000,0.000000,-1.000000
-39.922859,-4.362528,-2.853719,-1.000000,0.000000,0.000000
-39.922859,-20.890709,39.676571,-1.000000,0.000000,0.000000
22.216557,-1.069756,-3.904207,0.000000,0.000000,-1.000000
10.460284,0.809794,3.904207,0.000000,0.000000,1.000000
25.608401,-3.343967,-3.904207,0.000000,0.000000,-1.000000
-32.114445,2.871946,51.460794,1.000000,-0.000000,0.000000
3.497004,-7.966581,-3.904207,0.000000,0.000000,-1.000000
-32.114445,-0.921394,30.095457,1.000000,0.000000,-0.000000
-24.763055,9.034540,3.904207,0.000000,-0.000000,1.000000
-32.114445,-13.009073,34.547863,1.000000,0.000000,-0.000000
25.327635,12.512027,3.904207,0.000000,0.000000,1.000000
16.308299,11.506877,-3.904207,0.000000,-0.000000,-1.000000
22.824492,-0.203375,-0.125718,-0.634394,0.773010,0.000000
-37.082039,-22.407862,6.002544,0.000000,-1.000000,0.000000
7.618863,-22.407862,-1.346066,0.000000,-1.000000,0.000000
-1.686622,5.485223,3.904207,0.000000,-0.000000,1.000000
-32.114445,-9.250380,34.727640,1.000000,0.000000,-0.000000
23.954813,-6.417073,-3.904207,0.000000,0.000000,-1.000000
-18.865673,-2.692038,3.904207,0.000000,-0.000000,1.000000
-32.114445,-6.248918,27.796154,1.000000,0.000000,-0.000000
-38.082786,-2.038576,-3.904207,0.000000,0.000000,-1.000000
-10.056430,-16.321506,-3.904207,0.000000,0.000000,-1.000000
17.606775,6.795177,-2.061153,0.471396,-0.881922,0.000000
-23.229666,-15.020317,-3.904207,0.000000,0.000000,-1.000000
24.111444,1.676407,3.437968,-0.956940,0.290285,0.000000
-38.272112,-3.841698,-3.904207,0.000000,0.000000,-1.000000
-39.922859,9.607101,26.167300,-1.000000,0.000000,0.000000
-32.114445,5.561230,50.638839,1.000000,-0.000000,0.000000
31.758500,9.557610,3.904207,0.000000,-0.000000,1.000000
18.137823,-15.797233,-3.904207,0.000000,0.000000,-1.000000
9.317200,-1.958905,3.904207,0.000000,-0.000000,1.000000
15.579053,22.407862,2.907142,0.000000,1.000000,0.000000
-0.864279,8.942667,-3.904207,0.000000,-0.000000,-1.000000
-5.775181,6.902215,3.904207,0.000000,-0.000000,1.000000
-39.922859,-11.338465,30.991968,-1.000000,0.000000,0.000000
-32.114445,12.530711,14.443916,1.000000,0.000000,-0.000000
-39.922859,-1.821040,35.198282,-1.000000,0.000000,0.000000
-27.683558,-1.029306,-3.904207,0.000000,0.000000,-1.000000
15.498439,-2.865496,3.904207,-0.000000,0.000000,1.000000
-17.997470,-14.021705,-3.904207,0.000000,0.000000,-1.000000
-32.114445,-15.350673,15.677087,1.000000,0.000000,-0.000000
3.680332,-16.720224,2.619197,-0.471398,0.881921,0.000000
9.343308,-3.232102,-3.904207,0.000000,0.000000,-1.000000
3.543558,-20.736434,3.904207,0.000000,-0.000000,1.000000
-32.114445,2.973878,10.673787,1.000000,0.000000,-0.000000
16.353546,0.656336,-2.341172,0.773011,0.634393,-0.000000
-32.114445,-0.342267,18.710814,1.000000,0.000000,-0.000000
-32.114445,-21.534409,24.005449,1.000000,0.000000,-0.000000
39.922859,21.030366,3.295196,1.000000,-0.000000,0.000000
-32.114445,13.363392,16.427317,1.000000,-0.000000,-0.000000
30.885782,-19.693308,-3.904207,0.000000,0.000000,-1.000000
-32.114445,6.103148,7.555808,1.000000,0.000000,-0.000000
-39.922859,-14.862894,47.070463,-1.000000,0.000000,0.000000
-35.036816,-1.616558,55.900471,0.000000,0.000000,1.000000
-27.270607,-11.530889,3.904207,0.000000,-0.000000,1.000000
-23.439961,-14.487623,-3.904207,0.000000,0.000000,-1.000000
15.895348,-14.031309,3.904207,-0.000000,-0.000000,1.000000
10.241818,17.230263,-3.904207,0.000000,-0.000000,-1.000000
7.942882,12.285240,-3.904207,0.000000,-0.000000,-1.000000
-39.922859,-21.957618,16.991198,-1.000000,0.000000,0.000000
18.711701,10.731262,-3.904207,0.000000,-0.000000,-1.000000
6.551844,-1.895115,-3.904207,0.000000,0.000000,-1.000000
18.258344,-15.594797,3.904207,-0.000000,-0.000000,1.000000
-12.206936,9.546656,-3.904207,0.000000,0.000000,-1.000000
23.715163,0.830966,-1.604400,-0.881921,0.471398,0.000000
-39.922859,14.030673,50.016797,-1.000000,0.000000,-0.000000
19.523930,17.214744,-3.904207,0.000000,-0.000000,-1.000000
-39.922859,-8.494589,-2.788295,-1.000000,0.000000,0.000000
21.370768,21.635606,-3.904207,0.000000,-0.000000,-1.000000
0.887633,-8.464417,2.992602,0.290285,-0.956940,0.000000
-28.544649,15.072761,-3.904207,0.000000,0.000000,-1.000000
-32.490265,-10.485293,55.900471,0.000000,0.000000,1.000000
22.610080,-17.878011,3.904207,-0.000000,-0.000000,1.000000
19.511201,20.012118,3.904207,0.000000,-0.000000,1.000000
-32.114445,15.046916,14.594889,1.000000,-0.000000,-0.000000
-36.457573,8.364943,-3.904207,0.000000,0.000000,-1.000000
-25.918941,6.952091,-3.904207,0.000000,0.000000,-1.000000
-39.922859,-3.033201,51.746885,-1.000000,0.000000,-0.000000
-39.922859,-17.518532,13.421221,-1.000000,0.000000,0.000000
5.141484,-1.450206,3.904207,0.000000,0.000000,1.000000
-32.114445,15.966648,50.205762,1.000000,-0.000000,0.000000
-32.114445,-1.381513,31.479132,1.000000,0.000000,-0.000000
5.969090,-14.350596,-0.319325,-0.956940,0.290285,0.000000
28.771769,12.498300,3.904207,0.000000,-0.000000,1.000000
-39.922859,-22.366888,24.603229,-1.000000,0.000000,0.000000
-2.175900,-14.324701,0.673038,0.956940,0.290285,0.000000
-39.922859,12.154320,51.315119,-1.000000,0.000000,-0.000000
-21.305257,2.740967,3.904207,0.000000,-0.000000,1.000000
4.217254,-5.394821,3.904207,-0.000000,0.000000,1.000000
-32.114445,13.437996,29.917604,1.000000,0.000000,0.000000
28.685376,-14.143798,3.904207,-0.000000,-0.000000,1.000000
-16.313760,-15.369467,3.904207,0.000000,-0.000000,1.000000
-39.922859,14.986645,1.848075,-1.000000,0.000000,0.000000
-7.721110,13.196758,-3.904207,0.000000,-0.000000,-1.000000
-28.058999,-20.186041,-3.904207,0.000000,0.000000,-1.000000
4.106169,15.505892,3.904207,0.000000,-0.000000,1.000000
-32.114445,-0.894349,46.309009,1.000000,-0.000000,0.000000
-32.114445,-14.941047,36.859398,1.000000,0.000000,-0.000000
23.828485,1.042975,2.530585,-0.881921,0.471398,0.000000
39.922859,-17.108213,2.338039,1.000000,0.000000,-0.000000
36.353801,5.650012,-3.904207,0.000000,0.000000,-1.000000
-32.114445,-3.908984,44.859367,1.000000,-0.000000,-0.000000
-29.467506,14.001039,3.904207,0.000000,-0.000000,1.000000
-13.878411,-17.989148,3.904207,0.000000,-0.000000,1.000000
-39.922859,21.144350,29.539834,-1.000000,0.000000,0.000000
18.070658,7.043127,-0.194235,0.471396,-0.881922,0.000000
-11.856026,-22.407862,-1.171889,0.000000,-1.000000,0.000000
-17.807027,6.518610,3.904207,0.000000,-0.000000,1.000000
-12.111223,-20.231383,3.904207,0.000000,-0.000000,1.000000
23.670227,-7.841685,3.904207,-0.000000,-0.000000,1.000000
-39.922859,-2.273760,33.634306,-1.000000,0.000000,0.000000
-34.480363,-20.720595,55.900471,0.000000,0.000000,1.000000
1.760435,8.537474,3.904207,0.000000,-0.000000,1.000000
-39.922859,-20.291466,45.954793,-1.000000,0.000000,0.000000
-39.922859,17.144947,19.804839,-1.000000,0.000000,0.000000
37.611986,-3.826314,-3.904207,0.000000,0.000000,-1.000000
-39.922859,5.081476,34.732347,-1.000000,0.000000,0.000000
-37.361174,8.020452,44.532921,0.000000,0.634393,-0.773011
-25.926902,-9.998682,3.904207,0.000000,-0.000000,1.000000
-39.922859,-10.762860,15.543676,-1.000000,0.000000,0.000000
-39.922859,1.497862,44.555647,-1.000000,0.000000,-0.000000
23.743827,11.864369,-3.904207,0.000000,-0.000000,-1.000000
-21.083686,-20.923708,-3.904207,0.000000,0.000000,-1.000000
-39.622428,7.945958,-3.904207,0.000000,0.000000,-1.000000
-35.104495,3.481051,55.900471,0.000000,0.000000,1.000000
-32.114445,-10.126397,15.589360,1.000000,0.000000,-0.000000
2.851287,-8.445572,0.346608,-0.290285,-0.956940,0.000000
0.976366,-6.859622,3.904207,-0.000000,0.000000,1.000000
-39.922859,-16.807218,15.007166,-1.000000,0.000000,0.000000
4.916323,22.407862,-3.347423,-0.000000,1.000000,0.000000
-37.677023,-22.407862,18.931785,0.000000,-1.000000,0.000000
-2.655313,22.403066,-3.904207,0.000000,-0.000000,-1.000000
-32.114445,-3.190106,5.382137,1.000000,0.000000,-0.000000
-32.470135,-13.236028,55.900471,0.000000,0.000000,1.000000
-34.234297,22.407862,35.624598,-0.000000,1.000000,0.000000
-39.922859,-6.740554,27.382418,-1.000000,0.000000,0.000000
39.922859,8.036606,-1.831764,1.000000,0.000000,-0.000000
-32.114445,-14.382380,27.011790,1.000000,0.000000,-0.000000
-10.595456,-21.173128,3.904207,0.000000,-0.000000,1.000000
-29.910441,-20.572484,3.904207,0.000000,-0.000000,1.000000
-39.922859,-1.488818,-0.534195,-1.000000,0.000000,0.000000
-0.982831,-2.596146,-3.904207,0.000000,0.000000,-1.000000
29.651980,0.740136,-3.904207,0.000000,0.000000,-1.000000
37.439386,-6.089845,-3.904207,0.000000,0.000000,-1.000000
-0.646757,-9.161912,-3.413580,0.634393,-0.773010,0.000000
-8.775948,-18.015148,3.904207,0.000000,-0.000000,1.000000
4.451010,14.190566,3.904207,0.000000,-0.000000,1.000000
-13.520461,3.426373,-3.904207,0.000000,0.000000,-1.000000
-36.917276,-22.407862,53.629537,0.000000,-1.000000,0.000000
22.406235,-9.147856,-3.904207,0.000000,0.000000,-1.000000
-20.292504,4.568458,3.904207,0.000000,-0.000000,1.000000
-31.156304,17.796631,3.904207,0.000000,-0.000000,1.000000
-32.114445,-9.390637,38.875775,1.000000,0.000000,-0.000000
-35.282792,11.223047,45.690648,0.000000,-0.098016,-0.995185
-7.019619,-22.356876,3.904207,0.000000,-0.000000,1.000000
1.027156,-17.018464,2.246258,0.290283,0.956941,0.000000
-1.755419,12.780317,-3.904207,0.000000,-0.000000,-1.000000
-31.421890,22.407862,-1.798522,0.000000,1.000000,0.000000
19.450103,12.494301,3.904207,0.000000,-0.000000,1.000000
29.379907,7.490880,3.904207,0.000000,-0.000000,1.000000
-31.459454,-1.181799,-3.904207,0.000000,0.000000,-1.000000
-36.196968,-22.407862,35.785539,0.000000,-1.000000,0.000000
-37.060566,13.611736,44.826827,0.000000,-0.634393,-0.773011
-16.087609,20.724537,3.904207,0.000000,-0.000000,1.000000
-39.922859,-16.601779,14.629586,-1.000000,0.000000,0.000000
-23.142262,22.407862,2.674026,0.000000,1.000000,0.000000
19.116377,7.414646,2.417997,0.290285,-0.956940,0.000000
33.956455,-8.099552,-3.904207,0.000000,0.000000,-1.000000
-22.227834,0.992029,3.904207,0.000000,-0.000000,1.000000
-32.114445,5.288001,37.267632,1.000000,-0.000000,-0.000000
-32.114445,-7.784782,43.674000,1.000000,-0.000000,-0.000000
-39.922859,1.288800,29.889659,-1.000000,0.000000,0.000000
26.675176,-3.962256,-3.904207,0.000000,0.000000,-1.000000
-39.922859,0.378643,50.275471,-1.000000,0.000000,-0.000000
28.673783,-2.206598,-3.904207,0.000000,0.000000,-1.000000
-39.922859,-7.358318,31.374603,-1.000000,0.000000,0.000000
28.267139,22.226292,3.904207,0.000000,-0.000000,1.000000
39.922859,15.939473,2.619965,1.000000,-0.000000,0.000000
21.236101,12.705526,3.904207,-0.000000,0.000000,1.000000
15.878667,-9.373068,3.904207,-0.000000,-0.000000,1.000000
-38.582942,-22.407862,55.130996,0.000000,-1.000000,0.000000
-39.922859,5.593625,9.817674,-1.000000,0.000000,0.000000
-39.922859,-14.371088,11.188565,-1.000000,0.000000,0.000000
3.841873,4.685656,-3.904207,0.000000,0.000000,-1.000000
-39.922859,10.128986,23.449152,-1.000000,0.000000,0.000000
14.737098,-19.570176,-3.904207,0.000000,0.000000,-1.000000
-36.439556,22.407862,48.578709,0.000000,1.000000,0.000000
-39.922859,17.683272,27.386054,-1.000000,0.000000,0.000000
-37.699960,17.552762,55.900471,0.000000,-0.000000,1.000000
16.446726,-21.947165,3.904207,0.000000,-0.000000,1.000000
28.015733,-7.611602,-3.904207,0.000000,0.000000,-1.000000
-39.922859,9.759893,32.621098,-1.000000,0.000000,0.000000
-5.120669,-11.115120,3.904207,0.000000,-0.000000,1.000000
-39.922859,-13.039195,26.939838,-1.000000,0.000000,0.000000
-38.973655,-7.587837,-3.904207,0.000000,0.000000,-1.000000
-23.379016,16.439816,-3.904207,0.000000,0.000000,-1.000000
20.862090,-19.817179,-3.904207,0.000000,0.000000,-1.000000
-14.911172,22.407862,-2.947435,-0.000000,1.000000,0.000000
-0.513167,-19.875593,-3.904207,0.000000,0.000000,-1.000000
-32.114445,4.509419,8.587935,1.000000,0.000000,-0.000000
14.437660,-22.407862,1.530521,0.000000,-1.000000,0.000000
-25.886161,11.552308,3.904207,0.000000,-0.000000,1.000000
-15.825142,13.188126,3.904207,0.000000,-0.000000,1.000000
21.285511,-1.053591,0.074172,-0.290285,0.956940,0.000000
-23.680308,15.716960,-3.904207,0.000000,0.000000,-1.000000
39.922859,-10.054301,1.078195,1.000000,0.000000,-0.000000
30.666158,18.299127,3.904207,0.000000,-0.000000,1.000000
-10.859376,-10.172861,-3.904207,0.000000,0.000000,-1.000000
-32.114445,11.218026,10.080474,1.000000,0.000000,-0.000000
-1.516767,-3.901310,3.904207,0.000000,0.000000,1.000000
-32.114445,19.865015,30.150112,1.000000,0.000000,-0.000000
39.166097,7.694908,3.904207,0.000000,-0.000000,1.000000
26.786270,10.978580,3.904207,0.000000,-0.000000,1.000000
-32.114445,19.953076,18.541750,1.000000,0.000000,-0.000000
22.842146,10.082682,3.904207,0.000000,0.000000,1.000000
-32.114445,17.318488,6.024813,1.000000,0.000000,-0.000000
-32.114445,2.306951,52.027550,1.000000,-0.000000,0.000000
-39.069922,-22.002307,55.900471,0.000000,0.000000,1.000000
-32.114445,15.050661,51.868142,1.000000,-0.000000,0.000000
-34.346014,-10.352188,55.900471,0.000000,0.000000,1.000000
-1.689263,4.753149,-3.904207,0.000000,0.000000,-1.000000
-32.114445,3.443781,13.090985,1.000000,0.000000,-0.000000
13.777190,-3.225061,3.904207,-0.000000,0.000000,1.000000
-18.769985,-12.094519,3.904207,0.000000,-0.000000,1.000000
-35.676594,22.407862,48.315815,0.000000,1.000000,0.000000
-6.127975,-2.034007,3.904207,0.000000,-0.000000,1.000000
-4.368059,-6.794563,3.904207,0.000000,-0.000000,1.000000
-32.114445,-12.921435,14.848023,1.000000,0.000000,-0.000000
-6.625444,22.407862,-1.838296,-0.000000,1.000000,0.000000
11.558458,-21.057013,3.904207,0.000000,-0.000000,1.000000
-20.987524,-14.107535,3.904207,0.000000,-0.000000,1.000000
11.956621,-10.914333,-3.904207,0.000000,0.000000,-1.000000
-35.913718,-22.407862,15.582818,0.000000,-1.000000,0.000000
-39.922859,14.165450,23.077648,-1.000000,0.000000,0.000000
39.922859,-5.647163,3.468359,1.000000,-0.000000,0.000000
-39.922859,-22.229293,-2.306341,-1.000000,0.000000,0.000000
-7.356483,4.521829,-3.904207,0.000000,0.000000,-1.000000
17.014194,22.407862,3.470111,0.000000,1.000000,0.000000
-39.922859,-14.596794,-1.095229,-1.000000,0.000000,0.000000
39.922859,-20.906266,-0.182727,1.000000,0.000000,-0.000000
-32.114445,17.872374,27.460964,1.000000,0.000000,0.000000
-39.922859,-1.949379,23.991651,-1.000000,0.000000,0.000000
30.790960,19.673345,-3.904207,0.000000,-0.000000,-1.000000
-39.922859,20.878451,4.126294,-1.000000,0.000000,0.000000
-5.170689,-7.269473,-3.904207,0.000000,-0.000000,-1.000000
-32.689725,22.407862,19.042975,-0.000000,1.000000,0.000000
14.250961,-22.407862,3.463271,0.000000,-1.000000,0.000000
12.725889,-4.023025,-3.904207,0.000000,0.000000,-1.000000
-32.114445,-12.637806,50.085032,1.000000,-0.000000,-0.000000
-39.922859,4.621717,44.520935,-1.000000,0.000000,-0.000000
-32.114445,-2.733588,22.203141,1.000000,0.000000,-0.000000
13.378400,-4.167149,-3.904207,0.000000,0.000000,-1.000000
-39.922859,-9.454153,-3.320485,-1.000000,0.000000,0.000000
8.588481,-5.549983,-3.904207,0.000000,0.000000,-1.000000
-39.922859,7.422331,14.035047,-1.000000,0.000000,0.000000
39.922859,-16.966748,-2.980335,1.000000,0.000000,-0.000000
-10.572539,15.250905,3.904207,0.000000,-0.000000,1.000000
-17.538022,-5.483760,3.535057,0.995185,-0.098018,0.000000
21.765388,7.114401,-3.775024,-0.471396,-0.881922,0.000000
-22.145563,17.532559,-3.904207,0.000000,-0.000000,-1.000000
17.020844,-0.101567,-0.317942,0.634394,0.773010,-0.000000
-33.591250,16.901112,55.900471,0.000000,-0.000000,1.000000
-39.922859,-4.480606,0.299672,-1.000000,0.000000,0.000000
-39.922859,-2.366320,25.983471,-1.000000,0.000000,0.000000
-39.922859,-5.358633,44.082197,-1.000000,0.000000,0.000000
-38.283228,22.407862,2.550442,0.000000,1.000000,0.000000
-27.324395,16.900481,3.904207,0.000000,0.000000,1.000000
-32.114445,-1.284982,16.279961,1.000000,0.000000,-0.000000
-32.114445,2.923158,36.174829,1.000000,-0.000000,-0.000000
30.804292,22.407862,-1.929175,-0.000000,1.000000,0.000000
2.340631,-17.064692,-1.389233,-0.098018,0.995185,0.000000
25.348110,7.024531,-3.904207,0.000000,-0.000000,-1.000000
39.922859,11.288573,0.478890,1.000000,-0.000000,0.000000
-39.922859,-15.791846,54.240366,-1.000000,0.000000,-0.000000
27.289109,18.107898,3.904207,0.000000,-0.000000,1.000000
14.063611,-12.174054,-3.904207,0.000000,0.000000,-1.000000
-29.375976,-19.389458,-3.904207,0.000000,0.000000,-1.000000
-30.442399,22.407862,-0.444966,0.000000,1.000000,0.000000
-32.114445,-17.075933,38.471888,1.000000,0.000000,-0.000000
-35.010628,-22.407862,5.565064,0.000000,-1.000000,0.000000
-32.114445,-20.533484,33.084567,1.000000,0.000000,-0.000000
0.998289,-2.444236,-3.904207,0.000000,0.000000,-1.000000
14.037901,-14.176784,-3.904207,0.000000,0.000000,-1.000000
32.552786,-9.104099,3.904207,0.000000,-0.000000,1.000000
-32.114445,11.595817,50.856206,1.000000,-0.000000,0.000000
23.214891,0.167771,2.003418,-0.773011,0.634393,0.000000
-5.088595,7.639938,-3.904207,0.000000,0.000000,-1.000000
-3.831415,-0.746266,3.904207,0.000000,-0.000000,1.000000
5.589773,-1.716194,3.904207,0.000000,-0.000000,1.000000
-32.114445,-6.734547,32.663233,1.000000,0.000000,-0.000000
8.905495,-11.677862,3.904207,-0.000000,-0.000000,1.000000
-26.383413,14.253517,3.904207,0.000000,-0.000000,1.000000
-35.981012,3.519338,55.900471,0.000000,-0.000000,1.000000
-7.692408,-22.407862,-3.481608,0.000000,-1.000000,0.000000
20.434420,-9.158532,3.904207,-0.000000,-0.000000,1.000000
-39.922859,-8.883612,40.141985,-1.000000,0.000000,0.000000
16.077118,-7.788569,3.904207,-0.000000,-0.000000,1.000000
23.447297,-19.875679,3.904207,-0.000000,-0.000000,1.000000
8.536606,6.034742,3.904207,-0.000000,0.000000,1.000000
-36.279896,21.801374,-3.904207,0.000000,-0.000000,-1.000000
-39.922859,10.965009,14.754905,-1.000000,0.000000,0.000000
-32.114445,-7.689089,23.835634,1.000000,0.000000,-0.000000
39.922859,-4.349174,3.215575,1.000000,-0.000000,0.000000
-32.114445,8.557031,28.418996,1.000000,-0.000000,-0.000000
5.932074,22.348550,-3.904207,0.000000,-0.000000,-1.000000
-6.691679,-20.230079,3.904207,0.000000,-0.000000,1.000000
-8.826648,-18.116818,3.904207,0.000000,-0.000000,1.000000
-32.114445,-17.111680,21.822178,1.000000,0.000000,-0.000000
-39.922859,10.923942,4.291071,-1.000000,0.000000,0.000000
15.388617,20.891703,-3.904207,0.000000,-0.000000,-1.000000
2.575287,6.193236,3.904207,0.000000,-0.000000,1.000000
-18.509622,9.654924,-3.904207,0.000000,0.000000,-1.000000
30.527525,-16.314562,3.904207,-0.000000,-0.000000,1.000000
-23.699646,-21.054537,3.904207,0.000000,-0.000000,1.000000
-32.114445,5.081873,4.995391,1.000000,0.000000,-0.000000
39.338364,-5.701884,-3.904207,0.000000,0.000000,-1.000000
23.054029,-8.466174,-3.904207,0.000000,0.000000,-1.000000
-39.922859,-11.826503,52.183015,-1.000000,0.000000,-0.000000
-25.963995,-12.379024,-3.904207,0.000000,0.000000,-1.000000
-37.821472,2.530266,-3.904207,0.000000,0.000000,-1.000000
-39.922859,-13.751558,33.622522,-1.000000,0.000000,0.000000
-39.922859,-1.170247,36.902542,-1.000000,0.000000,0.000000
-33.393302,-22.407862,16.369986,0.000000,-1.000000,0.000000
-39.922859,-4.009265,40.494454,-1.000000,0.000000,0.000000
-11.050777,2.192745,3.904207,0.000000,-0.000000,1.000000
23.546109,-5.288507,-3.904207,0.000000,0.000000,-1.000000
-29.591807,-22.407862,-0.282751,0.000000,-1.000000,0.000000
-32.114445,17.766435,34.789703,1.000000,0.000000,-0.000000
-5.058698,21.332004,-3.904207,0.000000,-0.000000,-1.000000
27.565232,6.861964,-3.904207,0.000000,0.000000,-1.000000
-5.034578,8.516251,3.904207,0.000000,-0.000000,1.000000
-32.355750,-20.013676,55.900471,0.000000,0.000000,1.000000
-14.448397,-11.413300,-3.904207,0.000000,0.000000,-1.000000
3.645005,22.407862,2.705789,0.000000,1.000000,0.000000
35.000415,-22.407862,-0.971079,0.000000,-1.000000,0.000000
-32.114445,-15.113428,39.010650,1.000000,0.000000,-0.000000
-37.741039,-22.407862,28.884656,0.000000,-1.000000,0.000000
-9.705329,-9.792359,-3.904207,0.000000,0.000000,-1.000000
10.532231,-13.166545,3.904207,-0.000000,-0.000000,1.000000
-34.957629,12.314901,-3.904207,0.000000,0.000000,-1.000000
20.063163,-22.407862,3.153530,0.000000,-1.000000,0.000000
-32.114445,6.301554,51.760116,1.000000,-0.000000,0.000000
11.531491,19.299863,3.904207,0.000000,-0.000000,1.000000
-13.626334,-17.431047,-3.904207,0.000000,0.000000,-1.000000
-3.971599,-22.407862,-1.549111,0.000000,-1.000000,0.000000
33.919464,-15.762962,-3.904207,0.000000,0.000000,-1.000000
-39.922859,4.379169,9.814761,-1.000000,0.000000,0.000000
-32.114445,18.607761,55.882055,1.000000,-0.000000,0.000000
-37.855228,-22.407862,12.788648,0.000000,-1.000000,0.000000
-32.114445,-4.025589,30.170851,1.000000,0.000000,-0.000000
19.815045,7.485981,-0.161630,0.098017,-0.995185,0.000000
-39.667044,22.407862,20.648443,0.000000,1.000000,0.000000
-18.241751,-3.830016,-3.904207,0.000000,0.000000,-1.000000
4.126593,1.114027,3.904207,0.000000,-0.000000,1.000000
-31.760849,-19.981758,3.904207,0.000000,-0.000000,1.000000
32.714412,22.407862,-3.884898,-0.000000,1.000000,0.000000
-39.922859,1.960718,40.004817,-1.000000,0.000000,0.000000
24.093656,4.612088,-0.211213,-0.956940,-0.290285,0.000000
-32.114445,13.299138,5.368170,1.000000,0.000000,-0.000000
-20.732611,-21.160412,-3.904207,0.000000,0.000000,-1.000000
-34.201794,13.525877,55.900471,0.000000,-0.000000,1.000000
26.805316,-2.367021,3.904207,0.000000,0.000000,1.000000
-27.180271,7.523887,3.904207,0.000000,-0.000000,1.000000
-38.034192,-16.201564,-3.904207,0.000000,0.000000,-1.000000
-39.922859,-22.146461,25.419569,-1.000000,0.000000,0.000000
-39.922859,1.034524,13.468712,-1.000000,0.000000,0.000000
-32.114445,-5.764468,48.292842,1.000000,-0.000000,0.000000
0.305384,-3.197834,3.904207,0.000000,0.000000,1.000000
-38.335646,9.928957,55.900471,0.000000,-0.000000,1.000000
-39.922859,16.020913,30.219473,-1.000000,0.000000,0.000000
8.578281,10.908099,3.904207,0.000000,-0.000000,1.000000
-32.114445,-8.812527,4.645418,1.000000,0.000000,-0.000000
-39.542057,6.662604,41.885863,0.000000,0.995185,-0.098017
-10.132207,-2.835720,0.920565,-0.634394,-0.773010,0.000000
-38.451547,-22.407862,1.317842,0.000000,-1.000000,0.000000
-6.607725,18.795129,3.904207,0.000000,-0.000000,1.000000
35.898356,-4.013778,3.904207,0.000000,-0.000000,1.000000
-32.114445,19.981103,32.120627,1.000000,0.000000,-0.000000
21.240531,-8.362540,-3.904207,0.000000,0.000000,-1.000000
35.060199,21.691658,3.904207,0.000000,-0.000000,1.000000
4.783450,-16.003187,3.391562,-0.634393,0.773010,0.000000
-10.189803,-22.407862,-3.181950,0.000000,-1.000000,0.000000
30.150008,21.533607,-3.904207,0.000000,-0.000000,-1.000000
-15.162213,22.407862,1.928774,0.000000,1.000000,0.000000
-37.800809,22.407862,32.604347,0.000000,1.000000,0.000000
-32.114445,12.965630,54.019517,1.000000,-0.000000,0.000000
22.587468,10.528172,-3.904207,0.000000,-0.000000,-1.000000
-39.242834,-22.407862,9.752734,0.000000,-1.000000,0.000000
0.617109,22.407862,-1.394145,-0.000000,1.000000,0.000000
4.131432,-8.961453,-3.380990,-0.471397,-0.881921,0.000000
-35.456744,8.674541,37.614456,-0.000000,0.471396,0.881922
17.408644,6.767379,3.904207,0.000000,0.000000,1.000000
-20.079056,21.160869,-3.904207,0.000000,-0.000000,-1.000000
-39.922859,12.332520,48.358567,-1.000000,0.000000,-0.000000
6.684660,9.818729,3.904207,0.000000,-0.000000,1.000000
0.956570,-18.432657,-3.904207,0.000000,0.000000,-1.000000
29.017541,-12.751030,3.904207,-0.000000,-0.000000,1.000000
-39.922859,-15.813386,15.563897,-1.000000,0.000000,0.000000
39.922859,20.199907,2.635538,1.000000,-0.000000,0.000000
29.548592,-14.314315,-3.904207,0.000000,0.000000,-1.000000
-11.386594,-16.592584,-3.904207,0.000000,0.000000,-1.000000
-18.028287,16.529247,3.904207,0.000000,-0.000000,1.000000
-14.783727,4.583345,-3.904207,0.000000,0.000000,-1.000000
-24.459823,6.920892,-3.904207,0.000000,0.000000,-1.000000
19.185338,-12.019704,3.904207,-0.000000,-0.000000,1.000000
-32.114445,-5.192301,15.869880,1.000000,0.000000,-0.000000
-26.001052,-19.726657,3.904207,0.000000,-0.000000,1.000000
-39.922859,-21.098537,13.438741,-1.000000,0.000000,0.000000
-35.809777,-22.407862,50.807136,0.000000,-1.000000,0.000000
-39.922859,-21.017981,27.514531,-1.000000,0.000000,0.000000
-39.922859,9.553532,24.998815,-1.000000,0.000000,0.000000
-32.114445,17.637573,14.077469,1.000000,-0.000000,-0.000000
7.236076,8.501893,-3.904207,0.000000,-0.000000,-1.000000
-32.114445,-10.743082,25.765875,1.000000,0.000000,-0.000000
-39.922859,3.537215,7.433539,-1.000000,0.000000,0.000000
-39.922859,2.267722,40.838094,-1.000000,0.000000,0.000000
16.263391,8.615904,3.904207,0.000000,-0.000000,1.000000
-39.922859,8.802337,30.318508,-1.000000,0.000000,0.000000
-9.552208,21.552398,3.904207,0.000000,-0.000000,1.000000
-36.514661,3.191562,-3.904207,0.000000,0.000000,-1.000000
35.478275,17.876756,3.904207,0.000000,-0.000000,1.000000
-39.204880,22.407862,47.879408,0.000000,1.000000,0.000000
-32.114445,1.371965,23.084976,1.000000,0.000000,-0.000000
-32.114445,-21.511061,24.348285,1.000000,0.000000,-0.000000
11.061070,-15.220013,-3.904207,0.000000,0.000000,-1.000000
8.670849,-22.407862,0.488258,0.000000,-1.000000,0.000000
-11.098807,11.328702,3.904207,0.000000,-0.000000,1.000000
7.546639,4.314205,3.904207,0.000000,-0.000000,1.000000
-39.922859,-16.169695,51.467687,-1.000000,0.000000,0.000000
-36.622754,17.394588,-3.904207,0.000000,0.000000,-1.000000
-39.922859,20.239827,-2.917938,-1.000000,0.000000,0.000000
-32.114445,20.819767,10.408332,1.000000,0.000000,0.000000
-39.922859,-17.654821,1.950235,-1.000000,0.000000,0.000000
39.922859,-6.428487,-1.155179,1.000000,0.000000,-0.000000
6.207229,-13.543232,-1.379554,-0.995185,0.098017,0.000000
-39.922859,-21.733280,32.579779,-1.000000,0.000000,0.000000
-39.922859,-9.733598,25.308461,-1.000000,0.000000,0.000000
26.691728,-11.801355,-3.904207,0.000000,0.000000,-1.000000
-3.015106,-22.407862,3.061733,0.000000,-1.000000,0.000000
-35.321928,-22.407862,19.539615,0.000000,-1.000000,0.000000
-32.114445,-9.074799,20.367421,1.000000,0.000000,-0.000000
-32.114445,-5.378061,32.572472,1.000000,0.000000,-0.000000
-17.726005,-4.744685,3.904207,0.000000,-0.000000,1.000000
-25.007727,22.141413,3.904207,0.000000,-0.000000,1.000000
-39.922859,1.552091,17.808223,-1.000000,0.000000,0.000000
-39.922859,22.323208,30.706682,-1.000000,0.000000,0.000000
-28.499685,-12.497631,3.904207,0.000000,-0.000000,1.000000
-29.842081,5.549266,-3.904207,0.000000,0.000000,-1.000000
-34.470548,22.407862,1.169977,0.000000,1.000000,0.000000
-39.922859,-9.465962,21.249199,-1.000000,0.000000,0.000000
-0.587363,-22.407862,-2.296214,0.000000,-1.000000,0.000000
31.871327,22.407862,-0.877403,-0.000000,1.000000,0.000000
-27.011174,-21.266586,-3.904207,0.000000,0.000000,-1.000000
34.982919,-19.107029,-3.904207,0.000000,0.000000,-1.000000
-32.114445,-10.935932,12.921135,1.000000,0.000000,-0.000000
39.922859,0.458254,0.372978,1.000000,-0.000000,0.000000
-39.922859,3.554419,3.814317,-1.000000,0.000000,0.000000
-7.407604,22.407862,3.413334,0.000000,1.000000,0.000000
-29.818294,-22.407862,-3.257127,0.000000,-1.000000,0.000000
-32.114445,11.185789,20.093163,1.000000,-0.000000,-0.000000
2.996322,-22.407862,-3.254667,0.000000,-1.000000,0.000000
-33.666048,-10.204721,-3.904207,0.000000,0.000000,-1.000000
-32.146133,-4.344976,55.900471,0.000000,0.000000,1.000000
-39.922859,15.875692,15.933951,-1.000000,0.000000,0.000000
25.837797,13.741910,-3.904207,0.000000,-0.000000,-1.000000
-39.922859,-3.570566,37.065041,-1.000000,0.000000,0.000000
-36.159584,-22.407862,9.730015,0.000000,-1.000000,0.000000
-32.114445,-14.170638,35.925732,1.000000,0.000000,-0.000000
11.285278,-11.592247,3.904207,-0.000000,-0.000000,1.000000
-18.570561,8.951445,-3.904207,0.000000,0.000000,-1.000000
1.847371,7.049703,3.904207,0.000000,-0.000000,1.000000
-18.389951,-6.903530,3.904207,0.000000,-0.000000,1.000000
-39.922859,6.959223,23.222402,-1.000000,0.000000,0.000000
-22.668870,12.533931,3.904207,0.000000,-0.000000,1.000000
-32.114445,0.398670,50.241193,1.000000,-0.000000,0.000000
-39.922859,-17.951341,18.999362,-1.000000,0.000000,0.000000
32.448075,5.975165,3.904207,0.000000,-0.000000,1.000000
29.027309,22.188193,3.904207,0.000000,-0.000000,1.000000
-6.736701,14.848012,-3.904207,0.000000,-0.000000,-1.000000
-18.940922,8.632744,3.904207,0.000000,-0.000000,1.000000
-39.922859,-11.470181,24.139357,-1.000000,0.000000,0.000000
9.908903,-11.322478,-3.904207,-0.000000,-0.000000,-1.000000
-36.823970,14.863664,55.900471,0.000000,-0.000000,1.000000
33.598146,-4.359562,-3.904207,0.000000,0.000000,-1.000000
9.304382,-12.269815,3.904207,-0.000000,-0.000000,1.000000
-30.560101,-21.776585,3.904207,0.000000,-0.000000,1.000000
-39.922859,-12.440927,-3.796470,-1.000000,0.000000,0.000000
-32.114445,-14.281212,10.766216,1.000000,0.000000,-0.000000
23.229058,-1.541870,3.904207,0.000000,0.000000,1.000000
-39.922859,-6.789320,2.737252,-1.000000,0.000000,0.000000
-32.279194,-22.407862,24.044265,0.000000,-1.000000,0.000000
-32.114445,-1.151387,23.558384,1.000000,0.000000,-0.000000
-14.588576,-1.827252,1.428103,0.290285,-0.956940,0.000000
-34.987757,22.407862,49.233337,0.000000,1.000000,0.000000
-36.963475,-22.407862,49.192353,0.000000,-1.000000,0.000000
5.771945,-10.700022,0.850286,-0.881921,-0.471397,0.000000
-29.719929,19.271356,-3.904207,0.000000,-0.000000,-1.000000
-39.922859,-0.880758,51.291192,-1.000000,0.000000,-0.000000
-34.480117,22.407862,43.676561,0.000000,1.000000,0.000000
-36.126161,-22.407862,27.236353,0.000000,-1.000000,0.000000
-32.114445,10.784152,35.412161,1.000000,0.000000,0.000000
-18.621989,17.713469,-3.904207,0.000000,-0.000000,-1.000000
-32.114445,9.226032,14.640892,1.000000,0.000000,-0.000000
-39.922859,2.803746,13.425144,-1.000000,0.000000,0.000000
19.581465,15.274879,-3.904207,0.000000,-0.000000,-1.000000
-34.086031,22.407862,20.691426,-0.000000,1.000000,0.000000
11.384083,3.405572,3.904207,0.000000,0.000000,1.000000
-32.114445,11.441148,26.489428,1.000000,-0.000000,-0.000000
-3.806309,0.838620,3.904207,0.000000,-0.000000,1.000000
-32.114445,-8.623131,6.279137,1.000000,0.000000,-0.000000
-32.114445,16.495736,51.061994,1.000000,-0.000000,0.000000
-32.114445,3.427025,54.715975,1.000000,-0.000000,0.000000
-24.827376,-21.075505,-3.904207,0.000000,0.000000,-1.000000
-32.114445,16.093397,45.628432,1.000000,0.000000,0.000000
-30.375953,-16.560344,-3.904207,0.000000,0.000000,-1.000000
7.126908,-10.204712,3.904207,0.000000,-0.000000,1.000000
-0.398277,-16.442817,-1.633031,0.471398,0.881921,-0.000000
-20.170578,-22.407862,-2.804767,0.000000,-1.000000,0.000000
-39.922859,-19.618999,-2.967763,-1.000000,0.000000,0.000000
-32.114445,21.599108,31.867595,1.000000,0.000000,-0.000000
-39.922859,20.570180,2.612862,-1.000000,0.000000,0.000000
-2.905555,-7.951311,-3.904207,0.000000,-0.000000,-1.000000
-39.922859,-10.799542,47.396345,-1.000000,0.000000,0.000000
-6.823227,6.228243,3.904207,0.000000,-0.000000,1.000000
17.529663,11.157497,3.904207,0.000000,-0.000000,1.000000
-1.488102,-9.966167,-3.810221,0.773010,-0.634394,0.000000
20.057330,-19.999252,-3.904207,0.000000,0.000000,-1.000000
-28.069134,20.568178,3.904207,0.000000,-0.000000,1.000000
21.289482,20.407509,3.904207,0.000000,-0.000000,1.000000
-19.696840,-12.047744,3.904207,0.000000,-0.000000,1.000000
-39.922859,-1.108844,44.469262,-1.000000,0.000000,0.000000
-34.875196,-22.407862,-2.058015,0.000000,-1.000000,0.000000
-32.114445,10.051786,22.041255,1.000000,-0.000000,-0.000000
-39.922859,-11.315311,38.960968,-1.000000,0.000000,0.000000
-39.922859,-3.087419,48.118682,-1.000000,0.000000,-0.000000
-34.758570,22.407862,42.391222,0.000000,1.000000,0.000000
-4.245028,11.197348,-3.904207,0.000000,-0.000000,-1.000000
-32.114445,-12.336509,35.533206,1.000000,0.000000,-0.000000
-24.138609,18.075141,-3.904207,0.000000,-0.000000,-1.000000
24.669274,8.078915,3.904207,-0.000000,0.000000,1.000000
3.614313,11.433022,-3.904207,0.000000,-0.000000,-1.000000
-32.114445,-22.023245,50.202708,1.000000,0.000000,-0.000000
-39.380930,7.990334,38.142461,-0.000000,0.634393,0.773011
-39.922859,-9.195268,7.598433,-1.000000,0.000000,0.000000
6.883517,3.474224,-3.904207,0.000000,0.000000,-1.000000
-39.922859,19.987689,40.267677,-1.000000,0.000000,0.000000
39.922859,17.926461,-2.925749,1.000000,-0.000000,0.000000
39.922859,15.440459,-3.782615,1.000000,0.000000,-0.000000
13.578960,-13.382842,3.904207,-0.000000,-0.000000,1.000000
-12.152736,-22.407862,2.483826,0.000000,-1.000000,0.000000
-39.922859,7.393129,54.915574,-1.000000,0.000000,-0.000000
-32.114445,-15.610632,47.886103,1.000000,0.000000,-0.000000
39.922859,-20.507666,-3.838860,1.000000,0.000000,-0.000000
28.576619,22.407862,-3.867647,-0.000000,1.000000,0.000000
-32.096058,-3.096864,3.904207,0.000000,-0.000000,1.000000
-39.922859,17.328160,31.949400,-1.000000,0.000000,0.000000
6.755778,3.436378,-3.904207,0.000000,0.000000,-1.000000
-15.880713,-19.248328,3.904207,0.000000,-0.000000,1.000000
-39.922859,7.362659,45.843744,-1.000000,0.000000,-0.000000
-20.542486,-12.722833,-3.904207,0.000000,0.000000,-1.000000
-25.146611,3.144830,-3.904207,0.000000,0.000000,-1.000000
-32.114445,-18.615136,11.152748,1.000000,0.000000,-0.000000
-32.114445,-19.750338,36.055866,1.000000,0.000000,-0.000000
29.606993,-19.295678,3.904207,-0.000000,-0.000000,1.000000
-10.758955,9.275783,-3.904207,0.000000,0.000000,-1.000000
-39.922859,2.618382,24.280211,-1.000000,0.000000,0.000000
-32.114445,12.050137,18.998401,1.000000,-0.000000,-0.000000
-32.114445,-8.116124,27.851068,1.000000,0.000000,-0.000000
19.959278,-21.453158,3.904207,0.000000,-0.000000,1.000000
11.694171,-20.869927,-3.904207,0.000000,0.000000,-1.000000
-13.249552,-21.512791,-3.904207,0.000000,0.000000,-1.000000
-33.781950,13.687038,-3.904207,0.000000,0.000000,-1.000000
-31.367231,-1.296596,3.904207,0.000000,-0.000000,1.000000
-32.114445,-13.709094,10.303309,1.000000,0.000000,-0.000000
16.065066,-22.199560,-3.904207,0.000000,0.000000,-1.000000
-31.341210,22.407862,1.996461,0.000000,1.000000,0.000000
-34.434657,2.783607,-3.904207,0.000000,0.000000,-1.000000
-4.570592,8.974514,-3.904207,0.000000,0.000000,-1.000000
-2.404343,2.368582,3.904207,0.000000,-0.000000,1.000000
6.753358,13.947783,-3.904207,0.000000,-0.000000,-1.000000
35.412116,6.390958,-3.904207,0.000000,0.000000,-1.000000
20.013806,22.407862,3.231921,0.000000,1.000000,0.000000
-32.114445,11.063112,54.026845,1.000000,-0.000000,0.000000
-34.203481,-22.407862,44.070813,0.000000,-1.000000,0.000000
-39.922859,-17.334649,46.033592,-1.000000,0.000000,0.000000
1.934164,-17.104726,2.552756,-0.098018,0.995185,0.000000
-32.114445,3.370094,4.257846,1.000000,0.000000,-0.000000
-39.922859,-17.477445,-2.705371,-1.000000,0.000000,0.000000
-39.922859,-15.297370,2.496566,-1.000000,0.000000,0.000000
37.666856,-0.544959,-3.904207,0.000000,0.000000,-1.000000
-39.922859,2.866281,5.764657,-1.000000,0.000000,0.000000
-39.922859,-21.799420,-3.347342,-1.000000,0.000000,0.000000
3.973087,2.402211,-3.904207,0.000000,0.000000,-1.000000
-32.114445,-10.804649,32.194497,1.000000,0.000000,-0.000000
-32.114445,-1.339223,32.364841,1.000000,-0.000000,-0.000000
-8.798245,14.089089,3.904207,0.000000,-0.000000,1.000000
-39.922859,-5.791110,20.957424,-1.000000,0.000000,0.000000
22.383023,-19.792859,3.904207,-0.000000,-0.000000,1.000000
-35.645742,22.407862,37.344596,0.000000,1.000000,0.000000
6.220154,-13.412003,-3.823116,-0.995185,0.098017,0.000000
-30.294152,16.615237,3.904207,0.000000,-0.000000,1.000000
-32.114445,3.158882,40.774682,1.000000,-0.000000,-0.000000
-33.956754,-22.407862,43.545809,0.000000,-1.000000,0.000000
-34.576368,-22.407862,26.693903,0.000000,-1.000000,0.000000
-37.447805,11.834842,45.630392,0.000000,-0.098016,-0.995185
-35.872270,-22.407862,38.709115,0.000000,-1.000000,0.000000
5.972967,-11.102744,1.157116,-0.956940,-0.290285,-0.000000
26.570228,12.421244,-3.904207,0.000000,-0.000000,-1.000000
-12.637008,-10.301053,-2.599460,-0.098017,0.995185,0.000000
23.107433,0.036834,1.191262,-0.773011,0.634393,0.000000
-37.266807,-22.407862,4.453377,0.000000,-1.000000,0.000000
23.226962,0.182480,-0.089939,-0.773011,0.634393,0.000000
14.796486,-6.975571,-3.904207,0.000000,0.000000,-1.000000
-39.922859,-13.516438,22.136366,-1.000000,0.000000,0.000000
-39.922859,12.767352,45.387578,-1.000000,-0.000000,0.000000
-29.855824,9.374242,-3.904207,0.000000,0.000000,-1.000000
-32.114445,-20.316170,10.935149,1.000000,0.000000,-0.000000
15.895205,9.019386,3.904207,0.000000,-0.000000,1.000000
-12.921426,16.970522,-3.904207,0.000000,-0.000000,-1.000000
