x,y,z,nx,ny,nz
25.260530,2.297941,6.878482,-0.792751,-0.038945,0.608300
-12.321198,23.385898,-8.090952,0.260477,-0.550731,-0.792999
-5.609286,25.695624,-1.538390,-0.240906,0.961752,0.130372
37.266218,25.188945,-0.258269,0.796352,0.590615,-0.130371
19.255545,19.128264,3.864087,0.684670,0.620549,-0.382290
23.989120,31.022296,-9.692285,0.228199,0.307691,-0.923716
26.421268,20.460969,-7.761413,0.104964,0.077846,0.991424
38.099582,11.130377,9.424239,0.590965,0.148029,0.792999
9.284935,27.566457,-9.893155,-0.129055,-0.360684,-0.923716
-9.523866,25.978217,-9.058596,0.205241,-0.573610,-0.792999
6.485224,28.830286,-6.430104,0.148029,0.590965,0.792999
29.162185,17.741739,-7.795902,-0.112089,-0.067183,0.991424
38.720040,0.000000,-8.861888,0.000000,-1.000000,0.000000
19.091475,36.651262,8.169868,0.260476,0.550731,0.792999
12.503537,19.305016,-1.154080,-0.509715,-0.850408,-0.130372
25.509265,25.749711,10.777595,0.087760,0.096828,0.991424
27.213029,24.714085,-10.705067,0.096828,0.087760,-0.991424
4.818337,39.157129,5.521378,-0.116461,-0.785117,-0.608299
23.966311,17.205333,10.065714,-0.307690,-0.228199,0.923716
40.923979,0.326048,-8.480490,0.608490,0.029893,-0.792999
10.590262,31.829280,11.033355,-0.044025,-0.123042,0.991424
40.634715,9.586439,-7.814287,0.769921,0.192855,-0.608300
-17.830233,37.586060,0.907264,0.423906,-0.896274,-0.130373
8.608617,39.793666,-3.864863,-0.224524,-0.896350,0.382290
13.972467,31.088037,11.058748,0.055873,0.118134,0.991424
28.596297,5.018763,9.868337,-0.378931,-0.056209,0.923716
39.732785,11.925418,2.059607,-0.896350,-0.224524,-0.382290
25.819679,25.435726,10.777271,0.096828,0.087760,0.991424
23.726866,26.890643,7.568617,-0.087760,-0.096828,-0.991424
-6.680470,26.534033,8.823459,0.148029,-0.590966,0.792999
5.517807,30.653258,10.716308,-0.019175,-0.129267,0.991424
-9.924292,20.980559,-2.848569,0.423906,-0.896274,-0.130372
35.353110,2.381971,10.880783,0.130524,0.006412,0.991424
7.356608,24.029111,-6.565301,-0.267392,-0.747311,-0.608299
35.797907,3.735855,-10.810764,0.129267,0.019175,-0.991424
36.082620,0.716175,10.795515,0.130524,0.006412,0.991424
38.749750,15.377190,7.885606,0.573610,0.205241,0.792999
3.526360,23.228268,-3.550567,-0.135585,-0.914041,-0.382290
-3.155168,26.188814,8.060012,0.089392,-0.602629,0.792999
-12.870063,23.467791,-7.468009,-0.876802,-0.480851,-0.000000
14.194437,37.901458,4.180637,-0.267392,-0.747311,-0.608299
26.504487,31.579811,2.642768,-0.620549,-0.684670,-0.382290
34.359272,16.734168,6.467799,-0.550731,-0.260476,-0.792999
15.150793,21.288361,0.289545,0.590615,0.796352,-0.130372
-1.385344,28.463883,-9.650356,0.018797,-0.382616,-0.923716
1.991713,34.305467,7.765908,-0.006412,-0.130523,-0.991425
18.369860,30.085881,10.904231,0.067183,0.112089,0.991424
-4.213803,34.384723,10.985777,-0.019175,0.129267,0.991424
27.802464,20.315702,-7.756506,-0.104964,-0.077846,0.991424
32.588461,8.993112,-7.812375,0.126765,0.031753,0.991424
40.242266,17.277750,-4.870966,0.835324,0.395079,-0.382290
32.966796,30.036022,-2.842436,0.734627,0.665827,-0.130372
41.449121,16.720944,-2.374371,0.933508,0.334014,-0.130372
25.669413,24.229593,7.643388,-0.096828,-0.087760,-0.991424
4.071252,29.957267,10.368983,-0.056209,-0.378931,0.923716
34.662410,0.410246,-10.984468,0.130524,0.006412,-0.991424
-20.997330,39.112388,3.476692,-0.475052,0.792578,0.382290
10.458366,33.843394,7.630605,-0.044025,-0.123042,-0.991425
-8.794069,43.488185,3.527253,-0.224524,0.896350,0.382290
-16.538340,33.921792,10.302600,-0.163787,0.346298,0.923716
-16.551260,38.041592,-1.934205,0.423906,-0.896274,0.130373
26.120287,1.216695,0.473851,0.990271,0.048649,-0.130372
25.734922,9.748589,-8.940771,-0.573610,-0.205241,-0.792999
30.899803,21.986112,-6.697604,-0.489333,-0.362914,0.792999
32.922183,11.142863,-10.969861,0.123042,0.044025,-0.991424
30.463854,8.660193,-10.785382,-0.126765,-0.031753,-0.991424
-9.118698,39.204256,-8.976524,-0.148030,0.590966,-0.792998
-19.655505,35.840639,-4.569475,-0.876802,-0.480851,-0.000000
-15.045342,41.076622,-4.923406,-0.311300,0.870026,-0.382291
15.190104,38.799788,0.539965,-0.334014,-0.933508,-0.130373
-0.336619,39.149134,-5.773836,0.029893,-0.608489,0.792999
8.046051,27.457838,-9.688684,-0.093080,-0.371597,-0.923716
18.850707,18.268582,1.138202,0.734627,0.665827,-0.130372
12.114363,42.944312,2.818624,0.240906,0.961752,0.130371
-9.510158,20.806698,0.306747,0.423906,-0.896274,0.130372
-8.627996,40.818666,0.215143,0.240906,-0.961752,-0.130372
36.222063,20.597743,0.471870,-0.850408,-0.509715,-0.130372
8.060180,44.099485,-1.267413,0.145478,0.980734,-0.130371
14.042277,36.382387,-9.784070,0.129055,0.360684,-0.923716
25.065087,29.686400,-5.996352,-0.409129,-0.451405,0.792999
17.209781,18.269660,-6.554175,-0.533022,-0.588098,-0.608300
4.934404,23.458842,4.663630,-0.224524,-0.896350,0.382290
19.775757,22.559416,10.271778,-0.257259,-0.283842,0.923716
9.959661,22.091003,5.324863,-0.395079,-0.835325,0.382290
24.171809,7.400867,6.760064,-0.747311,-0.267392,0.608299
23.365477,34.528389,-0.515948,-0.590615,-0.796352,0.130373
36.189116,13.510680,9.933808,0.360684,0.129055,0.923716
9.409189,35.709854,7.145152,-0.093080,-0.371597,-0.923716
13.152996,36.338805,9.925332,0.129055,0.360684,0.923716
23.752321,29.455005,-6.779457,-0.228199,-0.307691,0.923716
16.007713,22.097934,8.764263,-0.362914,-0.489333,0.792999
32.292933,4.759637,-7.660109,0.129266,0.019175,0.991425
0.345519,29.515573,-10.064821,-0.018797,-0.382616,-0.923716
13.911398,39.027043,-2.077478,-0.311300,-0.870027,0.382290
33.944063,9.633603,-7.646526,-0.126764,-0.031753,0.991425
-7.846329,22.686692,4.782301,0.311300,-0.870027,0.382290
29.439508,33.857821,0.868116,0.665827,0.734627,0.130372
-4.909637,30.625007,7.200530,-0.056209,0.378931,-0.923716
26.629378,14.605881,6.925065,0.328577,0.196941,-0.923716
22.479959,16.501700,9.226070,-0.489333,-0.362914,0.792999
25.684135,16.478175,-6.988015,0.328576,0.196941,0.923716
-3.572684,27.301995,-4.431486,-0.116461,0.785117,0.608300
10.349207,20.736473,2.552156,-0.423906,-0.896274,0.130372
4.631053,29.475950,6.656258,0.089391,0.602629,-0.792999
17.073413,40.828511,3.801160,0.395079,0.835324,0.382290
14.124446,42.671407,0.274642,0.334014,0.933508,0.130372
7.077112,43.139098,-5.004289,0.135585,0.914041,-0.382291
17.293196,27.880379,10.936851,-0.067183,-0.112089,0.991424
-12.137713,22.132395,5.560507,-0.876802,-0.480851,-0.000000
34.722930,12.682323,-7.128649,-0.360684,-0.129055,0.923716
-12.143535,23.702452,2.669105,-0.395079,0.835324,-0.382290
0.765850,28.793205,5.857020,0.029893,0.608489,-0.792999
-8.065331,21.605391,-1.709151,0.334015,-0.933508,-0.130371
42.532232,5.096014,-6.413761,0.785117,0.116462,-0.608299
4.771246,27.250986,-4.595119,0.116461,0.785117,0.608300
9.875236,24.465490,-2.048898,0.311301,0.870027,0.382290
12.536170,23.096656,-7.973371,-0.313204,-0.522548,-0.792999
14.786293,29.460935,-7.701304,0.055873,0.118134,0.991424
28.710040,19.607285,-7.716044,-0.104964,-0.077846,0.991424
-14.006107,38.131589,-8.687609,-0.205242,0.573611,-0.792998
8.020292,41.801594,-6.796912,0.116462,0.785117,-0.608300
-13.126928,23.936169,6.710250,-0.876802,-0.480851,0.000000
38.992748,17.163503,-6.716806,0.717503,0.339353,-0.608300
-10.941339,23.799121,7.924690,0.260476,-0.550732,0.792999
25.683321,7.580898,2.999862,0.896350,0.224524,-0.382290
27.403361,29.472567,8.979837,0.409129,0.451405,0.792999
29.040211,16.758398,-7.776415,0.112089,0.067183,0.991424
-13.772271,25.112914,8.204200,-0.876802,-0.480851,0.000000
18.300632,30.818286,7.570793,-0.067183,-0.112089,-0.991424
31.643736,8.584139,-7.678483,0.126765,0.031753,0.991424
25.216891,16.664695,-10.354971,-0.328576,-0.196941,-0.923716
-1.431180,27.501811,4.442178,-0.038946,0.792751,-0.608300
27.045900,18.117366,-7.643524,0.104964,0.077847,0.991424
16.759852,15.966944,2.328346,-0.734627,-0.665828,0.130372
-19.209727,38.303759,-6.387953,-0.339354,0.717503,-0.608299
30.661546,5.662469,-10.720187,-0.129267,-0.019175,-0.991424
-13.243160,34.086548,-10.732091,-0.044025,0.123042,-0.991424
28.624291,18.269563,-11.076272,0.112089,0.067183,-0.991424
27.465080,17.352711,-7.638606,0.112089,0.067183,0.991424
29.758988,26.208672,-5.246958,-0.588098,-0.533021,0.608300
14.393653,22.310184,-2.468740,0.475052,0.792578,0.382290
-11.793105,31.605941,7.803727,-0.044025,0.123042,-0.991424
-0.307305,25.146316,6.602188,0.038945,-0.792751,0.608300
21.586105,15.232388,2.169368,0.742198,0.550451,-0.382290
24.311353,36.022458,-5.635921,0.472811,0.637512,-0.608300
30.540958,14.175347,-7.795564,0.118134,0.055873,0.991424
42.899742,13.328829,-0.678068,0.933508,0.334015,-0.130371
29.850892,7.168999,-10.562995,-0.371597,-0.093080,-0.923716
34.641777,0.235368,10.988315,0.130524,0.006412,0.991424
-8.268103,25.993651,-4.077748,-0.267392,0.747310,0.608300
7.687417,43.956510,-2.758919,0.145478,0.980734,-0.130371
4.554843,25.959994,-8.043903,-0.089392,-0.602629,-0.792999
20.932697,29.955788,10.735408,0.077847,0.104964,0.991424
19.183085,28.900323,7.727836,-0.067183,-0.112089,-0.991424
-7.871311,38.888183,-5.266921,0.192855,-0.769921,0.608299
14.798386,23.504370,9.135522,-0.313203,-0.522548,0.792999
29.664496,20.669898,7.471171,-0.307690,-0.228199,-0.923716
-12.288948,38.330386,4.491291,0.267392,-0.747311,-0.608299
36.686379,18.953302,2.475375,-0.835325,-0.395079,-0.382290
-2.441424,41.589462,0.463467,0.048648,-0.990271,-0.130370
-13.574819,28.984427,-7.576251,-0.055873,0.118134,0.991424
3.220287,41.369248,1.845530,-0.048649,-0.990271,-0.130370
31.237523,6.976525,10.830380,-0.126765,-0.031753,0.991424
37.047196,22.210902,-5.923810,0.680786,0.408047,-0.608300
14.053707,41.465208,4.846543,0.311300,0.870026,0.382291
-10.850169,34.276504,-10.814779,-0.044025,0.123042,-0.991424
21.960944,24.126352,10.913156,-0.087760,-0.096828,0.991424
33.553990,13.935849,10.766979,0.118134,0.055873,0.991424
28.887063,27.873601,-9.070519,0.451405,0.409129,-0.792999
6.846724,37.592814,-6.486731,-0.089391,-0.602630,0.792999
26.333721,14.222687,-10.231592,-0.328576,-0.196941,-0.923716
20.653023,33.031729,9.799119,0.196941,0.328576,0.923716
14.240570,22.665426,-8.362382,-0.313204,-0.522548,-0.792999
36.438477,16.660820,9.116044,0.550731,0.260477,0.792999
24.017248,37.837250,1.293449,0.509715,0.850408,0.130371
-6.798838,28.155556,9.843687,0.093080,-0.371597,0.923716
24.085552,32.868531,8.590108,0.362914,0.489333,0.792999
6.292873,25.625348,-8.073927,-0.148029,-0.590966,-0.792999
22.170332,23.650022,7.629846,0.087760,0.096828,-0.991424
15.364423,26.882596,10.670257,-0.196941,-0.328576,0.923716
-1.880957,23.678166,-4.149185,0.045340,-0.922929,-0.382290
4.779880,34.175307,7.746809,-0.019175,-0.129267,-0.991424
-20.934212,38.172285,-5.353255,-0.876802,-0.480851,0.000000
34.363876,7.210471,-10.925779,0.126765,0.031753,-0.991424
28.885342,24.312016,10.305258,0.283841,0.257259,0.923716
14.636136,29.701192,10.976794,-0.055873,-0.118134,0.991424
25.420591,34.665293,-6.196086,0.472811,0.637512,-0.608300
0.107445,27.109193,-3.788278,0.045341,0.922929,0.382290
-19.802150,38.922225,5.146477,-0.395079,0.835325,0.382290
22.975380,0.995324,1.229943,-0.990271,-0.048650,0.130372
-2.731247,22.983624,2.287602,0.145478,-0.980734,0.130372
26.767252,2.772567,3.311008,0.914041,0.135585,-0.382289
34.084190,26.572864,-5.909472,0.637512,0.472811,-0.608300
12.499501,27.329731,-6.800779,0.163787,0.346298,0.923716
-20.125044,38.434786,5.722772,-0.339354,0.717503,0.608300
35.117490,3.341123,10.905600,0.130524,0.006412,0.991424
32.471653,8.468878,11.035974,-0.126765,-0.031753,0.991424
-8.710231,40.485062,8.098279,-0.148029,0.590966,0.792998
-21.045023,38.374342,-4.269099,-0.876802,-0.480851,0.000000
13.066883,37.520815,-9.372493,0.205241,0.573611,-0.792998
22.838972,2.934549,-1.426304,-0.980734,-0.145478,-0.130372
28.986689,18.089244,-7.792195,-0.112089,-0.067183,0.991424
4.382242,22.510080,0.567617,-0.145478,-0.980734,0.130372
7.148469,31.359497,7.596159,0.031753,0.126764,-0.991424
24.369177,33.708964,-0.974247,-0.590615,-0.796352,0.130373
9.315639,23.004767,6.168006,-0.267392,-0.747311,0.608299
21.272796,37.173573,-6.411655,0.408047,0.680786,-0.608299
-12.543261,42.497119,3.649039,-0.224524,0.896350,0.382291
28.008904,27.973130,-5.392821,-0.588098,-0.533021,0.608300
36.559212,16.001621,-9.248721,0.550732,0.260477,-0.792998
36.612968,21.266268,-7.043441,0.680786,0.408047,-0.608299
22.474382,5.691212,2.653293,-0.961752,-0.240906,0.130372
-7.728113,24.957005,-7.855138,0.205241,-0.573611,-0.792999
4.133869,31.792707,7.582785,0.019175,0.129266,-0.991425
16.752901,31.789235,-7.563176,-0.055873,-0.118134,0.991424
23.851249,37.757990,2.459469,0.509715,0.850408,0.130372
26.407208,24.125877,10.835836,0.096828,0.087760,0.991424
30.263180,7.104292,7.228939,0.371597,0.093080,-0.923716
36.004927,7.134615,-7.254566,-0.378931,-0.056209,0.923716
30.763587,23.888090,-9.803420,0.307690,0.228199,-0.923716
19.236468,39.715339,-3.998085,0.395079,0.835325,-0.382290
24.205884,12.212910,8.624857,-0.550732,-0.260476,0.792999
16.650778,17.390082,4.935333,-0.620549,-0.684670,0.382290
32.454622,7.916965,-11.016120,-0.126765,-0.031753,-0.991424
-13.019243,39.063522,-8.268917,-0.205242,0.573611,-0.792998
19.221609,23.245768,-10.328349,-0.257259,-0.283841,-0.923716
22.547882,7.335230,4.050205,-0.870027,-0.311300,0.382290
34.162292,23.950843,0.100339,-0.796352,-0.590615,-0.130373
27.738272,27.209931,-5.998717,-0.451405,-0.409129,0.792999
13.727149,42.635119,-1.552365,0.334014,0.933508,-0.130371
13.081708,22.812737,-1.568623,0.509715,0.850408,0.130372
28.887223,9.672132,-10.462972,-0.360684,-0.129055,-0.923716
23.860605,18.691115,-6.904164,0.307690,0.228199,0.923716
34.473568,11.828541,-7.345302,-0.360684,-0.129055,0.923716
17.750465,37.550313,-7.985966,0.260476,0.550732,-0.792998
20.994757,27.888077,-10.949447,0.077847,0.104964,-0.991424
37.858593,12.052377,-5.174892,-0.747311,-0.267392,0.608299
-16.495274,33.207394,-7.084668,0.163787,-0.346298,0.923716
6.466763,28.616045,-9.995472,-0.093080,-0.371597,-0.923716
25.908472,4.355783,-1.376205,0.980734,0.145478,0.130372
-7.710867,43.520179,-3.868367,-0.135585,0.914041,-0.382291
15.247917,38.034171,-3.248751,-0.311301,-0.870026,0.382290
-16.669747,30.396286,9.558285,-0.876802,-0.480851,0.000000
21.555590,9.162773,3.331409,-0.835324,-0.395079,0.382290
4.313777,38.905024,-9.729919,0.056209,0.378931,-0.923716
4.349995,28.134389,-5.605073,0.089392,0.602629,0.792999
22.492303,29.068044,10.706935,0.077847,0.104964,0.991424
-8.337104,33.210376,11.037183,-0.031753,0.126765,0.991424
-8.990199,24.526900,0.271108,-0.334015,0.933508,-0.130372
43.595522,1.903075,-5.183694,0.922929,0.045341,-0.382290
17.684051,14.716007,-1.147360,-0.734628,-0.665827,-0.130372
33.071226,7.048064,7.811807,0.126764,0.031753,-0.991424
14.748929,40.144039,6.483538,0.267392,0.747311,0.608300
11.531017,25.585051,-5.120475,0.339354,0.717503,0.608300
-13.657731,41.521657,5.040520,-0.311300,0.870027,0.382290
-11.896336,43.045683,2.473687,-0.240906,0.961752,0.130371
15.326155,30.619126,7.783008,-0.055873,-0.118134,-0.991424
28.594698,25.350567,10.105326,0.283841,0.257259,0.923716
23.830005,36.719557,-4.917578,0.475052,0.792578,-0.382290
14.274804,35.456084,-6.485231,-0.205241,-0.573610,0.792999
32.537074,21.157300,6.030040,-0.522548,-0.313203,-0.792999
40.647179,12.761003,-6.739259,0.747311,0.267393,-0.608299
-20.425587,40.018728,-0.471054,-0.423906,0.896274,-0.130372
3.797308,43.792035,4.484607,0.045341,0.922929,0.382290
-8.343716,33.892902,10.949703,-0.031753,0.126765,0.991424
39.095160,13.223803,2.482368,-0.870027,-0.311300,-0.382290
-6.540705,26.368227,-8.673806,0.148029,-0.590966,-0.792999
38.366962,15.259470,2.481969,-0.870026,-0.311301,-0.382290
-5.182467,41.366366,0.312116,0.145478,-0.980734,-0.130371
8.474869,27.882845,-6.096656,0.205241,0.573611,0.792999
0.705598,28.767927,5.835351,0.029893,0.608489,-0.792999
29.241727,31.785515,-5.931729,0.533021,0.588099,-0.608300
1.236973,41.117051,-2.812459,-0.045341,-0.922929,0.382291
23.676671,18.565031,-10.305140,-0.307690,-0.228199,-0.923716
36.648189,18.548934,2.976718,-0.835325,-0.395079,-0.382290
-18.745860,36.716781,8.237890,-0.260477,0.550731,0.792999
22.496996,5.107225,1.741001,-0.961752,-0.240906,0.130372
-6.933724,32.137157,7.688714,-0.031753,0.126764,-0.991424
16.999662,35.419782,5.644077,-0.260476,-0.550731,-0.792999
17.076955,23.779900,-6.223340,0.362914,0.489333,0.792998
44.438474,0.000000,0.673023,0.000000,-1.000000,0.000000
14.071630,42.394113,2.395481,0.334015,0.933508,0.130371
-13.967630,25.469140,7.183696,-0.876802,-0.480851,0.000000
21.929796,32.877401,9.568818,0.313203,0.522548,0.792999
-16.378743,39.025254,7.116261,-0.339354,0.717503,0.608300
21.006511,16.678952,3.126990,0.742198,0.550451,-0.382290
6.060533,31.797263,-7.620642,0.019175,0.129266,0.991424
37.068764,16.363478,8.775982,0.550732,0.260476,0.792998
15.449116,36.561648,5.239049,-0.339354,-0.717504,-0.608299
-18.832400,36.778329,-2.399406,0.395079,-0.835325,0.382290
8.548670,36.959785,-6.687435,-0.148029,-0.590965,0.792999
21.796888,31.504413,6.411118,-0.362914,-0.489333,-0.792999
5.494717,42.802823,-5.988183,0.116461,0.785117,-0.608299
37.616750,0.212181,6.873129,-0.382616,-0.018797,-0.923716
24.093693,8.866632,7.308407,-0.747311,-0.267392,0.608299
27.116414,14.122676,-10.502010,-0.346298,-0.163787,-0.923716
36.293329,16.803911,4.799734,-0.717504,-0.339354,-0.608299
31.034297,11.943425,7.739457,0.123042,0.044025,-0.991424
17.241950,38.035828,-7.801752,0.339353,0.717503,-0.608299
27.680911,11.330176,6.689588,0.573611,0.205241,-0.792999
23.440930,37.656039,-3.459509,0.475052,0.792578,-0.382290
25.891564,30.691968,-9.065686,0.409129,0.451405,-0.792999
-11.600018,21.151940,4.968479,-0.876803,-0.480851,0.000000
-16.131680,41.342735,-3.433169,-0.311301,0.870027,-0.382290
10.782079,42.997152,-3.510987,0.224524,0.896350,-0.382290
-1.676801,29.961082,-10.276447,0.018797,-0.382616,-0.923716
7.588513,30.922444,10.809694,-0.031753,-0.126765,0.991424
-18.385715,34.825571,-9.636213,-0.163787,0.346298,-0.923716
34.958438,22.826076,7.843519,0.522548,0.313203,0.792999
30.379226,11.542341,-7.640349,0.123042,0.044025,0.991424
39.123146,13.774435,8.030332,0.573610,0.205241,0.792999
5.969654,33.054227,-7.782773,0.019175,0.129266,0.991425
-7.345441,30.270919,10.718605,0.031753,-0.126765,0.991424
17.250809,24.947590,6.910420,0.228199,0.307690,-0.923716
-3.123266,31.528279,-7.462372,-0.056209,0.378931,0.923716
25.260399,31.145359,4.707862,-0.472811,-0.637512,-0.608300
44.298019,6.514741,1.498422,0.980734,0.145478,0.130371
-7.093258,34.409922,10.923646,-0.031753,0.126764,0.991424
-2.328948,35.452576,-10.868031,-0.006412,0.130524,-0.991424
-13.119276,41.379893,-5.681614,-0.267392,0.747311,-0.608300
-11.381892,20.754199,2.513511,-0.876802,-0.480851,-0.000000
1.404793,31.204359,-7.292501,0.018797,0.382616,0.923716
37.805540,11.629242,-5.426068,-0.747311,-0.267392,0.608299
-9.085902,30.956242,-10.861974,0.031753,-0.126765,-0.991424
-4.796367,44.408732,2.583063,-0.145478,0.980734,0.130372
-11.807457,43.187620,-1.590852,-0.240906,0.961752,-0.130371
22.809701,12.972714,-1.122682,0.850408,0.509715,0.130372
28.876062,8.242924,6.785659,0.371597,0.093080,-0.923716
0.596695,41.536304,1.555614,-0.048649,-0.990271,-0.130370
-0.215984,23.594659,3.750113,0.045340,-0.922929,0.382290
29.381462,28.849145,2.774000,-0.684670,-0.620549,-0.382290
35.692632,22.925222,6.960622,0.680786,0.408047,0.608300
32.241901,24.399144,-8.833266,0.489333,0.362914,-0.792999
37.688097,23.375069,-3.474888,0.792578,0.475052,-0.382290
27.464401,28.866960,-5.009033,-0.533021,-0.588098,0.608300
12.991167,42.010944,-4.469773,0.311301,0.870026,-0.382291
31.880254,6.889157,-10.909762,-0.126765,-0.031753,-0.991424
27.266521,4.867511,-9.072028,-0.602629,-0.089392,-0.792999
17.144026,19.925686,-1.452295,0.665827,0.734627,0.130372
-6.495754,39.327514,-9.276173,-0.089392,0.602629,-0.792999
25.311344,5.980230,-7.743583,-0.769921,-0.192855,-0.608299
26.763472,14.692594,6.991252,0.328577,0.196941,-0.923716
26.441301,3.972695,2.957313,0.914041,0.135586,-0.382290
16.417105,40.115774,-5.784978,0.267392,0.747310,-0.608300
21.852200,29.350383,-7.283721,-0.228199,-0.307690,0.923716
4.854251,40.211165,-8.789695,0.089392,0.602629,-0.792999
30.039116,3.467514,-10.365821,-0.378931,-0.056209,-0.923716
11.375715,25.600544,5.052111,0.339354,0.717503,-0.608300
34.445715,15.002858,-6.885050,-0.346298,-0.163787,0.923716
12.570575,19.465042,2.460025,-0.509715,-0.850408,0.130372
-13.155550,23.988359,6.899839,-0.876802,-0.480851,0.000000
-13.056973,31.047675,7.792915,-0.055873,0.118134,-0.991424
41.379562,1.421663,2.156798,-0.922929,-0.045341,-0.382291
7.587818,41.001787,-7.880725,0.089392,0.602629,-0.792999
17.932663,31.012677,-10.829075,0.067183,0.112089,-0.991424
-5.139223,25.317765,7.485076,0.192855,-0.769921,0.608300
-10.598055,24.870934,-3.625121,-0.395079,0.835325,0.382290
26.788542,0.038861,3.006024,0.922929,0.045341,-0.382290
-18.380972,37.285849,7.962532,-0.260476,0.550732,0.792998
36.820123,8.833325,-6.738379,-0.590966,-0.148030,0.792999
16.430786,35.542083,9.714229,0.163787,0.346298,0.923716
-9.984009,25.561353,8.876152,0.205241,-0.573610,0.792999
36.006442,20.890791,-0.732613,-0.850408,-0.509715,0.130372
19.454541,23.231126,10.388723,-0.257259,-0.283842,0.923716
19.684695,18.501843,8.553351,-0.451405,-0.409129,0.792999
-10.952612,30.879372,10.931556,0.044025,-0.123042,0.991424
19.556574,17.371832,0.535838,0.734627,0.665827,-0.130372
24.286909,19.901737,10.746858,-0.104964,-0.077847,0.991424
-0.136809,44.169746,-4.006881,-0.045341,0.922929,-0.382290
10.004367,24.185427,0.424352,0.334015,0.933508,-0.130372
-11.532522,35.300194,-10.557279,-0.129054,0.360684,-0.923716
-6.222321,34.726798,7.647006,0.019175,-0.129266,-0.991425
-15.754475,37.736796,-3.485994,0.395079,-0.835324,0.382290
6.203652,41.124199,-0.994324,-0.145479,-0.980734,0.130372
34.439446,27.608886,4.042263,0.742198,0.550452,0.382290
-2.492256,44.896200,-0.053959,-0.048649,0.990271,-0.130372
25.580273,13.301624,9.780534,-0.346298,-0.163787,0.923716
6.369941,39.707601,-4.513837,-0.116461,-0.785117,0.608299
-9.896630,42.781770,4.536022,-0.224524,0.896350,0.382290
1.402101,40.186997,4.520495,-0.038945,-0.792752,-0.608299
31.275778,9.955174,7.681137,0.123042,0.044025,-0.991424
26.253891,21.214331,-7.802846,0.104964,0.077846,0.991424
16.643055,27.589810,-10.859943,-0.067183,-0.112089,-0.991424
24.517527,9.782607,-8.068981,-0.573610,-0.205241,-0.792999
-17.165648,39.857788,-5.695276,-0.339354,0.717503,-0.608299
38.744435,5.196138,-9.742104,0.378931,0.056209,-0.923716
-12.538068,35.748048,6.723537,0.205241,-0.573610,-0.792999
37.072170,16.167694,-4.236000,-0.717504,-0.339354,0.608299
26.176366,20.382690,-7.729338,0.104964,0.077846,0.991424
30.685526,28.253224,-0.075470,-0.734627,-0.665827,0.130372
23.927525,30.532965,6.035485,-0.362914,-0.489333,-0.792999
-17.150389,33.474051,-10.361932,-0.163787,0.346298,-0.923716
-1.847833,26.838911,-3.342173,-0.045341,0.922930,0.382289
-4.371367,31.093502,-7.359964,-0.056209,0.378931,0.923716
-13.153678,36.177929,9.988054,-0.129055,0.360684,0.923716
25.383923,28.787641,-6.343463,-0.409129,-0.451405,0.792999
31.651061,18.419445,10.723914,0.112089,0.067183,0.991424
24.687039,0.000000,-0.476641,0.000000,-1.000000,0.000000
10.303653,28.730600,10.490046,-0.129055,-0.360684,0.923716
29.559396,29.535498,7.826504,0.588098,0.533021,0.608300
18.555298,35.824368,-8.920257,0.260477,0.550731,-0.792999
42.305618,5.977494,-6.537483,0.785117,0.116461,-0.608300
13.214574,42.850540,1.323092,0.334015,0.933508,0.130371
34.556556,28.238275,-2.908654,0.742198,0.550451,-0.382290
15.436817,17.512426,3.183894,-0.620549,-0.684670,0.382290
25.726804,14.648608,6.472700,0.522548,0.313204,-0.792999
16.319439,41.723446,1.438772,0.334014,0.933508,0.130372
-16.875013,34.403851,10.062181,-0.163787,0.346298,0.923716
43.415048,2.813165,5.511456,0.922930,0.045341,0.382290
3.919170,42.669354,-6.425980,0.038945,0.792752,-0.608299
34.530261,19.637880,5.164945,-0.680786,-0.408047,-0.608299
24.042808,37.642302,-2.465154,0.509715,0.850408,-0.130371
18.694377,18.334633,0.594638,0.734627,0.665827,-0.130372
-1.185676,26.438794,-2.297671,-0.045340,0.922929,0.382290
24.261503,3.676002,-5.828685,-0.785117,-0.116461,-0.608300
-8.498083,37.331349,-10.078052,-0.093081,0.371597,-0.923716
37.298141,24.641734,2.368478,0.850408,0.509715,0.130371
7.089806,44.304188,0.810328,0.145478,0.980734,0.130371
2.087209,29.617268,6.539155,0.029893,0.608490,-0.792999
36.682106,14.554689,-5.520286,-0.747311,-0.267392,0.608299
19.529599,39.450260,4.274360,0.395079,0.835324,0.382290
23.160291,12.188640,0.469637,0.896274,0.423906,-0.130371
22.577060,5.350293,2.780787,-0.961752,-0.240906,0.130372
20.107378,31.676131,-10.397655,0.196941,0.328576,-0.923716
15.381903,17.070916,-1.093258,-0.665827,-0.734628,-0.130371
-2.107328,30.661058,7.081755,-0.018797,0.382616,-0.923716
-5.320956,41.028598,-8.115887,-0.089392,0.602630,-0.792998
13.781331,22.512946,8.080524,-0.313204,-0.522548,0.792999
4.143593,37.247718,10.420142,0.056209,0.378931,0.923716
14.708202,32.272331,7.620845,-0.055873,-0.118134,-0.991424
32.472767,8.844863,11.048158,-0.126765,-0.031753,0.991424
23.992303,12.126760,8.448229,-0.550732,-0.260476,0.792999
17.641352,36.393310,-4.214619,-0.339354,-0.717504,0.608299
40.572620,9.130768,-1.101174,-0.961752,-0.240906,0.130372
17.526731,14.692292,0.139770,-0.734628,-0.665827,0.130371
30.601148,32.451130,2.861966,0.665827,0.734627,0.130372
-13.657936,28.496076,7.443443,-0.163787,0.346298,-0.923716
25.409082,16.312205,-10.348183,-0.328576,-0.196941,-0.923716
17.662116,38.086314,-7.507804,0.339353,0.717503,-0.608299
36.601646,5.844957,-7.088254,-0.378931,-0.056209,0.923716
33.259251,22.138657,4.909889,-0.680786,-0.408047,-0.608299
28.211275,0.364974,5.298509,0.792752,0.038945,-0.608299
44.012898,8.075986,-1.901143,0.980734,0.145478,-0.130371
22.699402,34.997836,0.240574,-0.509715,-0.850408,-0.130373
17.165515,23.597482,-6.151306,0.362914,0.489333,0.792998
6.174588,26.436539,-3.927649,0.192855,0.769921,0.608300
4.137980,27.899472,9.470794,-0.089392,-0.602629,0.792999
-17.093362,34.924647,9.828220,-0.163787,0.346298,0.923716
38.584787,14.510545,-2.596088,-0.870027,-0.311300,0.382290
28.352475,0.000000,8.562747,0.000000,-1.000000,0.000000
-9.919560,38.362292,9.454484,-0.148029,0.590965,0.792999
-11.606964,21.164605,2.035320,-0.876802,-0.480851,-0.000000
-6.536171,33.365376,-11.073768,-0.019175,0.129267,-0.991424
23.296866,12.687281,-8.164982,-0.522548,-0.313204,-0.792999
22.025728,23.320511,10.840188,-0.087760,-0.096828,0.991424
22.797246,14.341720,3.414000,0.792578,0.475052,-0.382290
-16.039094,29.246330,9.284107,-0.876802,-0.480851,0.000000
21.037693,16.609543,3.087588,0.742198,0.550451,-0.382290
4.632008,29.629134,6.772776,0.089391,0.602629,-0.792999
24.601567,4.793441,-6.481536,-0.785117,-0.116461,-0.608300
18.428065,29.261713,-7.738141,-0.067183,-0.112089,0.991424
26.387540,24.877887,10.771190,0.096828,0.087760,0.991424
36.306122,20.724520,7.750258,0.680786,0.408047,0.608300
25.430288,34.382997,6.484403,0.472811,0.637512,0.608300
24.901251,4.548523,-6.821440,-0.785117,-0.116461,-0.608300
29.177228,10.945914,-7.260780,0.360684,0.129055,0.923716
14.510824,42.267460,2.177138,0.334015,0.933508,0.130371
-4.711500,39.686572,-4.858493,0.116461,-0.785117,0.608299
32.245625,18.994929,10.432259,0.328576,0.196941,0.923716
-8.255666,41.604119,7.006725,-0.116462,0.785117,0.608300
38.294952,22.906695,2.649816,0.850408,0.509715,0.130371
-17.520591,31.947751,10.657597,-0.876803,-0.480850,0.000000
4.617775,34.468285,7.711745,-0.019175,-0.129267,-0.991424
35.294252,12.735584,-6.898123,-0.360684,-0.129055,0.923716
7.500740,41.161566,7.722451,0.116462,0.785117,0.608299
1.891534,25.715046,7.444799,-0.038945,-0.792751,0.608300
5.981092,22.403611,2.666866,-0.240906,-0.961752,0.130371
5.232829,29.484465,10.245711,-0.056209,-0.378931,0.923716
-12.125659,33.627169,7.583402,0.044025,-0.123042,-0.991425
0.836077,33.561262,-7.781384,0.006412,0.130523,0.991424
-3.062758,34.965151,-7.672131,0.006412,-0.130524,0.991424
18.728952,39.601946,-4.770350,0.395079,0.835325,-0.382290
27.182470,8.870543,5.692450,0.573611,0.205241,-0.792999
1.329440,32.212355,-7.606988,0.006412,0.130523,0.991425
19.631965,32.295462,-10.278712,0.196941,0.328576,-0.923716
14.050418,24.494553,5.347875,0.408047,0.680786,-0.608299
41.155699,18.117929,-0.158053,0.896274,0.423906,-0.130372
-1.169619,41.488518,1.704806,0.048649,-0.990271,-0.130371
33.030648,12.736942,10.885613,0.123042,0.044025,0.991424
1.859080,31.942523,7.574890,0.006412,0.130523,-0.991424
6.293395,27.276466,5.028406,0.192855,0.769921,-0.608300
-16.204562,32.880323,-10.719393,-0.055873,0.118134,-0.991424
39.995987,11.212207,1.508825,-0.961752,-0.240906,-0.130372
27.855421,10.165870,6.514477,0.573611,0.205241,-0.792999
-14.498644,37.214572,9.223450,-0.205241,0.573611,0.792998
4.046477,24.737367,-6.513801,-0.116461,-0.785117,-0.608300
-4.146038,28.125190,9.621971,0.056209,-0.378931,0.923716
24.667956,13.580512,-9.421257,-0.522548,-0.313203,-0.792999
-0.294022,27.533372,-8.940672,0.029893,-0.608490,-0.792999
37.510364,4.878581,-10.267674,0.378931,0.056209,-0.923716
24.938953,8.963780,-8.161891,-0.573611,-0.205241,-0.792999
27.351370,19.480101,7.782867,0.104964,0.077846,-0.991424
22.640288,32.015365,5.709847,-0.362914,-0.489333,-0.792999
24.146040,18.629261,-6.983962,0.307690,0.228199,0.923716
-10.126590,31.163383,10.930124,0.044025,-0.123042,0.991424
-7.808706,21.557273,0.707130,0.334015,-0.933508,0.130371
25.326228,3.762864,7.219530,-0.785117,-0.116461,0.608300
22.190408,6.146731,-1.400142,-0.961752,-0.240906,-0.130371
33.767069,22.772350,-3.877881,-0.742198,-0.550452,0.382290
35.306138,20.670411,-3.340404,-0.792578,-0.475053,0.382290
38.451240,13.648558,3.601938,-0.870026,-0.311301,-0.382290
-4.897268,35.728868,10.797303,-0.019175,0.129267,0.991424
23.730287,6.457650,-5.893809,-0.769921,-0.192855,-0.608300
13.177288,37.428662,5.208592,-0.267392,-0.747311,-0.608299
24.282957,16.604485,10.022753,-0.307690,-0.228199,0.923716
34.466681,20.081581,4.938467,-0.680786,-0.408047,-0.608299
33.522357,29.714474,1.354109,0.734627,0.665828,0.130372
-7.602890,22.235731,-3.557759,0.311301,-0.870027,-0.382290
-0.568591,44.633993,2.763461,-0.048650,0.990271,0.130372
18.015205,24.076121,-10.302366,-0.228199,-0.307690,-0.923716
43.099340,4.123014,5.852559,0.792752,0.038945,0.608299
39.557212,9.306060,8.678517,0.590966,0.148029,0.792998
37.890780,24.096721,0.633553,0.850408,0.509715,0.130372
13.518882,23.719240,-8.771757,-0.313204,-0.522548,-0.792999
-1.602083,31.361478,10.752056,0.006412,-0.130524,0.991424
13.235856,19.339299,-3.366331,-0.550451,-0.742198,-0.382290
12.222989,22.890933,7.630439,-0.339353,-0.717503,0.608300
12.770005,22.995002,-7.998741,-0.313204,-0.522548,-0.792999
2.167947,38.418824,6.265188,-0.029893,-0.608489,-0.792999
35.610914,24.444250,-5.963933,0.637512,0.472811,-0.608300
25.176126,0.000000,5.011238,0.000000,-1.000000,0.000000
-2.563444,26.721388,3.143321,-0.045340,0.922930,-0.382289
41.964212,12.958024,-4.603116,0.870026,0.311300,-0.382291
-7.142421,38.756102,9.618884,-0.056209,0.378931,0.923716
33.235417,29.302459,-3.569638,0.684670,0.620549,-0.382290
2.782846,26.477523,2.621919,0.135586,0.914041,-0.382289
14.734689,32.258115,-7.621046,-0.055873,-0.118134,0.991424
-11.002273,42.422195,-4.729753,-0.224524,0.896350,-0.382290
17.782815,35.993639,-4.607121,-0.339354,-0.717503,0.608299
35.211732,18.992257,-9.190817,0.522548,0.313203,-0.792999
0.316809,24.989084,-6.397888,-0.038945,-0.792751,-0.608300
15.349766,24.067161,9.665650,-0.196941,-0.328576,0.923716
2.470524,33.614165,-11.054244,-0.006412,-0.130524,-0.991424
25.119641,6.552864,7.682494,-0.769921,-0.192855,0.608300
5.059112,22.561854,2.130553,-0.240906,-0.961752,0.130372
32.347576,27.959547,-6.511841,0.588099,0.533021,-0.608300
28.781514,4.740971,9.927414,-0.378931,-0.056209,0.923716
35.353207,3.385634,10.874279,0.130524,0.006412,0.991424
-8.200846,38.153892,-5.862480,0.148030,-0.590966,0.792999
26.399980,0.192643,-2.086191,0.922929,0.045340,0.382290
12.481001,24.629135,-9.006861,-0.260476,-0.550732,-0.792999
26.054957,7.686538,-3.924030,0.769921,0.192855,0.608300
-9.616957,38.986916,4.588515,0.192855,-0.769921,-0.608299
6.436311,25.342830,-7.890163,-0.148029,-0.590966,-0.792999
-7.615185,39.983542,3.919280,0.116461,-0.785117,-0.608299
34.634489,12.637963,7.169380,-0.360684,-0.129055,-0.923716
1.157507,25.473021,-7.082391,-0.038945,-0.792751,-0.608300
11.439519,25.218076,4.636575,0.339354,0.717503,-0.608300
-0.926039,26.148953,-0.583137,-0.048649,0.990271,0.130371
16.460671,29.898775,11.054760,0.067183,0.112089,0.991424
33.949239,19.126634,5.901524,-0.522548,-0.313203,-0.792999
-10.647112,32.199440,-7.826248,0.044025,-0.123042,0.991425
-11.673978,41.302058,-6.307802,-0.192855,0.769922,-0.608299
19.987201,26.517608,10.989737,-0.077847,-0.104964,0.991424
1.151967,41.515184,-7.995708,0.029893,0.608490,-0.792999
41.662110,0.040291,0.807639,-0.990271,-0.048648,-0.130370
38.712508,2.179254,-6.039409,-0.608489,-0.029893,0.792999
-17.100509,33.470046,6.878884,0.163787,-0.346298,-0.923716
25.798640,27.909568,6.629332,-0.409129,-0.451405,-0.792999
32.579268,8.835177,11.061466,-0.126765,-0.031753,0.991424
32.625404,25.386973,-8.144541,0.489333,0.362914,-0.792999
30.936555,1.684296,-10.680654,-0.382616,-0.018797,-0.923716
38.277819,11.821459,9.147256,0.573610,0.205241,0.792999
8.914923,26.039116,-4.417925,0.267392,0.747310,0.608300
17.441695,17.158304,5.708601,-0.588098,-0.533022,0.608300
33.224010,24.106107,3.011756,-0.742198,-0.550451,-0.382290
12.736322,42.021610,4.650571,0.224524,0.896350,0.382291
-1.105763,25.392191,-6.973739,0.038945,-0.792751,-0.608300
-7.648595,29.194379,6.853824,-0.093080,0.371597,-0.923716
35.725654,20.790629,-8.141882,0.522548,0.313203,-0.792999
37.408982,0.000000,-8.543135,0.000000,-1.000000,0.000000
34.487066,19.925323,5.020470,-0.680786,-0.408047,-0.608299
-16.167009,31.969390,7.574729,0.055873,-0.118134,-0.991424
-3.766341,24.996770,-6.794973,0.116461,-0.785117,-0.608300
24.310265,13.808437,-4.979306,0.680786,0.408047,0.608300
28.116179,11.981017,-10.497075,-0.346298,-0.163787,-0.923716
-11.115242,25.244236,4.486527,-0.339354,0.717503,-0.608300
-15.223609,41.918912,-2.846702,-0.334015,0.933508,-0.130371
-3.149193,26.239233,8.097653,0.089392,-0.602629,0.792999
32.461352,1.796679,10.898115,-0.130524,-0.006412,0.991424
13.136001,19.025041,2.063599,-0.590615,-0.796352,0.130372
-18.583036,37.059498,-2.042741,0.395079,-0.835325,0.382290
3.359135,25.906060,0.245933,0.145478,0.980734,-0.130372
24.528842,2.446129,-5.938269,-0.785117,-0.116461,-0.608300
24.014635,10.574792,7.953963,-0.550732,-0.260476,0.792999
37.200411,18.255911,-2.072909,-0.835325,-0.395079,0.382290
28.534124,26.419263,5.953615,-0.451405,-0.409129,-0.792999
20.733799,39.652745,1.984932,0.423906,0.896274,0.130372
24.755117,32.024621,4.179114,-0.472811,-0.637512,-0.608300
6.966645,31.809951,-7.647931,0.031753,0.126764,0.991424
-11.499041,23.285933,-7.692480,0.339353,-0.717503,-0.608300
33.470646,6.786224,11.053576,0.126764,0.031753,0.991424
34.318059,6.785047,7.689415,-0.129266,-0.019175,-0.991425
23.680873,8.303683,6.553791,-0.747311,-0.267392,0.608299
-6.140075,39.591232,-9.115858,-0.089392,0.602629,-0.792999
-3.872212,44.711019,0.945611,-0.048650,0.990271,0.130372
7.007341,39.802720,-4.269036,-0.116461,-0.785117,0.608299
8.130532,36.528479,10.438072,0.093081,0.371597,0.923716
27.472490,25.084848,10.524165,0.283842,0.257259,0.923716
8.778057,43.886235,2.035019,0.240906,0.961752,0.130371
13.983581,26.651568,-6.809684,0.163787,0.346298,0.923716
22.614188,17.510890,5.702608,0.489333,0.362914,-0.792999
28.377120,8.935023,-10.160808,-0.360684,-0.129055,-0.923716
25.142347,8.194667,-2.220811,0.870027,0.311300,0.382290
40.896310,7.422040,-1.349066,-0.980734,-0.145478,0.130372
13.936587,23.660991,4.338627,0.408047,0.680786,-0.608300
7.008019,42.903287,-5.568789,0.116461,0.785117,-0.608299
16.740864,30.585588,-7.702798,-0.067183,-0.112089,0.991424
-17.348485,31.633924,-7.674854,-0.876802,-0.480851,-0.000000
2.135946,34.785921,7.701722,-0.006412,-0.130524,-0.991424
37.539976,17.450087,-2.163720,-0.835325,-0.395079,0.382290
13.498762,33.221840,10.828056,0.044025,0.123042,0.991424
29.494055,30.926088,-6.541514,0.533021,0.588098,-0.608300
27.117942,13.787931,-6.949835,0.346298,0.163787,0.923716
-1.649257,44.827242,-0.892321,-0.048649,0.990271,-0.130372
-13.458084,37.449392,-9.322908,-0.205241,0.573610,-0.792999
8.664911,29.663051,10.638168,-0.093080,-0.371597,0.923716
34.781773,20.275887,4.455486,-0.680786,-0.408047,-0.608299
26.513712,19.350384,10.939321,-0.104964,-0.077847,0.991424
30.156422,17.099495,-10.982341,0.112089,0.067183,-0.991424
6.311618,35.123869,10.848831,0.019175,0.129266,0.991424
40.768308,18.249253,-2.394260,0.896274,0.423906,-0.130372
12.788646,42.614925,3.228704,0.224524,0.896350,0.382291
18.283133,15.972391,5.433575,-0.684670,-0.620549,0.382290
34.184896,9.241135,-7.628302,-0.126764,-0.031753,0.991425
-5.155426,38.622700,5.894734,0.089391,-0.602629,-0.792999
-11.891817,21.684019,5.767275,-0.876802,-0.480851,0.000000
30.548733,0.000000,-8.944324,0.000000,-1.000000,0.000000
34.149244,16.147397,-10.286648,0.346298,0.163787,-0.923716
-10.239355,27.767989,-10.105192,0.129055,-0.360684,-0.923716
26.045499,32.321813,1.853273,-0.590615,-0.796352,-0.130373
16.713204,22.045104,9.054530,-0.362914,-0.489333,0.792999
-19.552765,36.329794,-2.606965,0.475053,-0.792578,0.382290
23.644812,5.273864,5.299040,-0.896350,-0.224524,0.382290
-15.641024,28.520472,-8.939554,-0.876802,-0.480851,0.000000
-10.984065,43.264037,2.548626,-0.240906,0.961752,0.130371
22.861727,6.341493,4.089985,-0.896350,-0.224524,0.382290
30.812790,32.568054,-1.122218,0.665827,0.734627,-0.130371
20.844729,17.642254,-4.120975,0.588098,0.533022,0.608299
7.574967,44.006553,2.507946,0.145478,0.980734,0.130372
29.222508,8.106998,10.404725,-0.371597,-0.093080,0.923716
9.804109,38.189264,9.601322,0.093080,0.371597,0.923716
12.289591,41.487206,-5.878287,0.192855,0.769922,-0.608299
18.027357,29.747804,7.710338,-0.067183,-0.112089,-0.991424
-17.841811,39.868644,5.104418,-0.395079,0.835325,0.382290
29.171116,31.660288,6.114670,0.533021,0.588099,0.608300
2.679607,26.180476,1.551985,0.145478,0.980734,-0.130372
29.785807,4.812124,6.850336,0.378931,0.056209,-0.923716
-13.665074,26.134265,-6.372952,-0.260476,0.550731,0.792999
6.827625,44.095008,-2.676466,0.145478,0.980734,-0.130371
18.514548,15.813302,-5.567269,-0.588098,-0.533022,-0.608299
30.591686,4.349237,-10.646153,-0.378931,-0.056209,-0.923716
27.449452,1.701313,8.929327,-0.608490,-0.029893,0.792999
38.268195,16.518208,-0.483840,-0.896274,-0.423906,0.130373
-10.157211,33.805276,10.902825,-0.031753,0.126765,0.991424
3.065097,34.442103,-7.740977,-0.006412,-0.130524,0.991424
31.707011,4.454405,10.833135,-0.129267,-0.019175,0.991424
3.974530,35.601434,-7.576440,-0.019175,-0.129267,0.991424
19.086304,32.097354,-6.972126,-0.196941,-0.328577,0.923716
-12.560416,42.849366,-2.694802,-0.240906,0.961752,-0.130371
36.757963,23.707546,-4.990127,0.792578,0.475052,-0.382290
-14.940356,31.639502,7.683167,0.055873,-0.118134,-0.991424
8.014155,28.002111,-6.098330,0.148029,0.590966,0.792998
10.505957,31.063921,-7.679302,0.044025,0.123042,0.991424
14.277873,27.534904,-10.686419,-0.163787,-0.346298,-0.923716
33.691352,4.439682,-11.071814,0.129267,0.019175,-0.991424
35.821569,26.446610,3.032472,0.742198,0.550451,0.382290
9.290124,43.237835,3.822905,0.224524,0.896350,0.382290
44.512094,3.239767,2.692596,0.990271,0.048650,0.130372
-14.859253,39.059775,-7.767088,-0.267393,0.747311,-0.608299
-5.051981,29.197940,10.117167,0.056209,-0.378931,0.923716
21.065025,18.627930,-9.404138,-0.451405,-0.409129,-0.792999
4.603327,33.912585,-7.784479,-0.019175,-0.129266,0.991425
6.094945,32.336713,7.691643,0.019175,0.129266,-0.991424
31.803161,3.628044,7.574365,0.129266,0.019175,-0.991424
15.433815,21.408881,-8.076429,-0.362914,-0.489333,-0.792999
-10.102914,34.533038,-10.811512,-0.031753,0.126765,-0.991424
41.920583,0.000000,5.521660,0.000000,-1.000000,0.000000
-4.622728,29.314144,10.138716,0.056209,-0.378931,0.923716
19.549385,38.670380,-5.766029,0.339354,0.717503,-0.608300
27.106187,28.990000,9.407853,0.409129,0.451405,0.792999
11.017435,20.564058,-3.086943,-0.475053,-0.792578,-0.382290
-8.863431,24.634781,-0.718786,-0.334015,0.933508,0.130371
-11.273494,35.062753,-7.192789,0.129055,-0.360684,0.923716
-10.924681,33.991996,10.846779,-0.044025,0.123042,0.991424
42.924448,13.315018,-0.536547,0.933508,0.334015,-0.130371
33.017625,16.145420,-10.706366,0.118134,0.055873,-0.991424
7.045312,40.048464,-3.944591,-0.116461,-0.785117,0.608299
-8.532734,22.306257,4.475440,0.311301,-0.870027,0.382290
-11.721515,22.981849,7.457919,0.339353,-0.717503,0.608299
-20.180624,39.793107,-2.818634,-0.423906,0.896274,-0.130372
18.087450,25.965178,10.782082,-0.077847,-0.104964,0.991424
17.185382,29.571256,-7.787354,-0.067183,-0.112089,0.991424
22.303384,6.919900,-3.155563,-0.870027,-0.311301,-0.382290
-1.256981,35.404256,-7.626002,0.006412,-0.130524,0.991424
20.687404,39.555355,-2.805318,0.423906,0.896274,-0.130372
10.844222,39.891789,-2.321793,-0.224524,-0.896350,0.382290
9.000241,27.842585,6.203508,0.205241,0.573611,-0.792999
-5.153461,22.330433,-0.597700,0.240906,-0.961752,-0.130372
-14.460225,26.454887,-10.325336,0.196941,-0.328577,-0.923716
7.701808,25.188288,-8.015627,-0.205241,-0.573611,-0.792999
42.939332,5.102613,-5.887064,0.785117,0.116461,-0.608300
39.639946,0.000000,6.155969,0.000000,-1.000000,0.000000
31.971436,18.685070,-10.595855,0.328576,0.196941,-0.923716
24.774769,37.329362,-1.644697,0.509715,0.850408,-0.130371
27.784557,34.372590,3.919112,0.550451,0.742198,0.382290
9.827105,39.553318,3.712767,-0.224524,-0.896350,-0.382290
33.447804,3.549152,7.787275,0.129266,0.019175,-0.991425
10.709587,26.389938,5.595152,0.205241,0.573611,-0.792999
12.667181,38.863533,3.462770,-0.311301,-0.870027,-0.382290
28.017136,19.128064,-7.825711,0.104964,0.077846,0.991424
26.110801,30.513635,4.603131,-0.533021,-0.588098,-0.608300
43.419194,10.081909,-2.932650,0.896350,0.224524,-0.382291
18.520257,17.271194,-6.850265,-0.588098,-0.533021,-0.608300
-7.663978,43.933760,2.896142,-0.135585,0.914041,0.382290
-7.963842,25.396019,2.610165,-0.311301,0.870026,-0.382290
-12.760997,37.741237,5.007576,0.267392,-0.747311,-0.608299
24.716404,18.124263,7.049194,0.307691,0.228199,-0.923716
40.012493,5.609559,-4.265897,-0.785117,-0.116461,0.608299
-9.915518,43.741624,-0.999962,-0.240906,0.961752,-0.130371
13.891577,18.515610,-2.374769,-0.590615,-0.796353,-0.130372
22.727104,6.367019,-3.789328,-0.896350,-0.224524,-0.382290
44.570763,1.875866,2.755919,0.990271,0.048650,0.130372
-11.881469,35.995708,-6.714332,0.205241,-0.573610,0.792999
20.858944,15.930752,-1.199931,0.796352,0.590615,0.130372
-0.698988,43.117647,-6.047921,-0.038945,0.792751,-0.608300
24.004913,21.489309,-10.859547,-0.096828,-0.087760,-0.991424
30.585813,27.214873,3.269860,-0.684670,-0.620549,-0.382290
10.582805,23.093168,6.953967,-0.339353,-0.717503,0.608300
36.022904,26.599648,1.462025,0.796353,0.590615,0.130371
19.334261,32.369140,-10.315976,0.196941,0.328576,-0.923716
16.750017,37.331209,-8.466749,0.260476,0.550732,-0.792998
28.316646,31.863627,6.666811,0.533021,0.588099,0.608300
28.461693,34.790846,0.552320,0.590615,0.796353,0.130372
-1.254040,24.106787,-5.109613,0.045340,-0.922929,-0.382290
21.113689,15.527493,0.929131,0.796352,0.590615,-0.130372
29.682582,26.233764,9.463716,0.451405,0.409129,0.792999
-16.064600,29.292838,10.584053,-0.876802,-0.480851,0.000000
-0.338033,41.541944,-1.609297,0.048649,-0.990271,0.130370
36.618497,19.779708,-1.084219,-0.850408,-0.509715,0.130372
26.659188,6.581829,-8.898315,-0.590966,-0.148029,-0.792999
29.408684,19.998887,-10.866653,0.104964,0.077847,-0.991424
9.103321,42.243658,5.931024,0.192855,0.769921,0.608300
30.381970,0.000000,-8.927983,0.000000,-1.000000,0.000000
21.109442,11.684101,-5.046088,-0.792577,-0.475053,-0.382290
35.175489,27.239120,-3.145686,0.742198,0.550451,-0.382290
-7.250048,35.464812,10.783745,-0.031753,0.126764,0.991424
27.591238,13.605948,-10.588397,-0.346298,-0.163787,-0.923716
-9.294361,43.271651,-3.741129,-0.224524,0.896350,-0.382290
-4.538488,41.566290,-7.767220,-0.116462,0.785117,-0.608299
22.311483,29.229996,-10.703752,0.228199,0.307690,-0.923716
39.861085,5.487995,8.984294,0.602630,0.089392,0.792998
9.495625,30.852904,10.863573,-0.044025,-0.123042,0.991424
31.326315,0.000000,10.114169,0.000000,-1.000000,0.000000
31.250119,25.885475,8.751107,0.451405,0.409129,0.792999
33.950041,12.520831,7.453002,-0.360684,-0.129055,-0.923716
22.518314,6.505790,-3.381284,-0.896350,-0.224524,-0.382290
31.876324,12.833388,-11.024589,0.123042,0.044025,-0.991424
27.569645,17.930385,-10.944898,-0.112089,-0.067183,-0.991424
-19.569890,36.833945,-0.421346,0.423906,-0.896274,0.130371
-14.607144,42.140575,2.838912,-0.334015,0.933508,0.130372
-0.032802,39.558016,-9.539685,-0.029893,0.608490,-0.792999
2.971233,22.918503,-2.065514,-0.145478,-0.980734,-0.130372
26.057411,26.077283,7.188631,-0.257259,-0.283842,-0.923716
1.663640,39.633152,-5.225535,-0.038945,-0.792752,0.608299
23.545994,23.696292,11.011461,-0.087760,-0.096828,0.991424
5.604735,28.985114,-6.393012,0.089392,0.602629,0.792999
33.631416,17.441471,-6.740961,-0.550731,-0.260476,0.792999
9.661203,28.961625,-10.490496,-0.129055,-0.360684,-0.923716
18.323725,13.998064,-1.685082,-0.796353,-0.590615,-0.130372
-7.721281,24.958592,7.854518,0.205241,-0.573610,0.792999
4.387112,28.436851,9.764492,-0.056209,-0.378931,0.923716
17.218912,37.192228,8.409252,0.260476,0.550731,0.792999
-11.900962,37.170181,9.775628,-0.129055,0.360684,0.923716
-11.434383,43.330590,-1.225536,-0.240906,0.961752,-0.130371
25.488603,17.237579,10.580756,-0.307690,-0.228199,0.923716
-7.801230,34.882949,-7.585165,0.031753,-0.126764,0.991425
0.451920,38.930108,9.817633,0.018796,0.382616,0.923716
15.904341,22.809951,-4.776754,0.472811,0.637512,0.608299
28.510150,5.278868,-5.995336,0.602629,0.089391,0.792999
20.750435,36.067471,-0.883284,-0.509715,-0.850408,0.130372
37.319774,3.262886,-10.427456,0.382616,0.018796,-0.923716
-1.443205,23.926566,4.696956,0.045340,-0.922929,0.382290
32.832320,11.397328,10.969714,0.123042,0.044025,0.991424
1.395741,38.952196,-9.789278,0.018796,0.382616,-0.923716
25.968180,0.787111,7.703982,-0.792751,-0.038945,0.608300
31.411769,31.220191,3.722796,0.684670,0.620549,0.382290
6.498511,41.019565,-1.452421,-0.145479,-0.980734,0.130372
11.072564,20.656106,3.346285,-0.475053,-0.792577,0.382290
-13.865913,35.092260,-6.819074,0.129055,-0.360684,0.923716
22.372698,22.066127,-10.751195,-0.096828,-0.087760,-0.991424
25.354061,12.052170,-5.138754,0.717503,0.339354,0.608300
22.935421,13.407858,-8.211407,-0.522548,-0.313204,-0.792999
25.784873,8.281170,-3.753532,0.870027,0.311301,0.382290
-0.706460,29.176891,6.149193,-0.029893,0.608489,-0.792999
1.905156,33.540542,-11.040895,-0.006412,-0.130524,-0.991424
-10.895731,25.011550,-4.089610,-0.339354,0.717503,0.608300
4.241242,31.286672,10.774206,-0.019175,-0.129267,0.991424
36.857684,24.817880,-3.366079,0.742198,0.550452,-0.382290
18.249640,31.975090,-10.687391,0.196941,0.328576,-0.923716
4.719070,31.639094,7.574074,0.019175,0.129266,-0.991425
36.802227,5.214805,-10.537709,0.378931,0.056209,-0.923716
16.424736,40.709327,4.636060,0.311301,0.870027,0.382290
14.049495,22.906516,-3.277410,0.475052,0.792578,0.382290
-2.406072,40.689284,-3.706519,0.045341,-0.922929,0.382291
-5.490003,41.219021,1.077360,0.145478,-0.980734,-0.130371
34.861049,15.896678,6.394409,-0.550731,-0.260476,-0.792999
38.353676,23.420136,-0.259358,0.850408,0.509715,-0.130371
13.394705,38.859061,2.880520,-0.311301,-0.870027,-0.382290
-13.400523,39.357843,1.129021,0.334014,-0.933508,-0.130372
13.882666,34.002702,7.242174,-0.129055,-0.360684,-0.923716
26.418244,26.636540,-6.916288,-0.257259,-0.283842,0.923716
22.444462,27.484255,-10.878370,0.077847,0.104964,-0.991424
-12.182117,39.588918,-2.206908,0.311301,-0.870027,0.382290
-13.303796,32.341276,-10.945997,-0.044025,0.123042,-0.991424
43.004633,5.669069,-5.694331,0.785117,0.116461,-0.608300
33.774090,14.743814,-10.676165,0.346298,0.163787,-0.923716
