x,y,z,nx,ny,nz
-9.863968,-0.793537,23.929182,-0.956940,0.290286,0.000000
1.263632,-6.227275,6.461909,0.195090,-0.980785,0.000000
-1.085944,6.756112,-22.128330,0.000000,-0.000000,1.000000
-3.669904,6.917978,-22.128330,0.000000,0.000000,1.000000
0.857830,-14.274012,24.308593,-0.290286,0.956940,0.000000
5.694326,2.819554,14.674890,0.896873,0.442289,-0.000000
-6.001925,2.086671,0.510856,-0.946930,0.321440,0.000000
-1.812395,-2.450935,23.740647,0.634393,0.773011,0.000000
10.326317,-6.653033,28.305119,0.000000,0.000000,1.000000
3.240733,-16.423448,27.121544,0.195090,-0.980785,0.000000
13.650887,-5.869109,-28.305119,0.000000,-0.000000,-1.000000
-0.163145,3.043032,12.613599,0.098017,-0.995185,0.000000
-9.767972,11.143742,-28.305119,0.000000,0.000000,-1.000000
-11.121864,8.353380,28.305119,0.000000,0.000000,1.000000
0.522521,-6.338271,28.305119,0.000000,0.000000,1.000000
-6.193706,-1.432397,5.401968,-0.980785,-0.195090,0.000000
1.626691,10.366741,-28.305119,0.000000,0.000000,-1.000000
6.081614,3.909959,22.128330,0.000000,-0.000000,-1.000000
1.312577,6.217540,-3.595623,0.195090,0.980785,0.000000
-3.027797,-0.317824,12.674788,0.995185,0.098017,0.000000
0.828036,-2.930176,-4.394627,-0.290285,0.956940,0.000000
-9.894294,0.893509,-26.189939,-0.956940,-0.290286,0.000000
1.855324,13.521968,24.363738,-0.773011,-0.634393,0.000000
0.363214,-16.752223,27.093517,0.065403,-0.997859,0.000000
7.903561,14.157637,28.305119,-0.000000,-0.000000,1.000000
-6.182804,2.628417,-28.305119,0.000000,0.000000,-1.000000
7.614029,-10.709867,22.711643,0.471396,0.881922,0.000000
9.503930,-0.586431,22.128330,0.000000,0.000000,-1.000000
3.433609,-7.258421,28.305119,0.000000,-0.000000,1.000000
4.757888,4.211709,-8.352226,0.751840,0.659346,0.000000
7.844566,3.452427,-28.305119,0.000000,-0.000000,-1.000000
-6.316717,-0.779023,-14.198613,-0.997859,-0.065403,0.000000
5.524329,-3.164274,-14.513208,0.896873,-0.442289,0.000000
-9.102107,-13.943424,22.128330,0.000000,-0.000000,-1.000000
-5.119726,3.774942,17.005030,-0.831470,0.555570,0.000000
0.818146,-6.314152,-5.923631,0.065403,-0.997859,0.000000
-2.724234,15.897375,-28.305119,0.000000,0.000000,-1.000000
2.650985,-1.498546,10.738246,-0.881921,0.471397,0.000000
-1.986058,-9.032725,-28.305119,0.000000,0.000000,-1.000000
-12.773469,9.265797,22.128330,0.000000,0.000000,-1.000000
-2.338635,1.949233,7.012904,0.773011,-0.634393,0.000000
-0.409073,-14.399579,-23.632702,0.098017,0.995185,-0.000000
12.453597,11.188365,27.910687,0.751840,0.659346,-0.000000
6.083406,8.345490,28.305119,0.000000,0.000000,1.000000
-4.431505,-12.765689,-28.305119,0.000000,0.000000,-1.000000
-2.360635,-16.041723,28.305119,-0.000000,-0.000000,1.000000
-10.587740,-3.653888,-28.305119,0.000000,0.000000,-1.000000
-6.052283,-1.938323,-19.354283,-0.946930,-0.321440,-0.000000
4.954984,6.691003,28.305119,-0.000000,0.000000,1.000000
2.267692,-5.940477,-9.731274,0.321440,-0.946930,0.000000
-2.310555,5.925927,15.878653,-0.321440,0.946930,0.000000
-12.104685,-6.889286,28.305119,-0.000000,0.000000,1.000000
3.287559,15.600210,-28.305119,0.000000,0.000000,-1.000000
1.245132,16.588366,28.305119,0.000000,-0.000000,1.000000
1.902630,-6.064399,12.431960,0.321440,-0.946930,0.000000
16.513787,2.786570,28.103378,0.980785,0.195090,-0.000000
-1.332292,6.213618,1.497762,-0.195090,0.980785,0.000000
-10.872227,5.466883,22.128330,0.000000,0.000000,-1.000000
6.221282,-8.961807,26.967810,0.995185,0.098017,0.000000
-10.124681,11.539704,-28.305119,0.000000,0.000000,-1.000000
-9.495558,-10.695079,24.053540,0.471397,0.881921,0.000000
2.011727,6.027365,20.564386,0.321440,0.946930,-0.000000
-14.041874,-9.116254,-22.154035,-0.831470,-0.555570,0.000000
-3.361085,-13.416071,-28.305119,0.000000,0.000000,-1.000000
-7.689863,10.738273,-27.553335,-0.290286,-0.956940,0.000000
-11.168465,2.177809,-28.145062,-0.471397,-0.881921,-0.000000
11.901109,-2.880552,-22.128330,-0.000000,-0.000000,1.000000
-2.360259,-5.909055,-8.662243,-0.321440,-0.946930,0.000000
-0.633637,14.342020,-24.082180,0.290286,-0.956940,0.000000
2.588553,-1.615348,11.869294,-0.881921,0.471397,0.000000
0.545618,-14.368721,-25.451736,-0.290286,0.956940,0.000000
10.186247,3.603072,-28.305119,0.000000,-0.000000,-1.000000
3.603906,-5.234009,-11.814185,0.555570,-0.831470,0.000000
4.994924,15.982748,24.843253,0.321440,0.946930,-0.000000
-6.340798,0.411616,15.694441,-0.997859,0.065403,-0.000000
6.796628,6.962490,-24.177679,0.773011,0.634393,0.000000
-9.755712,0.386816,22.637467,-0.995185,-0.098017,0.000000
11.654219,-8.098495,22.128330,0.000000,0.000000,-1.000000
10.966730,-2.069980,-23.017948,0.471397,0.881921,0.000000
1.824305,-13.559765,-26.168446,-0.773011,0.634393,0.000000
-3.136476,-9.790607,-28.305119,0.000000,0.000000,-1.000000
-8.877791,-1.056956,-28.305119,0.000000,-0.000000,-1.000000
-6.580081,-9.855567,24.346732,-0.773011,0.634393,0.000000
-13.069199,-10.486405,22.952349,-0.751840,-0.659346,0.000000
5.277281,-12.535482,28.305119,0.000000,-0.000000,1.000000
-9.527187,12.223896,-28.305119,0.000000,0.000000,-1.000000
-3.150614,5.531065,5.936896,-0.442289,0.896873,0.000000
2.085769,2.226583,23.924573,-0.634393,-0.773011,0.000000
-6.239354,-1.202908,13.681835,-0.980785,-0.195090,0.000000
1.583291,-6.163691,7.966751,0.195090,-0.980785,0.000000
-6.215802,1.321314,-4.601851,-0.980785,0.195090,0.000000
-5.948653,-2.243608,-15.673886,-0.946930,-0.321440,-0.000000
-2.406569,1.866455,8.197509,0.773011,-0.634393,0.000000
-14.972345,2.762249,-28.305119,0.000000,0.000000,-1.000000
-1.450766,16.680942,25.826224,-0.065403,0.997859,0.000000
16.727130,-0.746062,-25.317441,0.997859,-0.065403,0.000000
-1.638222,-2.576326,26.706649,0.471397,0.881921,0.000000
6.293347,-15.541993,-22.627847,0.321440,-0.946930,0.000000
-5.775359,2.655235,-16.565860,-0.896873,0.442289,0.000000
-1.835652,-2.431849,-9.726281,0.634393,0.773011,0.000000
-2.914562,-0.879507,-12.773912,0.956940,0.290285,-0.000000
15.212859,7.000207,-25.896730,0.896873,0.442289,0.000000
-1.145460,-10.026640,24.276805,0.471396,-0.881922,0.000000
-2.712994,-5.786030,-22.128330,0.000000,-0.000000,1.000000
-1.337906,-16.262957,-28.305119,0.000000,0.000000,-1.000000
4.283600,-13.917160,22.128330,0.000000,0.000000,-1.000000
5.724658,5.779762,22.128330,0.000000,0.000000,-1.000000
-6.469852,9.650862,-26.951513,-0.881921,-0.471398,0.000000
1.186207,-6.242676,-8.190758,0.195090,-0.980785,0.000000
2.786061,1.245837,-13.373200,-0.881921,-0.471397,0.000000
-6.849320,-15.287269,-28.148978,-0.442289,-0.896873,-0.000000
-5.459479,3.266466,12.429858,-0.831470,0.555570,0.000000
3.193912,-14.970661,-22.128330,-0.000000,0.000000,1.000000
9.732918,2.914141,22.128330,0.000000,0.000000,-1.000000
-7.315881,-6.531416,26.256869,-0.471397,-0.881921,0.000000
-8.727997,-14.301300,24.977525,-0.555570,-0.831470,0.000000
5.185045,12.928767,-28.305119,0.000000,0.000000,-1.000000
9.799528,-4.248746,28.305119,-0.000000,0.000000,1.000000
4.986196,7.945075,-28.305119,0.000000,0.000000,-1.000000
3.591608,-4.819200,-28.305119,0.000000,0.000000,-1.000000
-3.192780,9.970173,22.128330,0.000000,0.000000,-1.000000
2.733043,1.345025,14.610510,-0.881921,-0.471397,0.000000
2.245045,-2.063272,-4.534535,-0.773011,0.634393,0.000000
-13.986363,8.394624,-28.305119,0.000000,0.000000,-1.000000
14.462840,-8.486234,-25.489456,0.831470,-0.555570,0.000000
3.762101,-2.106344,28.305119,-0.000000,-0.000000,1.000000
3.484874,-8.697632,28.305119,0.000000,0.000000,1.000000
3.189487,-0.556714,-28.305119,0.000000,0.000000,-1.000000
8.033738,-10.842586,23.699686,0.290286,0.956940,0.000000
-6.341914,0.394585,-3.246216,-0.997859,0.065403,0.000000
9.945391,10.428122,-22.864973,-0.634393,-0.773011,-0.000000
-0.801515,6.315242,10.876244,-0.065403,0.997859,0.000000
7.243461,12.515826,22.128330,0.000000,0.000000,-1.000000
8.038822,14.700671,-26.519219,0.442289,0.896873,0.000000
1.905881,-6.063295,-4.031800,0.321440,-0.946930,0.000000
14.927706,-7.578441,27.464435,0.896873,-0.442289,0.000000
-0.803389,-16.723373,22.934847,-0.065403,-0.997859,0.000000
5.361617,13.922197,-22.128330,0.000000,-0.000000,1.000000
-9.933050,-13.496108,-24.597918,-0.555570,-0.831470,0.000000
11.238063,-2.200473,-27.143543,0.290285,0.956940,-0.000000
-6.273597,1.030760,-15.499090,-0.980785,0.195090,0.000000
-14.004008,-5.360501,-22.128330,0.000000,-0.000000,1.000000
8.674213,-6.192957,22.309351,-0.098017,-0.995185,0.000000
-5.375228,3.392557,16.091317,-0.831470,0.555570,0.000000
6.579505,-13.522356,-22.128330,0.000000,-0.000000,1.000000
6.246185,11.062534,-22.128330,-0.000000,0.000000,1.000000
-16.711167,-0.919272,-28.305119,0.000000,0.000000,-1.000000
9.755763,0.387329,-26.156561,0.995185,-0.098017,0.000000
9.888300,-0.873747,25.512867,0.956940,0.290286,0.000000
-13.554062,-7.921458,-22.128330,0.000000,-0.000000,1.000000
2.481191,2.601340,-28.305119,-0.000000,-0.000000,-1.000000
13.562971,-9.832983,24.357197,0.831470,-0.555570,0.000000
-0.003447,-3.058761,15.240882,0.098017,0.995185,0.000000
7.398163,14.980389,-22.128330,0.000000,-0.000000,1.000000
9.878553,6.427158,28.305119,-0.000000,-0.000000,1.000000
-6.677431,-10.154804,-28.305119,0.000000,0.000000,-1.000000
-11.155283,-9.086443,-28.305119,0.000000,-0.000000,-1.000000
-1.681414,-6.139492,6.902881,-0.321440,-0.946930,0.000000
4.000289,-9.294226,-28.305119,0.000000,0.000000,-1.000000
3.808475,-5.097320,-0.995812,0.555570,-0.831470,0.000000
-1.010502,-2.874826,6.690880,0.290285,0.956940,-0.000000
10.263287,13.264868,-28.128707,0.659346,0.751840,0.000000
-2.269829,-2.033074,8.829217,0.773011,0.634393,0.000000
11.644182,-5.200243,22.128330,0.000000,-0.000000,-1.000000
-2.140917,3.600923,28.305119,0.000000,-0.000000,1.000000
6.710219,-10.014141,27.176712,0.773011,0.634393,0.000000
-3.767834,5.124476,-7.574501,-0.555570,0.831470,0.000000
10.999816,-7.934371,-22.128330,0.000000,0.000000,1.000000
-9.224537,-13.969522,-27.682573,-0.555570,-0.831470,0.000000
14.357228,-8.644294,28.247704,0.831470,-0.555570,0.000000
2.182153,3.514365,-28.305119,-0.000000,-0.000000,-1.000000
9.469742,12.491442,-22.128330,0.000000,-0.000000,1.000000
1.256089,2.780581,-3.084993,-0.471397,-0.881921,0.000000
-12.531991,-10.860120,28.305119,-0.000000,0.000000,1.000000
-1.933299,-2.351712,23.775594,0.634393,0.773011,0.000000
-6.757738,-10.801351,22.128330,0.000000,0.000000,-1.000000
15.695234,2.032567,28.305119,-0.000000,-0.000000,1.000000
-1.704870,-2.539178,-27.625819,0.634393,0.773011,0.000000
-5.569409,-3.072859,-9.340653,-0.896873,-0.442289,0.000000
6.313867,0.822497,6.808782,0.997859,0.065403,-0.000000
-8.563361,12.280619,-28.305119,0.000000,-0.000000,-1.000000
10.282975,-10.122254,22.604486,-0.773011,0.634393,0.000000
-8.725485,-14.302978,-23.930924,-0.555570,-0.831470,0.000000
4.918112,-8.510832,-28.305119,0.000000,0.000000,-1.000000
-4.986117,-4.068273,-28.305119,0.000000,0.000000,-1.000000
11.520200,-5.264458,-22.128330,-0.000000,0.000000,1.000000
11.321439,-4.977961,-28.305119,0.000000,-0.000000,-1.000000
2.252727,-2.053912,18.305597,-0.773011,0.634393,0.000000
6.114385,-1.755377,18.468952,0.946930,-0.321440,0.000000
4.782281,4.183894,-5.066394,0.751840,0.659346,0.000000
-2.199308,11.234220,26.545374,0.956940,0.290285,0.000000
1.069389,16.705939,23.895444,0.065403,0.997859,0.000000
-0.388885,-3.020798,-28.013643,0.098017,0.995185,-0.000000
1.286817,-6.222664,-17.833045,0.195090,-0.980785,0.000000
3.146163,-5.533260,-9.347230,0.442289,-0.896873,0.000000
1.402812,-6.199591,12.763493,0.195090,-0.980785,0.000000
11.297723,12.357692,23.747463,0.659346,0.751840,0.000000
-10.808382,2.861651,22.128330,-0.000000,-0.000000,-1.000000
1.238399,7.271377,28.305119,-0.000000,-0.000000,1.000000
-13.310693,5.706325,22.128330,0.000000,-0.000000,-1.000000
11.511091,2.283296,25.587961,0.290285,-0.956940,0.000000
7.615916,-14.887298,22.128330,0.000000,0.000000,-1.000000
-6.620228,9.904486,25.041583,-0.773011,-0.634393,0.000000
-16.749351,-0.407033,-23.938949,-0.997859,-0.065403,-0.000000
-14.388676,2.193717,-28.305119,0.000000,0.000000,-1.000000
-6.552547,-9.805572,-26.521615,-0.881921,0.471398,0.000000
-0.635824,4.353488,-28.305119,-0.000000,-0.000000,-1.000000
2.040292,16.642303,-27.212263,0.065403,0.997859,0.000000
3.708788,5.163929,6.909047,0.555570,0.831470,0.000000
3.994663,-11.264427,22.128330,0.000000,0.000000,-1.000000
8.631937,11.874076,-28.305119,0.000000,0.000000,-1.000000
-6.353097,-0.223970,18.498872,-0.997859,-0.065403,0.000000
-2.993540,-12.632010,-28.305119,0.000000,0.000000,-1.000000
3.016750,0.429985,18.890061,-0.995185,-0.098017,0.000000
-4.881054,-13.520985,-22.128330,-0.000000,0.000000,1.000000
16.758831,0.262408,24.448235,0.997859,0.065403,0.000000
-15.888486,2.866488,22.128330,0.000000,0.000000,-1.000000
0.484544,-3.011377,-6.123744,-0.098017,0.995185,0.000000
3.488361,5.311214,-5.054454,0.555570,0.831470,0.000000
1.347201,-2.731881,-23.402118,-0.471397,0.881921,0.000000
-10.410252,1.670455,27.378507,-0.634394,-0.773010,0.000000
-15.655238,5.959738,26.449000,-0.946930,0.321440,0.000000
-2.252140,3.286906,28.305119,0.000000,-0.000000,1.000000
-0.742916,9.848612,-28.035336,0.290286,0.956940,-0.000000
-6.291997,-7.860131,27.947868,-0.956940,-0.290285,0.000000
-2.466473,-1.793462,-14.610576,0.773011,0.634393,-0.000000
12.251767,-3.956463,22.128330,0.000000,-0.000000,-1.000000
-4.501103,16.150378,23.655032,-0.321440,0.946930,0.000000
6.174288,-1.530018,-4.882346,0.980785,-0.195090,0.000000
4.411233,-6.971705,22.128330,-0.000000,-0.000000,-1.000000
15.162637,-1.621309,22.128330,0.000000,0.000000,-1.000000
9.905826,2.049821,-28.305119,0.000000,-0.000000,-1.000000
6.177150,1.515628,-9.001238,0.980785,0.195090,-0.000000
3.052899,0.062959,12.571157,-0.995185,-0.098017,0.000000
1.207962,6.238349,-7.557637,0.195090,0.980785,0.000000
14.654885,0.177825,-22.128330,-0.000000,0.000000,1.000000
5.880564,4.019912,-22.128330,-0.000000,0.000000,1.000000
3.047066,0.122182,27.954203,-0.995185,-0.098017,0.000000
10.720754,-12.863681,24.054900,0.659346,-0.751840,0.000000
5.983645,5.588843,22.128330,0.000000,0.000000,-1.000000
-7.948065,-2.401482,-22.128330,0.000000,-0.000000,1.000000
0.443112,-6.338733,11.328489,0.065403,-0.997859,0.000000
-2.117851,-2.200254,-26.106017,0.634393,0.773011,-0.000000
2.310524,-11.600852,26.532287,-0.956940,-0.290285,0.000000
0.437857,-3.015975,-9.298650,-0.098017,0.995185,0.000000
14.583429,4.049502,-28.305119,0.000000,0.000000,-1.000000
-13.477924,-1.891470,24.863224,0.634393,0.773011,0.000000
-13.459286,1.906766,27.040527,0.634393,-0.773011,0.000000
5.799543,-0.713225,-28.305119,-0.000000,-0.000000,-1.000000
9.993078,6.692934,-25.452424,-0.634393,0.773011,0.000000
12.237720,11.434525,-25.427355,0.751840,0.659346,-0.000000
7.444995,6.462403,22.352723,0.471397,0.881921,-0.000000
-1.334503,-9.506491,-28.305119,0.000000,0.000000,-1.000000
-1.450155,7.340022,-28.305119,-0.000000,-0.000000,-1.000000
9.863598,-6.586672,27.072734,-0.634393,-0.773011,0.000000
-10.032608,1.208485,-22.128330,-0.000000,-0.000000,1.000000
9.099909,6.255025,26.492058,-0.290285,0.956940,0.000000
-16.202545,4.347425,24.941015,-0.946930,0.321440,0.000000
-14.345637,8.661640,-25.632393,-0.831470,0.555570,0.000000
15.773249,3.386547,28.305119,-0.000000,-0.000000,1.000000
-10.933633,6.933731,22.128330,-0.000000,-0.000000,-1.000000
10.549513,-9.767894,23.789159,-0.881921,0.471397,0.000000
-3.369324,-11.122639,22.128330,0.000000,0.000000,-1.000000
-0.087859,6.362018,21.590570,-0.065403,0.997859,0.000000
16.429210,-3.211765,28.163301,0.980785,-0.195090,0.000000
-6.230152,1.249171,-7.123847,-0.980785,0.195090,0.000000
-9.846962,6.574670,-22.761728,0.471398,0.881921,-0.000000
2.078247,-13.175286,-24.867397,-0.881921,0.471397,0.000000
1.895215,-2.382967,-6.693235,-0.634393,0.773011,0.000000
5.550232,-3.111748,4.787989,0.896873,-0.442289,0.000000
-4.112389,-4.844990,-7.397190,-0.659346,-0.751840,0.000000
3.072049,-6.676048,-22.128330,0.000000,0.000000,1.000000
7.694339,-14.039900,-28.305119,0.000000,0.000000,-1.000000
-9.960793,-6.666438,-28.226136,0.634393,-0.773011,0.000000
-4.486136,10.698455,-28.305119,0.000000,0.000000,-1.000000
-1.213462,-10.062988,-26.075287,0.471396,-0.881922,0.000000
4.805843,1.937272,28.305119,-0.000000,0.000000,1.000000
13.117132,10.431747,-23.911119,0.751840,0.659346,0.000000
6.489031,-15.244625,28.305119,0.000000,-0.000000,1.000000
6.712869,-7.064550,24.934256,0.773011,-0.634393,0.000000
-1.025221,-6.274698,-15.471031,-0.195090,-0.980785,-0.000000
10.066273,1.219608,-25.213178,0.881922,-0.471396,0.000000
8.234326,5.051431,-22.128330,-0.000000,0.000000,1.000000
4.922205,-4.024341,3.627749,0.751840,-0.659346,0.000000
-5.349178,3.431543,8.238333,-0.831470,0.555570,0.000000
3.718296,-6.349609,28.305119,-0.000000,-0.000000,1.000000
7.191378,-10.473136,-23.650132,0.634393,0.773011,0.000000
-6.291942,7.860313,24.355181,-0.956940,0.290285,0.000000
-5.951514,2.235178,12.405987,-0.946930,0.321440,0.000000
-0.842194,7.870702,22.128330,0.000000,0.000000,-1.000000
10.784061,12.808162,28.032554,0.659346,0.751840,-0.000000
1.927679,6.109690,-28.305119,0.000000,0.000000,-1.000000
2.201082,-12.917414,-25.439001,-0.956940,0.290285,0.000000
-6.640964,-13.140212,-22.128330,0.000000,-0.000000,1.000000
-6.586711,-7.218275,23.078586,-0.773011,-0.634393,0.000000
7.690332,-14.872527,22.231942,0.442289,-0.896873,0.000000
-2.580869,-1.629724,-13.625782,0.881921,0.471397,0.000000
-3.612229,16.349553,24.640803,-0.195090,0.980785,0.000000
-5.561012,11.728092,-28.305119,0.000000,0.000000,-1.000000
-0.453146,15.307139,-28.305119,0.000000,0.000000,-1.000000
1.312944,14.040985,26.530057,-0.634393,-0.773011,0.000000
5.460319,-3.797714,28.305119,-0.000000,-0.000000,1.000000
-8.271823,14.585768,26.790915,-0.442289,0.896873,0.000000
-4.087473,6.110644,22.128330,0.000000,0.000000,-1.000000
-8.230648,5.159224,-22.128330,0.000000,0.000000,1.000000
-6.232284,-1.238451,-4.632074,-0.980785,-0.195090,0.000000
9.728432,-0.109840,22.393161,0.995185,0.098017,-0.000000
-6.463417,-15.477575,-23.853099,-0.442289,-0.896873,0.000000
-2.121097,5.990239,-7.941377,-0.321440,0.946930,0.000000
-4.137087,-13.077879,-28.305119,0.000000,0.000000,-1.000000
4.335933,-4.648947,-16.525777,0.659346,-0.751840,0.000000
-6.720993,-15.350553,27.276223,-0.442289,-0.896873,0.000000
-12.294935,-6.722476,22.128330,0.000000,-0.000000,-1.000000
-4.498287,-4.506566,-2.992612,-0.659346,-0.751840,0.000000
-14.093624,-9.038805,-27.041004,-0.831470,-0.555570,-0.000000
-8.415035,5.826788,28.305119,0.000000,-0.000000,1.000000
13.398826,1.956384,23.752045,-0.634393,-0.773011,0.000000
-6.587027,11.721966,22.128330,0.000000,0.000000,-1.000000
6.304290,-7.819606,-27.634129,0.956940,-0.290285,0.000000
-10.745920,9.366848,22.425341,0.956940,-0.290286,0.000000
-6.261100,1.093582,-3.657926,-0.980785,0.195090,0.000000
-14.812194,7.812675,24.818321,-0.896873,0.442289,0.000000
-12.879251,-7.347443,-22.128330,-0.000000,0.000000,1.000000
14.491917,-2.592864,-28.305119,0.000000,0.000000,-1.000000
-4.347559,-9.444571,-22.128330,0.000000,-0.000000,1.000000
2.543528,16.562131,-26.868684,0.195090,0.980785,-0.000000
15.590214,6.151292,26.081501,0.946930,0.321440,-0.000000
-2.874543,1.011434,11.110166,0.956940,-0.290285,0.000000
0.658641,-6.324607,-1.646434,0.065403,-0.997859,0.000000
11.813060,-5.656113,28.305119,-0.000000,0.000000,1.000000
-4.739340,-0.307640,-28.305119,0.000000,0.000000,-1.000000
-9.989458,6.689962,-27.828371,0.634393,0.773011,-0.000000
-10.628755,-1.849775,24.896418,-0.634394,0.773010,0.000000
-4.457884,-4.541999,-18.340558,-0.659346,-0.751840,0.000000
-10.839327,-2.001881,-24.803283,-0.471397,0.881921,0.000000
-5.280838,6.470600,-28.305119,0.000000,0.000000,-1.000000
-14.359309,0.576646,-24.896450,0.956940,-0.290286,0.000000
4.168347,-16.238934,23.895847,0.195090,-0.980785,0.000000
15.378303,-0.189494,-22.128330,0.000000,-0.000000,1.000000
11.584053,12.106588,25.841173,0.659346,0.751840,0.000000
-0.698154,9.191025,28.305119,-0.000000,-0.000000,1.000000
6.172476,12.586131,-28.305119,0.000000,0.000000,-1.000000
-3.265531,-5.460104,-9.514458,-0.555570,-0.831470,0.000000
-9.251228,10.780993,-22.466902,0.290286,-0.956940,0.000000
2.050397,-2.255612,18.378487,-0.634393,0.773011,0.000000
-9.135892,-6.265940,-26.052864,0.290285,-0.956940,0.000000
2.185203,-12.969759,-22.879489,-0.956940,0.290285,0.000000
-13.111859,7.475471,-22.128330,-0.000000,0.000000,1.000000
-7.263783,15.082878,26.874813,-0.442289,0.896873,0.000000
6.258317,9.110763,26.517366,0.956940,-0.290285,0.000000
-14.261908,0.897730,-26.378215,0.956940,-0.290286,0.000000
-7.413280,-15.009154,22.566456,-0.442289,-0.896873,-0.000000
-3.040397,0.189898,-6.324498,0.995185,-0.098017,0.000000
9.138028,-10.815332,24.720318,-0.290286,0.956940,0.000000
9.778574,5.465634,22.128330,0.000000,0.000000,-1.000000
7.376922,0.258693,-28.305119,0.000000,0.000000,-1.000000
8.378294,11.841536,28.305119,-0.000000,-0.000000,1.000000
8.349647,-14.547389,-28.222703,0.442289,-0.896873,0.000000
11.652331,11.603289,28.305119,-0.000000,-0.000000,1.000000
-1.354539,10.150634,24.541087,0.634394,0.773010,0.000000
12.980428,10.587629,28.182555,0.751840,0.659346,-0.000000
-2.256261,-5.944357,14.858517,-0.321440,-0.946930,0.000000
-1.827902,-7.453589,-28.305119,0.000000,0.000000,-1.000000
1.802495,6.098390,20.428426,0.321440,0.946930,-0.000000
11.586896,2.306291,-27.189365,0.290285,-0.956940,0.000000
4.719532,9.810437,-22.128330,0.000000,-0.000000,1.000000
2.474333,5.864570,-10.478751,0.442289,0.896873,-0.000000
3.316905,-16.408296,-26.546790,0.195090,-0.980785,0.000000
-5.816683,-15.703799,-26.822470,-0.321440,-0.946930,0.000000
-1.980389,-2.313066,19.907784,0.634393,0.773011,0.000000
2.925485,0.843501,16.357122,-0.956940,-0.290285,0.000000
6.791507,10.693436,-28.305119,0.000000,-0.000000,-1.000000
-13.386915,2.608682,28.305119,0.000000,0.000000,1.000000
0.593613,9.334578,22.128330,0.000000,0.000000,-1.000000
-6.190630,-8.431333,24.680012,-0.995185,-0.098017,0.000000
-12.588868,11.034118,24.438676,-0.751840,0.659346,0.000000
-8.513849,-5.426936,22.128330,0.000000,-0.000000,-1.000000
3.247695,5.472022,-8.868094,0.555570,0.831470,-0.000000
6.251953,-7.992139,24.821030,0.956940,-0.290285,0.000000
3.049659,6.426596,28.305119,-0.000000,0.000000,1.000000
14.017313,-9.153013,-23.598671,0.831470,-0.555570,0.000000
0.663059,2.980221,-22.083612,-0.290285,-0.956940,0.000000
-5.977199,-2.159513,0.279802,-0.946930,-0.321440,0.000000
-0.445691,-14.395972,-27.863216,0.098017,0.995185,-0.000000
-8.121634,-10.860787,-23.112240,-0.098017,0.995185,0.000000
2.154315,14.937943,-28.305119,0.000000,0.000000,-1.000000
0.230390,-6.532591,-28.305119,0.000000,0.000000,-1.000000
3.211330,-8.629453,28.305119,0.000000,-0.000000,1.000000
-0.315318,-3.028044,-20.424511,0.098017,0.995185,-0.000000
-3.053071,0.061211,-3.092665,0.995185,-0.098017,0.000000
15.954906,-5.076944,-25.707382,0.946930,-0.321440,0.000000
-3.546999,5.272033,11.053293,-0.555570,0.831470,0.000000
-1.887619,-13.482616,22.532606,0.773011,0.634393,-0.000000
3.597421,5.238342,3.367484,0.555570,0.831470,0.000000
3.021765,-0.379067,-11.127677,-0.995185,0.098017,0.000000
3.034983,0.244866,-8.843151,-0.995185,-0.098017,0.000000
1.040656,-5.465987,28.305119,0.000000,0.000000,1.000000
-5.623590,-2.962993,-5.092133,-0.896873,-0.442289,0.000000
3.212052,12.573220,22.128330,0.000000,0.000000,-1.000000
-1.759106,-2.494669,-22.332280,0.634393,0.773011,-0.000000
0.062409,16.771939,-27.697103,0.065403,0.997859,-0.000000
-2.160543,-5.976849,12.981522,-0.321440,-0.946930,0.000000
14.818495,3.868705,22.128330,0.000000,-0.000000,-1.000000
14.003820,6.858232,-28.305119,0.000000,0.000000,-1.000000
-12.773975,2.244594,-22.602595,0.290285,-0.956940,0.000000
9.955139,-4.568438,28.305119,-0.000000,0.000000,1.000000
4.520592,-16.143762,22.815746,0.321440,-0.946930,0.000000
11.786259,-2.332320,22.146737,0.098017,0.995185,-0.000000
16.757918,-0.276327,-22.739069,0.997859,-0.065403,0.000000
15.197632,-3.372493,28.305119,0.000000,0.000000,1.000000
2.332493,-11.788011,-27.706779,-0.995185,-0.098017,0.000000
-3.647241,-16.342589,24.375826,-0.195090,-0.980785,0.000000
-4.351560,-4.635242,20.506696,-0.659346,-0.751840,0.000000
-4.361859,16.197645,24.686654,-0.321440,0.946930,0.000000
-16.556837,-2.570140,-26.043667,-0.980785,-0.195090,-0.000000
14.127109,-6.752393,-28.305119,0.000000,-0.000000,-1.000000
0.047288,3.054443,24.177900,-0.098017,-0.995185,0.000000
-14.028758,1.327844,-22.617789,0.773011,-0.634393,0.000000
-2.827471,-5.690421,0.848322,-0.442289,-0.896873,0.000000
-6.026128,8.252067,-22.128330,-0.000000,-0.000000,1.000000
-8.385383,-11.746455,-22.128330,-0.000000,0.000000,1.000000
-15.227466,6.970588,27.815384,-0.896873,0.442289,0.000000
14.166079,-1.079537,25.138801,-0.881922,0.471396,0.000000
-10.023449,-10.364062,27.061815,0.634393,0.773011,0.000000
-5.927862,11.223687,28.305119,-0.000000,-0.000000,1.000000
-4.027647,-4.919306,-1.642111,-0.659346,-0.751840,0.000000
-14.266887,-6.583516,28.305119,-0.000000,0.000000,1.000000
6.038436,-1.979115,6.742889,0.946930,-0.321440,0.000000
-4.150345,-10.393923,22.128330,0.000000,-0.000000,-1.000000
-3.848505,5.070573,13.471503,-0.555570,0.831470,0.000000
-15.760155,-5.650663,-24.788938,-0.946930,-0.321440,0.000000
2.151312,2.172793,3.549574,-0.634393,-0.773011,0.000000
12.497142,-2.319918,-28.061470,-0.098017,0.995185,0.000000
-5.444943,3.288220,21.098124,-0.831470,0.555570,0.000000
3.008327,-0.515508,-9.252720,-0.995185,0.098017,0.000000
-8.512259,-14.445451,-28.012997,-0.555570,-0.831470,0.000000
-2.630404,-1.537051,17.708516,0.881921,0.471397,0.000000
8.740446,-1.694384,28.305119,-0.000000,-0.000000,1.000000
8.238159,14.602369,25.770517,0.442289,0.896873,0.000000
-1.317733,14.037055,-22.656968,0.634393,-0.773011,0.000000
-0.224843,3.036955,-3.476219,0.098017,-0.995185,0.000000
-11.563628,12.124501,26.583713,-0.659346,0.751840,0.000000
-2.350061,-1.935310,21.007219,0.773011,0.634393,0.000000
-6.272514,1.036205,-9.357972,-0.980785,0.195090,0.000000
10.528931,10.804592,28.305119,0.000000,0.000000,1.000000
2.187024,-5.967860,-16.611007,0.321440,-0.946930,0.000000
10.584495,9.702446,-27.188345,-0.881921,-0.471397,0.000000
6.317007,-0.774598,-16.241550,0.997859,-0.065403,0.000000
9.792129,0.556717,-27.420848,0.956940,-0.290286,0.000000
-1.672398,-2.558059,-12.234842,0.471397,0.881921,-0.000000
-0.854697,-16.720010,-26.638715,-0.065403,-0.997859,0.000000
9.302187,12.725435,22.128330,0.000000,0.000000,-1.000000
-4.564422,16.128884,24.982161,-0.321440,0.946930,0.000000
-13.937109,-3.670502,-28.305119,0.000000,0.000000,-1.000000
-0.289600,3.030577,-22.385509,0.098017,-0.995185,0.000000
15.419900,-2.910502,-22.128330,0.000000,-0.000000,1.000000
9.145821,10.812968,-24.445855,-0.290286,-0.956940,0.000000
-3.014815,0.449633,-9.476294,0.995185,-0.098017,0.000000
9.905058,-6.620698,26.350543,-0.634393,-0.773011,0.000000
-9.814579,0.630722,23.338341,-0.956940,-0.290286,0.000000
8.809289,-10.912665,22.128330,0.000000,0.000000,-1.000000
4.677752,-4.303087,13.976308,0.751840,-0.659346,0.000000
-6.244730,-1.175882,9.998433,-0.980785,-0.195090,0.000000
-8.039450,13.784220,22.128330,0.000000,0.000000,-1.000000
12.978420,-7.993631,28.305119,-0.000000,0.000000,1.000000
5.068708,-1.368891,-28.305119,0.000000,-0.000000,-1.000000
12.294134,-11.370198,22.909844,0.751840,-0.659346,0.000000
6.346109,0.330583,-5.517814,0.997859,0.065403,0.000000
9.750520,-13.618071,-24.142363,0.555570,-0.831470,0.000000
-0.928670,6.293904,2.466099,-0.195090,0.980785,0.000000
-7.808389,4.414289,22.128330,0.000000,0.000000,-1.000000
4.991933,3.944831,17.529015,0.751840,0.659346,-0.000000
3.958871,4.979621,4.216308,0.659346,0.751840,-0.000000
-6.279860,-0.999269,0.512340,-0.980785,-0.195090,0.000000
5.135503,-3.751330,-21.019292,0.831470,-0.555570,0.000000
14.843645,-7.748899,24.584084,0.896873,-0.442289,0.000000
-2.166115,5.974958,-16.020576,-0.321440,0.946930,0.000000
2.448922,1.814848,0.463739,-0.773011,-0.634393,0.000000
0.892154,-4.431593,-28.305119,0.000000,0.000000,-1.000000
6.656562,-9.948759,-26.877597,0.773011,0.634393,0.000000
10.876081,-8.805011,-28.222940,-0.995185,0.098017,0.000000
-4.541034,4.458984,11.402554,-0.751840,0.659346,0.000000
-1.060662,9.794348,28.305119,-0.000000,-0.000000,1.000000
-1.599489,-6.160469,19.668039,-0.195090,-0.980785,0.000000
14.038343,-2.556738,-22.128330,0.000000,0.000000,1.000000
12.435327,5.630641,-28.305119,0.000000,0.000000,-1.000000
-12.811268,-10.780519,-26.813292,-0.751840,-0.659346,0.000000
10.301353,-4.046693,-22.128330,-0.000000,-0.000000,1.000000
-6.219336,-8.139872,-25.331401,-0.995185,-0.098017,-0.000000
3.677913,-5.184559,21.155857,0.555570,-0.831470,0.000000
5.559426,10.409273,22.128330,0.000000,0.000000,-1.000000
16.763010,-0.198641,-26.088841,0.997859,-0.065403,0.000000
0.487248,8.676162,-22.128330,-0.000000,-0.000000,1.000000
-6.779656,15.321623,24.215335,-0.442289,0.896873,0.000000
-1.132799,-14.137610,24.789790,0.471396,0.881922,-0.000000
-2.619691,1.557092,-15.522486,0.881921,-0.471397,0.000000
6.223322,8.099409,24.404624,0.995185,0.098017,0.000000
1.533326,2.632395,20.846645,-0.471397,-0.881921,0.000000
3.156948,-7.650235,-22.128330,0.000000,-0.000000,1.000000
8.674585,14.336988,-27.960776,0.555570,0.831470,0.000000
-0.469473,6.337005,-17.659607,-0.065403,0.997859,0.000000
4.521714,-4.481015,21.476590,0.751840,-0.659346,0.000000
2.366262,-10.948438,22.128330,0.000000,0.000000,-1.000000
10.340298,13.197331,24.313775,0.659346,0.751840,-0.000000
5.280025,-11.042985,-28.305119,0.000000,0.000000,-1.000000
14.593184,8.256784,-25.422338,0.896873,0.442289,-0.000000
-5.218027,-3.627824,-13.023257,-0.831470,-0.555570,0.000000
-5.678372,-3.420383,-28.305119,0.000000,0.000000,-1.000000
9.226693,-13.968082,23.440697,0.555570,-0.831470,0.000000
0.321884,-16.754932,24.436184,0.065403,-0.997859,0.000000
5.366636,-10.652441,28.305119,0.000000,-0.000000,1.000000
-2.045376,8.561191,-22.128330,0.000000,0.000000,1.000000
-2.892096,-0.953570,1.160637,0.956940,0.290285,0.000000
1.735435,13.668053,-24.311741,-0.773011,-0.634393,0.000000
-4.304504,4.676509,-12.300575,-0.659346,0.751840,0.000000
-9.353536,4.601725,-22.128330,-0.000000,-0.000000,1.000000
2.380372,-12.484771,28.305119,-0.000000,-0.000000,1.000000
2.986122,5.794843,-28.305119,0.000000,0.000000,-1.000000
7.813797,-13.476887,-22.128330,-0.000000,-0.000000,1.000000
-14.798020,7.841418,25.382969,-0.896873,0.442289,0.000000
4.860311,-4.094918,20.384689,0.751840,-0.659346,0.000000
2.783758,1.250145,27.005914,-0.881921,-0.471397,0.000000
-14.172448,-2.957847,-28.305119,0.000000,0.000000,-1.000000
15.080033,7.269552,26.767890,0.896873,0.442289,-0.000000
14.193645,8.750773,22.128330,0.000000,0.000000,-1.000000
10.073118,6.758620,-26.322925,-0.634393,0.773011,0.000000
-6.363887,0.059340,20.060482,-0.997859,0.065403,-0.000000
0.085867,-3.050643,9.424040,-0.098017,0.995185,0.000000
8.236726,-11.379806,-28.305119,0.000000,0.000000,-1.000000
-8.932530,14.164635,26.535322,-0.555570,0.831470,0.000000
16.424006,3.237927,-27.606033,0.980785,0.195090,0.000000
-0.337197,-3.025889,-15.217904,0.098017,0.995185,-0.000000
7.486177,14.973206,25.867279,0.442289,0.896873,-0.000000
-6.311354,0.806653,-28.305119,0.000000,0.000000,-1.000000
2.761870,-1.291095,-11.330038,-0.881921,0.471397,0.000000
1.851750,-2.418638,-13.618915,-0.634393,0.773011,0.000000
3.416523,5.359215,-5.960901,0.555570,0.831470,-0.000000
-10.605610,-7.418977,-23.203409,0.881922,-0.471396,0.000000
-2.202155,2.115534,27.183562,0.773011,-0.634393,0.000000
-6.215675,-8.904875,-22.456541,-0.995185,0.098017,0.000000
5.539625,-3.133255,3.439043,0.896873,-0.442289,0.000000
-8.406525,-6.193074,-22.818996,-0.098017,-0.995185,0.000000
16.412890,0.968130,-28.305119,0.000000,0.000000,-1.000000
9.763508,-13.609393,26.916161,0.555570,-0.831470,0.000000
16.775610,0.006395,-25.952388,0.997859,0.065403,0.000000
-10.333808,10.060314,-25.818467,0.773011,-0.634393,0.000000
0.051749,-3.054003,3.922555,-0.098017,0.995185,0.000000
8.389438,10.887164,-23.609301,0.098017,-0.995185,0.000000
-8.730550,-6.198506,25.224673,0.098017,-0.995185,0.000000
11.833917,-8.451432,-22.128330,0.000000,-0.000000,1.000000
-10.894452,2.390893,-22.128330,0.000000,0.000000,1.000000
-7.837599,3.007837,-22.128330,-0.000000,0.000000,1.000000
-9.580099,-11.082966,-22.128330,0.000000,-0.000000,1.000000
5.898023,15.676187,25.353506,0.321440,0.946930,0.000000
3.616360,5.225688,-16.393338,0.555570,0.831470,0.000000
7.599600,3.365213,28.305119,-0.000000,0.000000,1.000000
-1.294494,-6.221137,0.624095,-0.195090,-0.980785,-0.000000
-1.874779,-13.498261,-26.008991,0.773011,0.634393,-0.000000
-1.639859,-2.575452,27.800511,0.471397,0.881921,0.000000
7.448939,6.298371,-22.128330,0.000000,-0.000000,1.000000
10.606420,12.963948,22.426451,0.659346,0.751840,0.000000
8.475618,-13.619371,22.128330,0.000000,-0.000000,-1.000000
3.495998,5.306111,10.666533,0.555570,0.831470,-0.000000
0.129348,16.433415,28.305119,0.000000,-0.000000,1.000000
14.737551,7.964037,26.896827,0.896873,0.442289,-0.000000
-6.341059,0.407631,1.473198,-0.997859,0.065403,-0.000000
-9.576848,10.651628,-26.853412,0.471397,-0.881921,0.000000
9.088008,14.060748,-24.916397,0.555570,0.831470,-0.000000
5.306795,7.030486,-22.128330,0.000000,-0.000000,1.000000
10.775345,7.812074,-26.961499,-0.956940,0.290286,0.000000
-8.222612,-14.567405,22.128330,0.000000,0.000000,-1.000000
11.347814,-3.495747,28.305119,-0.000000,-0.000000,1.000000
14.104117,3.330986,-22.128330,-0.000000,0.000000,1.000000
11.627212,-11.329771,-22.128330,0.000000,-0.000000,1.000000
13.612120,-1.781338,25.540608,-0.634393,0.773011,0.000000
3.692209,-5.175007,-10.207603,0.555570,-0.831470,0.000000
7.407768,-15.011873,26.702029,0.442289,-0.896873,0.000000
-1.928187,-6.055724,3.607940,-0.321440,-0.946930,0.000000
-10.554143,10.045726,22.128330,0.000000,0.000000,-1.000000
1.964160,-13.388728,24.672379,-0.881921,0.471397,0.000000
-15.502336,4.134531,22.128330,-0.000000,-0.000000,-1.000000
-7.313877,-2.729950,-22.128330,0.000000,-0.000000,1.000000
-4.046074,4.903146,-18.880177,-0.659346,0.751840,0.000000
10.565312,9.738334,22.300394,-0.881921,-0.471397,0.000000
0.530281,-15.729385,28.305119,0.000000,-0.000000,1.000000
7.982897,-14.126936,-28.305119,0.000000,0.000000,-1.000000
-1.116794,-9.713457,-22.128330,0.000000,0.000000,1.000000
-9.555622,10.662974,-24.708239,0.471397,-0.881921,0.000000
5.710281,2.787200,-13.892104,0.896873,0.442289,0.000000
10.509980,-13.048524,27.197114,0.659346,-0.751840,0.000000
0.370053,-3.022653,0.598135,-0.098017,0.995185,0.000000
3.150403,5.531169,-8.229915,0.442289,0.896873,0.000000
-3.926467,-3.594967,28.305119,-0.000000,-0.000000,1.000000
0.752899,2.952968,12.584335,-0.290285,-0.956940,0.000000
0.372479,8.659228,-28.305119,0.000000,0.000000,-1.000000
15.420967,6.578206,-25.494842,0.896873,0.442289,0.000000
-6.190614,8.650424,-26.172933,-0.995185,-0.098017,0.000000
-2.158608,5.977506,-18.296209,-0.321440,0.946930,0.000000
-2.350152,5.912486,21.535644,-0.321440,0.946930,0.000000
5.744303,-2.718210,-13.084865,0.896873,-0.442289,0.000000
2.551915,11.527638,-22.128330,0.000000,-0.000000,1.000000
-6.349984,0.271465,-10.441948,-0.997859,0.065403,0.000000
5.744478,-2.717856,1.341366,0.896873,-0.442289,0.000000
-1.529717,-6.174348,-16.675823,-0.195090,-0.980785,-0.000000
-1.454874,-6.189235,1.970862,-0.195090,-0.980785,-0.000000
2.361117,-12.078842,-27.225009,-0.995185,0.098017,0.000000
6.079278,1.858797,-11.562513,0.946930,0.321440,0.000000
5.556695,-3.098643,4.095610,0.896873,-0.442289,0.000000
-16.070501,-4.736414,-26.132456,-0.946930,-0.321440,-0.000000
-2.685766,13.656381,-28.305119,0.000000,-0.000000,-1.000000
-9.810540,-13.577967,24.229694,-0.555570,-0.831470,0.000000
7.868397,-5.114336,-22.128330,0.000000,0.000000,1.000000
-2.467118,1.792677,-26.705123,0.773011,-0.634393,0.000000
9.789071,-0.546637,-24.929036,0.956940,0.290286,-0.000000
-2.494968,5.854394,1.741428,-0.442289,0.896873,0.000000
15.076148,7.277430,-27.372264,0.896873,0.442289,0.000000
-3.058255,0.008576,17.455999,0.995185,-0.098017,0.000000
1.655506,7.894193,28.305119,-0.000000,-0.000000,1.000000
9.177336,-6.278512,26.673787,-0.290285,-0.956940,-0.000000
-11.117994,2.150832,25.043688,-0.471397,-0.881921,-0.000000
4.107379,-8.794577,22.128330,0.000000,0.000000,-1.000000
11.562473,-6.550731,28.305119,-0.000000,0.000000,1.000000
-1.363852,6.207341,6.081653,-0.195090,0.980785,0.000000
13.259906,9.363169,28.305119,-0.000000,-0.000000,1.000000
2.881009,-0.990118,-25.510407,-0.956940,0.290285,0.000000
-2.348007,11.945527,23.829591,0.995185,0.098017,-0.000000
-15.971559,5.027886,24.573354,-0.946930,0.321440,0.000000
1.453058,-6.189596,-12.483052,0.195090,-0.980785,0.000000
-6.874651,3.296915,22.128330,0.000000,-0.000000,-1.000000
-4.502034,-4.503280,19.609083,-0.659346,-0.751840,0.000000
10.896205,-8.481242,-25.696477,-0.995185,-0.098017,0.000000
-2.781682,-1.254029,-17.409135,0.881921,0.471397,-0.000000
-6.259590,9.114960,26.345390,-0.956940,-0.290285,0.000000
15.069042,7.291841,22.631612,0.896873,0.442289,0.000000
-9.134699,6.265578,27.095299,0.290285,0.956940,0.000000
-13.869086,7.641478,22.128330,0.000000,0.000000,-1.000000
-5.046053,-3.883120,-8.699323,-0.751840,-0.659346,-0.000000
-1.538488,-3.174739,28.305119,0.000000,0.000000,1.000000
9.898846,12.198244,-28.305119,0.000000,0.000000,-1.000000
16.070148,4.737452,24.353406,0.946930,0.321440,0.000000
-4.787273,4.178202,11.398535,-0.751840,0.659346,0.000000
5.982233,14.213475,-28.305119,0.000000,0.000000,-1.000000
-2.514619,-5.844703,-4.590974,-0.442289,-0.896873,0.000000
0.619715,2.993370,-23.089108,-0.290285,-0.956940,0.000000
7.847501,-13.912029,28.305119,0.000000,-0.000000,1.000000
16.686744,1.362241,-25.833633,0.997859,0.065403,-0.000000
8.902408,-12.616619,22.128330,0.000000,-0.000000,-1.000000
1.020472,-14.197650,-24.266788,-0.471396,0.881922,0.000000
10.697707,9.490642,25.414496,-0.881921,-0.471397,0.000000
-10.039956,13.424676,-24.309518,-0.555570,0.831470,0.000000
-0.751669,7.094164,28.305119,0.000000,0.000000,1.000000
4.736182,-13.048563,-28.305119,0.000000,0.000000,-1.000000
-2.396088,1.879227,-15.687827,0.773011,-0.634393,0.000000
-3.805692,-3.642916,-28.305119,0.000000,0.000000,-1.000000
10.163996,-13.341796,-23.494942,0.555570,-0.831470,0.000000
4.902432,2.622860,-28.305119,0.000000,0.000000,-1.000000
-2.671397,-1.460357,3.134090,0.881921,0.471397,0.000000
7.748835,10.756162,-27.940590,0.290286,-0.956940,0.000000
7.892877,6.282063,-22.437217,0.290285,0.956940,0.000000
-12.822726,10.767454,-23.641932,-0.751840,0.659346,0.000000
4.022373,-14.411727,-28.305119,0.000000,0.000000,-1.000000
-3.669073,5.190466,18.617753,-0.555570,0.831470,0.000000
14.549768,0.465702,-22.128330,-0.000000,-0.000000,1.000000
-6.318600,-0.750281,5.423646,-0.997859,-0.065403,0.000000
13.239086,10.292686,27.995456,0.751840,0.659346,0.000000
-13.891666,-9.341056,24.187964,-0.831470,-0.555570,-0.000000
2.886586,7.847027,22.128330,0.000000,0.000000,-1.000000
-7.831198,14.803060,-24.078864,-0.442289,0.896873,0.000000
2.422881,-1.846579,11.362243,-0.773011,0.634393,0.000000
3.622645,16.347481,-26.777472,0.195090,0.980785,0.000000
16.475217,2.980472,23.465615,0.980785,0.195090,0.000000
-0.763182,2.949849,15.576035,0.290285,-0.956940,0.000000
1.483337,-6.183574,-21.933746,0.195090,-0.980785,0.000000
1.021875,-9.960583,26.166786,-0.471396,-0.881922,0.000000
10.023446,-6.717856,26.980467,-0.634393,-0.773011,0.000000
10.411268,-9.965928,27.997653,-0.773011,0.634393,0.000000
-10.691454,7.579581,-26.049852,0.881922,0.471396,-0.000000
15.666584,-5.926312,-23.116036,0.946930,-0.321440,0.000000
-15.676326,5.897616,-26.603271,-0.946930,0.321440,0.000000
-5.537853,3.136850,20.204911,-0.896873,0.442289,0.000000
16.424809,3.233892,22.659659,0.980785,0.195090,0.000000
4.272453,-14.576846,22.128330,0.000000,0.000000,-1.000000
-6.465455,-7.439286,27.273773,-0.881921,-0.471397,0.000000
-12.843584,-3.961148,28.305119,0.000000,-0.000000,1.000000
-6.366446,7.624518,-27.890924,-0.881921,0.471397,0.000000
-2.621392,-1.553911,6.981158,0.881921,0.471397,0.000000
14.901926,-3.010868,28.305119,0.000000,0.000000,1.000000
6.841220,-10.519102,28.305119,-0.000000,-0.000000,1.000000
6.349786,0.274476,4.046237,0.997859,0.065403,0.000000
-5.355286,3.422402,-12.163937,-0.831470,0.555570,0.000000
1.416679,-2.694744,14.488056,-0.471397,0.881921,0.000000
11.793145,-4.382258,-22.128330,-0.000000,0.000000,1.000000
-10.990760,-12.626891,-23.888584,-0.659346,-0.751840,0.000000
1.200970,-2.810043,24.306602,-0.471397,0.881921,0.000000
-5.778089,-2.649699,-15.346301,-0.896873,-0.442289,-0.000000
0.740325,7.397678,-22.128330,0.000000,-0.000000,1.000000
9.938058,-10.434140,22.352921,-0.634393,0.773011,0.000000
6.439595,-15.489323,-27.083190,0.442289,-0.896873,0.000000
-2.238903,-2.070756,-14.554444,0.773011,0.634393,0.000000
10.537690,6.875332,22.128330,0.000000,0.000000,-1.000000
-7.334953,15.047781,28.227938,-0.442289,0.896873,0.000000
-3.322500,-14.109192,28.305119,-0.000000,-0.000000,1.000000
11.300706,9.057818,-22.128330,0.000000,-0.000000,1.000000
-12.320272,2.875492,28.305119,0.000000,0.000000,1.000000
-10.839715,8.024274,22.396515,0.956940,0.290286,-0.000000
16.660512,-1.762466,-28.150808,0.997859,-0.065403,0.000000
-2.942434,0.787628,-28.128941,0.956940,-0.290285,0.000000
2.844033,-1.112012,18.705494,-0.956940,0.290285,0.000000
12.846092,-3.742842,-22.128330,-0.000000,0.000000,1.000000
-0.989973,6.281710,18.499455,-0.195090,0.980785,0.000000
-0.515517,-16.742241,-27.967512,-0.065403,-0.997859,0.000000
-2.979361,-11.809094,22.128330,0.000000,-0.000000,-1.000000
-1.008493,-2.875435,-8.345426,0.290285,0.956940,-0.000000
-6.658183,15.381527,27.519814,-0.442289,0.896873,0.000000
-14.699532,-5.468817,-28.305119,0.000000,0.000000,-1.000000
-1.619112,2.586541,-28.160396,0.471397,-0.881921,0.000000
2.875124,-5.666922,12.593537,0.442289,-0.896873,0.000000
-9.051206,-10.841669,-24.334350,0.290286,0.956940,0.000000
-14.199895,-8.879759,-22.468933,-0.831470,-0.555570,0.000000
5.318600,-3.477307,2.112868,0.831470,-0.555570,0.000000
-5.362853,9.504774,-28.305119,0.000000,0.000000,-1.000000
-6.012081,2.056753,19.015965,-0.946930,0.321440,0.000000
1.429304,6.194321,-7.043973,0.195090,0.980785,0.000000
5.058389,-3.866739,-0.665896,0.831470,-0.555570,0.000000
-6.339866,-9.379592,22.799838,-0.956940,0.290285,0.000000
9.625058,10.994661,-28.305119,-0.000000,-0.000000,-1.000000
-5.095745,7.923868,28.305119,0.000000,-0.000000,1.000000
2.334287,-12.351257,-23.952450,-0.995185,0.098017,0.000000
-2.046985,-2.258413,-3.655163,0.634393,0.773011,-0.000000
-3.066318,-8.076935,-28.305119,0.000000,0.000000,-1.000000
4.097374,-4.858157,1.749126,0.659346,-0.751840,0.000000
-6.275118,-1.023111,-7.688588,-0.980785,-0.195090,0.000000
-3.238676,5.478048,-15.510975,-0.555570,0.831470,0.000000
-16.251350,4.105927,28.255878,-0.980785,0.195090,0.000000
-2.351992,12.171497,-26.529526,0.995185,-0.098017,0.000000
-4.480797,4.521904,17.401926,-0.659346,0.751840,0.000000
-14.069307,-9.075198,23.634914,-0.831470,-0.555570,-0.000000
6.308668,-0.854443,3.945524,0.980785,-0.195090,0.000000
-3.888739,-5.041125,-17.188453,-0.659346,-0.751840,0.000000
10.111609,-10.291711,-22.356348,-0.634393,0.773011,0.000000
-9.002769,-10.856362,-22.953352,0.290286,0.956940,0.000000
11.546963,-7.833754,28.305119,-0.000000,0.000000,1.000000
-6.226789,1.266077,-16.568040,-0.980785,0.195090,0.000000
-0.274981,3.032017,-6.929408,0.098017,-0.995185,0.000000
1.267464,2.774501,17.119281,-0.471397,-0.881921,0.000000
-15.572347,2.469417,-22.128330,-0.000000,-0.000000,1.000000
2.718627,-9.451130,28.305119,0.000000,-0.000000,1.000000
-10.883248,-8.732238,-24.854237,0.995185,0.098017,-0.000000
14.486845,8.450308,22.939896,0.831470,0.555570,0.000000
-6.352457,0.233724,22.108163,-0.997859,0.065403,-0.000000
-13.113668,-2.111183,-25.576258,0.471397,0.881921,0.000000
4.739383,4.232810,10.280622,0.751840,0.659346,-0.000000
7.334316,2.326708,-28.305119,0.000000,0.000000,-1.000000
8.911029,14.179001,-24.200484,0.555570,0.831470,-0.000000
2.541077,-1.702557,15.751522,-0.773011,0.634393,0.000000
0.726737,6.320144,-1.836931,0.065403,0.997859,0.000000
1.692308,-10.436880,-26.429251,-0.773010,-0.634394,-0.000000
-4.963618,15.993375,23.902086,-0.321440,0.946930,0.000000
15.901623,5.233912,-25.408783,0.946930,0.321440,0.000000
-4.755131,-8.314107,-22.128330,0.000000,-0.000000,1.000000
6.546443,7.287768,-24.541164,0.881921,0.471397,0.000000
11.631706,-2.317098,-22.684916,0.098017,0.995185,-0.000000
7.736684,-5.852568,-22.128330,-0.000000,0.000000,1.000000
-1.855784,-3.159959,28.305119,0.000000,0.000000,1.000000
-10.648510,12.927037,-26.463445,-0.659346,0.751840,0.000000
10.052570,1.193972,-22.782480,0.881922,-0.471396,0.000000
5.457450,10.117880,22.128330,0.000000,0.000000,-1.000000
11.745382,-3.656300,28.305119,-0.000000,-0.000000,1.000000
2.914322,5.647591,-6.009883,0.442289,0.896873,0.000000
-9.758605,-0.416192,-27.389071,-0.995185,0.098017,0.000000
3.671426,-4.673432,28.305119,0.000000,0.000000,1.000000
-3.034686,-0.247877,-20.993738,0.995185,0.098017,-0.000000
2.820564,9.112169,-28.305119,-0.000000,-0.000000,-1.000000
-12.621450,-3.673785,-22.128330,0.000000,-0.000000,1.000000
1.426829,10.209961,-26.058315,-0.634394,0.773010,0.000000
6.398489,15.506302,-27.873118,0.321440,0.946930,0.000000
1.727538,-13.677675,-25.484922,-0.773011,0.634393,0.000000
2.319084,5.923032,-11.573977,0.321440,0.946930,0.000000
5.131088,-1.290210,28.305119,0.000000,0.000000,1.000000
-2.839964,3.334118,-28.305119,0.000000,0.000000,-1.000000
4.473652,2.857040,28.305119,-0.000000,0.000000,1.000000
1.063817,14.174482,-27.176775,-0.471396,-0.881922,0.000000
-3.531465,-16.365618,-25.833899,-0.195090,-0.980785,0.000000
1.011442,-9.269003,-22.128330,-0.000000,-0.000000,1.000000
-2.887789,0.967767,26.208377,0.956940,-0.290285,0.000000
9.710814,10.580022,-22.445443,-0.471397,-0.881921,0.000000
-1.991026,-2.304337,24.803549,0.634393,0.773011,0.000000
10.791016,-4.682704,-28.305119,0.000000,-0.000000,-1.000000
10.706150,9.474846,24.158322,-0.881921,-0.471397,0.000000
6.700476,-15.360670,25.071582,0.442289,-0.896873,0.000000
11.992429,-11.714227,-24.762789,0.751840,-0.659346,0.000000
8.177790,14.632139,-25.747111,0.442289,0.896873,0.000000
-16.765551,0.159881,27.280931,-0.997859,0.065403,0.000000
-11.692899,12.011133,-25.777490,-0.659346,0.751840,0.000000
10.321605,-7.006737,-23.797710,-0.773011,-0.634393,0.000000
4.694256,14.582052,-22.128330,0.000000,-0.000000,1.000000
13.855448,-2.641647,-28.305119,0.000000,0.000000,-1.000000
-9.244015,13.956507,-22.204175,-0.555570,0.831470,0.000000
-2.938090,-5.603634,-28.305119,0.000000,0.000000,-1.000000
5.589427,3.032267,-8.478381,0.896873,0.442289,-0.000000
10.970235,-9.684087,22.128330,0.000000,0.000000,-1.000000
-5.166646,15.001614,-22.128330,0.000000,0.000000,1.000000
4.938770,4.005452,3.651011,0.751840,0.659346,0.000000
11.362216,2.238135,-23.436593,0.290285,-0.956940,0.000000
-4.867542,-4.086673,1.198796,-0.751840,-0.659346,-0.000000
-3.057632,5.576919,20.612565,-0.442289,0.896873,0.000000
-5.939080,2.271806,-19.031151,-0.946930,0.321440,0.000000
5.351269,-15.689626,-22.128330,0.000000,-0.000000,1.000000
5.994123,-15.643566,23.286425,0.321440,-0.946930,0.000000
2.813889,1.193774,-14.999444,-0.881921,-0.471397,0.000000
-16.681415,1.443549,-26.441870,-0.997859,0.065403,0.000000
-5.575568,3.060371,12.249859,-0.896873,0.442289,0.000000
-15.977804,-5.009488,25.208760,-0.946930,-0.321440,-0.000000
1.936700,-16.350301,22.128330,0.000000,0.000000,-1.000000
10.336706,-7.025138,23.003683,-0.773011,-0.634393,0.000000
-5.885140,2.430709,-20.725007,-0.946930,0.321440,0.000000
10.989599,2.082203,27.516827,0.471397,-0.881921,0.000000
0.725087,-16.728505,23.656502,0.065403,-0.997859,0.000000
11.943058,6.156824,-22.128330,0.000000,-0.000000,1.000000
-3.010969,0.488684,-5.933002,0.995185,-0.098017,0.000000
3.605698,-5.232812,-15.294927,0.555570,-0.831470,0.000000
2.764257,5.721595,-5.942568,0.442289,0.896873,0.000000
-7.557731,5.420597,22.128330,0.000000,0.000000,-1.000000
-0.929808,-14.246111,26.282808,0.471396,0.881922,0.000000
13.490389,-1.881240,27.991918,-0.634393,0.773011,0.000000
16.596482,2.370831,-25.683661,0.980785,0.195090,0.000000
