x,y,z,nx,ny,nz
-9.813594,-10.593991,-7.720650,0.773011,-0.000000,0.634393
4.949616,-24.241303,-11.509765,-0.471397,0.000000,0.881921
10.547982,-18.194636,-25.765917,0.293108,-0.581154,-0.759176
-11.004986,-20.723533,-23.579764,-0.349826,-0.585564,-0.731257
-12.487348,0.578689,-1.599244,0.995185,-0.098017,0.000000
-25.803666,-18.030232,-10.709823,-0.759999,-0.569358,-0.313422
-25.963742,12.368761,16.788203,-0.801686,0.395175,0.448483
16.690305,-1.912998,28.667572,0.482336,-0.078367,0.872474
-7.715785,-9.817586,-29.343355,0.634393,0.773010,0.000000
22.234897,24.525656,-2.969584,0.680461,0.728344,-0.080542
-25.486489,-16.743615,-13.190019,-0.759514,-0.526342,-0.382234
-11.179162,5.568131,21.283407,0.881921,-0.471397,0.000000
21.066517,2.884761,25.643261,0.685852,0.080531,0.723272
16.445180,23.587079,-16.653506,0.521887,0.699011,-0.488895
-23.227996,-12.948575,-20.001691,-0.731257,-0.349826,-0.585564
-9.689195,-28.204046,-14.678939,-0.302377,-0.852184,-0.427026
-14.181252,28.570385,-9.550103,-0.445068,0.829480,-0.337457
12.508924,22.431810,0.359622,-0.995185,-0.000000,-0.098017
13.538165,7.789957,-29.402819,0.469405,0.233172,-0.851639
-20.895460,25.511524,-4.267642,-0.630461,0.759246,-0.161444
-8.389566,-9.264629,-24.901911,0.634393,0.773011,-0.000000
-3.569915,11.962760,-19.853489,0.290285,-0.956940,0.000000
11.453999,5.053946,-20.443264,-0.881921,-0.471397,0.000000
20.260644,14.277905,22.119211,0.620644,0.440461,0.648687
29.055524,15.986660,1.924688,0.872474,0.482336,0.078367
-30.944995,4.366933,11.575586,-0.952951,0.084545,0.291097
30.611983,6.060653,-11.510537,0.903180,0.214847,-0.371628
-13.965059,11.442628,-27.939605,-0.427026,0.302377,-0.852184
22.133521,24.283652,-5.207333,0.630461,0.759246,-0.161444
12.122176,-29.765587,3.044391,-0.956940,0.000000,-0.290285
9.467188,29.424963,8.142747,-0.773011,0.000000,-0.634393
15.604432,22.897037,-18.335016,0.446517,0.708443,-0.546564
22.707752,-21.527251,11.314901,0.649101,-0.663683,0.371743
25.050603,20.627944,7.543569,0.751866,0.639868,0.158952
-17.513167,24.868693,13.403744,-0.522219,0.742100,0.420208
7.612122,29.872867,-12.633076,0.159793,0.922797,-0.350587
1.739110,-14.011069,-12.373056,-0.098017,0.000000,0.995185
2.530485,12.278068,30.028004,-0.290285,-0.956940,-0.000000
-23.792333,12.986082,19.274534,-0.731257,0.349826,0.585564
-10.455418,8.243367,-6.922161,0.881921,0.000000,0.471397
-32.144026,7.278419,-4.468795,-0.971231,0.223787,-0.081426
-12.528722,-1.296820,0.158609,0.995185,-0.000000,-0.098017
-26.073006,19.805975,-5.702722,-0.791679,0.589579,-0.160129
12.104569,3.102433,9.409415,-0.956940,-0.290285,0.000000
7.838801,9.716630,-26.040649,-0.634393,-0.773010,0.000000
25.692399,14.672218,15.243579,0.801686,0.395175,0.448483
-33.085032,-2.904180,-1.417852,-0.995747,-0.092126,0.000000
6.880885,-26.356128,-10.477480,-0.471397,0.000000,0.881921
0.953843,-28.841388,-12.450399,-0.098017,0.000000,0.995185
-8.200850,-9.419504,-15.634035,0.634393,0.773010,0.000000
12.444188,-1.016898,-24.514255,-0.995185,0.098017,-0.000000
22.957931,-9.668424,22.102348,0.641557,-0.296210,0.707576
15.809728,-28.583082,6.256243,0.500142,-0.839788,0.211221
1.965045,12.350804,20.083462,-0.098017,-0.995185,0.000000
-5.649683,-13.268320,-11.135571,0.471397,-0.000000,0.881921
-7.755977,22.779115,9.784602,0.634393,0.000000,-0.773010
21.757409,10.239589,22.951753,0.641557,0.296210,0.707576
10.924760,-6.044084,22.970265,-0.881921,0.471397,0.000000
0.258932,12.518841,16.516728,-0.098017,-0.995185,0.000000
-24.377204,-0.514691,22.658872,-0.768912,0.000000,0.639355
8.039589,9.551848,-13.982847,-0.634393,-0.773010,0.000000
0.846423,-28.962616,-16.329906,0.078367,-0.872474,-0.482336
26.649490,-19.721444,-2.863819,0.830386,-0.551642,-0.078417
8.464968,-18.784365,-26.118702,0.293108,-0.581154,-0.759176
32.570602,6.522783,-1.019406,0.984405,0.175916,0.000000
-20.292005,-11.797739,-23.628148,-0.641557,-0.296210,-0.707576
3.442524,-14.821558,-29.562697,0.082070,-0.424492,-0.901705
-15.359192,-2.914051,-29.313546,-0.482336,-0.078367,-0.872474
22.680850,12.724359,-20.721033,0.663683,0.371743,-0.649101
9.083430,-8.610359,16.359042,-0.773010,0.634393,-0.000000
1.187471,-23.671234,12.427388,-0.098017,0.000000,-0.995185
-23.663981,23.319317,1.475013,-0.723272,0.685852,0.080531
13.776197,30.247683,-1.323517,0.424492,0.901705,-0.082070
-9.068159,8.628965,-18.864374,0.773010,-0.634393,0.000000
-0.184477,13.494874,12.526175,0.098017,0.000000,-0.995185
12.930673,-21.814047,-21.496291,0.371743,-0.649101,-0.663683
12.277884,24.181271,-2.531091,-0.956941,0.000000,0.290284
-13.109196,-9.450533,29.075322,-0.427026,-0.302377,0.852184
24.102853,-21.572147,7.699145,0.702258,-0.670528,0.239219
-2.990610,-20.991877,25.684632,-0.080542,-0.680461,0.728344
-16.304123,27.868691,-7.925914,-0.500142,0.839788,-0.211221
-16.937313,27.316114,8.441096,-0.508425,0.818634,0.267099
9.593450,27.827783,15.497617,0.302377,0.852184,0.427026
25.214443,0.597573,-21.651977,0.768912,0.000000,-0.639355
15.094126,6.456651,28.897896,0.437842,0.161879,0.884358
-12.484170,-0.610956,26.224167,0.995185,0.098017,0.000000
2.722852,12.219714,-20.913601,-0.290285,-0.956940,-0.000000
-11.476662,-29.932083,-5.011548,0.881921,-0.000000,0.471397
-12.518438,0.263032,-28.725971,0.995185,-0.098017,-0.000000
-4.426064,-11.703050,29.844670,0.290285,0.956940,0.000000
17.440029,-23.000126,-16.430735,0.521887,-0.699011,-0.488895
-11.668900,-4.538642,-7.893351,0.956940,0.290287,-0.000000
17.254300,-16.901179,22.826427,0.488895,-0.521887,0.699011
-6.467272,15.370098,-28.791829,-0.211221,0.500142,-0.839788
-6.230055,-10.825356,12.382064,0.471397,0.881921,-0.000000
-13.562682,8.270251,-29.257805,-0.469405,0.233172,-0.851639
0.323444,-12.512487,17.586151,-0.098017,0.995185,-0.000000
-10.934046,17.746003,-25.960294,-0.293108,0.581154,-0.759176
-5.574198,15.141392,-11.175919,0.471397,0.000000,0.881921
-7.438598,13.284231,-29.554385,-0.214847,0.371628,-0.903180
-27.212269,11.116842,-15.524468,-0.829480,0.337457,-0.445068
-24.966985,9.015205,20.011366,-0.759176,0.293108,0.581154
8.001464,22.132393,23.509409,0.217328,0.638727,0.738104
12.441542,26.148909,-1.043765,-0.995185,0.000000,0.098017
-11.647731,-4.608427,27.373403,0.956940,0.290285,0.000000
6.480523,18.568328,-10.691478,-0.471397,0.000000,0.881921
-5.491168,16.560970,11.220299,0.471397,0.000000,-0.881921
-25.991451,-17.588534,-11.023175,-0.759514,-0.526342,-0.382234
11.663098,26.242151,4.557767,-0.956940,-0.000000,-0.290285
0.472839,-20.590872,26.096758,0.000000,-0.639355,0.768912
-12.322870,-10.550020,2.248655,0.995185,0.000000,-0.098017
-9.442965,20.977156,-8.172263,0.773011,0.000000,0.634393
-24.431253,-17.358257,14.365860,-0.708443,-0.546564,0.446517
1.643186,23.127423,-23.838482,0.080542,0.680461,-0.728344
-13.071740,0.593050,30.549396,-0.356822,0.000000,0.934172
25.640146,-1.577804,21.140011,0.768912,-0.000000,0.639355
1.850988,-19.405829,26.966376,0.081178,-0.546249,0.833680
-18.613039,-26.113573,-8.817946,-0.581154,-0.759176,-0.293108
11.743025,4.294284,-29.500618,-0.956940,-0.290285,0.000000
-5.214768,-29.078775,15.187933,-0.161879,-0.884358,0.437842
12.125800,-3.032445,7.618745,-0.956940,0.290284,0.000000
-5.249394,-23.087014,11.349530,0.471397,0.000000,-0.881921
29.499382,-6.664681,-13.792378,0.889788,-0.180319,-0.419240
-7.754990,24.718032,9.785412,0.634393,0.000000,-0.773010
-9.378863,-25.014780,19.815934,-0.313422,-0.759999,0.569358
-9.966670,22.184595,-7.534127,0.773010,-0.000000,0.634393
-10.769183,23.709986,-20.676634,-0.296210,0.707576,-0.641557
-8.930131,21.338381,-23.923080,-0.217328,0.638727,-0.738104
-28.859527,5.515625,-15.644615,-0.889788,0.180319,-0.419240
-29.535436,14.935525,-3.051311,-0.872474,0.482336,-0.078367
-28.058564,9.013485,-15.441164,-0.818634,0.267099,-0.508425
10.768285,-6.336828,27.624072,-0.881921,0.471397,0.000000
-15.476590,-28.568402,-7.103433,-0.500142,-0.839788,-0.211221
22.262573,-15.130066,-19.542844,0.635471,-0.503751,-0.585159
2.625251,18.199250,-12.249321,-0.290284,0.000000,0.956940
-19.693014,-14.926454,-22.221934,-0.620644,-0.440461,-0.648687
11.208515,22.035746,5.513214,-0.881921,-0.000000,-0.471397
-17.130623,16.266374,23.386877,-0.488895,0.521887,0.699011
22.935561,-3.393229,-23.814303,0.685852,-0.080531,-0.723272
33.124412,0.495791,2.953197,0.996384,0.049505,0.069057
12.563305,18.851471,-24.333359,0.349826,0.585564,-0.731257
4.557596,11.663150,16.086318,-0.290285,-0.956940,0.000000
30.861185,0.442361,12.441927,0.939566,0.050000,0.338698
-12.416965,4.425691,-1.293300,0.995185,0.000000,0.098017
-5.469094,11.232098,25.897164,0.471397,-0.881921,0.000000
7.874580,25.031681,20.536777,0.239219,0.702258,0.670528
-25.614539,-12.468430,17.205890,-0.742100,-0.420208,0.522219
22.289164,24.174272,-5.113923,0.630461,0.759246,-0.161444
33.070365,-2.636847,-2.198147,0.996384,-0.049505,-0.069057
-30.685739,-2.027611,-12.694603,-0.939566,-0.050000,-0.338698
-5.554378,19.272768,26.539871,-0.132793,0.557284,0.819634
-21.862237,-19.496655,15.732882,-0.648687,-0.620644,0.440461
-6.855926,-11.469599,10.490821,0.471397,0.000000,-0.881921
-7.236225,10.211151,23.470977,0.634393,-0.773010,0.000000
-10.132677,7.331846,-12.297095,0.773011,-0.634393,0.000000
-32.272029,4.288508,7.165636,-0.984754,0.084103,0.152273
-24.509128,20.875135,8.430292,-0.707576,0.641557,0.296210
-2.809511,29.709367,-14.660196,-0.078367,0.872474,-0.482336
-3.821555,16.123325,-11.886426,0.290285,0.000000,0.956940
-26.701192,0.091870,-19.784191,-0.802672,0.000000,-0.596420
-8.433222,-9.228802,19.063563,0.634393,0.773010,-0.000000
-12.497083,0.479850,23.785959,0.995185,-0.098017,0.000000
5.355385,14.747790,11.292877,-0.471397,-0.000000,-0.881921
-25.987351,-20.571368,-3.308096,-0.791679,-0.589579,-0.160129
-14.013038,-23.460234,-18.905108,-0.446517,-0.708443,-0.546564
25.490966,2.169119,-21.296405,0.728344,0.080542,-0.680461
-29.296398,4.792537,15.028415,-0.889788,0.180319,0.419240
11.770864,4.202511,15.887457,-0.956940,-0.290284,0.000000
-0.205895,-12.524065,19.369615,0.098017,0.995185,0.000000
-2.611178,-12.253589,24.189579,0.290285,0.956940,0.000000
-27.838638,13.554632,12.248372,-0.802678,0.457622,0.382479
-10.127606,-21.299006,7.338026,0.773010,0.000000,-0.634393
-16.763497,18.035348,22.322919,-0.488895,0.521887,0.699011
-5.870020,17.673051,-27.570507,-0.211221,0.500142,-0.839788
-19.947561,-17.381905,20.118342,-0.635471,-0.503751,0.585159
20.075338,-26.452622,-2.621973,0.546249,-0.833680,-0.081178
-1.287714,-17.838004,-28.048504,-0.081178,-0.546249,-0.833680
7.800736,-23.348698,-22.325747,0.239219,-0.702258,-0.670528
11.392115,-5.169723,16.872380,-0.881921,0.471397,0.000000
12.480481,0.648406,10.275890,-0.995185,-0.098017,0.000000
9.427827,8.190709,16.582423,-0.773020,-0.634382,0.000002
-28.249810,1.658742,-17.475635,-0.833680,0.081178,-0.546249
-12.201972,27.059851,-14.959421,-0.382479,0.802678,-0.457622
-12.027708,-24.645165,18.801728,-0.382234,-0.759514,0.526342
-11.097933,-14.164522,-5.720100,0.881921,0.000000,0.471397
6.359325,-10.756260,-25.604568,-0.471397,0.881921,0.000000
18.302651,-27.659009,-2.161119,0.546249,-0.833680,-0.081178
22.150261,6.258495,24.026727,0.639868,0.158952,0.751866
30.595211,-8.029758,10.412912,0.903180,-0.214847,0.371628
13.675012,29.509875,6.885781,0.419240,0.889788,0.180319
29.392859,-1.378851,-15.446944,0.883850,-0.050171,-0.465071
-0.691343,12.476252,28.727281,0.098017,-0.995185,0.000000
4.311424,22.097910,24.503727,0.161444,0.630461,0.759246
27.468166,9.389403,-16.194299,0.818634,0.267099,-0.508425
-21.177611,-16.507591,-19.535210,-0.635471,-0.503751,-0.585159
-14.626870,-4.944252,29.406072,-0.437842,-0.161879,0.884358
-22.878319,23.692212,5.070494,-0.680461,0.728344,0.080542
-31.890911,7.563753,5.773317,-0.971850,0.181286,0.150476
-21.639436,-25.126091,-2.570589,-0.680461,-0.728344,-0.080542
-8.856701,-8.881261,16.198173,0.634393,0.773010,-0.000000
25.313871,8.007453,20.045145,0.738104,0.217328,0.638727
4.540712,-26.389927,-19.696018,0.160129,-0.791679,-0.589579
-33.091130,2.599571,-1.925259,-0.996384,0.049505,-0.069057
-25.352879,-0.839863,21.485488,-0.768912,0.000000,0.639355
-31.834759,5.770412,-7.711323,-0.947462,0.216204,-0.235738
-9.176655,-8.496763,16.158025,0.773010,0.634393,0.000000
28.883096,15.934103,4.167836,0.872474,0.482336,0.078367
12.465993,17.472038,-25.428629,0.420208,0.522219,-0.742100
-9.386226,-15.904655,-8.241400,0.773010,0.000000,0.634393
23.993562,-20.600557,10.256562,0.707576,-0.641557,0.296210
23.093027,21.640293,10.155779,0.707576,0.641557,0.296210
23.321232,17.026446,16.451890,0.699011,0.488895,0.521887
17.882334,10.850010,25.856651,0.569358,0.313422,0.759999
9.525139,8.072133,9.690487,-0.773010,-0.634394,-0.000000
29.588635,-14.642638,-3.904246,0.884358,-0.437842,-0.161879
3.459160,23.364654,-23.402001,0.080531,0.723272,-0.685852
9.422952,12.651335,8.196649,-0.773011,0.000000,-0.634393
-1.959791,-18.551657,-27.515457,-0.081178,-0.546249,-0.833680
9.052516,25.073298,-19.917471,0.313422,0.759999,-0.569358
-0.502068,-25.320399,12.494895,0.098017,0.000000,-0.995185
22.229855,16.542011,18.362860,0.635471,0.503751,0.585159
-10.990782,5.920564,28.907903,0.881921,-0.471397,0.000000
-7.094081,-14.743709,28.964126,-0.180319,-0.419240,0.889788
-22.935698,18.980632,14.752820,-0.708443,0.546564,0.446517
-20.880048,-5.451474,25.278342,-0.639868,-0.158952,0.751866
18.543033,-20.312275,18.653429,0.577350,-0.577350,0.577350
14.472266,29.820772,-2.413699,0.424492,0.901705,-0.082070
-29.101075,-12.517240,10.110485,-0.885789,-0.343197,0.312401
-25.092412,-4.910473,-21.235572,-0.759246,-0.161444,-0.630461
19.807943,20.262287,-17.345444,0.585159,0.635471,-0.503751
-4.410012,11.707919,29.532163,0.290285,-0.956940,-0.000000
-10.555426,-10.153565,6.735059,0.881921,0.000000,-0.471397
12.092222,-3.143136,27.804623,-0.956940,0.290284,-0.000000
17.459098,-4.340692,-28.012944,0.551642,-0.078417,-0.830386
10.669382,7.793593,-30.497851,0.308167,0.228893,-0.923386
11.572977,-18.251306,4.831354,-0.881921,0.000000,-0.471397
-1.854645,25.017722,-21.847139,-0.080531,0.723272,-0.685852
30.910397,4.705991,11.484572,0.940327,0.181151,0.288045
18.970319,-9.673222,25.526885,0.569358,-0.313422,0.759999
-29.397890,13.826239,-7.154452,-0.884358,0.437842,-0.161879
17.966766,20.711515,18.830456,0.577350,0.577350,0.577350
-26.804305,11.279204,16.161691,-0.829480,0.337457,0.445068
-20.003200,-21.992034,14.936594,-0.585159,-0.635471,0.503751
22.867609,18.421207,-15.545618,0.708443,0.546564,-0.446517
-18.922409,-23.180846,14.589931,-0.521887,-0.699011,0.488895
9.620817,-18.986796,-25.517481,0.293108,-0.581154,-0.759176
27.212354,-18.839034,3.110962,0.830386,-0.551642,0.078417
-4.903718,17.784863,-27.656940,-0.132793,0.557284,-0.819634
11.859000,-3.911968,25.277481,-0.956940,0.290285,-0.000000
7.807217,-30.795409,9.767666,0.228893,-0.923386,0.308167
-10.966446,-20.994192,23.381468,-0.349826,-0.585564,0.731257
-11.704491,23.147390,4.421312,0.956940,-0.000000,-0.290285
-7.308244,-10.152047,-10.265221,0.634393,0.773010,0.000000
-16.365586,-15.546696,-24.452843,-0.546564,-0.446517,-0.708443
5.539178,11.194638,-19.624968,-0.471397,-0.881921,0.000000
-17.386848,-10.036936,26.563157,-0.569358,-0.313422,0.759999
-13.614665,-27.233341,13.394780,-0.448483,-0.801686,0.395175
-12.764724,28.550235,-11.337072,-0.364801,0.879088,-0.306798
-32.497087,0.011384,-7.151535,-0.977326,0.049607,-0.205849
12.835550,21.012959,-22.333058,0.371743,0.649101,-0.663683
16.927560,27.177365,8.884913,0.508425,0.818634,0.267099
-25.187491,6.990412,20.537238,-0.738104,0.217328,0.638727
4.515342,29.986042,13.614016,0.161879,0.884358,0.437842
-2.481108,12.293046,-22.770603,0.290285,-0.956940,0.000000
-1.365393,24.679891,-22.260850,-0.080531,0.723272,-0.685852
-13.442759,-25.644232,16.332448,-0.382234,-0.759514,0.526342
1.073277,-30.557917,-13.049430,0.000000,-0.934172,-0.356822
-2.872663,18.759952,27.290087,-0.081178,0.546249,0.833680
-7.835762,-26.655970,18.239484,-0.233321,-0.809504,0.538762
-22.923603,16.198472,17.760104,-0.699011,0.488895,0.521887
-12.357137,8.304530,-1.900745,0.995185,0.000000,0.098017
22.085788,-23.563135,-7.955971,0.638727,-0.738104,-0.217328
9.094917,8.596360,-25.303222,-0.773011,-0.634393,0.000000
6.382295,10.743982,26.418295,-0.471397,-0.881921,-0.000000
-9.124103,-19.091502,-25.629103,-0.293108,-0.581154,-0.759176
-14.515302,29.010490,7.396335,-0.419240,0.889788,0.180319
-19.262252,-7.670915,26.022785,-0.538762,-0.233321,0.809504
6.009760,-27.609905,10.943106,-0.471397,0.000000,-0.881921
24.595054,17.825256,-13.471896,0.759514,0.526342,-0.382234
11.990135,-3.479672,3.849125,-0.956940,0.290284,-0.000000
-12.481525,0.637807,11.409772,0.995185,-0.098017,0.000000
-9.552650,-23.830044,8.038611,0.773010,-0.000000,-0.634394
10.746479,6.377624,17.969577,-0.881921,-0.471397,0.000000
2.924487,-12.158548,23.765471,-0.290285,0.956940,0.000000
-10.384892,7.024521,25.812940,0.773010,-0.634394,0.000000
-2.530890,-12.277945,-21.177814,0.290285,0.956940,0.000000
11.445961,5.068984,8.898959,-0.881921,-0.471397,0.000000
4.064867,11.812618,12.311260,-0.290285,-0.956940,0.000000
2.761389,-25.309541,-12.208024,-0.290284,0.000000,0.956940
-9.815185,-8.510946,30.605107,-0.308167,-0.228893,0.923386
-12.542714,11.741788,0.016546,0.995185,-0.000000,-0.098017
-20.561106,-5.821470,-25.471554,-0.639868,-0.158952,-0.751866
-18.485123,21.200654,-17.698307,-0.585159,0.635471,-0.503751
11.467105,-23.219406,20.895463,0.296210,-0.707576,0.641557
-0.347264,12.510141,15.138528,0.098017,-0.995185,0.000000
-2.185529,-12.329088,15.544761,0.098017,0.995185,-0.000000
-6.241481,24.000348,10.819249,0.471397,0.000000,-0.881921
12.538453,19.571332,0.059809,-0.995185,-0.000000,-0.098017
10.792150,27.951439,14.402046,0.302377,0.852184,0.427026
20.935970,16.282684,19.991245,0.635471,0.503751,0.585159
-3.994864,26.583206,-19.584737,-0.160129,0.791679,-0.589579
13.418004,-9.528526,-28.892906,0.427026,-0.302377,-0.852184
9.533741,20.062522,8.061652,-0.773010,0.000000,-0.634394
-10.906615,17.312990,-6.078030,0.881921,0.000000,0.471397
23.780033,-12.610931,-19.514017,0.731257,-0.349826,-0.585564
10.735209,18.772623,-6.398708,-0.881921,0.000000,0.471397
5.751319,11.081246,26.414795,-0.471397,-0.881921,-0.000000
-17.871100,-2.103210,27.950538,-0.551642,-0.078417,0.830386
-15.914766,-10.332640,27.356467,-0.427026,-0.302377,0.852184
-8.433070,-21.710685,-9.228926,0.634393,0.000000,0.773010
-29.866576,-2.320023,-14.393081,-0.901705,-0.082070,-0.424492
21.146764,21.727027,-13.643823,0.648687,0.620644,-0.440461
9.922454,7.588003,-17.970042,-0.773010,-0.634393,-0.000000
30.053399,-11.850005,-7.997054,0.923386,-0.308167,-0.228893
6.989609,-10.413544,10.665985,-0.634393,0.773010,0.000000
-5.143775,11.405985,27.488519,0.471397,-0.881921,0.000000
24.116222,-22.720612,2.512246,0.723272,-0.685852,0.080531
7.132983,-20.382171,25.279701,0.217328,-0.638727,0.738104
-11.332910,-24.307311,-19.684618,-0.313422,-0.759999,-0.569358
-26.528156,8.709568,18.064992,-0.818634,0.267099,0.508425
23.482126,-8.003797,-22.163128,0.738104,-0.217328,-0.638727
-15.064534,27.638973,-10.674593,-0.445068,0.829480,-0.337457
12.477924,-12.605835,-0.674369,-0.995185,0.000000,0.098017
-10.151482,-7.308933,14.639194,0.773011,0.634393,-0.000000
1.184544,12.427676,-16.222031,-0.098017,-0.995185,0.000000
23.605265,23.343106,-1.799747,0.723272,0.685852,-0.080531
-11.947882,-3.618962,12.103008,0.956940,0.290284,0.000000
26.893931,19.332388,3.012256,0.830386,0.551642,0.078417
29.779329,12.663568,8.007362,0.923386,0.308167,0.228893
22.645229,5.559652,23.753232,0.639868,0.158952,0.751866
26.735105,12.729999,-15.091052,0.801686,0.395175,-0.448483
-10.118419,-7.349220,-20.629019,0.773010,0.634393,-0.000000
21.217035,23.835896,-9.554310,0.581154,0.759176,-0.293108
10.800871,14.233300,6.275863,-0.881921,-0.000000,-0.471397
11.125816,26.683273,5.667935,-0.881921,0.000000,-0.471397
-6.617714,-10.618148,21.791780,0.471397,0.881921,-0.000000
2.406471,18.926592,-27.226295,0.081178,0.546249,-0.833680
-18.765627,0.178761,27.455131,-0.597636,0.000000,0.801768
-24.725529,14.343789,16.960195,-0.742100,0.420208,0.522219
17.602780,28.083189,2.514344,0.546249,0.833680,0.081178
-30.153976,-13.018607,-5.142867,-0.922797,-0.350587,-0.159793
-13.308448,17.730201,-24.769925,-0.420208,0.522219,-0.742100
9.007634,-26.621152,17.784299,0.233321,-0.809504,0.538762
10.358656,29.046802,-12.431415,0.312401,0.885789,-0.343197
-26.613458,-11.545659,-16.315346,-0.829480,-0.337457,-0.445068
12.380350,-22.264863,1.665056,-0.995185,0.000000,-0.098017
19.020985,20.355384,18.132369,0.577350,0.577350,0.577350
11.003483,5.896802,20.389175,-0.881921,-0.471397,0.000000
-20.136569,-26.344744,3.133689,-0.557284,-0.819634,0.132793
-18.309757,-11.571413,-25.215737,-0.526342,-0.382234,-0.759514
-21.261303,-22.531523,12.047594,-0.649101,-0.663683,0.371743
1.793601,-12.367689,-13.282914,-0.098017,0.995185,0.000000
25.980931,3.666857,20.484011,0.759246,0.161444,0.630461
11.832306,-3.999966,-5.221527,-0.956940,0.290284,-0.000000
8.864843,-18.656046,26.062544,0.293108,-0.581154,0.759176
7.862199,28.558801,-9.697428,-0.634393,0.000000,0.773010
-11.883953,9.670313,-3.829708,0.956940,0.000000,0.290285
28.403067,-16.674024,4.886724,0.884358,-0.437842,0.161879
-23.361966,23.719473,0.737836,-0.680461,0.728344,0.080542
-11.860775,9.091404,-3.906113,0.956940,-0.000000,0.290285
-17.903021,9.779248,-26.282733,-0.569358,0.313422,-0.759999
-11.782600,-26.047624,16.955974,-0.382234,-0.759514,0.526342
10.322888,19.552068,-7.100073,-0.773010,0.000000,0.634394
-24.267472,12.663036,-18.874169,-0.731257,0.349826,-0.585564
8.138371,-9.470780,22.407679,-0.634393,0.773010,-0.000000
-28.854270,11.903765,-11.484230,-0.885789,0.343197,-0.312401
-12.380452,1.664022,-17.593985,0.995185,-0.098017,-0.000000
-15.585514,28.842241,5.738333,-0.419240,0.889788,0.180319
-15.390680,-0.366644,-29.432160,-0.443056,0.000000,-0.896494
-2.108455,-29.368110,15.391381,-0.078367,-0.872474,0.482336
17.628949,-11.850979,25.546841,0.526342,-0.382234,0.759514
11.333317,5.279726,6.360024,-0.881921,-0.471397,0.000000
-2.843815,16.650522,28.675052,-0.081178,0.546249,0.833680
11.645198,-4.616775,27.846826,-0.956940,0.290285,-0.000000
-13.581402,30.045421,4.460758,-0.419240,0.889788,0.180319
-28.289376,12.319810,12.566854,-0.879088,0.306798,0.364801
-12.390968,-19.635493,1.557253,0.995185,0.000000,-0.098017
-5.689903,-28.429795,11.114073,0.471397,0.000000,-0.881921
14.659496,18.052619,23.778019,0.420208,0.522219,0.742100
-22.741188,3.921773,23.939771,-0.685852,0.080531,0.723272
-28.176994,0.202518,17.798032,-0.802672,0.000000,0.596420
32.388971,-1.585699,7.285452,0.977326,-0.049607,0.205849
-12.300983,10.362400,-2.454943,0.956940,0.000000,0.290284
4.024751,-27.842817,17.760102,0.078417,-0.830386,0.551642
23.188769,7.277191,-22.703013,0.670528,0.239219,-0.702258
-23.327507,4.474462,23.322248,-0.685852,0.080531,0.723272
20.426073,13.012835,-22.819921,0.620644,0.440461,-0.648687
-5.941271,-22.882593,10.979714,0.471397,-0.000000,-0.881921
25.022281,6.232960,20.981376,0.759246,0.161444,0.630461
-13.697737,30.257884,1.617255,-0.424492,0.901705,0.082070
-4.043467,11.819109,-15.515295,0.290285,-0.956940,0.000000
-8.638172,21.251657,9.060604,0.634393,0.000000,-0.773010
12.603223,29.969062,-6.873329,0.371628,0.903180,-0.214847
-20.769628,4.028442,-25.673159,-0.639868,0.158952,-0.751866
-27.439563,-18.744494,1.370020,-0.830386,-0.551642,0.078417
0.324555,29.792294,12.512378,-0.098017,0.000000,-0.995185
0.123911,-24.604541,22.357657,0.000000,-0.762305,0.647218
-30.162762,-11.115012,8.545421,-0.923386,-0.308167,0.228893
-21.852103,3.124225,-24.871658,-0.685852,0.080531,-0.723272
-24.737807,-18.757546,-11.904463,-0.759514,-0.526342,-0.382234
-19.717788,17.840900,19.950049,-0.577350,0.577350,0.577350
22.152998,-16.069218,-18.853344,0.635471,-0.503751,-0.585159
-10.107004,27.378261,16.031047,-0.302377,0.852184,0.427026
-4.864265,26.897118,18.927092,-0.160129,0.791679,0.589579
-15.194056,29.361528,-3.726095,-0.424492,0.901705,-0.082070
-31.192169,-9.564713,-6.479875,-0.923386,-0.308167,-0.228893
23.525470,-7.165224,-22.398366,0.738104,-0.217328,-0.638727
-14.134410,-15.514835,-25.805753,-0.395175,-0.448483,-0.801686
24.646350,18.737374,-12.113970,0.759514,0.526342,-0.382234
-11.856973,3.918649,-26.682672,0.956940,-0.290285,0.000000
2.872279,29.994079,12.174386,-0.290284,0.000000,-0.956940
20.105809,15.752976,-21.265773,0.620644,0.440461,-0.648687
10.763725,-6.345358,25.790423,-0.881921,0.471397,0.000000
21.208392,-21.182952,-14.319706,0.648687,-0.620644,-0.440461
21.211887,-12.488575,-22.358032,0.663683,-0.371743,-0.649101
-26.153437,17.036327,11.461700,-0.759514,0.526342,0.382234
15.370646,-24.146296,-16.906749,0.446517,-0.708443,-0.546564
29.864932,13.923446,-4.340041,0.884358,0.437842,-0.161879
29.454019,-7.740288,-13.353739,0.903180,-0.214847,-0.371628
0.281654,-19.778698,-26.705273,0.000000,-0.596420,-0.802672
-20.056604,-18.972103,18.480031,-0.577350,-0.577350,0.577350
11.042383,17.564241,5.824026,-0.881921,-0.000000,-0.471397
-19.991533,-17.690380,-19.805029,-0.635471,-0.503751,-0.585159
-11.707167,-9.924062,4.412493,0.956940,0.000000,-0.290284
-11.121196,6.623257,-5.676577,0.881921,0.000000,0.471397
-4.775646,-11.597005,-17.935627,0.290285,0.956940,-0.000000
-10.844260,8.730177,30.207323,-0.308167,0.228892,0.923386
21.642367,19.740018,-15.713778,0.648687,0.620644,-0.440461
-27.601084,7.309507,17.013782,-0.839788,0.211221,0.500142
14.724135,18.880340,23.118392,0.488895,0.521887,0.699011
-16.308602,-24.907735,14.831784,-0.522219,-0.742100,0.420208
-13.454951,5.072360,-29.962833,-0.437842,0.161879,-0.884358
32.203982,4.375028,-7.451749,0.952951,0.084545,-0.291097
5.618166,-20.720416,-25.369704,0.161444,-0.630461,-0.759246
10.250771,17.718453,-26.240526,0.267099,0.508425,-0.818634
1.786649,-17.962388,-12.368374,-0.098017,0.000000,0.995185
12.023516,30.166162,-7.047490,0.371628,0.903180,-0.214847
12.619661,17.619430,25.237896,0.420208,0.522219,0.742100
-0.986350,25.868069,12.447197,0.098017,0.000000,-0.995185
16.585853,-12.423097,25.981780,0.526342,-0.382234,0.759514
-26.273622,20.266253,-3.011445,-0.830386,0.551642,-0.078417
-14.447188,10.017054,-28.203843,-0.427026,0.302377,-0.852184
-16.124045,24.069485,-16.306579,-0.521887,0.699011,-0.488895
10.887878,-21.744046,-6.113084,-0.881921,0.000000,0.471397
12.534096,-0.104050,-1.861986,-0.995185,0.098017,0.000000
-12.466327,-24.767601,-18.306524,-0.382234,-0.759514,-0.526342
-4.408437,-11.708397,28.109930,0.290285,0.956940,0.000000
11.637976,4.640585,9.746014,-0.956940,-0.290285,-0.000000
-27.819271,2.542984,-18.001312,-0.833680,0.081178,-0.546249
14.529561,-26.091087,-14.673742,0.448483,-0.801686,-0.395175
-10.314449,29.143618,-12.221774,-0.312401,0.885789,-0.343197
-17.395576,-26.173182,11.071773,-0.508425,-0.818634,0.267099
13.064631,30.632110,0.528815,0.338699,0.939565,0.050001
-28.055766,5.752404,16.907925,-0.839788,0.211221,0.500142
27.235554,-17.338268,7.905906,0.809504,-0.538762,0.233321
-29.423353,-13.472572,-7.847003,-0.851639,-0.469405,-0.233172
-19.561564,-3.111857,-26.732279,-0.551642,-0.078417,-0.830386
-17.010479,26.431540,11.012966,-0.508425,0.818634,0.267099
-12.370437,29.743845,1.765705,0.995185,0.000000,-0.098017
8.871132,-14.601842,-8.869044,-0.773021,0.000000,0.634381
-0.552266,-20.629361,12.489950,0.098017,0.000000,-0.995185
1.521788,20.677103,-26.025056,0.000000,0.639355,-0.768912
-26.952809,-19.364522,-2.162717,-0.830386,-0.551642,-0.078417
7.701969,9.828926,-24.545048,-0.634393,-0.773010,0.000000
-10.031140,-28.120393,7.455569,0.773010,0.000000,-0.634393
-12.133327,-3.007630,-12.851185,0.956938,0.290291,0.000000
24.349071,13.267967,-18.360831,0.742100,0.420208,-0.522219
-12.199763,30.326118,2.788620,0.956940,-0.000000,-0.290285
32.604647,1.617124,6.253897,0.977326,0.049607,0.205849
-6.003728,16.826246,-10.946330,0.471397,0.000000,0.881921
12.307169,-2.408070,-15.535922,-0.995185,0.098018,0.000000
12.366638,1.804283,28.022276,-0.995185,-0.098017,0.000000
23.849172,23.043770,2.158479,0.723272,0.685852,0.080531
29.124344,-9.901954,-12.588187,0.879088,-0.306798,-0.364801
-1.601582,-12.386602,19.184731,0.098017,0.995185,-0.000000
1.675996,-21.473886,25.362526,0.000000,-0.639355,0.768912
2.660595,12.238599,-18.435365,-0.290285,-0.956940,-0.000000
13.767142,26.464282,-14.695898,0.382479,0.802678,-0.457622
-21.092345,-3.936792,-25.417889,-0.639868,-0.158952,-0.751866
13.846146,-6.146281,-29.572577,0.437842,-0.161879,-0.884358
25.837256,4.275313,20.501225,0.759246,0.161444,0.630461
-3.099009,-13.703255,30.120422,-0.082070,-0.424492,0.901705
9.479975,8.127166,-10.517833,-0.773011,-0.634393,0.000000
26.116815,-12.727775,16.198235,0.801686,-0.395175,0.448483
-10.685447,-6.491806,13.762075,0.881921,0.471397,0.000000
4.605725,-15.001346,-29.347010,0.180319,-0.419240,-0.889788
8.567278,-9.118784,-26.076344,-0.634393,0.773010,0.000000
15.982530,17.657659,-23.151121,0.488895,0.521887,-0.699011
-12.410022,-1.363794,-9.364523,0.995185,0.098017,-0.000000
-1.388021,20.318717,-12.407636,0.098017,0.000000,0.995185
-6.990830,15.194896,28.764489,-0.211221,0.500142,0.839788
-21.238762,-11.931572,22.649551,-0.663683,-0.371743,0.649101
-10.549926,-19.414318,-6.745349,0.881921,-0.000000,0.471397
1.561713,-14.361153,-12.390528,-0.098017,0.000000,0.995185
11.385914,5.181325,19.657273,-0.881921,-0.471397,0.000000
-29.776774,10.390488,10.530996,-0.885789,0.343197,0.312401
-5.135442,-12.971729,-11.410439,0.471397,-0.000000,0.881921
26.507247,-7.615209,18.673576,0.818634,-0.267099,0.508425
12.447657,-0.981680,-2.251580,-0.995185,0.098017,0.000000
-5.314387,23.143174,-23.417730,-0.080531,0.723272,-0.685852
-27.613207,-6.664302,-17.265912,-0.839788,-0.211221,-0.500142
-9.454742,-22.460407,8.157912,0.773011,-0.000000,-0.634393
-12.111625,-29.957571,7.771967,-0.371628,-0.903180,0.214847
-10.450244,6.931841,-16.979225,0.881921,-0.471397,0.000000
-18.709770,-8.681188,26.099300,-0.538762,-0.233321,0.809504
-32.201978,7.157613,-4.109573,-0.971231,0.223787,-0.081426
-28.626382,1.051352,-16.938935,-0.883850,0.050171,-0.465071
-30.774437,9.330068,8.480978,-0.923386,0.308167,0.228893
1.670159,-12.379847,-14.894102,-0.098017,0.995185,0.000000
-1.154043,-12.954236,30.638633,-0.050000,-0.338697,0.939566
-2.760113,-24.445627,-22.344131,-0.080531,-0.723272,-0.685852
-12.322502,-2.281265,30.822068,-0.311336,-0.081406,0.946807
-1.269404,26.163671,-12.419319,0.098017,0.000000,0.995185
-23.539288,19.519910,-13.135056,-0.708443,0.546564,-0.446517
-12.004899,3.431002,4.900933,0.956941,-0.290281,0.000000
10.203980,7.244964,13.029629,-0.773011,-0.634393,0.000000
-12.370145,25.700761,-1.768672,0.995185,0.000000,0.098017
5.382704,23.202622,23.336170,0.158952,0.751866,0.639868
12.360756,1.863998,12.018601,-0.995185,-0.098017,0.000000
12.528974,0.156050,3.995150,-0.995185,-0.098017,0.000000
5.401247,11.268363,21.182265,-0.471397,-0.881921,-0.000000
-10.952665,-5.991878,-17.627149,0.881921,0.471397,-0.000000
15.010634,-18.867518,22.927585,0.488895,-0.521887,0.699011
-19.099619,-3.022237,-27.047621,-0.551642,-0.078417,-0.830386
-10.955007,21.109188,23.292277,-0.371743,0.649101,0.663683
-10.759306,11.026186,-6.353627,0.881921,0.000000,0.471397
-10.235617,29.694605,10.871438,-0.312401,0.885789,0.343197
-22.668230,-24.104202,3.119777,-0.680461,-0.728344,0.080542
-2.775183,-18.379637,27.548772,-0.081178,-0.546249,0.833680
-10.950892,14.226381,-5.995194,0.881921,0.000000,0.471397
4.007366,-13.439961,-11.830060,-0.290285,0.000000,0.956940
-11.152044,-5.618864,16.710181,0.881921,0.471397,-0.000000
8.556114,-18.307464,-26.427633,0.267099,-0.508425,-0.818634
-7.663369,24.809200,-20.845138,-0.239219,0.702258,-0.670528
4.900605,-11.535962,-27.953605,-0.471397,0.881921,0.000000
-5.019187,26.420941,19.524420,-0.160129,0.791679,0.589579
4.484806,-20.914496,25.449539,0.161444,-0.630461,0.759246
16.410431,-28.288690,6.004328,0.500142,-0.839788,0.211221
10.535795,-10.871807,-6.771786,-0.881921,0.000000,0.471397
0.593390,12.485900,15.064862,-0.098017,-0.995185,0.000000
-31.654695,9.513638,-3.339641,-0.946807,0.311335,-0.081408
11.614786,-26.290191,-4.717031,-0.956940,0.000000,0.290284
-26.514396,-20.027685,1.072338,-0.801768,-0.597636,0.000000
16.623653,-15.827136,24.069395,0.488895,-0.521887,0.699011
-23.922100,18.776714,-13.437404,-0.708443,0.546564,-0.446517
-17.050839,-27.539796,-7.465439,-0.500142,-0.839788,-0.211221
33.073731,-3.026322,0.762992,0.995747,-0.092126,0.000000
21.573509,16.916325,18.753401,0.635471,0.503751,0.585159
14.287972,-26.225784,14.674661,0.448483,-0.801686,0.395175
-24.904608,21.072143,6.446001,-0.751866,0.639868,0.158952
9.061532,8.637040,24.623891,-0.773010,-0.634393,-0.000000
30.645036,-12.821350,-0.507103,0.934172,-0.356822,0.000000
-0.767160,26.245277,-20.388725,0.000000,0.801768,-0.597636
17.576946,-23.063224,16.194363,0.521887,-0.699011,0.488895
22.557104,24.451136,0.921277,0.680461,0.728344,0.080542
-17.663961,-27.879434,4.037806,-0.557284,-0.819634,0.132793
12.562596,-30.644677,-3.238845,0.424492,-0.901705,-0.082070
13.966827,-28.837963,9.083255,0.364801,-0.879088,0.306798
-28.045447,17.791126,-1.660778,-0.830386,0.551642,-0.078417
17.129206,22.299871,-17.763742,0.521887,0.699011,-0.488895
12.826791,28.473972,-11.481794,0.364801,0.879088,-0.306798
2.396540,-29.221154,15.610396,0.078367,-0.872474,0.482336
-32.191341,1.177425,8.322146,-0.977326,0.049607,0.205849
10.537024,-15.059327,27.697734,0.337457,-0.445068,0.829480
32.386738,1.133643,-7.404996,0.977326,0.049607,-0.205849
1.952716,-12.352018,13.682597,-0.098017,0.995185,-0.000000
-18.114755,27.725856,-2.738966,-0.546249,0.833680,-0.081178
10.562498,9.913472,6.721828,-0.881921,0.000000,-0.471397
-0.550594,-20.424869,12.490115,0.098017,0.000000,-0.995185
5.327693,19.995886,-11.307679,-0.471397,0.000000,0.881921
-6.592259,20.985660,-24.916676,-0.217328,0.638727,-0.738104
-3.367632,29.249862,-15.400692,-0.078367,0.872474,-0.482336
-6.764748,-22.786130,-23.284539,-0.239219,-0.702258,-0.670528
-12.190013,-27.644970,-13.943106,-0.382479,-0.802678,-0.457622
8.079309,-26.601705,9.519251,-0.634393,0.000000,-0.773010
-23.454518,-17.042368,16.258452,-0.699011,-0.488895,0.521887
9.034626,8.669826,19.838561,-0.773010,-0.634393,-0.000000
15.402812,29.372617,2.144531,0.465071,0.883850,0.050171
27.707386,4.865893,17.719682,0.819634,0.132793,0.557284
-25.935208,16.043189,13.262893,-0.759514,0.526342,0.382234
-6.451880,20.154010,-25.662757,-0.161444,0.630461,-0.759246
10.503058,29.742143,6.833032,-0.881921,0.000000,-0.471397
12.416385,-1.299186,3.274247,-0.995185,0.098017,0.000000
11.768277,4.211040,-27.077137,-0.956940,-0.290285,0.000000
18.417429,17.572889,21.470600,0.503751,0.585159,0.635471
11.954617,-3.596760,-7.714441,-0.956940,0.290284,-0.000000
-19.861621,10.089842,-24.687347,-0.569358,0.313422,-0.759999
-6.304373,-10.785632,14.277652,0.471397,0.881921,-0.000000
25.276280,-20.863683,5.527109,0.751866,-0.639868,0.158952
-6.148463,-13.845469,10.868968,0.471397,0.000000,-0.881921
-12.482758,-11.668160,-0.625287,0.995185,0.000000,0.098017
-25.890970,-17.797755,10.920439,-0.759999,-0.569358,0.313422
-9.932782,-26.123926,-18.030484,-0.313422,-0.759999,-0.569358
11.910968,22.418514,-21.476264,0.371743,0.649101,-0.663683
4.795736,-11.590911,-28.938205,-0.290285,0.956940,0.000000
-11.167423,-12.682665,28.643495,-0.306798,-0.364801,0.879088
-0.703880,-12.475018,-14.535903,0.098017,0.995185,0.000000
4.937732,-11.516117,12.012025,-0.471397,0.881921,0.000000
-9.640184,11.925407,7.931952,0.773011,0.000000,-0.634393
3.916437,-11.857644,16.928314,-0.290285,0.956940,0.000000
-4.348227,-11.726662,-24.712973,0.290285,0.956940,-0.000000
23.748167,-14.445659,-18.267107,0.742100,-0.420208,-0.522219
6.467087,-10.698660,12.620335,-0.471397,0.881921,0.000000
-3.511563,-22.082492,-11.980461,0.290285,-0.000000,0.956940
-23.680293,-12.545138,19.677879,-0.731257,-0.349826,0.585564
0.686688,12.513612,30.822342,0.050001,0.338699,0.939565
-14.839733,11.260073,27.566085,-0.427026,0.302377,0.852184
-31.440530,-10.488781,2.101143,-0.946807,-0.311335,0.081408
-3.924544,-15.298766,29.294172,-0.082070,-0.424492,0.901705
-24.160067,16.070019,-16.224325,-0.699011,0.488895,-0.521887
24.830303,-3.770467,21.814018,0.728344,-0.080542,0.680461
-12.251028,-4.016223,2.619622,0.956940,0.000000,-0.290284
-26.434076,-19.610664,-4.636705,-0.791679,-0.589579,-0.160129
-7.214185,-14.416814,-10.229239,0.634393,-0.000000,0.773010
-10.686107,-6.490572,30.778249,0.881921,0.471397,0.000000
6.887216,10.474096,-12.924561,-0.471397,-0.881921,0.000000
5.318631,-25.613397,20.519348,0.158952,-0.751866,0.639868
-5.496663,-11.217362,-25.752050,0.471397,0.881921,-0.000000
0.447588,-22.108508,24.834835,0.000000,-0.639355,0.768912
1.068963,12.439060,25.686708,-0.098017,-0.995185,0.000000
-10.767282,11.973948,29.077244,-0.306798,0.364801,0.879088
8.727309,-30.066525,11.268275,0.228892,-0.923386,0.308167
3.939316,20.524713,-11.850703,-0.290285,0.000000,0.956940
23.608096,-20.034440,-12.390939,0.759514,-0.526342,-0.382234
12.431040,-1.150390,-15.011116,-0.995185,0.098017,0.000000
24.091860,14.973336,17.343036,0.699011,0.488895,0.521887
13.260096,-22.522295,20.561669,0.440461,-0.648687,0.620644
21.481478,-11.581083,22.602110,0.663683,-0.371743,0.649101
-20.410975,-10.539822,24.046875,-0.641557,-0.296210,0.707576
-0.676765,-12.477688,14.056593,0.098017,0.995185,-0.000000
-2.675901,22.899971,12.233956,0.290284,0.000000,-0.956940
-11.062097,-5.787144,24.331761,0.881921,0.471397,0.000000
-26.409416,11.334677,-16.855591,-0.829480,0.337457,-0.445068
19.150919,-8.114360,-25.969069,0.538762,-0.233321,-0.809504
0.095918,30.021353,-12.534897,-0.098017,-0.000000,0.995185
-17.389758,0.254201,28.429884,-0.482336,0.078367,0.872474
10.911494,6.068902,-8.941119,-0.881921,-0.471397,-0.000000
18.578124,20.150067,-18.780547,0.577350,0.577350,-0.577350
22.528032,-15.826663,18.638233,0.699011,-0.488895,0.521887
13.102213,3.052377,30.484205,0.350587,0.159793,0.922797
-21.275502,-11.468862,-22.874090,-0.641557,-0.296210,-0.707576
22.947317,12.160132,-20.771716,0.663683,0.371743,-0.649101
-14.823301,28.831137,7.565264,-0.419240,0.889788,0.180319
24.703758,-10.379397,19.667187,0.759176,-0.293108,0.581154
11.492939,15.556917,-4.981094,-0.881921,0.000000,0.471397
-19.625641,6.891332,25.966890,-0.589579,0.160129,0.791679
-12.519935,-9.720585,-0.247827,0.995185,0.000000,0.098017
-17.686454,-3.949818,27.898819,-0.551642,-0.078417,0.830386
-2.726682,-12.218552,-12.743810,0.290285,0.956940,0.000000
11.099569,28.056718,13.974265,0.302377,0.852184,0.427026
12.238685,-13.662870,-2.660311,-0.956940,0.000000,0.290284
-10.109261,-7.360378,24.405000,0.773011,0.634393,0.000000
-13.514316,13.904120,27.012490,-0.395175,0.448483,0.801686
10.139122,-27.379863,-16.005107,0.302377,-0.852184,-0.427026
-11.004164,-18.560488,-5.895528,0.881921,0.000000,0.471397
10.451070,-15.019921,-6.930294,-0.881921,0.000000,0.471397
-30.876091,11.428353,-4.461714,-0.922797,0.350587,-0.159793
3.302214,30.252166,13.525012,0.161879,0.884358,0.437842
-8.786174,29.871642,8.939141,0.634393,0.000000,-0.773010
26.511911,-8.439684,18.232932,0.818634,-0.267099,0.508425
-24.881753,-5.841279,21.250909,-0.759246,-0.161444,0.630461
-0.086885,25.174163,21.686746,0.000000,0.762305,0.647218
-33.025998,-1.528033,3.633169,-0.996384,-0.049505,0.069057
-5.524086,-11.202704,-25.191111,0.471397,0.881921,-0.000000
19.876672,-9.141919,25.066993,0.569358,-0.313422,0.759999
-22.383256,24.211674,-4.555524,-0.680461,0.728344,-0.080542
-21.848585,-24.948164,-2.412589,-0.680461,-0.728344,-0.080542
9.356327,-8.277831,-15.935291,-0.773010,0.634393,0.000000
3.432881,-19.370749,-26.816965,0.132793,-0.557284,-0.819634
30.640339,12.833645,1.816009,0.934172,0.356822,-0.000000
-12.392095,1.545806,14.557739,0.995185,-0.098017,0.000000
15.497431,29.219580,3.716534,0.424492,0.901705,0.082070
16.080140,23.229885,17.514956,0.446517,0.708443,0.546564
-10.471978,-29.182719,6.891179,0.881921,0.000000,-0.471397
4.386853,-11.714945,11.923101,-0.290285,0.956940,0.000000
-9.739916,7.810427,14.030179,0.773010,-0.634393,0.000000
-23.902411,-7.666157,21.792335,-0.738104,-0.217328,0.638727
15.737318,24.579342,-15.990421,0.521887,0.699011,-0.488895
-5.060387,22.294387,24.181319,-0.161444,0.630461,0.759246
-16.437180,23.036733,-17.448919,-0.521887,0.699011,-0.488895
16.332048,28.752145,-4.195101,0.546249,0.833680,-0.081178
-4.538570,11.668922,24.079940,0.290285,-0.956940,0.000000
16.180432,22.576318,18.280159,0.446517,0.708443,0.546564
-30.927729,-11.894899,-2.687704,-0.946807,-0.311335,-0.081408
12.340346,-2.071224,-13.058076,-0.995185,0.098017,-0.000000
-31.296054,4.230140,-10.466071,-0.952951,0.084545,-0.291097
15.114989,-27.671059,10.529180,0.445068,-0.829480,0.337457
-4.571848,-24.578903,11.658827,0.290285,0.000000,-0.956940
5.835629,25.976534,-19.899419,0.160129,0.791679,-0.589579
-9.151696,-14.088688,-8.527176,0.773010,0.000000,0.634393
-29.986960,4.835770,-13.544181,-0.889788,0.180319,-0.419240
1.929436,29.791413,14.654777,0.078367,0.872474,0.482336
20.307445,18.213400,18.987893,0.577350,0.577350,0.577350
-29.851975,-8.655787,11.857302,-0.903180,-0.214847,0.371628
-4.632272,15.891011,-28.922448,-0.180319,0.419240,-0.889788
13.774702,16.082218,-25.665607,0.420208,0.522219,-0.742100
3.866533,11.872782,26.857723,-0.290285,-0.956940,0.000000
11.214396,5.502212,13.515907,-0.881921,-0.471397,0.000000
20.868055,-25.544557,4.219308,0.630461,-0.759246,0.161444
-26.759093,10.602433,16.698744,-0.818634,0.267099,0.508425
-11.288543,29.068413,-11.529192,-0.312401,0.885789,-0.343197
11.788374,-27.413210,14.685306,0.382479,-0.802678,0.457622
-5.290022,-11.327814,24.927287,0.471397,0.881921,0.000000
12.691883,27.963635,12.960506,0.448483,0.801686,0.395175
4.968948,-13.162065,-30.140013,0.180319,-0.419240,-0.889788
27.709020,-8.769843,16.131974,0.818634,-0.267099,0.508425
5.357623,11.291680,27.334977,-0.471397,-0.881921,-0.000000
16.140872,27.965241,-7.928600,0.500142,0.839788,-0.211221
-12.275145,-2.540121,23.435377,0.956940,0.290285,-0.000000
16.729186,2.881952,-28.559044,0.482336,0.078367,-0.872474
26.701568,11.275615,16.355885,0.829480,0.337457,0.445068
-31.292215,5.033153,10.032373,-0.940327,0.181151,0.288045
-11.918379,-3.716218,25.863307,0.956940,0.290284,0.000000
2.231932,12.324517,25.656845,-0.098017,-0.995185,0.000000
-4.939748,-19.723004,-26.333327,-0.132793,-0.557284,-0.819634
19.657954,-9.779077,-24.968085,0.569358,-0.313422,-0.759999
12.535400,-9.105138,-0.090810,-0.995185,0.000000,0.098017
9.781928,26.721395,7.759235,-0.773010,-0.000000,-0.634393
-23.638418,-15.117511,-17.815313,-0.699011,-0.488895,-0.521887
-31.252743,-10.956506,-2.496433,-0.946807,-0.311335,-0.081408
17.102504,-19.344274,20.881830,0.503751,-0.585159,0.635471
12.440997,3.738210,30.616653,0.350587,0.159793,0.922797
-12.192964,-2.811034,13.938967,0.956940,0.290285,-0.000000
33.120859,-0.352284,3.107341,0.996384,-0.049505,0.069057
-14.748930,9.803667,28.128357,-0.427026,0.302377,0.852184
-9.541762,8.051878,11.189180,0.773011,-0.634393,-0.000000
-4.685397,11.624382,-23.437546,0.290285,-0.956940,0.000000
28.642935,0.215991,-16.997593,0.883850,0.050171,-0.465071
21.321030,23.899120,-9.062499,0.638727,0.738104,-0.217328
-18.341289,-20.798972,-18.368477,-0.577350,-0.577350,-0.577350
8.999141,-22.346063,22.948283,0.239219,-0.702258,0.670528
-21.520940,20.649864,-14.610564,-0.648687,0.620644,-0.440461
-14.901525,-29.436467,4.396381,-0.419240,-0.889788,0.180319
31.897354,-8.809465,-3.203186,0.971231,-0.223787,-0.081426
32.993305,-3.895610,-0.749719,0.995747,-0.092126,0.000000
6.083643,-10.903615,-29.859599,-0.471397,0.881921,0.000000
-31.215381,-4.399546,10.680963,-0.952951,-0.084545,0.291097
18.880039,-24.798822,-11.542505,0.585564,-0.731257,-0.349826
6.382293,10.743983,20.833880,-0.471397,-0.881921,0.000000
24.489286,22.154309,-3.984646,0.723272,0.685852,-0.080531
5.307310,11.318573,19.211440,-0.471397,-0.881921,-0.000000
-12.388792,-1.579341,13.204491,0.995185,0.098017,0.000000
10.667939,29.635257,-6.524562,-0.881921,0.000000,0.471397
23.230728,-22.047172,8.927892,0.702258,-0.670528,0.239219
7.857693,12.575896,9.701126,-0.634393,-0.000000,-0.773010
12.483883,-0.613871,-22.041865,-0.995185,0.098017,0.000000
24.115011,22.061108,-6.199789,0.751866,0.639868,-0.158952
-19.904587,25.895288,6.332349,-0.630461,0.759246,0.161444
24.987631,-16.962517,13.879835,0.759514,-0.526342,0.382234
5.590564,13.716619,-29.752751,0.180319,0.419240,-0.889788
-19.572087,-26.484150,4.642170,-0.557284,-0.819634,0.132793
29.868765,5.118751,-13.673324,0.889788,0.180319,-0.419240
17.569064,22.815210,16.557382,0.521887,0.699011,0.488895
-20.315618,-12.718979,-23.125130,-0.620644,-0.440461,-0.648687
-1.604309,-15.189263,29.515650,-0.050171,-0.465071,0.883850
0.385106,12.506414,17.624142,-0.098017,-0.995185,0.000000
-7.337335,-13.149611,-10.128172,0.634393,0.000000,0.773010
-29.041986,-9.644446,-13.003217,-0.879088,-0.306798,-0.364801
11.585258,-4.808379,11.854183,-0.881921,0.471397,0.000000
12.464002,-30.113398,0.815723,-0.995185,0.000000,-0.098017
5.501376,-21.645505,11.214843,-0.471397,0.000000,-0.881921
18.437588,-17.916686,-21.138042,0.503751,-0.585159,-0.635471
9.341339,-30.840755,8.349108,0.235737,-0.947462,0.216205
-5.744883,11.084686,-14.813510,0.471397,-0.881921,0.000000
9.376495,8.253257,-27.666175,-0.773010,-0.634393,-0.000000
-18.109655,27.815007,-1.857731,-0.546249,0.833680,-0.081178
-7.433192,10.049504,-23.459504,0.634393,-0.773010,0.000000
9.135570,-17.148774,-26.958194,0.267099,-0.508425,-0.818634
20.804726,-24.504249,8.524734,0.638727,-0.738104,0.217328
33.021183,2.356766,3.108538,0.996384,0.049505,0.069057
-5.560699,-11.183134,-23.772178,0.471397,0.881921,-0.000000
10.608031,-14.961745,-6.636642,-0.881921,0.000000,0.471397
-12.446694,-26.639333,-0.991455,0.995185,-0.000000,0.098017
-11.927313,3.686767,-24.017801,0.956940,-0.290284,-0.000000
-3.644382,11.940171,17.466937,0.290285,-0.956940,0.000000
12.436887,15.774618,1.091031,-0.995185,-0.000000,-0.098017
11.615835,14.057556,-4.713572,-0.956940,0.000000,0.290285
-19.492053,-19.076087,-18.940597,-0.577350,-0.577350,-0.577350
-4.935388,-25.127849,11.517370,0.471397,0.000000,-0.881921
12.312277,2.356213,16.682362,-0.995185,-0.098018,-0.000000
22.693018,-2.593824,-24.133306,0.685852,-0.080531,-0.723272
15.832860,-21.075325,-20.248170,0.440461,-0.648687,-0.620644
-8.588590,17.471126,26.936457,-0.267099,0.508425,0.818634
-11.684749,28.456862,-4.486393,0.956940,-0.000000,0.290285
20.485129,4.116921,25.887979,0.589579,0.160129,0.791679
20.824477,9.397687,24.150082,0.641557,0.296210,0.707576
-5.258222,15.876165,28.794534,-0.211221,0.500142,0.839788
8.667918,-17.973882,9.036191,-0.634393,0.000000,-0.773010
-1.501263,-29.217670,-15.762157,-0.078367,-0.872474,-0.482336
-1.282858,14.861371,-12.417993,0.098017,0.000000,0.995185
-5.323238,-11.310059,-30.326298,0.471397,0.881921,-0.000000
-2.802390,-12.195586,-17.865543,0.290285,0.956940,0.000000
31.794871,-9.509078,1.726771,0.946807,-0.311335,0.081408
11.878017,10.624667,3.849277,-0.956940,0.000000,-0.290285
1.787717,18.203790,-27.760145,0.081178,0.546249,-0.833680
-24.360387,1.287086,-22.610941,-0.728344,0.080542,-0.680461
-1.455172,-12.401022,-27.677836,0.098017,0.995185,-0.000000
-10.796188,-6.284625,-20.271216,0.881921,0.471397,-0.000000
-26.811659,-13.344392,14.412842,-0.801686,-0.395175,0.448483
-8.014919,22.431247,23.210202,-0.239219,0.702258,0.670528
-7.432957,10.049698,29.485713,0.634393,-0.773010,-0.000000
-20.713903,-16.308889,20.209846,-0.635471,-0.503751,0.585159
-19.556082,-7.795802,25.791231,-0.538762,-0.233321,0.809504
-10.503790,-6.831663,-20.967810,0.881921,0.471397,0.000000
28.661984,8.160196,14.873162,0.839788,0.211221,0.500142
-2.503798,30.269740,12.286163,0.290284,0.000000,-0.956940
1.399969,26.099249,20.584632,-0.000000,0.801768,0.597636
9.735682,22.795674,-7.815586,-0.773010,-0.000000,0.634393
-0.198560,-21.704760,25.170553,0.000000,-0.639355,0.768912
-6.249338,-26.410520,19.204306,-0.160129,-0.791679,0.589579
-7.869033,20.542623,24.924129,-0.217328,0.638727,0.738104
-12.349295,-13.504256,1.980357,0.995185,0.000000,-0.098017
9.569904,29.316016,-12.454553,0.312401,0.885789,-0.343197
-20.389060,-4.642448,25.853228,-0.589579,-0.160129,0.791679
