x,y,z,nx,ny,nz
-9.766168,2.654589,2.428041,0.000000,0.000000,1.000000
12.848653,5.368816,-0.051008,0.903989,0.427555,0.000000
-5.488609,-3.752273,-2.050551,0.803208,0.595699,0.000000
-8.143324,-10.358512,-2.428041,0.000000,-0.000000,-1.000000
0.924739,6.579242,-2.360453,-0.146730,-0.989177,-0.000000
-12.060412,-5.095090,-2.428041,0.000000,-0.000000,-1.000000
4.130876,-13.296095,-0.094567,0.336890,-0.941544,0.000000
5.411360,-10.711196,2.428041,0.000000,-0.000000,1.000000
9.047780,-10.573425,-1.837285,0.671559,-0.740951,0.000000
0.820632,-10.437192,-2.428041,0.000000,0.000000,-1.000000
-5.132509,-4.230128,1.524055,0.740951,0.671559,0.000000
-13.806625,1.726434,-1.331794,-0.989177,0.146730,0.000000
-9.025887,-10.452945,2.428041,-0.000000,0.000000,1.000000
12.981740,-5.009438,-1.783330,0.941544,-0.336890,0.000000
-1.760216,-13.801614,-0.127568,-0.146730,-0.989177,0.000000
-0.773850,10.420522,2.428041,0.000000,0.000000,1.000000
6.563319,-2.024964,-2.428041,0.000000,0.000000,-1.000000
-4.057547,9.191752,-2.428041,-0.000000,0.000000,-1.000000
-1.330805,12.519529,-2.428041,-0.000000,0.000000,-1.000000
7.631802,11.643519,-0.532826,0.514103,0.857729,0.000000
-5.673778,3.456812,-0.970497,0.857729,-0.514103,0.000000
-1.262939,-9.266967,-2.428041,0.000000,-0.000000,-1.000000
8.394256,5.256443,-2.428041,-0.000000,0.000000,-1.000000
9.234721,-6.084646,-2.428041,0.000000,0.000000,-1.000000
4.424787,10.661509,2.428041,0.000000,-0.000000,1.000000
6.561288,1.370178,2.428041,0.000000,-0.000000,1.000000
4.230154,-6.455172,-2.428041,0.000000,0.000000,-1.000000
-1.233379,12.111166,-2.428041,-0.000000,0.000000,-1.000000
-13.451036,-3.550017,1.191689,-0.970031,-0.242980,0.000000
-10.305796,9.343064,-2.003920,-0.740951,0.671559,0.000000
9.245915,-2.012875,2.428041,-0.000000,-0.000000,1.000000
8.789700,5.896873,-2.428041,0.000000,0.000000,-1.000000
-12.335523,4.261035,-2.428041,-0.000000,-0.000000,-1.000000
-10.461198,-8.629466,-2.428041,0.000000,-0.000000,-1.000000
-6.372901,-12.373756,1.038062,-0.427555,-0.903989,0.000000
9.635111,-5.335381,-2.428041,0.000000,0.000000,-1.000000
8.154734,9.444109,-2.428041,-0.000000,0.000000,-1.000000
3.528154,5.631018,-0.811088,-0.514103,-0.857729,0.000000
8.616825,-5.707061,2.428041,0.000000,-0.000000,1.000000
-4.124323,5.212678,-0.595887,0.595699,-0.803208,0.000000
11.142760,3.919433,-2.428041,-0.000000,0.000000,-1.000000
9.987228,6.139809,2.428041,0.000000,0.000000,1.000000
-13.089334,0.109277,-2.428041,-0.000000,-0.000000,-1.000000
4.672283,-13.102376,-0.598070,0.336890,-0.941544,0.000000
2.475623,11.251227,2.428041,0.000000,0.000000,1.000000
11.097403,0.604700,-2.428041,0.000000,0.000000,-1.000000
6.282469,-10.556190,-2.428041,0.000000,0.000000,-1.000000
-3.360843,8.289940,2.428041,0.000000,0.000000,1.000000
8.262931,-9.342792,2.428041,0.000000,-0.000000,1.000000
9.719807,-9.964336,0.195688,0.671559,-0.740951,0.000000
11.016738,6.175617,-2.428041,-0.000000,0.000000,-1.000000
-10.837765,-6.491760,2.428041,-0.000000,0.000000,1.000000
6.406341,-1.767090,-2.072845,-0.970031,0.242980,0.000000
3.247059,-9.780483,-2.428041,0.000000,0.000000,-1.000000
-1.592516,6.450069,1.222360,0.242980,-0.970031,0.000000
6.744824,-8.802871,2.428041,0.000000,-0.000000,1.000000
-4.753413,-7.722746,-2.428041,0.000000,-0.000000,-1.000000
6.164754,12.472203,1.483934,0.427555,0.903989,-0.000000
-0.332007,-13.910975,1.872092,-0.049068,-0.998795,0.000000
5.619433,-3.547482,-1.952366,-0.857729,0.514103,0.000000
-8.745502,-3.681202,-2.428041,0.000000,-0.000000,-1.000000
-10.639871,3.251270,-2.428041,-0.000000,-0.000000,-1.000000
-9.438002,-7.068843,-2.428041,0.000000,-0.000000,-1.000000
10.819971,2.870189,2.428041,0.000000,0.000000,1.000000
-3.096129,10.793185,2.428041,0.000000,0.000000,1.000000
-5.017229,4.357320,0.184515,0.740951,-0.671559,0.000000
-4.815077,10.244954,-2.428041,-0.000000,-0.000000,-1.000000
2.873695,10.045917,2.428041,0.000000,0.000000,1.000000
11.280415,-8.141684,0.950642,0.803208,-0.595699,0.000000
0.000692,13.919271,-2.428041,-0.000000,0.000000,-1.000000
8.125202,-11.292638,0.215834,0.595699,-0.803208,0.000000
-9.442897,5.170605,2.428041,0.000000,0.000000,1.000000
-2.674506,-12.884437,-2.428041,0.000000,-0.000000,-1.000000
5.679021,3.448065,0.677046,-0.857729,-0.514103,0.000000
-7.721550,-11.589726,-2.425145,-0.514103,-0.857729,0.000000
-10.796278,8.794467,-1.439936,-0.803208,0.595699,0.000000
-9.402853,8.893239,2.428041,0.000000,0.000000,1.000000
-12.717296,-5.646547,-2.112897,-0.903989,-0.427555,0.000000
-6.401617,-12.360175,-0.584976,-0.427555,-0.903989,0.000000
-8.272672,-1.833147,-2.428041,0.000000,-0.000000,-1.000000
5.430260,-9.225020,-2.428041,0.000000,0.000000,-1.000000
4.179432,-8.989936,2.428041,0.000000,-0.000000,1.000000
-3.297457,13.514299,2.188918,-0.242980,0.970031,0.000000
-7.652389,8.832115,2.428041,0.000000,0.000000,1.000000
13.876716,1.029363,0.100123,0.998795,0.049068,-0.000000
-5.975925,-12.561512,-2.404063,-0.427555,-0.903989,0.000000
-5.740878,3.344864,-1.136007,0.857729,-0.514103,0.000000
-6.241368,-2.277289,-1.983325,0.941544,0.336890,0.000000
-6.212158,8.080016,2.428041,0.000000,0.000000,1.000000
6.575936,-0.947024,-1.357456,-0.989177,0.146730,0.000000
9.113388,6.171151,2.428041,0.000000,0.000000,1.000000
2.718923,7.089623,2.428041,0.000000,-0.000000,1.000000
-9.619322,-5.955559,-2.428041,0.000000,-0.000000,-1.000000
1.083596,-6.555678,0.614609,-0.146730,0.989177,0.000000
-6.049395,2.748489,-1.787939,0.903989,-0.427555,0.000000
-1.932434,6.787627,2.428041,0.000000,0.000000,1.000000
0.976170,6.571613,-0.225661,-0.146730,-0.989177,-0.000000
2.187096,6.273640,-0.145846,-0.336890,-0.941544,-0.000000
5.067930,-10.529643,2.428041,0.000000,-0.000000,1.000000
-0.397382,-7.000008,-2.428041,0.000000,-0.000000,-1.000000
10.861151,-2.326075,-2.428041,0.000000,0.000000,-1.000000
-13.918934,0.170004,-1.196711,-0.998795,0.049068,0.000000
10.477421,9.153705,0.845767,0.740951,0.671559,0.000000
6.720016,9.068878,2.428041,0.000000,0.000000,1.000000
-7.365163,-8.036459,-2.428041,0.000000,-0.000000,-1.000000
8.464952,11.040663,0.947430,0.595699,0.803208,-0.000000
-5.179622,5.650915,-2.428041,-0.000000,0.000000,-1.000000
-2.210717,-13.011461,-2.428041,0.000000,-0.000000,-1.000000
13.673737,2.622289,0.125243,0.989177,0.146730,-0.000000
-12.049997,6.953633,-1.287210,-0.857729,0.514103,0.000000
-2.047981,13.758928,1.702232,-0.146730,0.989177,0.000000
-8.003555,4.967777,-2.428041,-0.000000,0.000000,-1.000000
-8.176115,7.413594,2.428041,0.000000,0.000000,1.000000
3.125233,-5.871209,0.951073,-0.427555,0.903989,0.000000
-6.761409,6.504792,-2.428041,-0.000000,0.000000,-1.000000
4.068139,5.254347,-0.933300,-0.595699,-0.803208,0.000000
3.407517,-13.486731,0.633837,0.242980,-0.970031,0.000000
12.591617,-3.635994,2.428041,0.000000,-0.000000,1.000000
11.699260,-7.538803,1.637967,0.857729,-0.514103,0.000000
7.663009,7.599006,-2.428041,-0.000000,0.000000,-1.000000
-11.529012,5.485938,-2.428041,-0.000000,-0.000000,-1.000000
7.875291,0.600197,2.428041,0.000000,-0.000000,1.000000
-2.604051,6.117709,2.066671,0.427555,-0.903989,0.000000
11.770508,7.419933,0.674933,0.857729,0.514103,-0.000000
8.423502,4.182878,2.428041,0.000000,-0.000000,1.000000
-10.409942,-6.445449,2.428041,-0.000000,0.000000,1.000000
-4.531287,-4.859554,1.515358,0.671559,0.740951,0.000000
-6.823919,-2.616989,2.428041,-0.000000,0.000000,1.000000
-6.186972,12.461694,2.400041,-0.427555,0.903989,0.000000
8.087675,-9.506429,-2.428041,0.000000,0.000000,-1.000000
9.075506,2.545367,-2.428041,-0.000000,0.000000,-1.000000
-11.855835,-7.277573,1.193617,-0.857729,-0.514103,0.000000
8.036953,2.855454,2.428041,0.000000,-0.000000,1.000000
13.563087,-3.102686,-2.416198,0.970031,-0.242980,0.000000
-10.044535,-1.993390,2.428041,-0.000000,0.000000,1.000000
4.835362,-4.557980,-0.826674,-0.740951,0.671559,0.000000
10.371481,9.270592,1.136832,0.740951,0.671559,-0.000000
-8.610790,3.783746,2.428041,0.000000,0.000000,1.000000
11.874530,4.400575,2.428041,0.000000,0.000000,1.000000
-10.264599,-7.304125,2.428041,-0.000000,0.000000,1.000000
-4.406371,-12.405467,2.428041,-0.000000,0.000000,1.000000
-10.033564,-0.253663,2.428041,-0.000000,0.000000,1.000000
-9.835224,-4.351466,2.428041,-0.000000,0.000000,1.000000
-6.138825,12.484466,1.246065,-0.427555,0.903989,0.000000
-0.942115,-6.576664,1.429638,0.146730,0.989177,0.000000
13.728801,-2.251077,-0.734336,0.989177,-0.146730,0.000000
7.513853,11.385741,2.428041,0.000000,0.000000,1.000000
5.377693,12.844455,-1.025583,0.427555,0.903989,-0.000000
11.298653,-2.789993,2.428041,0.000000,-0.000000,1.000000
9.213885,-6.994252,-2.428041,0.000000,0.000000,-1.000000
-4.882614,4.505845,1.624669,0.740951,-0.671559,0.000000
-1.412742,6.495100,1.527669,0.242980,-0.970031,0.000000
-10.251105,8.037994,-2.428041,-0.000000,-0.000000,-1.000000
8.477268,-7.070634,2.428041,-0.000000,-0.000000,1.000000
6.432462,-1.662808,-0.281639,-0.970031,0.242980,0.000000
-6.145240,-3.017605,2.428041,-0.000000,0.000000,1.000000
-1.334891,11.793014,-2.428041,-0.000000,0.000000,-1.000000
-6.089253,-4.497716,2.428041,-0.000000,0.000000,1.000000
-1.970618,9.725175,2.428041,0.000000,0.000000,1.000000
-6.824660,8.645680,-2.428041,-0.000000,-0.000000,-1.000000
-4.009811,11.823456,2.428041,0.000000,0.000000,1.000000
1.671458,11.345050,-2.428041,-0.000000,0.000000,-1.000000
-8.160540,-8.247441,2.428041,-0.000000,0.000000,1.000000
5.902018,3.359941,-2.428041,0.000000,0.000000,-1.000000
-4.269714,-8.439674,2.428041,-0.000000,0.000000,1.000000
11.021116,-8.491308,-0.053439,0.803208,-0.595699,0.000000
-10.530715,7.107531,2.428041,0.000000,0.000000,1.000000
-9.071241,10.552162,2.064284,-0.671559,0.740951,0.000000
11.381154,4.337391,-2.428041,-0.000000,0.000000,-1.000000
-4.810150,4.585796,-0.514468,0.740951,-0.671559,0.000000
11.302315,8.112155,-0.118407,0.803208,0.595699,0.000000
10.693852,8.914910,1.239565,0.740951,0.671559,0.000000
6.351794,7.655932,-2.428041,-0.000000,0.000000,-1.000000
-3.821950,-7.290058,2.428041,-0.000000,0.000000,1.000000
-6.628177,0.479444,0.561970,0.998795,-0.049068,0.000000
1.072280,-11.455972,-2.428041,0.000000,0.000000,-1.000000
-2.286971,-11.565860,2.428041,-0.000000,0.000000,1.000000
-10.821450,-0.835892,-2.428041,0.000000,-0.000000,-1.000000
-13.675130,-2.612901,0.584829,-0.989177,-0.146730,0.000000
6.578185,-2.384754,2.428041,-0.000000,-0.000000,1.000000
-5.902295,-12.596336,0.350894,-0.427555,-0.903989,0.000000
-2.153998,-6.285483,0.345257,0.336890,0.941544,0.000000
1.303761,10.285280,-2.428041,-0.000000,0.000000,-1.000000
2.474235,6.170900,1.458610,-0.336890,-0.941544,0.000000
3.180608,8.803616,2.428041,0.000000,0.000000,1.000000
-6.545292,5.282369,-2.428041,-0.000000,0.000000,-1.000000
3.264632,-8.251148,2.428041,-0.000000,-0.000000,1.000000
5.972478,-2.911116,1.100946,-0.903989,0.427555,0.000000
13.908601,0.380336,-1.675185,0.998795,0.049068,0.000000
-6.229102,-4.361921,2.428041,-0.000000,0.000000,1.000000
3.215529,-5.818398,1.626082,-0.514103,0.857729,0.000000
-5.822485,-11.860118,2.428041,-0.000000,0.000000,1.000000
-4.387141,4.990200,-1.115264,0.671559,-0.740951,0.000000
13.924839,0.049799,1.254372,0.998795,0.049068,0.000000
0.614684,12.816109,-2.428041,-0.000000,0.000000,-1.000000
13.204003,1.280213,2.428041,0.000000,-0.000000,1.000000
-2.124181,-6.296151,2.286863,0.336890,0.941544,0.000000
10.279788,-2.239641,2.428041,-0.000000,-0.000000,1.000000
-11.106640,8.375991,0.407340,-0.803208,0.595699,0.000000
-12.403593,-6.309815,-0.057348,-0.903989,-0.427555,0.000000
7.035682,5.370821,-2.428041,-0.000000,0.000000,-1.000000
-7.481605,-3.381387,2.428041,-0.000000,0.000000,1.000000
-5.054860,-4.315800,-1.931908,0.740951,0.671559,0.000000
8.357625,7.467186,2.428041,0.000000,0.000000,1.000000
-4.404440,8.298410,-2.428041,-0.000000,-0.000000,-1.000000
2.473557,-7.832532,-2.428041,0.000000,0.000000,-1.000000
-12.013326,6.312999,-2.428041,-0.000000,-0.000000,-1.000000
-1.589448,-7.243557,2.428041,-0.000000,0.000000,1.000000
13.823805,-1.450193,-2.428041,0.000000,0.000000,-1.000000
-5.921047,3.019858,0.326360,0.903989,-0.427555,0.000000
5.290996,4.018723,1.536532,-0.803208,-0.595699,0.000000
8.085648,-0.713943,2.428041,0.000000,-0.000000,1.000000
0.678245,-12.478874,2.428041,0.000000,-0.000000,1.000000
-3.619568,8.295947,-2.428041,-0.000000,0.000000,-1.000000
-13.213271,4.362353,-0.068624,-0.941544,0.336890,0.000000
7.497866,7.602418,2.428041,0.000000,0.000000,1.000000
1.267868,10.343757,-2.428041,-0.000000,0.000000,-1.000000
-8.744630,3.270732,-2.428041,-0.000000,0.000000,-1.000000
13.925314,-0.040128,0.321044,0.998795,-0.049068,0.000000
-11.090653,-1.420705,-2.428041,0.000000,-0.000000,-1.000000
7.522266,0.599799,-2.428041,0.000000,0.000000,-1.000000
9.959370,-1.279653,-2.428041,0.000000,0.000000,-1.000000
4.025046,5.286307,-0.733195,-0.595699,-0.803208,-0.000000
-9.642425,-2.745790,2.428041,-0.000000,0.000000,1.000000
-9.444504,0.958142,-2.428041,-0.000000,-0.000000,-1.000000
13.740916,-2.169408,-1.427577,0.989177,-0.146730,0.000000
0.568306,13.375402,2.428041,0.000000,0.000000,1.000000
-13.230549,-3.766367,2.428041,-0.000000,0.000000,1.000000
-10.419577,-9.185880,-2.428041,0.000000,-0.000000,-1.000000
-10.580999,-7.106275,2.428041,-0.000000,0.000000,1.000000
-5.731876,3.359882,-1.098560,0.857729,-0.514103,0.000000
-3.835817,13.379447,-0.216821,-0.242980,0.970031,0.000000
9.798598,-2.888459,-2.428041,0.000000,0.000000,-1.000000
-0.167605,12.690254,2.428041,0.000000,0.000000,1.000000
-13.252138,-4.253726,1.712216,-0.941544,-0.336890,0.000000
-11.590137,6.928406,-2.428041,-0.000000,-0.000000,-1.000000
11.030177,-1.725329,-2.428041,0.000000,0.000000,-1.000000
-4.150788,-13.288970,0.546190,-0.336890,-0.941544,0.000000
3.410211,-13.486056,0.373246,0.242980,-0.970031,0.000000
-8.926926,4.407923,2.428041,0.000000,0.000000,1.000000
-7.335917,-5.581790,2.428041,-0.000000,0.000000,1.000000
9.726453,9.958313,-1.702701,0.671559,0.740951,0.000000
-12.393915,-6.330278,-1.696110,-0.903989,-0.427555,0.000000
2.745337,9.643041,2.428041,0.000000,0.000000,1.000000
1.409371,12.854728,2.428041,0.000000,0.000000,1.000000
5.082882,7.087709,-2.428041,-0.000000,0.000000,-1.000000
6.407365,-12.357456,2.105939,0.427555,-0.903989,0.000000
1.941216,6.361617,-0.810587,-0.336890,-0.941544,-0.000000
-12.779817,-5.514357,0.128029,-0.903989,-0.427555,0.000000
-4.911284,-4.474212,-1.823841,0.740951,0.671559,0.000000
-10.110638,8.206203,2.428041,0.000000,0.000000,1.000000
-12.869369,-5.323494,-2.297321,-0.941544,-0.336890,0.000000
11.826752,4.479886,2.428041,0.000000,0.000000,1.000000
10.059815,-9.614463,1.539234,0.740951,-0.671559,0.000000
6.485083,-3.812554,-2.428041,0.000000,0.000000,-1.000000
-7.944124,-9.065907,2.428041,-0.000000,0.000000,1.000000
6.512073,1.872828,-2.428041,0.000000,0.000000,-1.000000
2.399751,7.258276,2.428041,0.000000,-0.000000,1.000000
8.423116,-11.071691,1.429082,0.595699,-0.803208,0.000000
-6.573426,0.963944,-1.675688,0.989177,-0.146730,0.000000
4.084611,-12.535012,-2.428041,0.000000,0.000000,-1.000000
-3.687537,11.627195,-2.428041,-0.000000,0.000000,-1.000000
-4.107786,-5.224943,-2.301970,0.595699,0.803208,0.000000
10.704191,-5.038290,2.428041,0.000000,-0.000000,1.000000
-11.501014,-7.844240,1.764795,-0.803208,-0.595699,0.000000
2.970759,-11.413178,2.428041,0.000000,-0.000000,1.000000
-7.752111,10.919020,2.428041,0.000000,0.000000,1.000000
2.901219,-11.191284,2.428041,0.000000,-0.000000,1.000000
-6.447955,4.784053,-2.428041,-0.000000,0.000000,-1.000000
6.591258,-12.267196,-0.165873,0.514103,-0.857729,0.000000
-4.509385,12.207647,2.428041,0.000000,0.000000,1.000000
-2.604068,6.117701,-0.179345,0.427555,-0.903989,0.000000
-11.968122,-7.090234,1.690730,-0.857729,-0.514103,0.000000
2.925583,-8.931699,-2.428041,0.000000,0.000000,-1.000000
0.691690,8.383770,-2.428041,0.000000,0.000000,-1.000000
-5.707239,6.234006,2.428041,0.000000,0.000000,1.000000
3.128717,13.186178,-2.428041,-0.000000,0.000000,-1.000000
-6.950843,-1.433282,2.428041,-0.000000,0.000000,1.000000
13.391790,3.786542,2.199891,0.970031,0.242980,-0.000000
10.914253,-6.705496,-2.428041,0.000000,0.000000,-1.000000
6.199615,-2.393982,1.888509,-0.941544,0.336890,0.000000
13.776446,1.929880,1.464122,0.989177,0.146730,-0.000000
-6.309047,10.129670,-2.428041,-0.000000,-0.000000,-1.000000
-4.956315,-7.826860,2.428041,-0.000000,0.000000,1.000000
3.545147,-13.330000,2.428041,0.000000,-0.000000,1.000000
-5.296214,-10.021474,-2.428041,0.000000,-0.000000,-1.000000
-10.164584,-4.413090,-2.428041,0.000000,-0.000000,-1.000000
-13.869130,1.183786,-0.807350,-0.998795,0.049068,0.000000
6.096303,-2.649311,1.086762,-0.903989,0.427555,0.000000
4.520674,-13.156623,-0.776430,0.336890,-0.941544,0.000000
6.563932,-1.027951,0.002268,-0.989177,0.146730,0.000000
-11.306351,8.106713,-0.739274,-0.803208,0.595699,0.000000
-5.722949,-12.326566,-2.428041,0.000000,-0.000000,-1.000000
13.301532,4.115680,-0.191565,0.941544,0.336890,0.000000
-13.771003,-1.966578,-0.855103,-0.989177,-0.146730,0.000000
9.366463,4.338530,2.428041,0.000000,0.000000,1.000000
4.418211,-5.387663,-2.428041,0.000000,0.000000,-1.000000
4.118347,5.609015,-2.428041,0.000000,0.000000,-1.000000
-4.333309,13.223663,0.020380,-0.336890,0.941544,0.000000
-6.176549,12.060908,-2.428041,-0.000000,-0.000000,-1.000000
-3.105942,13.562271,2.289076,-0.242980,0.970031,0.000000
-6.122960,12.137362,-2.428041,-0.000000,-0.000000,-1.000000
-9.639450,-2.112172,-2.428041,0.000000,-0.000000,-1.000000
-8.468408,-10.796795,2.428041,-0.000000,0.000000,1.000000
-4.140439,13.292673,1.120297,-0.336890,0.941544,0.000000
0.703902,6.612000,0.845448,-0.146730,-0.989177,-0.000000
-12.416492,-0.093541,2.428041,-0.000000,0.000000,1.000000
-4.658251,-13.107397,0.809804,-0.336890,-0.941544,0.000000
-5.347231,-5.826394,2.428041,-0.000000,0.000000,1.000000
8.551914,-0.181275,-2.428041,0.000000,0.000000,-1.000000
8.570748,10.962199,0.040592,0.595699,0.803208,0.000000
-1.228929,-6.534119,1.066623,0.146730,0.989177,0.000000
7.215842,-1.443274,-2.428041,0.000000,0.000000,-1.000000
-13.272152,-4.197792,-0.878538,-0.941544,-0.336890,0.000000
-12.793225,-5.486010,-0.740029,-0.903989,-0.427555,0.000000
2.209618,13.734951,-2.271092,0.146730,0.989177,0.000000
0.515105,13.901980,-2.343975,0.049068,0.998795,0.000000
11.187123,8.267473,1.401719,0.803208,0.595699,-0.000000
-8.525730,6.943237,2.428041,0.000000,0.000000,1.000000
-0.383015,-12.842811,-2.428041,0.000000,-0.000000,-1.000000
-7.782022,8.395573,-2.428041,-0.000000,-0.000000,-1.000000
-1.319493,-7.874096,2.428041,-0.000000,0.000000,1.000000
-13.727509,-2.259792,-1.022678,-0.989177,-0.146730,0.000000
4.126511,10.880866,-2.428041,-0.000000,0.000000,-1.000000
13.362849,-0.429913,2.428041,0.000000,-0.000000,1.000000
-1.502442,6.472632,-1.683585,0.242980,-0.970031,0.000000
7.786627,7.590264,-2.428041,-0.000000,0.000000,-1.000000
-2.851874,-6.132106,-2.428041,0.000000,-0.000000,-1.000000
0.218959,6.640974,2.280213,-0.049068,-0.998795,0.000000
5.130649,-8.181037,-2.428041,0.000000,0.000000,-1.000000
-10.346281,-5.837872,2.428041,-0.000000,0.000000,1.000000
4.225753,-10.657825,2.428041,-0.000000,-0.000000,1.000000
4.035653,-12.909704,2.428041,0.000000,-0.000000,1.000000
6.178731,-2.452348,-0.096579,-0.941544,0.336890,0.000000
-6.474232,8.661586,2.428041,0.000000,0.000000,1.000000
-11.665370,-7.595346,-0.796871,-0.857729,-0.514103,0.000000
3.119129,5.874095,1.684512,-0.427555,-0.903989,0.000000
9.961544,9.722887,1.030890,0.740951,0.671559,-0.000000
-4.088296,-5.884592,2.428041,-0.000000,0.000000,1.000000
-3.671815,-5.544911,-0.044608,0.514103,0.857729,0.000000
-13.499361,-3.357096,1.756527,-0.970031,-0.242980,0.000000
10.665372,-8.847386,-2.428041,0.000000,0.000000,-1.000000
5.457146,-7.757858,2.428041,0.000000,-0.000000,1.000000
-10.541308,-1.267895,-2.428041,0.000000,-0.000000,-1.000000
-8.022120,4.670460,-2.428041,-0.000000,-0.000000,-1.000000
8.004183,-3.684586,2.428041,-0.000000,-0.000000,1.000000
5.473324,-12.799224,-0.613219,0.427555,-0.903989,0.000000
-0.888661,-11.725762,2.428041,-0.000000,-0.000000,1.000000
13.772186,1.958602,-1.594260,0.989177,0.146730,0.000000
4.457010,10.642881,-2.428041,-0.000000,0.000000,-1.000000
6.438639,1.638151,-2.259205,-0.970031,-0.242980,-0.000000
-3.609886,-11.288706,2.428041,-0.000000,0.000000,1.000000
-0.954600,-6.574812,0.148231,0.146730,0.989177,0.000000
-0.122457,-8.261461,-2.428041,0.000000,-0.000000,-1.000000
-6.328584,4.066788,2.428041,0.000000,0.000000,1.000000
5.531735,7.487749,2.428041,0.000000,0.000000,1.000000
11.695551,7.544992,-1.280543,0.857729,0.514103,-0.000000
3.359929,5.731848,-1.109196,-0.514103,-0.857729,-0.000000
-11.829659,-7.321246,-0.186798,-0.857729,-0.514103,0.000000
-6.608225,1.864463,2.428041,0.000000,0.000000,1.000000
5.900659,3.062965,-0.198090,-0.903989,-0.427555,-0.000000
-12.079526,-2.359477,2.428041,-0.000000,0.000000,1.000000
9.301568,9.776618,2.428041,0.000000,0.000000,1.000000
6.193153,-2.412042,0.726591,-0.941544,0.336890,0.000000
5.273669,4.207171,2.428041,0.000000,-0.000000,1.000000
13.580193,-0.370526,-2.428041,0.000000,0.000000,-1.000000
2.905072,8.308015,-2.428041,-0.000000,0.000000,-1.000000
11.644237,7.630604,-1.618399,0.857729,0.514103,-0.000000
3.766644,-5.477951,-0.959812,-0.595699,0.803208,0.000000
11.525196,7.811634,0.243126,0.803208,0.595699,0.000000
6.623361,-6.248669,2.428041,0.000000,-0.000000,1.000000
-10.909370,-8.641979,1.460704,-0.803208,-0.595699,0.000000
-2.963367,12.529679,2.428041,0.000000,0.000000,1.000000
10.736738,-8.080326,-2.428041,0.000000,0.000000,-1.000000
11.458021,-4.512439,-2.428041,0.000000,0.000000,-1.000000
5.248199,-7.126579,2.428041,0.000000,-0.000000,1.000000
11.626239,-0.899746,-2.428041,0.000000,0.000000,-1.000000
0.882668,-12.044339,2.428041,0.000000,-0.000000,1.000000
-7.813089,9.785962,2.428041,0.000000,0.000000,1.000000
5.871787,3.124009,0.568185,-0.903989,-0.427555,-0.000000
-4.626899,-10.052456,2.428041,-0.000000,0.000000,1.000000
9.097729,-3.669297,-2.428041,0.000000,0.000000,-1.000000
-13.338489,-3.999332,-0.312169,-0.970031,-0.242980,0.000000
-1.532016,-9.833298,-2.428041,0.000000,-0.000000,-1.000000
-9.113348,-7.307054,-2.428041,0.000000,-0.000000,-1.000000
-11.416434,-7.958283,0.297177,-0.803208,-0.595699,0.000000
4.051193,-10.850077,-2.428041,0.000000,0.000000,-1.000000
-4.750987,6.930989,2.428041,0.000000,0.000000,1.000000
1.104667,6.552552,-0.651948,-0.146730,-0.989177,0.000000
-5.509248,-12.782234,1.794391,-0.427555,-0.903989,0.000000
-1.615463,-11.798415,-2.428041,0.000000,-0.000000,-1.000000
-12.667602,-5.751616,2.213775,-0.903989,-0.427555,0.000000
7.171395,7.091079,2.428041,0.000000,-0.000000,1.000000
7.207955,-2.870986,-2.428041,0.000000,0.000000,-1.000000
1.350956,9.365414,-2.428041,-0.000000,0.000000,-1.000000
-10.025846,-9.651941,-0.014237,-0.740951,-0.671559,0.000000
-3.911159,-13.360575,-1.308865,-0.242980,-0.970031,0.000000
-2.664855,10.910073,-2.428041,-0.000000,-0.000000,-1.000000
-6.478714,-1.478160,1.132271,0.970031,0.242980,0.000000
0.866118,11.154369,-2.428041,0.000000,0.000000,-1.000000
-4.698466,12.413603,-2.428041,-0.000000,-0.000000,-1.000000
-2.910534,5.972754,-1.223199,0.427555,-0.903989,0.000000
-7.002285,12.020836,1.936220,-0.514103,0.857729,0.000000
3.483497,13.467699,0.455893,0.242980,0.970031,-0.000000
-5.880969,-8.963626,-2.428041,0.000000,-0.000000,-1.000000
-10.448129,-9.186024,-1.790018,-0.740951,-0.671559,0.000000
6.485381,1.451543,-1.929863,-0.970031,-0.242980,-0.000000
7.954716,-8.900559,2.428041,0.000000,-0.000000,1.000000
9.267097,-10.374648,-1.333853,0.671559,-0.740951,0.000000
13.703340,0.853851,2.428041,0.000000,0.000000,1.000000
10.571883,2.149695,2.428041,0.000000,0.000000,1.000000
-6.886208,-4.382905,-2.428041,0.000000,-0.000000,-1.000000
13.579255,-3.038138,-0.502996,0.970031,-0.242980,0.000000
-3.569700,7.162902,2.428041,0.000000,0.000000,1.000000
13.017768,-4.908748,-2.076249,0.941544,-0.336890,0.000000
-6.776149,-12.156378,-2.107809,-0.514103,-0.857729,0.000000
3.497914,-5.649143,-0.389691,-0.514103,0.857729,0.000000
-5.656250,-12.454002,2.428041,-0.000000,0.000000,1.000000
-9.999267,7.770521,-2.428041,-0.000000,-0.000000,-1.000000
0.965511,12.582448,-2.428041,-0.000000,0.000000,-1.000000
-10.677094,1.468273,2.428041,0.000000,0.000000,1.000000
9.261667,-0.039087,-2.428041,0.000000,0.000000,-1.000000
-3.191697,-12.404637,-2.428041,0.000000,-0.000000,-1.000000
6.914627,1.862043,-2.428041,0.000000,0.000000,-1.000000
-1.675069,8.290155,2.428041,0.000000,0.000000,1.000000
1.763297,9.790458,-2.428041,0.000000,0.000000,-1.000000
-1.256611,-13.865552,-1.117691,-0.049068,-0.998795,0.000000
-9.961293,-9.723165,-1.888449,-0.740951,-0.671559,0.000000
-0.557171,-12.755907,2.428041,-0.000000,-0.000000,1.000000
-2.637659,12.657417,-2.428041,-0.000000,-0.000000,-1.000000
-8.448927,-8.297467,-2.428041,0.000000,-0.000000,-1.000000
-0.558668,-13.899840,1.001353,-0.049068,-0.998795,0.000000
13.677103,2.599601,1.621779,0.989177,0.146730,-0.000000
9.947757,4.914971,-2.428041,-0.000000,0.000000,-1.000000
13.659461,2.717940,1.484039,0.970031,0.242980,0.000000
-5.145094,12.933202,0.705268,-0.336890,0.941544,0.000000
-9.300607,-9.552168,-2.428041,0.000000,-0.000000,-1.000000
6.617808,8.150908,-2.428041,0.000000,0.000000,-1.000000
-13.827638,1.584775,-1.404718,-0.989177,0.146730,0.000000
6.383192,1.989914,2.428041,0.000000,-0.000000,1.000000
-7.121169,9.840644,2.428041,0.000000,0.000000,1.000000
-9.703176,-8.561657,2.428041,-0.000000,0.000000,1.000000
1.991156,-12.793321,-2.428041,0.000000,0.000000,-1.000000
9.316114,-2.791271,2.428041,0.000000,-0.000000,1.000000
10.229627,-3.451981,2.428041,0.000000,-0.000000,1.000000
-13.009257,-4.921614,2.428041,-0.000000,0.000000,1.000000
5.641590,-3.510516,2.298906,-0.857729,0.514103,0.000000
-0.428843,-6.785735,-2.428041,0.000000,-0.000000,-1.000000
-11.974240,3.528439,-2.428041,-0.000000,0.000000,-1.000000
9.855911,-9.839436,-0.643905,0.740951,-0.671559,0.000000
-7.518155,-11.711636,-0.245166,-0.514103,-0.857729,0.000000
-3.277830,12.676924,2.428041,0.000000,0.000000,1.000000
-7.209705,-3.959487,-2.428041,0.000000,-0.000000,-1.000000
10.233170,-5.569856,-2.428041,0.000000,0.000000,-1.000000
-7.691631,-11.000734,-2.428041,0.000000,-0.000000,-1.000000
5.819621,3.213489,-0.039123,-0.857729,-0.514103,0.000000
-6.456057,6.095632,2.428041,0.000000,0.000000,1.000000
-11.339465,4.457327,2.428041,0.000000,0.000000,1.000000
-3.902615,11.832286,-2.428041,-0.000000,-0.000000,-1.000000
-1.062116,-13.875107,1.484007,-0.049068,-0.998795,0.000000
11.623187,-7.665723,0.815635,0.857729,-0.514103,0.000000
-6.704255,9.551892,-2.428041,-0.000000,-0.000000,-1.000000
-7.660553,0.734564,2.428041,-0.000000,0.000000,1.000000
10.075526,-5.636422,-2.428041,0.000000,0.000000,-1.000000
-4.132174,13.295630,-0.387086,-0.336890,0.941544,0.000000
-8.985537,-10.629840,0.181888,-0.671559,-0.740951,0.000000
8.548056,7.694593,2.428041,0.000000,0.000000,1.000000
-9.119809,-7.441644,2.428041,-0.000000,0.000000,1.000000
-3.988031,13.239739,-2.428041,-0.000000,-0.000000,-1.000000
-11.683070,-7.565815,-2.296954,-0.857729,-0.514103,0.000000
-2.285674,13.723669,-0.432390,-0.146730,0.989177,0.000000
-0.112762,-8.093577,2.428041,-0.000000,0.000000,1.000000
7.259243,-7.861562,-2.428041,0.000000,0.000000,-1.000000
-5.809646,-4.110754,2.428041,-0.000000,0.000000,1.000000
5.869531,-3.275865,2.428041,-0.000000,-0.000000,1.000000
-0.314254,6.636293,-1.527151,0.049068,-0.998795,0.000000
-8.550939,-0.374959,2.428041,-0.000000,0.000000,1.000000
2.187611,-6.273456,0.039091,-0.336890,0.941544,0.000000
-7.323299,-3.324227,-2.428041,0.000000,-0.000000,-1.000000
6.985321,-2.735588,2.428041,0.000000,-0.000000,1.000000
10.352217,5.928131,2.428041,0.000000,0.000000,1.000000
6.034586,11.374062,-2.428041,0.000000,0.000000,-1.000000
10.014040,9.656825,-2.428041,-0.000000,0.000000,-1.000000
11.966794,-3.298478,2.428041,0.000000,-0.000000,1.000000
5.776359,-3.285667,0.469420,-0.857729,0.514103,0.000000
-5.055956,-4.314592,-0.632220,0.740951,0.671559,0.000000
4.012988,-5.295250,-0.776649,-0.595699,0.803208,0.000000
11.823390,-7.331704,1.968846,0.857729,-0.514103,0.000000
6.573989,-0.960150,1.097751,-0.989177,0.146730,0.000000
-1.385603,6.501898,1.911364,0.242980,-0.970031,0.000000
-13.866454,-0.374819,-2.428041,0.000000,-0.000000,-1.000000
4.239670,13.257168,-0.547890,0.336890,0.941544,-0.000000
-9.946041,9.739992,1.624419,-0.740951,0.671559,0.000000
0.473740,9.653053,-2.428041,-0.000000,0.000000,-1.000000
6.231568,3.249887,2.428041,0.000000,-0.000000,1.000000
-12.979499,3.842626,-2.428041,-0.000000,-0.000000,-1.000000
10.686093,0.241008,2.428041,0.000000,0.000000,1.000000
-8.009737,7.967709,2.428041,0.000000,0.000000,1.000000
-9.846448,3.891245,2.428041,0.000000,0.000000,1.000000
-9.853897,9.841658,-0.562108,-0.740951,0.671559,0.000000
-6.353385,-3.609043,-2.428041,0.000000,-0.000000,-1.000000
-6.163736,-12.472684,-2.419628,-0.427555,-0.903989,0.000000
-13.021171,-4.899236,2.359362,-0.941544,-0.336890,0.000000
-4.568333,-8.593916,-2.428041,0.000000,-0.000000,-1.000000
10.069602,-9.603664,-1.838117,0.740951,-0.671559,0.000000
-13.512603,-2.241061,-2.428041,0.000000,-0.000000,-1.000000
8.774391,-5.053382,-2.428041,0.000000,0.000000,-1.000000
6.204968,2.379021,1.601795,-0.941544,-0.336890,0.000000
-6.515862,-1.329859,-2.369920,0.970031,0.242980,0.000000
-0.703426,12.983682,2.428041,0.000000,0.000000,1.000000
6.019723,12.540797,0.880027,0.427555,0.903989,-0.000000
-10.020513,-9.657826,-1.728687,-0.740951,-0.671559,0.000000
-5.713506,4.658497,2.428041,0.000000,0.000000,1.000000
1.703203,-11.557799,2.428041,0.000000,-0.000000,1.000000
12.419128,2.537318,-2.428041,0.000000,0.000000,-1.000000
-5.399118,-7.829966,2.428041,-0.000000,0.000000,1.000000
-2.251678,-8.510698,-2.428041,0.000000,-0.000000,-1.000000
-9.202299,-8.403891,-2.428041,0.000000,-0.000000,-1.000000
-13.652309,2.746492,2.118973,-0.970031,0.242980,0.000000
12.008971,-0.018304,2.428041,0.000000,-0.000000,1.000000
9.608423,-3.143863,2.428041,-0.000000,-0.000000,1.000000
6.209600,-12.325236,-2.428041,0.000000,0.000000,-1.000000
-8.563914,-10.156104,2.428041,-0.000000,0.000000,1.000000
9.385588,1.815918,2.428041,0.000000,-0.000000,1.000000
0.637236,13.895980,-1.156948,0.049068,0.998795,0.000000
-0.990231,-13.878639,2.296373,-0.049068,-0.998795,0.000000
7.831084,9.610951,2.428041,0.000000,0.000000,1.000000
12.295602,-4.244542,-2.428041,0.000000,0.000000,-1.000000
-10.898587,8.656519,-1.983208,-0.803208,0.595699,0.000000
-7.817465,-7.709489,2.428041,-0.000000,0.000000,1.000000
-1.980914,10.452479,-2.428041,-0.000000,-0.000000,-1.000000
4.552617,-10.989010,2.428041,0.000000,-0.000000,1.000000
-7.313562,-6.494760,2.428041,-0.000000,0.000000,1.000000
-2.667314,-7.653457,-2.428041,0.000000,-0.000000,-1.000000
-12.930762,5.151912,1.444259,-0.941544,0.336890,0.000000
-5.096065,-4.270338,-0.194688,0.740951,0.671559,0.000000
0.709631,6.611150,-0.040301,-0.146730,-0.989177,-0.000000
-6.326945,2.038117,-1.683107,0.941544,-0.336890,0.000000
5.334553,-3.959994,-0.061919,-0.803208,0.595699,0.000000
-10.179541,-3.757899,2.428041,-0.000000,0.000000,1.000000
-0.731535,6.607901,-2.414987,0.146730,-0.989177,0.000000
-6.746906,0.018854,-2.428041,-0.000000,0.000000,-1.000000
1.271662,7.882116,2.428041,0.000000,-0.000000,1.000000
-2.370134,-7.712619,2.428041,-0.000000,0.000000,1.000000
7.555193,-7.582866,2.428041,-0.000000,-0.000000,1.000000
-4.052594,5.265876,-1.535151,0.595699,-0.803208,0.000000
-11.781005,7.288247,2.428041,0.000000,0.000000,1.000000
-0.918360,13.615329,2.428041,0.000000,0.000000,1.000000
1.504831,6.472033,-1.616918,-0.242980,-0.970031,-0.000000
10.558025,9.064773,1.468562,0.740951,0.671559,-0.000000
-0.391247,8.157013,-2.428041,-0.000000,0.000000,-1.000000
10.590968,2.756735,-2.428041,-0.000000,0.000000,-1.000000
-13.826134,1.594912,-0.900161,-0.989177,0.146730,0.000000
-7.509477,-11.115372,2.428041,-0.000000,0.000000,1.000000
11.970923,-7.085561,-0.938349,0.857729,-0.514103,0.000000
10.327293,7.972720,2.428041,0.000000,0.000000,1.000000
-12.691733,5.700596,1.023895,-0.903989,0.427555,0.000000
4.280853,-12.973001,-2.428041,0.000000,0.000000,-1.000000
-6.622680,0.591355,-1.342827,0.998795,-0.049068,0.000000
6.588693,0.861025,-0.198929,-0.989177,-0.146730,0.000000
-1.617878,13.822728,-0.267484,-0.146730,0.989177,0.000000
-7.549967,-1.330916,-2.428041,0.000000,-0.000000,-1.000000
-6.605369,-0.748600,-0.961577,0.989177,0.146730,0.000000
6.848004,-2.828829,2.428041,0.000000,-0.000000,1.000000
-3.131231,-11.563447,2.428041,-0.000000,0.000000,1.000000
-13.680378,-2.577519,-2.299606,-0.989177,-0.146730,0.000000
5.469917,3.777476,1.238382,-0.803208,-0.595699,0.000000
7.803968,11.530882,-1.792296,0.595699,0.803208,-0.000000
0.146909,6.644514,1.461539,-0.049068,-0.998795,0.000000
-8.523495,7.513670,-2.428041,-0.000000,-0.000000,-1.000000
3.356939,13.499400,-0.692084,0.242980,0.970031,0.000000
-4.470970,13.174407,-1.634137,-0.336890,0.941544,0.000000
4.840453,-4.552362,-1.981027,-0.740951,0.671559,0.000000
0.618609,-6.621341,-1.714039,-0.049068,0.998795,0.000000
-5.908985,-10.096218,2.428041,-0.000000,0.000000,1.000000
12.713645,3.311275,-2.428041,-0.000000,0.000000,-1.000000
4.869772,-9.743853,2.428041,0.000000,-0.000000,1.000000
-13.153218,4.530189,2.236633,-0.941544,0.336890,0.000000
-7.312044,4.036569,2.428041,0.000000,0.000000,1.000000
-0.725609,6.608780,1.369321,0.146730,-0.989177,0.000000
-7.013710,2.341005,-2.428041,-0.000000,0.000000,-1.000000
11.203349,0.117708,2.428041,0.000000,0.000000,1.000000
4.951750,4.429565,0.279097,-0.740951,-0.671559,0.000000
7.873596,-6.200224,2.428041,0.000000,-0.000000,1.000000
13.567496,3.085084,-0.074802,0.970031,0.242980,0.000000
-10.418136,-3.865886,2.428041,-0.000000,0.000000,1.000000
-3.114668,12.238246,-2.428041,-0.000000,-0.000000,-1.000000
1.758006,-9.988379,2.428041,-0.000000,-0.000000,1.000000
-4.678718,-4.741784,-2.428041,0.000000,-0.000000,-1.000000
4.523394,11.211389,-2.428041,0.000000,0.000000,-1.000000
-2.127244,-10.583365,-2.428041,0.000000,-0.000000,-1.000000
5.544593,-6.890463,-2.428041,0.000000,0.000000,-1.000000
-1.528954,8.700942,2.428041,0.000000,0.000000,1.000000
0.110457,-13.921859,-0.660573,0.049068,-0.998795,0.000000
0.712663,6.610700,0.712617,-0.146730,-0.989177,-0.000000
3.036975,11.810180,2.428041,0.000000,0.000000,1.000000
-13.827792,1.583737,-2.334458,-0.989177,0.146730,0.000000
7.640600,-0.949328,-2.428041,0.000000,0.000000,-1.000000
11.936489,7.143011,2.231520,0.857729,0.514103,-0.000000
-5.354977,-12.855198,1.337784,-0.427555,-0.903989,0.000000
-1.865206,13.786040,-1.097683,-0.146730,0.989177,0.000000
5.027302,-4.346207,-0.675846,-0.740951,0.671559,0.000000
5.562279,-8.321844,2.428041,0.000000,-0.000000,1.000000
4.576678,11.714147,-2.428041,-0.000000,0.000000,-1.000000
-10.977443,4.652679,-2.428041,-0.000000,-0.000000,-1.000000
-5.871443,-3.124738,1.451952,0.903989,0.427555,0.000000
-10.970883,-8.559039,2.322271,-0.803208,-0.595699,0.000000
12.178524,6.739199,1.881815,0.857729,0.514103,-0.000000
-4.855995,-5.753136,-2.428041,0.000000,-0.000000,-1.000000
-3.953830,5.339125,1.322569,0.595699,-0.803208,0.000000
2.832914,7.968142,2.428041,0.000000,-0.000000,1.000000
-2.547995,8.119688,-2.428041,-0.000000,0.000000,-1.000000
0.781639,-13.592267,-2.428041,0.000000,0.000000,-1.000000
9.254792,-10.385802,-0.163445,0.671559,-0.740951,0.000000
-4.539261,5.590061,-2.428041,-0.000000,-0.000000,-1.000000
1.158618,-7.988814,2.428041,-0.000000,-0.000000,1.000000
0.977894,6.571357,0.759439,-0.146730,-0.989177,0.000000
-7.462056,11.514157,2.428041,0.000000,0.000000,1.000000
12.909998,-5.209944,-0.736521,0.941544,-0.336890,0.000000
-12.606242,4.211324,-2.428041,-0.000000,-0.000000,-1.000000
5.044290,-6.452181,2.428041,-0.000000,-0.000000,1.000000
-6.715238,4.281683,-2.428041,-0.000000,0.000000,-1.000000
8.058903,-4.941126,-2.428041,0.000000,0.000000,-1.000000
3.005137,13.587522,-1.695399,0.242980,0.970031,0.000000
-11.369032,-8.022197,1.598868,-0.803208,-0.595699,0.000000
8.835218,1.659662,2.428041,0.000000,-0.000000,1.000000
4.546112,7.261864,-2.428041,0.000000,0.000000,-1.000000
2.635980,-6.516475,-2.428041,0.000000,0.000000,-1.000000
7.510805,11.716041,-0.849747,0.514103,0.857729,0.000000
8.019845,-11.370776,-0.349668,0.595699,-0.803208,0.000000
-7.192943,-11.906560,-1.334649,-0.514103,-0.857729,0.000000
4.357588,5.016986,-1.778808,-0.671559,-0.740951,-0.000000
-12.111652,6.850769,-1.439198,-0.857729,0.514103,0.000000
-2.906091,-5.974855,-2.163795,0.427555,0.903989,0.000000
3.299369,12.657211,2.428041,0.000000,0.000000,1.000000
-9.555326,5.069319,2.428041,0.000000,0.000000,1.000000
9.303799,-6.689416,2.428041,0.000000,-0.000000,1.000000
-7.818358,-11.424926,-2.428041,0.000000,-0.000000,-1.000000
-7.457241,-2.236686,-2.428041,0.000000,-0.000000,-1.000000
0.133804,-6.645158,-1.374481,-0.049068,0.998795,0.000000
8.890236,6.500198,2.428041,0.000000,0.000000,1.000000
-11.183300,3.551846,-2.428041,-0.000000,-0.000000,-1.000000
-3.380435,12.638977,2.428041,0.000000,0.000000,1.000000
-0.489101,8.439199,2.428041,0.000000,0.000000,1.000000
-11.213260,-4.266012,-2.428041,0.000000,-0.000000,-1.000000
10.169595,7.284361,-2.428041,-0.000000,0.000000,-1.000000
-7.205202,2.539780,2.428041,0.000000,0.000000,1.000000
-12.147550,-6.790877,0.935137,-0.857729,-0.514103,0.000000
9.518299,8.608357,2.428041,0.000000,0.000000,1.000000
-4.382154,-12.583789,2.428041,-0.000000,0.000000,1.000000
-12.300711,-1.217276,2.428041,-0.000000,0.000000,1.000000
10.909167,8.642254,0.684814,0.803208,0.595699,-0.000000
-0.573856,-7.703794,-2.428041,0.000000,-0.000000,-1.000000
-7.991450,-10.347075,-2.428041,0.000000,-0.000000,-1.000000
-13.783952,1.879282,0.173412,-0.989177,0.146730,0.000000
-2.011455,-9.368614,-2.428041,0.000000,-0.000000,-1.000000
0.108363,-13.921962,-1.045774,0.049068,-0.998795,0.000000
5.538831,-9.086890,-2.428041,0.000000,0.000000,-1.000000
11.688233,7.557200,2.332967,0.857729,0.514103,-0.000000
-4.463783,-13.176979,0.025184,-0.336890,-0.941544,0.000000
7.920987,-9.660023,2.428041,-0.000000,-0.000000,1.000000
13.201592,4.394995,0.633930,0.941544,0.336890,0.000000
12.294016,-6.541497,-1.147041,0.903989,-0.427555,0.000000
11.887123,2.310272,2.428041,0.000000,-0.000000,1.000000
-0.588275,-13.898385,1.893125,-0.049068,-0.998795,0.000000
4.166425,-5.483682,2.428041,-0.000000,-0.000000,1.000000
-1.165583,-9.855170,-2.428041,0.000000,-0.000000,-1.000000
-1.570298,13.032000,-2.428041,-0.000000,-0.000000,-1.000000
-1.508629,-13.838933,-1.784696,-0.146730,-0.989177,0.000000
-12.818178,-5.433251,-0.703712,-0.903989,-0.427555,0.000000
9.809648,6.327739,-2.428041,-0.000000,0.000000,-1.000000
-2.996851,-9.272512,2.428041,-0.000000,0.000000,1.000000
-11.148834,-8.319100,-1.425884,-0.803208,-0.595699,0.000000
2.654028,13.669029,1.100935,0.146730,0.989177,0.000000
4.732656,-6.263339,-2.428041,0.000000,0.000000,-1.000000
-10.545675,9.078398,-0.482254,-0.740951,0.671559,0.000000
-8.151250,7.847212,-2.428041,-0.000000,0.000000,-1.000000
4.614262,-13.123137,2.415538,0.336890,-0.941544,0.000000
2.657298,-13.063955,-2.428041,0.000000,0.000000,-1.000000
-10.617442,-2.870938,2.428041,-0.000000,0.000000,1.000000
-13.827709,-1.584293,-1.327609,-0.989177,-0.146730,0.000000
0.897749,6.583245,1.083397,-0.146730,-0.989177,0.000000
-12.413324,-0.983589,2.428041,-0.000000,0.000000,1.000000
-5.663263,8.649595,2.428041,0.000000,0.000000,1.000000
-1.110938,13.872709,0.702244,-0.049068,0.998795,0.000000
-13.778300,1.917384,-0.283441,-0.989177,0.146730,0.000000
6.914414,9.412453,2.428041,0.000000,0.000000,1.000000
6.540641,1.184966,-2.241150,-0.989177,-0.146730,-0.000000
-1.018659,-6.565310,-0.719589,0.146730,0.989177,0.000000
-12.463085,-0.867710,2.428041,-0.000000,0.000000,1.000000
-13.636549,-0.053081,-2.428041,0.000000,-0.000000,-1.000000
8.737393,4.644181,2.428041,0.000000,-0.000000,1.000000
-2.143008,13.744832,2.025867,-0.146730,0.989177,0.000000
-12.189832,4.726227,2.428041,0.000000,0.000000,1.000000
4.422973,-13.191581,2.154363,0.336890,-0.941544,0.000000
10.045789,-7.569289,2.428041,0.000000,-0.000000,1.000000
-7.829180,10.730575,-2.428041,-0.000000,-0.000000,-1.000000
-13.680403,-2.577352,-1.471560,-0.989177,-0.146730,0.000000
6.467777,-1.521822,-2.376358,-0.970031,0.242980,0.000000
-6.695969,12.204435,-1.368868,-0.514103,0.857729,0.000000
-11.740880,-7.469364,1.307809,-0.857729,-0.514103,0.000000
5.683560,3.893367,-2.428041,0.000000,0.000000,-1.000000
10.474229,-9.157227,-1.763780,0.740951,-0.671559,0.000000
-7.445639,3.229663,-2.428041,-0.000000,-0.000000,-1.000000
5.468268,3.779700,0.978602,-0.803208,-0.595699,0.000000
11.554639,6.672404,2.428041,0.000000,0.000000,1.000000
6.523746,-1.298382,-1.393163,-0.970031,0.242980,0.000000
-11.281078,2.461861,-2.428041,-0.000000,-0.000000,-1.000000
-5.249821,4.239630,2.428041,0.000000,0.000000,1.000000
5.197552,9.894134,2.428041,0.000000,0.000000,1.000000
1.458197,12.811538,-2.428041,-0.000000,0.000000,-1.000000
7.384182,-2.467354,-2.428041,0.000000,0.000000,-1.000000
-0.793725,-6.598676,1.026160,0.146730,0.989177,0.000000
-11.028000,6.477549,-2.428041,-0.000000,-0.000000,-1.000000
6.629067,-0.461328,-1.445325,-0.998795,0.049068,0.000000
8.607639,8.921799,-2.428041,-0.000000,0.000000,-1.000000
10.519806,0.434634,2.428041,0.000000,0.000000,1.000000
-10.904237,3.363446,2.428041,0.000000,0.000000,1.000000
13.379265,3.562024,2.428041,0.000000,0.000000,1.000000
-9.062160,-10.560393,-1.892729,-0.671559,-0.740951,0.000000
-7.366641,5.698277,2.428041,0.000000,0.000000,1.000000
2.684692,9.511955,-2.428041,0.000000,0.000000,-1.000000
9.797453,-8.165729,-2.428041,0.000000,0.000000,-1.000000
0.417365,-13.906782,2.218288,0.049068,-0.998795,0.000000
13.556773,3.127892,0.460462,0.970031,0.242980,0.000000
-5.668321,3.465918,1.248778,0.857729,-0.514103,0.000000
3.707843,5.521561,-0.236344,-0.595699,-0.803208,-0.000000
-10.396199,-3.961926,-2.428041,0.000000,-0.000000,-1.000000
-13.908794,0.376395,1.721352,-0.998795,0.049068,0.000000
9.982509,4.158615,-2.428041,0.000000,0.000000,-1.000000
-7.328496,-7.931426,-2.428041,0.000000,-0.000000,-1.000000
13.284326,-2.913984,-2.428041,0.000000,0.000000,-1.000000
3.806127,11.255105,2.428041,0.000000,0.000000,1.000000
10.311604,2.251953,-2.428041,0.000000,0.000000,-1.000000
7.049673,-11.992434,-0.332990,0.514103,-0.857729,0.000000
13.363681,-3.898759,1.860465,0.970031,-0.242980,0.000000
-2.645767,7.832924,-2.428041,-0.000000,0.000000,-1.000000
12.156798,-3.035869,-2.428041,0.000000,0.000000,-1.000000
-5.423551,3.839993,-2.218697,0.803208,-0.595699,0.000000
3.061871,-5.901176,-1.191576,-0.427555,0.903989,0.000000
-1.339507,13.861480,-1.603303,-0.049068,0.998795,0.000000
-6.333526,-4.814204,2.428041,-0.000000,0.000000,1.000000
9.568004,-7.076545,2.428041,0.000000,-0.000000,1.000000
-3.588957,-5.594574,0.413978,0.514103,0.857729,0.000000
4.294098,-10.654538,-2.428041,0.000000,0.000000,-1.000000
6.896254,6.728066,-2.428041,-0.000000,0.000000,-1.000000
7.838662,7.285273,-2.428041,-0.000000,0.000000,-1.000000
-4.987981,-7.804535,-2.428041,0.000000,-0.000000,-1.000000
5.508910,8.761516,2.428041,0.000000,0.000000,1.000000
9.395554,5.365011,2.428041,0.000000,0.000000,1.000000
-9.159023,-0.068139,-2.428041,-0.000000,-0.000000,-1.000000
5.257557,4.063811,1.003296,-0.803208,-0.595699,0.000000
0.766271,-7.027509,2.428041,0.000000,-0.000000,1.000000
-6.623293,0.578862,-1.073832,0.998795,-0.049068,0.000000
-12.031525,-3.013249,-2.428041,0.000000,-0.000000,-1.000000
2.520224,13.688877,2.300528,0.146730,0.989177,-0.000000
9.661086,1.380344,-2.428041,-0.000000,0.000000,-1.000000
-11.382578,-8.003932,-2.180761,-0.803208,-0.595699,0.000000
-2.225532,13.732591,-0.278390,-0.146730,0.989177,0.000000
-0.953906,6.574915,1.207699,0.146730,-0.989177,0.000000
-6.442256,1.623709,0.363483,0.970031,-0.242980,0.000000
-5.768997,-3.297949,0.674722,0.857729,0.514103,0.000000
6.384171,7.943490,-2.428041,0.000000,0.000000,-1.000000
-6.040441,11.099963,2.428041,0.000000,0.000000,1.000000
4.731498,-13.081189,-0.007346,0.336890,-0.941544,0.000000
-6.337967,-12.390279,0.394412,-0.427555,-0.903989,0.000000
-8.976262,-7.874160,2.428041,-0.000000,0.000000,1.000000
7.713415,-1.899724,-2.428041,0.000000,0.000000,-1.000000
8.222406,1.721714,-2.428041,0.000000,0.000000,-1.000000
11.854833,2.532884,2.428041,0.000000,0.000000,1.000000
-1.439069,13.849251,-0.338499,-0.146730,0.989177,0.000000
-1.979206,11.306138,-2.428041,-0.000000,-0.000000,-1.000000
5.385486,-11.695596,-2.428041,0.000000,0.000000,-1.000000
-1.305246,-13.010978,-2.428041,0.000000,-0.000000,-1.000000
11.510394,-7.831592,0.650164,0.803208,-0.595699,0.000000
-12.873618,-3.728505,2.428041,-0.000000,0.000000,1.000000
-13.889768,-0.763676,-0.036100,-0.998795,-0.049068,0.000000
4.674528,-12.193187,-2.428041,0.000000,0.000000,-1.000000
-5.162812,4.191560,0.000051,0.803208,-0.595699,0.000000
-11.663278,-0.688156,-2.428041,0.000000,-0.000000,-1.000000
13.449675,3.555450,-1.916956,0.970031,0.242980,0.000000
10.203743,9.455662,0.691863,0.740951,0.671559,-0.000000
-1.224892,-11.830679,-2.428041,0.000000,-0.000000,-1.000000
5.178102,4.170944,2.285189,-0.803208,-0.595699,0.000000
-4.062289,-8.028063,2.428041,-0.000000,0.000000,1.000000
-1.584121,-9.624050,2.428041,-0.000000,0.000000,1.000000
13.542068,-1.696928,2.428041,0.000000,-0.000000,1.000000
-1.010884,13.877624,1.064299,-0.049068,0.998795,0.000000
10.643261,-8.562275,2.428041,0.000000,-0.000000,1.000000
6.164041,-3.360385,2.428041,-0.000000,-0.000000,1.000000
-8.403927,11.085922,-0.173876,-0.595699,0.803208,0.000000
-7.284531,-11.851665,1.204470,-0.514103,-0.857729,0.000000
13.884086,-0.879352,-0.839520,0.998795,-0.049068,0.000000
-10.258631,6.524749,-2.428041,-0.000000,-0.000000,-1.000000
-9.134479,10.184984,2.428041,0.000000,0.000000,1.000000
-7.407924,-11.777706,1.724433,-0.514103,-0.857729,0.000000
-11.894819,-5.045397,2.428041,-0.000000,0.000000,1.000000
5.576958,3.618348,2.147367,-0.857729,-0.514103,0.000000
-13.054126,-4.807134,0.000348,-0.941544,-0.336890,0.000000
2.198963,-11.272794,2.428041,-0.000000,-0.000000,1.000000
-2.675300,6.084011,-0.722255,0.427555,-0.903989,0.000000
-4.578667,-4.842424,-2.428041,0.000000,-0.000000,-1.000000
-12.539612,6.022229,2.239393,-0.903989,0.427555,0.000000
-4.133603,11.165939,-2.428041,-0.000000,-0.000000,-1.000000
2.548041,-6.144200,-1.095389,-0.427555,0.903989,0.000000
-13.000112,4.958093,1.625578,-0.941544,0.336890,0.000000
-1.609699,-8.979096,2.428041,-0.000000,0.000000,1.000000
12.076034,-6.867844,-2.428041,0.000000,0.000000,-1.000000
-10.217018,-9.441016,1.948896,-0.740951,-0.671559,0.000000
5.618263,11.352686,2.428041,0.000000,0.000000,1.000000
0.690050,13.893385,-2.204415,0.049068,0.998795,0.000000
-10.544466,9.079733,-1.911406,-0.740951,0.671559,0.000000
1.335002,-11.906740,-2.428041,0.000000,0.000000,-1.000000
7.926426,11.440061,0.595518,0.595699,0.803208,-0.000000
3.208960,7.585614,-2.428041,-0.000000,0.000000,-1.000000
-6.899470,-6.810983,-2.428041,0.000000,-0.000000,-1.000000
-0.715516,-13.892134,-0.611234,-0.049068,-0.998795,0.000000
-3.021027,-13.583542,0.891583,-0.242980,-0.970031,0.000000
4.844598,-11.567700,2.428041,0.000000,-0.000000,1.000000
-10.067149,8.477299,-2.428041,-0.000000,-0.000000,-1.000000
-7.734204,-9.590182,-2.428041,0.000000,-0.000000,-1.000000
10.989984,-1.667696,-2.428041,0.000000,0.000000,-1.000000
-10.108414,-9.560842,2.361008,-0.740951,-0.671559,0.000000
-8.872823,-2.204443,-2.428041,0.000000,-0.000000,-1.000000
6.400275,-1.791307,0.301960,-0.970031,0.242980,0.000000
4.840966,-5.222763,2.428041,-0.000000,-0.000000,1.000000
13.695932,-0.535304,2.428041,0.000000,-0.000000,1.000000
-9.728918,5.473500,-2.428041,-0.000000,-0.000000,-1.000000
-12.691879,-5.700287,2.102037,-0.903989,-0.427555,0.000000
-10.546701,9.077267,0.454920,-0.740951,0.671559,0.000000
11.256166,-8.174379,-2.308872,0.803208,-0.595699,0.000000
-13.580670,3.032489,-0.544932,-0.970031,0.242980,0.000000
9.082731,3.033422,2.428041,0.000000,0.000000,1.000000
0.424359,-6.630884,-0.373296,-0.049068,0.998795,0.000000
6.975144,3.934517,-2.428041,0.000000,0.000000,-1.000000
12.439024,6.234905,0.981648,0.903989,0.427555,-0.000000
3.149304,-12.795170,-2.428041,0.000000,0.000000,-1.000000
