x,y,z,nx,ny,nz
9.261379,-13.022976,-22.204559,-0.000000,0.000000,1.000000
-2.644325,-1.719535,5.657944,0.881921,0.471397,0.000000
0.370423,-4.963226,30.143362,0.000000,0.000000,1.000000
8.348038,-1.321525,16.767649,0.980785,-0.195091,0.000000
0.113278,11.520328,26.418478,-0.098017,0.995185,-0.000000
-2.876881,18.990733,-22.204559,-0.000000,-0.000000,1.000000
3.042702,7.885909,1.632006,0.321439,0.946930,0.000000
6.354569,-5.562835,-15.160345,0.751840,-0.659346,0.000000
7.692755,3.495516,7.967726,0.896873,0.442289,0.000000
-15.619265,-3.008152,22.204559,0.000000,0.000000,-1.000000
-2.427216,15.828210,-22.204559,-0.000000,-0.000000,1.000000
12.425483,1.900760,-23.973516,0.634393,-0.773011,0.000000
10.499733,-16.270592,24.585591,0.555570,-0.831470,0.000000
-4.003134,-14.585856,22.204559,0.000000,0.000000,-1.000000
7.958299,2.477186,30.143362,0.000000,-0.000000,1.000000
-1.252073,19.321322,-30.126861,-0.065403,0.997859,0.000000
16.422721,0.091243,-24.430558,-0.995185,-0.098017,0.000000
-1.166910,-2.930103,14.818039,0.290285,0.956940,-0.000000
-9.156518,-12.975332,-22.204559,-0.000000,0.000000,1.000000
16.325342,-10.417795,-24.681312,0.831470,-0.555570,0.000000
-7.457452,3.972663,2.275311,-0.896873,0.442289,0.000000
0.247546,17.519798,22.204559,0.000000,0.000000,-1.000000
9.914523,3.969779,-30.143362,0.000000,-0.000000,-1.000000
7.276003,-0.577096,-30.143362,-0.000000,0.000000,-1.000000
-18.006496,-6.974202,22.204559,0.000000,0.000000,-1.000000
-9.338484,-8.725441,-30.143362,-0.000000,-0.000000,-1.000000
-0.116248,-8.455951,11.722463,-0.065403,-0.997859,0.000000
-1.317062,-11.897058,-24.186327,0.471397,-0.881921,0.000000
7.640698,-4.864465,-22.204559,-0.000000,-0.000000,1.000000
-4.089701,-4.043875,-30.143362,0.000000,-0.000000,-1.000000
8.256363,1.782404,-14.741659,0.980785,0.195091,0.000000
-15.885724,1.527256,22.609947,0.773010,-0.634393,0.000000
-2.887086,7.938734,-13.036910,-0.321439,0.946930,0.000000
8.278990,1.686070,30.143362,0.000000,-0.000000,1.000000
-10.537998,-16.245025,-23.715508,-0.555570,-0.831470,0.000000
0.806862,-8.410686,-21.396537,0.065403,-0.997859,0.000000
16.162835,10.661004,27.307538,0.831470,0.555570,-0.000000
-17.909391,-7.459829,-28.709014,-0.896873,-0.442289,0.000000
-6.427842,9.508100,30.143362,0.000000,0.000000,1.000000
-16.034759,10.852683,25.473213,-0.831470,0.555570,0.000000
5.683370,13.856437,-22.204559,-0.000000,0.000000,1.000000
4.043980,-8.952267,30.143362,-0.000000,0.000000,1.000000
-2.226059,2.238615,-0.134895,0.634393,-0.773010,0.000000
8.165525,-2.218980,-3.774524,0.946930,-0.321439,0.000000
-1.102334,2.949692,5.981242,0.290285,-0.956940,0.000000
-2.448513,-13.840936,-28.817623,0.995185,-0.098017,0.000000
17.772211,7.738002,-23.083893,0.896873,0.442289,-0.000000
8.267424,1.726801,12.596598,0.980785,0.195091,-0.000000
18.894476,4.256590,28.150324,0.980785,0.195090,-0.000000
-2.700019,-8.002234,12.897647,-0.321439,-0.946930,0.000000
-2.563702,-8.048508,21.778379,-0.321439,-0.946930,0.000000
-0.291330,8.444476,13.567203,-0.065403,0.997859,0.000000
10.373807,16.354734,24.440540,0.555570,0.831470,0.000000
17.712106,-7.859882,27.072725,0.896873,-0.442289,0.000000
6.895234,4.106439,-30.143362,0.000000,-0.000000,-1.000000
4.816041,-6.939280,9.107587,0.555570,-0.831470,0.000000
-14.046281,-10.562732,-22.204559,0.000000,-0.000000,1.000000
-17.298804,-8.697976,22.717383,-0.896873,-0.442289,0.000000
12.443186,12.457571,30.143362,0.000000,-0.000000,1.000000
16.247344,2.075023,22.204559,0.000000,0.000000,-1.000000
-2.872179,-7.943794,3.491919,-0.321439,-0.946930,0.000000
9.301672,-1.356785,-22.204559,-0.000000,-0.000000,1.000000
11.642465,-0.763680,-27.215602,0.956941,0.290283,-0.000000
9.305471,16.999221,28.605785,0.442289,0.896873,0.000000
1.571148,2.723640,17.762421,-0.471397,-0.881921,0.000000
-2.428821,13.640996,-22.871285,0.995185,0.098017,0.000000
0.838467,3.029735,29.738393,-0.290285,-0.956940,0.000000
-2.298115,-8.138662,16.689320,-0.321439,-0.946930,0.000000
0.119173,-19.395576,25.399154,0.065403,-0.997859,0.000000
2.344759,2.096722,-10.039995,-0.773010,-0.634393,0.000000
-11.289475,9.323278,-30.143362,0.000000,0.000000,-1.000000
-14.186493,2.454231,-30.143362,0.000000,-0.000000,-1.000000
-2.148352,-15.147237,-24.416348,0.881921,0.471397,0.000000
2.113006,-2.331396,-24.568486,-0.634393,0.773010,0.000000
7.203036,7.420605,-22.204559,0.000000,-0.000000,1.000000
5.247542,6.631073,4.610637,0.659346,0.751840,-0.000000
17.976469,-7.277833,24.912229,0.946930,-0.321440,0.000000
-0.748703,8.414498,19.203623,-0.065403,0.997859,0.000000
8.252206,1.803306,3.356571,0.980785,0.195091,-0.000000
5.945894,18.316024,30.143362,0.000000,-0.000000,1.000000
-7.515232,14.014736,22.204559,0.000000,0.000000,-1.000000
-5.321368,6.566329,-13.313709,-0.659346,0.751840,0.000000
6.576099,-5.310228,20.787702,0.751840,-0.659346,0.000000
-2.896959,19.164923,-23.963494,-0.195090,0.980785,0.000000
5.159876,-6.707954,1.009968,0.659346,-0.751840,0.000000
6.305768,5.618482,-20.353035,0.751840,0.659346,0.000000
9.568580,-2.889204,30.143362,0.000000,-0.000000,1.000000
14.297632,12.469187,-22.204559,0.000000,-0.000000,1.000000
-9.084277,16.932726,-30.143362,0.000000,0.000000,-1.000000
-6.397949,14.523482,30.143362,0.000000,0.000000,1.000000
-12.436955,-11.331954,30.143362,-0.000000,-0.000000,1.000000
1.300289,10.056064,30.143362,0.000000,-0.000000,1.000000
6.584938,5.300149,11.735107,0.751840,0.659346,0.000000
-1.015861,11.736063,25.743558,0.471397,0.881921,0.000000
-11.867641,-9.208538,-30.143362,0.000000,0.000000,-1.000000
4.341980,7.256037,11.129539,0.555570,0.831470,-0.000000
-0.034062,18.903145,-30.143362,0.000000,-0.000000,-1.000000
-1.759233,-15.687845,-26.627052,0.773011,0.634393,0.000000
-2.092524,12.689191,-26.338542,0.881921,0.471397,0.000000
-8.452844,-0.163650,10.607080,-0.997859,-0.065403,-0.000000
5.184148,2.425568,-30.143362,0.000000,-0.000000,-1.000000
-0.476928,-11.556144,-28.679253,0.098017,-0.995185,0.000000
17.974366,7.284028,-28.101668,0.946930,0.321440,-0.000000
4.019919,-4.579777,30.143362,0.000000,-0.000000,1.000000
-3.223838,7.824422,-15.045920,-0.321439,0.946930,0.000000
-8.425581,0.579611,-19.061499,-0.997859,0.065403,0.000000
8.495705,6.368314,22.204559,0.000000,0.000000,-1.000000
2.975364,1.017706,-22.462572,-0.956940,-0.290285,0.000000
7.728646,-14.972613,30.143362,0.000000,0.000000,1.000000
7.341625,4.207536,-12.306679,0.896873,0.442289,-0.000000
-11.346703,-6.324237,-22.204559,-0.000000,0.000000,1.000000
3.453892,-19.054142,26.186801,0.195090,-0.980785,0.000000
-7.144862,-15.557883,30.143362,-0.000000,-0.000000,1.000000
0.521932,8.429361,19.823386,0.065403,0.997859,-0.000000
9.606534,13.929800,22.204559,0.000000,0.000000,-1.000000
-7.483929,-13.824431,30.143362,-0.000000,-0.000000,1.000000
6.326415,12.539357,-30.143362,0.000000,-0.000000,-1.000000
-3.972539,12.342780,-30.143362,0.000000,0.000000,-1.000000
3.970201,-7.458666,-8.870246,0.442289,-0.896873,0.000000
3.129172,0.291441,2.265243,-0.995185,-0.098017,0.000000
2.954349,1.086980,1.199357,-0.956940,-0.290285,0.000000
19.279145,-1.895571,-25.169340,0.997859,-0.065403,0.000000
-1.895646,2.509779,25.272076,0.634393,-0.773010,0.000000
-0.659901,11.610984,26.873836,0.290283,0.956941,0.000000
-4.169747,-11.692359,30.143362,0.000000,0.000000,1.000000
16.588675,10.023689,24.401717,0.831470,0.555570,0.000000
18.352279,4.358009,30.143362,0.000000,-0.000000,1.000000
14.747563,12.548859,28.320987,0.751840,0.659346,-0.000000
16.640437,9.946222,-25.489569,0.831470,0.555570,0.000000
8.404143,0.906699,-18.621205,0.997859,0.065403,0.000000
5.826745,6.123125,11.492956,0.659346,0.751840,0.000000
7.821887,3.231306,-19.820965,0.946930,0.321439,-0.000000
13.766105,-12.530127,-22.204559,-0.000000,0.000000,1.000000
8.285074,-1.638065,0.274546,0.980785,-0.195091,0.000000
-13.768133,-2.632313,22.204559,0.000000,0.000000,-1.000000
-6.486398,-5.412512,-20.353924,-0.751840,-0.659346,0.000000
1.133170,17.727524,-30.143362,0.000000,0.000000,-1.000000
-8.456009,0.115376,2.189027,-0.997859,0.065403,0.000000
13.823901,2.446836,22.579825,0.098017,-0.995185,0.000000
-2.304500,13.129376,27.834133,0.956940,0.290285,0.000000
-10.746084,-5.560972,-22.204559,-0.000000,0.000000,1.000000
13.193644,12.564006,22.204559,0.000000,0.000000,-1.000000
-10.983211,15.947543,22.759437,-0.555570,0.831470,0.000000
6.933548,-0.459487,-30.143362,-0.000000,0.000000,-1.000000
12.997851,10.217255,-22.204559,-0.000000,0.000000,1.000000
11.747125,8.214796,30.143362,0.000000,-0.000000,1.000000
13.549276,-2.419787,24.652119,0.098017,0.995185,-0.000000
-8.489404,3.577124,30.143362,0.000000,0.000000,1.000000
-4.811627,-6.942230,-16.165036,-0.555570,-0.831470,0.000000
-3.007622,9.448422,22.204559,0.000000,0.000000,-1.000000
-4.660108,2.138626,-30.143362,0.000000,0.000000,-1.000000
17.966094,-7.308395,-26.204996,0.946930,-0.321440,0.000000
18.313647,3.034133,30.143362,0.000000,-0.000000,1.000000
2.836033,1.360874,20.556399,-0.881921,-0.471397,0.000000
-6.796658,-5.029490,-4.167946,-0.831470,-0.555570,0.000000
-6.169851,-9.106579,22.204559,0.000000,0.000000,-1.000000
7.225560,-2.503922,-30.143362,0.000000,-0.000000,-1.000000
-1.974696,2.444903,7.016176,0.634393,-0.773010,0.000000
-2.470830,8.080034,-21.069726,-0.321439,0.946930,0.000000
-7.460535,8.169539,22.204559,0.000000,-0.000000,-1.000000
-16.227452,10.564298,-27.451983,-0.831470,0.555570,0.000000
-1.434662,-8.325534,-17.313371,-0.195091,-0.980785,0.000000
-12.209023,15.045592,-26.952347,-0.659346,0.751840,0.000000
-10.008202,14.412904,-30.143362,0.000000,0.000000,-1.000000
4.344141,7.254593,6.723563,0.555570,0.831470,-0.000000
2.608002,-8.033470,17.286660,0.321439,-0.946930,0.000000
2.520923,-1.882066,13.717753,-0.773010,0.634393,0.000000
5.332165,18.509976,-30.143362,0.000000,0.000000,-1.000000
-10.159763,16.409982,-22.204559,-0.000000,-0.000000,1.000000
2.567490,1.825323,-27.842880,-0.773010,-0.634393,0.000000
9.802888,-14.953792,30.143362,0.000000,0.000000,1.000000
-6.984812,13.296346,22.204559,0.000000,0.000000,-1.000000
5.195610,6.676616,14.353807,0.659346,0.751840,-0.000000
6.190005,-2.854148,30.143362,0.000000,-0.000000,1.000000
3.015034,-0.886930,-17.468710,-0.956940,0.290285,0.000000
0.440186,8.434719,-9.758530,0.065403,0.997859,0.000000
-17.991014,-7.190650,30.143362,-0.000000,-0.000000,1.000000
4.669241,14.621915,22.204559,0.000000,0.000000,-1.000000
18.600644,5.439075,27.820025,0.946930,0.321440,0.000000
5.872035,8.434936,22.204559,0.000000,-0.000000,-1.000000
-3.244475,-12.267478,-22.204559,0.000000,-0.000000,1.000000
-12.256544,15.003917,23.943409,-0.659346,0.751840,0.000000
18.835158,4.554804,-29.823191,0.980785,0.195090,0.000000
19.101352,-3.216551,23.927754,0.980785,-0.195090,0.000000
18.578271,-5.504984,-27.112182,0.946930,-0.321440,0.000000
-9.161835,2.570743,30.143362,0.000000,0.000000,1.000000
10.118535,-16.525301,-22.555936,0.555570,-0.831470,0.000000
16.762797,-9.763097,24.657164,0.831470,-0.555570,0.000000
3.134860,-7.854626,-10.142380,0.321439,-0.946930,0.000000
8.876155,1.985992,-22.204559,0.000000,-0.000000,1.000000
-2.879241,-1.280038,8.793178,0.881921,0.471397,-0.000000
7.411285,-4.066281,-1.567327,0.896873,-0.442289,0.000000
-4.030478,7.428941,-1.185897,-0.442289,0.896873,0.000000
-12.293162,-14.971803,-23.942088,-0.659346,-0.751840,0.000000
-6.420711,5.487414,20.752609,-0.751840,0.659346,0.000000
-10.754615,5.910776,-30.143362,0.000000,0.000000,-1.000000
2.085390,15.265031,24.389834,-0.881921,-0.471397,0.000000
6.515072,-2.322040,30.143362,0.000000,-0.000000,1.000000
16.921083,3.806609,-30.143362,0.000000,-0.000000,-1.000000
-19.317137,1.315919,27.334818,-0.997859,0.065403,0.000000
-14.986316,3.150827,22.204559,-0.000000,-0.000000,-1.000000
14.655919,2.351695,-26.141665,-0.290285,-0.956940,0.000000
-17.805828,-7.669835,-22.611155,-0.896873,-0.442289,0.000000
-19.281209,1.864079,-26.758884,-0.997859,0.065403,0.000000
-16.209354,10.032438,22.204559,0.000000,0.000000,-1.000000
4.612185,-7.075492,-12.789723,0.555570,-0.831470,0.000000
-11.877761,14.986077,-30.143362,0.000000,0.000000,-1.000000
-6.068035,12.063635,22.204559,0.000000,0.000000,-1.000000
0.332078,-8.441805,21.721665,0.065403,-0.997859,0.000000
-11.905992,-13.449724,-30.143362,0.000000,0.000000,-1.000000
-1.927812,19.277032,-25.732803,-0.065403,0.997859,0.000000
6.916566,10.240471,-30.143362,0.000000,-0.000000,-1.000000
2.817840,-19.180661,28.835950,0.195090,-0.980785,0.000000
-5.339185,6.550704,13.947239,-0.659346,0.751840,0.000000
4.387760,7.225448,7.396019,0.555570,0.831470,-0.000000
8.319528,1.464857,8.901587,0.980785,0.195091,-0.000000
-1.236588,19.322337,-24.120349,-0.065403,0.997859,0.000000
1.384492,-8.335513,1.342256,0.195091,-0.980785,0.000000
-4.329983,-7.264053,11.506875,-0.555570,-0.831470,0.000000
-2.179785,2.276591,4.385700,0.634393,-0.773010,0.000000
-15.855204,-4.384817,-22.204559,0.000000,-0.000000,1.000000
4.855984,18.510206,-22.204559,0.000000,-0.000000,1.000000
11.546352,-15.571265,-26.368224,0.555570,-0.831470,0.000000
16.254794,0.907471,-27.488094,-0.956940,-0.290285,0.000000
2.671795,10.305343,-22.204559,-0.000000,0.000000,1.000000
-9.997723,4.042674,22.204559,0.000000,0.000000,-1.000000
-0.300677,-17.984598,22.204559,0.000000,-0.000000,-1.000000
1.209119,19.324137,28.366733,0.065403,0.997859,-0.000000
6.724444,-5.186038,30.143362,-0.000000,0.000000,1.000000
1.862222,-2.537208,-18.085775,-0.634393,0.773010,0.000000
2.118608,12.737993,-22.218234,-0.881921,0.471397,0.000000
-2.263126,-14.932511,-26.202060,0.881921,0.471397,0.000000
-2.801436,-13.982300,-22.204559,0.000000,0.000000,1.000000
-4.209480,7.340667,4.464848,-0.442289,0.896873,0.000000
2.198213,-8.172575,8.380894,0.321439,-0.946930,0.000000
-6.977346,16.504439,-30.143362,0.000000,0.000000,-1.000000
-2.216650,-8.166316,6.045855,-0.321439,-0.946930,0.000000
1.807922,19.284890,22.513145,0.065403,0.997859,0.000000
-3.121873,-0.365547,9.648905,0.995185,0.098017,0.000000
-10.809881,-16.063358,-26.802630,-0.555570,-0.831470,0.000000
-18.787824,-2.466956,22.204559,0.000000,0.000000,-1.000000
-2.728861,1.561380,2.119929,0.881921,-0.471397,0.000000
8.407387,-0.857194,-20.389479,0.997859,-0.065403,0.000000
-16.026661,-10.864802,29.656378,-0.831470,-0.555570,0.000000
13.083831,10.816786,-30.143362,0.000000,-0.000000,-1.000000
6.293639,-9.444962,22.204559,0.000000,0.000000,-1.000000
-6.487016,-5.411808,-17.984196,-0.751840,-0.659346,0.000000
0.822252,8.409678,8.561061,0.065403,0.997859,0.000000
-8.906813,-15.093368,-30.143362,-0.000000,-0.000000,-1.000000
-8.426031,-0.572751,15.542486,-0.997859,-0.065403,0.000000
-3.374025,7.752668,20.787842,-0.442289,0.896873,0.000000
12.788752,6.089421,22.204559,0.000000,0.000000,-1.000000
-15.043677,-2.203706,24.326363,0.471397,0.881921,-0.000000
16.728136,-4.339761,30.143362,0.000000,0.000000,1.000000
4.124679,11.324586,22.204559,0.000000,0.000000,-1.000000
6.613526,12.659387,-30.143362,0.000000,-0.000000,-1.000000
8.399730,0.974029,7.586485,0.997859,0.065403,-0.000000
8.319034,1.467339,-7.270754,0.980785,0.195091,0.000000
-10.738389,-2.355411,-22.204559,0.000000,-0.000000,1.000000
-2.855386,7.949494,-21.460495,-0.321439,0.946930,0.000000
-17.112358,-9.076051,-27.247530,-0.896873,-0.442289,0.000000
-4.606115,-18.824951,-22.238367,-0.195090,-0.980785,0.000000
11.320181,-13.563976,-22.204559,-0.000000,0.000000,1.000000
-2.719315,-8.897208,-30.143362,0.000000,-0.000000,-1.000000
-14.711631,2.334795,22.600954,0.290285,-0.956940,0.000000
0.634855,-16.337491,-29.901659,-0.290285,0.956940,0.000000
-1.427449,-19.309827,-22.207889,-0.065403,-0.997859,0.000000
0.215555,3.136646,3.847662,-0.098017,-0.995185,0.000000
-3.987041,7.450362,16.448552,-0.442289,0.896873,0.000000
-3.221822,-7.825106,10.321848,-0.321439,-0.946930,0.000000
3.721392,-19.000933,29.056894,0.195090,-0.980785,0.000000
2.777306,7.975999,-14.982687,0.321439,0.946930,0.000000
6.361552,10.717289,30.143362,0.000000,-0.000000,1.000000
1.099925,-16.159881,-25.117061,-0.471397,0.881921,0.000000
-17.531535,8.226046,-23.595411,-0.896873,0.442289,0.000000
-5.803609,-0.190084,30.143362,0.000000,0.000000,1.000000
3.395212,7.742220,19.389435,0.442289,0.896873,-0.000000
16.027854,-5.070287,22.204559,0.000000,-0.000000,-1.000000
12.462173,-1.930870,22.997338,0.634393,0.773011,-0.000000
-1.414521,-19.310675,22.654385,-0.065403,-0.997859,0.000000
1.315210,2.860442,12.646615,-0.471397,-0.881921,0.000000
-3.139220,0.189420,-28.082251,0.995185,-0.098017,0.000000
12.100401,-15.140851,22.715114,0.659346,-0.751840,0.000000
-5.079086,-18.722844,25.027083,-0.321440,-0.946930,0.000000
-0.074725,-11.516530,27.778578,0.098017,-0.995185,0.000000
-17.470080,-7.131832,-22.204559,0.000000,-0.000000,1.000000
2.005805,-11.322227,-22.204559,0.000000,0.000000,1.000000
-16.365643,10.357480,-24.332511,-0.831470,0.555570,0.000000
13.999423,-13.401950,-23.205013,0.751840,-0.659346,0.000000
6.897484,18.105580,-22.249225,0.321440,0.946930,-0.000000
2.719452,-1.578983,28.678257,-0.881921,0.471397,0.000000
-16.326690,-0.670462,28.729875,0.956940,0.290285,0.000000
-8.412724,0.775777,-16.738990,-0.997859,0.065403,0.000000
-17.507347,8.275093,-26.384904,-0.896873,0.442289,0.000000
-10.498017,15.081266,22.204559,0.000000,0.000000,-1.000000
13.158873,-9.115836,-30.143362,0.000000,-0.000000,-1.000000
8.406646,-0.868507,0.134167,0.997859,-0.065403,0.000000
-4.090321,17.714813,-22.204559,-0.000000,-0.000000,1.000000
12.315964,1.810880,27.683769,0.634393,-0.773011,0.000000
-8.270309,1.712295,0.893101,-0.980785,0.195091,0.000000
2.308649,2.140723,-23.400012,-0.773010,-0.634393,0.000000
-3.232267,19.098226,-22.208606,-0.195090,0.980785,0.000000
1.975571,2.444185,-10.193080,-0.634393,-0.773010,0.000000
12.566646,9.261492,30.143362,0.000000,-0.000000,1.000000
1.944402,12.478661,24.635432,-0.773011,0.634393,0.000000
11.502917,8.171556,30.143362,0.000000,-0.000000,1.000000
-13.444895,-12.087964,-30.143362,0.000000,0.000000,-1.000000
-19.103237,3.207074,-24.790156,-0.980785,0.195090,0.000000
2.334765,9.704493,-22.204559,-0.000000,0.000000,1.000000
-14.371857,-2.421732,-23.392043,0.098017,0.995185,0.000000
3.275923,-11.962976,22.204559,0.000000,0.000000,-1.000000
-3.519493,-9.459477,30.143362,0.000000,0.000000,1.000000
-7.722676,13.709538,-22.204559,0.000000,0.000000,1.000000
1.710591,15.735265,-29.185417,-0.634393,-0.773010,0.000000
8.333960,-1.392299,-5.174122,0.980785,-0.195091,0.000000
7.138062,18.023914,-29.324030,0.321440,0.946930,0.000000
6.483847,-12.587725,-22.204559,0.000000,-0.000000,1.000000
8.012349,2.670221,7.271227,0.946930,0.321439,-0.000000
-5.171547,-13.877753,22.204559,0.000000,-0.000000,-1.000000
2.215236,8.166796,7.157750,0.321439,0.946930,-0.000000
-11.556451,0.480046,25.490267,-0.995185,-0.098017,0.000000
-10.028989,-14.880441,22.204559,0.000000,-0.000000,-1.000000
6.657688,5.217194,15.234151,0.751840,0.659346,0.000000
0.558836,-16.360552,29.494983,-0.290285,0.956940,0.000000
0.832287,-19.348836,-24.040275,0.065403,-0.997859,0.000000
-8.421904,0.635705,1.419212,-0.997859,0.065403,0.000000
6.532052,-5.360454,-21.141733,0.751840,-0.659346,0.000000
-7.256040,4.269673,30.143362,0.000000,0.000000,1.000000
2.639538,1.728490,26.995238,-0.881921,-0.471397,0.000000
16.459285,10.217335,-27.947172,0.831470,0.555570,0.000000
-3.144193,-0.138923,-16.658421,0.995185,0.098017,-0.000000
-14.051149,-6.930702,30.143362,-0.000000,-0.000000,1.000000
2.229903,15.422646,-22.204559,0.000000,-0.000000,1.000000
-0.960478,-2.992724,-14.483167,0.290285,0.956940,-0.000000
-13.685348,-3.656259,22.204559,0.000000,0.000000,-1.000000
-12.866091,14.469358,-26.459574,-0.659346,0.751840,0.000000
7.822546,17.730519,30.071659,0.442289,0.896873,-0.000000
18.247795,4.063863,30.143362,0.000000,-0.000000,1.000000
16.834356,-2.463495,-22.204559,0.000000,-0.000000,1.000000
7.733136,-8.741555,22.204559,0.000000,0.000000,-1.000000
6.706291,5.161773,-11.045178,0.751840,0.659346,0.000000
-7.629654,-15.623226,-22.204559,0.000000,-0.000000,1.000000
4.276983,-7.299467,-5.748474,0.555570,-0.831470,0.000000
-2.891015,1.258012,7.266501,0.881921,-0.471397,0.000000
6.299657,-5.625450,18.628485,0.751840,-0.659346,0.000000
-3.589423,-18.731061,-30.143362,-0.000000,-0.000000,-1.000000
-4.949189,-6.850313,-1.732843,-0.555570,-0.831470,0.000000
5.482802,-12.615912,-22.204559,0.000000,0.000000,1.000000
1.189525,8.374295,-1.324566,0.195091,0.980785,-0.000000
8.063660,-2.519064,-4.474625,0.946930,-0.321439,0.000000
7.926285,-2.923759,-20.979522,0.946930,-0.321439,0.000000
-5.596104,6.325393,16.914701,-0.659346,0.751840,0.000000
-19.254094,-2.277774,-23.201578,-0.997859,-0.065403,0.000000
-3.615498,19.021997,27.044972,-0.195090,0.980785,0.000000
12.923091,12.646039,-30.143362,-0.000000,0.000000,-1.000000
2.620793,-8.029128,18.769777,0.321439,-0.946930,0.000000
-8.412378,0.781056,3.392527,-0.997859,0.065403,0.000000
-4.277011,-7.299448,-14.612559,-0.555570,-0.831470,0.000000
-3.127720,15.608001,-30.143362,0.000000,-0.000000,-1.000000
2.200915,-12.891977,22.367982,-0.881921,-0.471397,0.000000
-1.746322,-2.630007,-10.695264,0.471397,0.881921,-0.000000
8.913724,10.637495,22.204559,0.000000,0.000000,-1.000000
8.170487,-2.204362,12.948233,0.946930,-0.321439,0.000000
-7.501864,-4.999033,22.204559,0.000000,0.000000,-1.000000
-4.135884,-16.655580,-30.143362,-0.000000,-0.000000,-1.000000
-8.436354,0.415253,1.046422,-0.997859,0.065403,0.000000
-14.501862,2.398428,29.487798,0.290285,-0.956940,0.000000
-6.332583,-9.100729,-30.143362,0.000000,0.000000,-1.000000
-2.291558,2.161548,-27.259093,0.773010,-0.634393,0.000000
6.011823,-5.953661,21.927378,0.751840,-0.659346,0.000000
17.309695,-2.776458,30.143362,0.000000,0.000000,1.000000
-7.330432,-17.958614,29.309685,-0.321440,-0.946930,0.000000
-17.844316,-5.112829,-22.204559,0.000000,-0.000000,1.000000
11.309315,15.729647,-23.042239,0.555570,0.831470,-0.000000
-6.617727,-5.262760,-12.837132,-0.751840,-0.659346,0.000000
-7.680924,-13.243763,22.204559,0.000000,0.000000,-1.000000
-0.734966,-3.061132,4.941685,0.290285,0.956940,0.000000
-11.593340,-6.338312,22.204559,0.000000,0.000000,-1.000000
17.508148,7.191430,22.204559,0.000000,0.000000,-1.000000
6.868986,14.897256,30.143362,0.000000,-0.000000,1.000000
7.742743,3.394150,21.280758,0.896873,0.442289,-0.000000
0.182000,-11.527096,22.410651,-0.098017,-0.995185,0.000000
-0.026442,-8.461837,-6.644860,-0.065403,-0.997859,0.000000
-9.331096,-5.419734,-30.143362,0.000000,0.000000,-1.000000
-1.796874,-11.283004,22.204559,0.000000,0.000000,-1.000000
8.428077,0.541527,-5.810419,0.997859,0.065403,0.000000
-11.838385,15.370632,26.268041,-0.659346,0.751840,0.000000
-10.248127,12.359096,22.204559,0.000000,0.000000,-1.000000
4.805208,-9.673468,-30.143362,-0.000000,0.000000,-1.000000
-10.085490,7.275081,22.204559,0.000000,0.000000,-1.000000
-12.949441,-5.422943,22.204559,0.000000,-0.000000,-1.000000
6.860066,4.934593,1.851374,0.831470,0.555570,-0.000000
-14.002486,6.020855,30.143362,0.000000,0.000000,1.000000
-7.969173,2.797415,-3.474711,-0.946930,0.321439,0.000000
-10.282742,7.993566,30.143362,0.000000,0.000000,1.000000
-12.622833,-8.780059,30.143362,-0.000000,-0.000000,1.000000
0.819202,7.619806,30.143362,0.000000,-0.000000,1.000000
-2.585861,1.802939,-27.005469,0.773010,-0.634393,0.000000
-15.144457,12.096288,-23.949572,-0.751840,0.659346,0.000000
7.561559,3.761555,14.031232,0.896873,0.442289,-0.000000
-9.796030,-4.058274,-30.143362,0.000000,0.000000,-1.000000
5.933593,-16.315214,22.204559,0.000000,0.000000,-1.000000
-18.142717,-6.788080,-29.474885,-0.946930,-0.321440,-0.000000
3.120074,0.383811,10.752271,-0.995185,-0.098017,0.000000
0.975293,-8.399647,-18.964509,0.065403,-0.997859,0.000000
2.438429,-1.982585,18.674746,-0.773010,0.634393,0.000000
5.618264,-3.636478,-30.143362,-0.000000,0.000000,-1.000000
8.338522,-1.369364,9.100595,0.980785,-0.195091,0.000000
-4.176850,-0.308918,30.143362,0.000000,0.000000,1.000000
8.509366,-10.145740,-22.204559,-0.000000,-0.000000,1.000000
-2.340108,14.694116,-26.718597,0.956940,-0.290285,0.000000
7.508087,-9.965426,-22.204559,-0.000000,0.000000,1.000000
-18.332902,4.737044,30.143362,0.000000,0.000000,1.000000
2.548366,1.848626,-8.591530,-0.773010,-0.634393,0.000000
-1.241089,11.856450,-28.694136,0.471397,0.881921,-0.000000
-17.754353,-7.774215,24.703168,-0.896873,-0.442289,0.000000
-14.295540,-3.057262,22.204559,0.000000,0.000000,-1.000000
-17.558265,-8.171842,-26.944815,-0.896873,-0.442289,0.000000
-4.063134,-18.932957,-23.952350,-0.195090,-0.980785,0.000000
16.034020,-1.335394,-28.179489,-0.881921,0.471397,0.000000
-2.409555,-2.017768,28.341473,0.773010,0.634393,0.000000
-9.607172,5.794863,30.143362,0.000000,0.000000,1.000000
-6.389204,17.480904,30.143362,0.000000,0.000000,1.000000
-0.384333,-16.393854,25.408017,0.098017,0.995185,-0.000000
-7.366573,17.946345,24.667947,-0.321440,0.946930,0.000000
-7.701712,15.890149,-30.143362,0.000000,0.000000,-1.000000
-6.305970,-10.648510,22.204559,0.000000,0.000000,-1.000000
4.895671,9.234607,-30.143362,0.000000,0.000000,-1.000000
2.693716,-14.959975,-30.143362,0.000000,0.000000,-1.000000
16.873382,9.414569,-22.204559,0.000000,-0.000000,1.000000
-1.035406,11.746510,-29.691854,0.471397,0.881921,-0.000000
-16.538577,-3.111141,-22.204559,0.000000,-0.000000,1.000000
-12.494815,14.794958,-27.955543,-0.659346,0.751840,0.000000
12.122042,-1.608760,27.461824,0.773010,0.634393,0.000000
9.574206,-16.866695,-27.198422,0.442289,-0.896873,0.000000
16.712510,-9.838356,27.826761,0.831470,-0.555570,0.000000
4.708420,-7.011190,-10.418478,0.555570,-0.831470,0.000000
4.087312,-18.928147,28.619885,0.195090,-0.980785,0.000000
6.506860,-5.389180,-11.907972,0.751840,-0.659346,0.000000
16.626597,-3.210227,-22.204559,0.000000,0.000000,1.000000
-6.029142,10.245595,22.204559,0.000000,0.000000,-1.000000
1.483144,8.315890,-17.030046,0.195091,0.980785,0.000000
6.831916,18.127837,24.187451,0.321440,0.946930,0.000000
-7.835170,-17.352666,30.143362,0.000000,0.000000,1.000000
1.535910,-16.111610,-30.143362,0.000000,0.000000,-1.000000
-2.095888,-15.245392,26.558959,0.881921,0.471397,0.000000
-2.392846,-14.520265,-29.038483,0.956940,0.290285,-0.000000
3.848039,17.864878,-30.143362,0.000000,0.000000,-1.000000
4.640449,-8.117963,30.143362,-0.000000,0.000000,1.000000
-0.575039,3.101240,-19.315334,0.098017,-0.995185,0.000000
8.431702,0.486218,6.407676,0.997859,0.065403,-0.000000
14.825594,8.266305,-30.143362,0.000000,0.000000,-1.000000
6.983440,-13.696066,-22.204559,0.000000,-0.000000,1.000000
8.722813,17.286556,24.135278,0.442289,0.896873,0.000000
-12.027298,9.565401,30.143362,0.000000,0.000000,1.000000
19.254134,-2.277172,26.741165,0.997859,-0.065403,0.000000
-16.393834,-0.384532,-26.793513,0.995185,0.098017,0.000000
9.945023,0.540582,22.204559,0.000000,0.000000,-1.000000
-2.531793,-8.059340,5.012161,-0.321439,-0.946930,0.000000
-1.856538,17.083989,22.204559,0.000000,-0.000000,-1.000000
1.834530,-2.559935,-4.520272,-0.634393,0.773010,0.000000
6.377305,-5.536909,-19.519336,0.751840,-0.659346,0.000000
5.860427,-9.364399,22.204559,0.000000,-0.000000,-1.000000
-3.637095,7.622936,-9.918685,-0.442289,0.896873,0.000000
-6.665346,-3.463439,30.143362,0.000000,0.000000,1.000000
3.463250,-7.708667,21.206423,0.442289,-0.896873,0.000000
16.121422,1.171876,-28.968837,-0.881921,-0.471397,0.000000
13.205923,-14.101856,22.204559,0.000000,-0.000000,-1.000000
3.355456,7.761825,-0.776797,0.442289,0.896873,-0.000000
5.476811,4.679688,30.143362,0.000000,-0.000000,1.000000
-7.042340,-15.480761,22.204559,0.000000,0.000000,-1.000000
-2.125880,-19.264050,-28.696464,-0.065403,-0.997859,0.000000
-8.245589,-1.836569,-17.910816,-0.980785,-0.195091,-0.000000
-2.214132,12.916705,26.456221,0.881921,0.471397,-0.000000
7.660670,17.810347,24.875214,0.442289,0.896873,-0.000000
-5.298565,-6.586327,2.917710,-0.659346,-0.751840,0.000000
0.994785,16.216079,-22.627444,-0.471397,-0.881921,0.000000
2.708242,19.202461,-27.598979,0.195090,0.980785,-0.000000
-5.515621,-6.395974,14.303811,-0.659346,-0.751840,0.000000
10.823308,8.022579,30.143362,0.000000,-0.000000,1.000000
-5.497949,-18.580659,29.807458,-0.321440,-0.946930,0.000000
2.676848,-1.658689,4.816904,-0.881921,0.471397,0.000000
8.116305,-2.363977,13.713732,0.946930,-0.321439,0.000000
2.936678,-15.734951,30.143362,0.000000,0.000000,1.000000
12.662650,-14.647771,-23.947885,0.659346,-0.751840,0.000000
7.959379,2.826266,-4.979008,0.946930,0.321439,0.000000
-12.010695,-15.219520,-22.969578,-0.659346,-0.751840,0.000000
-7.857543,-17.713260,29.646420,-0.442289,-0.896873,0.000000
-11.986384,1.443462,-22.413519,-0.773010,-0.634393,0.000000
-3.103672,0.550337,-22.850415,0.995185,-0.098017,0.000000
1.085700,4.021085,-30.143362,0.000000,0.000000,-1.000000
-6.190735,14.487287,-30.143362,0.000000,0.000000,-1.000000
-19.265232,-2.107836,28.999303,-0.997859,-0.065403,0.000000
-10.804186,-5.460777,30.143362,-0.000000,-0.000000,1.000000
8.285331,-1.636777,11.851935,0.980785,-0.195091,0.000000
15.504651,-1.909577,24.067037,-0.634393,0.773011,0.000000
16.395523,-0.367390,-28.075894,-0.995185,0.098017,0.000000
2.666399,-17.422457,22.204559,0.000000,-0.000000,-1.000000
17.239401,-8.818434,25.446590,0.896873,-0.442289,0.000000
-2.551339,-8.052704,13.991324,-0.321439,-0.946930,0.000000
3.776310,7.554283,-9.091238,0.442289,0.896873,0.000000
-3.149149,-0.263906,-30.143362,0.000000,0.000000,-1.000000
-10.416044,-14.502941,30.143362,-0.000000,-0.000000,1.000000
-5.172719,5.085040,30.143362,0.000000,0.000000,1.000000
3.600199,-7.641131,-5.807440,0.442289,-0.896873,0.000000
11.599088,0.620684,25.710610,0.956941,-0.290283,0.000000
4.067727,13.069330,-22.204559,0.000000,-0.000000,1.000000
-1.593299,-12.109353,-24.531077,0.634393,-0.773010,0.000000
0.659320,19.360173,29.616996,0.065403,0.997859,-0.000000
-8.405720,-0.882634,-12.788743,-0.997859,-0.065403,0.000000
0.074832,3.150506,19.071073,-0.098017,-0.995185,0.000000
-18.466038,-5.835609,26.079025,-0.946930,-0.321440,-0.000000
-10.511110,16.262991,22.734921,-0.555570,0.831470,0.000000
-4.963113,18.156273,30.143362,0.000000,-0.000000,1.000000
-7.295535,-4.282868,4.370729,-0.831470,-0.555570,-0.000000
7.346217,4.198226,-21.673159,0.896873,0.442289,0.000000
11.983384,-11.608688,30.143362,0.000000,0.000000,1.000000
1.082207,19.332456,-25.503181,0.065403,0.997859,-0.000000
12.613170,-13.163470,30.143362,0.000000,0.000000,1.000000
-10.909326,12.357444,30.143362,0.000000,0.000000,1.000000
15.953313,4.133694,-30.143362,0.000000,0.000000,-1.000000
18.173747,-4.597028,22.204559,0.000000,0.000000,-1.000000
-5.222231,-11.480263,-22.204559,0.000000,-0.000000,1.000000
-14.059459,-13.333491,-22.798218,-0.751840,-0.659346,0.000000
1.732282,8.266333,-14.091474,0.195091,0.980785,0.000000
8.308658,-5.950929,-30.143362,0.000000,0.000000,-1.000000
2.529028,8.060278,-4.446276,0.321439,0.946930,-0.000000
-9.194917,17.053740,27.061076,-0.442289,0.896873,0.000000
-15.599482,1.831750,-24.330196,0.634393,-0.773011,0.000000
-0.482359,-8.431955,18.346954,-0.065403,-0.997859,0.000000
3.666409,-19.011870,-26.974398,0.195090,-0.980785,0.000000
8.106309,-12.073249,-30.143362,0.000000,-0.000000,-1.000000
-3.499269,-13.728029,-22.204559,0.000000,-0.000000,1.000000
2.460905,-8.083403,3.682435,0.321439,-0.946930,0.000000
-1.509908,-12.040915,-28.955871,0.634393,-0.773010,0.000000
-18.589212,3.103423,-22.204559,-0.000000,-0.000000,1.000000
11.104142,12.779175,30.143362,0.000000,-0.000000,1.000000
2.606869,-12.363989,22.204559,0.000000,0.000000,-1.000000
0.706134,-3.069878,-0.623177,-0.290285,0.956940,0.000000
-3.182487,-7.838458,14.153025,-0.321439,-0.946930,0.000000
-6.748494,5.101572,-16.160087,-0.831470,0.555570,0.000000
2.498009,1.909987,-7.994815,-0.773010,-0.634393,0.000000
-16.072597,6.959054,-30.143362,0.000000,0.000000,-1.000000
7.205921,-2.435754,30.143362,0.000000,-0.000000,1.000000
-12.187094,11.135826,-30.143362,0.000000,0.000000,-1.000000
-18.684448,5.192196,25.589699,-0.946930,0.321440,0.000000
8.278687,-1.670177,10.548985,0.980785,-0.195091,0.000000
9.344187,-7.541148,30.143362,0.000000,-0.000000,1.000000
-8.316020,-1.482489,-6.803546,-0.980785,-0.195091,-0.000000
-8.301212,-1.556937,17.923042,-0.980785,-0.195091,0.000000
17.983966,7.255747,28.542747,0.946930,0.321440,-0.000000
2.985900,-1.623556,30.143362,0.000000,-0.000000,1.000000
-18.482435,1.921757,-30.143362,0.000000,-0.000000,-1.000000
-13.603828,-13.822380,-28.264642,-0.659346,-0.751840,-0.000000
0.513524,-8.429913,11.306972,0.065403,-0.997859,0.000000
7.064619,-18.048845,24.288378,0.321440,-0.946930,0.000000
-1.862970,8.240338,-21.265183,-0.195091,0.980785,0.000000
-10.381114,-16.349852,27.402797,-0.555570,-0.831470,0.000000
10.523676,-16.254595,-22.413692,0.555570,-0.831470,0.000000
-14.064375,-2.452016,-28.210575,0.098017,0.995185,0.000000
-2.833332,5.449931,-30.143362,0.000000,0.000000,-1.000000
2.541968,1.856423,-7.879904,-0.773010,-0.634393,0.000000
-15.507335,-11.642029,27.502268,-0.831470,-0.555570,0.000000
-3.038246,-7.887422,-6.065541,-0.321439,-0.946930,0.000000
6.427268,-18.265197,-28.294227,0.321440,-0.946930,0.000000
-12.053700,-1.525486,-26.762051,-0.773010,0.634393,0.000000
-1.241433,-8.363970,1.613659,-0.195091,-0.980785,0.000000
8.295865,-1.583816,-6.724127,0.980785,-0.195091,0.000000
0.391821,8.437889,-3.151114,0.065403,0.997859,-0.000000
-16.266401,0.869210,-28.202862,0.956940,-0.290285,0.000000
-2.875772,-1.286529,28.977667,0.881921,0.471397,0.000000
4.251743,7.316332,-5.189984,0.555570,0.831470,-0.000000
-17.730454,-7.011279,-30.143362,0.000000,0.000000,-1.000000
9.910476,0.795196,-30.143362,-0.000000,0.000000,-1.000000
-8.998195,0.488299,-22.204559,-0.000000,0.000000,1.000000
0.846941,-8.408059,-17.189368,0.065403,-0.997859,0.000000
-7.773083,3.332627,4.560723,-0.896873,0.442289,0.000000
-18.066734,0.761091,22.204559,0.000000,0.000000,-1.000000
3.011994,-7.896333,8.216610,0.321439,-0.946930,0.000000
-13.063115,14.296572,28.129990,-0.659346,0.751840,0.000000
-8.049047,9.031435,22.204559,0.000000,-0.000000,-1.000000
-5.996175,-5.971504,21.306179,-0.751840,-0.659346,0.000000
-8.302856,1.548669,9.562055,-0.980785,0.195091,0.000000
-0.839119,3.029537,27.602778,0.290285,-0.956940,0.000000
17.392962,-3.977677,-30.143362,0.000000,-0.000000,-1.000000
-15.179238,-7.724526,30.143362,-0.000000,-0.000000,1.000000
12.108002,-8.054567,30.143362,0.000000,0.000000,1.000000
-15.679244,-11.384749,27.377431,-0.831470,-0.555570,0.000000
10.729148,-5.583213,-30.143362,0.000000,0.000000,-1.000000
-16.430870,-0.008502,28.193525,0.995185,0.098017,-0.000000
-1.617542,8.289157,-6.064262,-0.195091,0.980785,0.000000
16.036669,-1.330439,25.245481,-0.881921,0.471397,0.000000
-10.318326,-16.391805,25.777830,-0.555570,-0.831470,0.000000
-1.645905,7.255356,-30.143362,0.000000,0.000000,-1.000000
2.367799,-8.115008,-15.558344,0.321439,-0.946930,0.000000
-1.806091,-12.310129,22.446510,0.773011,-0.634393,0.000000
-2.282798,8.314687,30.143362,0.000000,0.000000,1.000000
-12.726856,14.443948,-30.143362,0.000000,0.000000,-1.000000
-7.132428,4.526975,2.853988,-0.831470,0.555570,0.000000
19.337645,1.003038,-24.492078,0.997859,0.065403,-0.000000
-11.575477,-1.836072,22.204559,0.000000,0.000000,-1.000000
7.779069,17.751959,-28.075742,0.442289,0.896873,-0.000000
-19.283140,1.834612,-25.799778,-0.997859,0.065403,0.000000
-8.352996,9.719816,30.143362,0.000000,0.000000,1.000000
8.191142,2.016491,-30.143362,-0.000000,0.000000,-1.000000
10.738159,2.393180,22.204559,0.000000,0.000000,-1.000000
19.152861,-2.957598,27.635742,0.980785,-0.195090,0.000000
7.182983,-18.008666,-28.907604,0.321440,-0.946930,0.000000
10.815042,-3.382448,30.143362,0.000000,-0.000000,1.000000
16.425605,0.061954,27.080263,-0.995185,-0.098017,0.000000
-12.437680,-1.910770,-24.384816,-0.634393,0.773011,0.000000
-9.991257,1.289842,-30.143362,0.000000,0.000000,-1.000000
-2.166308,8.180000,-8.615500,-0.195091,0.980785,0.000000
1.870085,2.530755,4.284895,-0.634393,-0.773010,0.000000
-1.756885,-5.502087,30.143362,0.000000,-0.000000,1.000000
-10.585156,14.721905,-22.204559,-0.000000,-0.000000,1.000000
8.420270,-0.660643,-13.514960,0.997859,-0.065403,0.000000
-18.034139,-7.107943,-26.283847,-0.946930,-0.321440,0.000000
11.417099,-11.431899,30.143362,0.000000,0.000000,1.000000
-3.094480,0.625032,3.713867,0.956940,-0.290285,0.000000
-6.476379,-5.423937,18.080530,-0.751840,-0.659346,0.000000
-12.929028,-14.414164,29.232811,-0.659346,-0.751840,0.000000
1.128667,-7.875947,30.143362,-0.000000,0.000000,1.000000
9.340833,-14.608128,30.143362,0.000000,0.000000,1.000000
1.979447,2.441004,-17.356205,-0.634393,-0.773010,0.000000
-0.725652,-3.063957,2.953911,0.290285,0.956940,0.000000
-6.887796,-18.108869,26.931705,-0.321440,-0.946930,0.000000
11.800562,8.502059,30.143362,0.000000,-0.000000,1.000000
-16.411544,10.288784,-27.845882,-0.831470,0.555570,0.000000
4.764911,6.973444,-19.902307,0.555570,0.831470,0.000000
8.754319,-6.903134,-30.143362,0.000000,0.000000,-1.000000
-14.657030,-11.377065,-30.143362,0.000000,0.000000,-1.000000
12.737587,-2.874757,30.143362,0.000000,-0.000000,1.000000
11.711042,-7.772877,-30.143362,0.000000,-0.000000,-1.000000
4.314276,7.274549,-13.014316,0.555570,0.831470,-0.000000
-11.475549,-15.618573,24.099470,-0.555570,-0.831470,0.000000
-0.650498,3.086755,13.246155,0.290285,-0.956940,0.000000
7.842952,3.169249,-10.905452,0.946930,0.321439,-0.000000
-1.269297,8.358427,-9.058487,-0.195091,0.980785,0.000000
-10.351587,16.369581,26.362428,-0.555570,0.831470,0.000000
6.615722,5.265046,-0.506505,0.751840,0.659346,0.000000
3.514002,17.939899,-22.204559,0.000000,-0.000000,1.000000
-8.429642,0.517648,-3.962913,-0.997859,0.065403,0.000000
-12.058416,-5.902817,-22.204559,-0.000000,0.000000,1.000000
-19.308700,1.444641,-27.660605,-0.997859,0.065403,0.000000
-16.995741,-1.475211,30.143362,0.000000,0.000000,1.000000
-1.808751,-2.581091,-2.395409,0.634393,0.773010,0.000000
13.202695,13.972652,30.143362,0.000000,-0.000000,1.000000
1.726459,-2.640624,9.718703,-0.471397,0.881921,0.000000
13.944526,13.464547,22.412866,0.751840,0.659346,0.000000
-5.453592,6.450372,19.711021,-0.659346,0.751840,0.000000
-0.843649,8.408275,18.639370,-0.065403,0.997859,0.000000
8.456181,-0.112744,9.704509,0.997859,-0.065403,0.000000
-10.279093,16.418020,-27.626824,-0.555570,0.831470,0.000000
17.138009,-1.695260,-30.143362,0.000000,0.000000,-1.000000
-9.847249,-9.073472,-22.204559,-0.000000,0.000000,1.000000
2.267422,-13.016404,29.284713,-0.881921,-0.471397,0.000000
-5.306610,6.579272,12.169467,-0.659346,0.751840,0.000000
6.866794,-15.556440,-22.204559,0.000000,-0.000000,1.000000
-7.821255,-17.145655,30.143362,0.000000,0.000000,1.000000
-3.660830,17.317886,30.143362,-0.000000,-0.000000,1.000000
-12.267311,-14.358999,22.204559,0.000000,0.000000,-1.000000
7.640213,14.497648,30.143362,0.000000,-0.000000,1.000000
-11.359672,9.400427,22.204559,0.000000,0.000000,-1.000000
5.735398,2.051097,-30.143362,0.000000,-0.000000,-1.000000
15.457062,11.717268,24.234463,0.831470,0.555570,-0.000000
5.922969,18.436384,-28.267766,0.321440,0.946930,0.000000
-4.079130,12.832298,22.204559,0.000000,0.000000,-1.000000
8.936955,5.778802,-30.143362,-0.000000,0.000000,-1.000000
-3.106432,13.834075,30.143362,0.000000,0.000000,1.000000
2.705562,-1.604969,9.204094,-0.881921,0.471397,0.000000
-0.573036,-8.426012,-15.670229,-0.065403,-0.997859,0.000000
2.638256,-14.412841,-22.204559,0.000000,0.000000,1.000000
8.633733,13.853773,-22.204559,0.000000,-0.000000,1.000000
6.101996,18.191255,-22.204559,0.000000,-0.000000,1.000000
13.678693,11.564683,-30.143362,0.000000,-0.000000,-1.000000
2.462069,-13.670115,-30.143362,-0.000000,0.000000,-1.000000
16.390764,-10.319884,26.766341,0.831470,-0.555570,0.000000
-4.248303,15.613699,-30.143362,0.000000,0.000000,-1.000000
-1.509249,-2.756725,-7.373713,0.471397,0.881921,-0.000000
6.780335,17.329242,22.204559,0.000000,0.000000,-1.000000
6.118171,-5.832395,-16.039928,0.751840,-0.659346,0.000000
4.629974,-17.299284,22.204559,0.000000,0.000000,-1.000000
-11.927237,15.292711,26.232708,-0.659346,0.751840,0.000000
-18.556311,-4.563124,-30.143362,0.000000,0.000000,-1.000000
1.461113,15.940007,-22.606950,-0.634393,-0.773010,0.000000
1.522663,-12.051384,-27.638577,-0.634393,-0.773010,0.000000
-2.114087,-19.264823,28.474815,-0.065403,-0.997859,0.000000
5.076665,16.189544,30.143362,0.000000,-0.000000,1.000000
-16.639192,9.948084,23.397437,-0.831470,0.555570,0.000000
2.739486,8.951222,-22.204559,-0.000000,0.000000,1.000000
9.219589,-0.380011,30.143362,0.000000,-0.000000,1.000000
-3.146680,0.113680,-29.756687,0.995185,-0.098017,0.000000
15.203695,2.118175,-25.662723,-0.471397,-0.881921,0.000000
2.773150,-7.977410,8.339888,0.321439,-0.946930,0.000000
3.280981,2.405981,30.143362,-0.000000,0.000000,1.000000
-5.570802,-6.347582,-2.183401,-0.659346,-0.751840,-0.000000
-7.925234,2.926856,-6.409755,-0.946930,0.321439,0.000000
2.557983,1.836909,27.167996,-0.773010,-0.634393,0.000000
-16.397458,0.347735,-22.577413,0.995185,-0.098017,0.000000
-3.146301,-0.117521,20.945993,0.995185,0.098017,0.000000
-9.807389,-1.760421,30.143362,0.000000,0.000000,1.000000
8.515139,-2.515151,30.143362,-0.000000,0.000000,1.000000
13.488287,-2.413374,-25.083644,0.290285,0.956940,0.000000
-2.676319,18.099892,-30.143362,0.000000,0.000000,-1.000000
-0.649587,-4.071234,-30.143362,0.000000,-0.000000,-1.000000
-7.743998,9.720151,22.204559,0.000000,0.000000,-1.000000
-2.090543,-8.195071,0.559888,-0.195091,-0.980785,0.000000
0.317110,-8.442786,5.345913,0.065403,-0.997859,0.000000
-1.297012,-2.870168,-7.239644,0.471397,0.881921,0.000000
-18.738163,5.033956,26.226813,-0.946930,0.321440,0.000000
-5.957359,-6.008580,-14.236528,-0.659346,-0.751840,-0.000000
-5.748278,-9.986402,30.143362,0.000000,0.000000,1.000000
-8.254068,-8.168853,22.204559,0.000000,0.000000,-1.000000
-6.886850,-4.894508,-11.581723,-0.831470,-0.555570,-0.000000
7.712581,16.236202,-22.204559,0.000000,-0.000000,1.000000
-2.326745,-14.738169,-25.123478,0.956940,0.290285,0.000000
12.125606,-9.722127,22.204559,0.000000,0.000000,-1.000000
-0.972903,2.988954,-5.075506,0.290285,-0.956940,0.000000
-17.696595,7.891336,25.972442,-0.896873,0.442289,0.000000
12.285121,1.785568,27.584624,0.634393,-0.773011,0.000000
-10.193506,-15.198206,30.143362,0.000000,0.000000,1.000000
14.695083,-2.339815,25.891342,-0.290285,0.956940,0.000000
-8.266430,-11.238081,30.143362,-0.000000,-0.000000,1.000000
-8.034524,2.604897,-18.318296,-0.946930,0.321439,0.000000
15.072371,-2.188369,-23.721711,-0.471397,0.881921,0.000000
-8.426269,-0.569115,15.843609,-0.997859,-0.065403,0.000000
9.474550,-0.014221,22.204559,0.000000,0.000000,-1.000000
-4.657027,-7.045530,17.415189,-0.555570,-0.831470,0.000000
-13.219988,9.681387,22.204559,0.000000,0.000000,-1.000000
-19.147705,-2.576551,-30.143362,0.000000,0.000000,-1.000000
-14.933223,-4.805012,-30.143362,0.000000,0.000000,-1.000000
1.588412,8.294951,-4.295989,0.195091,0.980785,0.000000
2.955296,15.873802,-22.204559,0.000000,-0.000000,1.000000
2.674674,-8.010838,0.627640,0.321439,-0.946930,0.000000
-2.675581,-1.661060,-11.000023,0.881921,0.471397,0.000000
-5.477961,1.497043,30.143362,0.000000,0.000000,1.000000
-3.398526,7.740585,11.620969,-0.442289,0.896873,0.000000
-6.073873,5.882907,-18.206386,-0.751840,0.659346,0.000000
-0.960205,-9.205625,-30.143362,-0.000000,0.000000,-1.000000
7.329406,-2.152812,-30.143362,0.000000,-0.000000,-1.000000
-15.161633,2.687378,30.143362,0.000000,0.000000,1.000000
-14.268664,-11.203158,22.204559,0.000000,-0.000000,-1.000000
-8.152893,2.256192,-11.946607,-0.946930,0.321439,0.000000
-11.249222,-7.057063,22.204559,0.000000,0.000000,-1.000000
-17.207480,8.883163,25.831329,-0.896873,0.442289,0.000000
11.373440,5.751647,30.143362,0.000000,-0.000000,1.000000
0.136936,8.454595,21.718272,0.065403,0.997859,-0.000000
-7.846295,12.432281,22.204559,0.000000,0.000000,-1.000000
-1.587720,-17.332312,30.143362,0.000000,-0.000000,1.000000
16.257157,-9.577027,-30.143362,0.000000,-0.000000,-1.000000
-6.766525,-9.151570,22.204559,0.000000,-0.000000,-1.000000
-3.965684,7.460894,17.993660,-0.442289,0.896873,0.000000
-7.615397,-3.652382,-10.194094,-0.896873,-0.442289,-0.000000
-7.630603,-3.621547,12.779746,-0.896873,-0.442289,0.000000
6.391947,2.222556,-30.143362,0.000000,-0.000000,-1.000000
7.683059,3.515178,8.790215,0.896873,0.442289,0.000000
-10.198773,-4.100008,22.204559,0.000000,0.000000,-1.000000
-9.891562,1.809879,30.143362,0.000000,0.000000,1.000000
-11.609009,0.653390,-23.323520,-0.956941,-0.290283,0.000000
-3.079223,-0.675327,-11.737670,0.956940,0.290285,-0.000000
-2.552921,1.843077,-23.872910,0.773010,-0.634393,0.000000
10.408679,-5.073336,22.204559,0.000000,0.000000,-1.000000
-1.466887,-19.307242,24.366562,-0.065403,-0.997859,0.000000
-9.583937,10.070345,30.143362,0.000000,0.000000,1.000000
4.188277,7.351123,17.951735,0.442289,0.896873,0.000000
-8.099848,-2.412457,-15.698749,-0.946930,-0.321439,-0.000000
16.166650,1.087261,28.172978,-0.881921,-0.471397,0.000000
-12.284376,2.498310,22.204559,-0.000000,-0.000000,-1.000000
-0.227077,-16.409342,-24.537408,0.098017,0.995185,0.000000
1.915803,-17.218663,22.204559,0.000000,0.000000,-1.000000
2.206618,-2.254570,-30.075557,-0.634393,0.773010,0.000000
-1.628820,8.286913,-19.360735,-0.195091,0.980785,0.000000
-4.467710,-17.757092,-30.143362,0.000000,0.000000,-1.000000
-8.385148,1.134961,-3.772620,-0.980785,0.195091,0.000000
7.221111,14.470382,-22.204559,0.000000,-0.000000,1.000000
-5.860631,-6.671660,22.204559,0.000000,0.000000,-1.000000
-7.408933,-4.071050,15.196534,-0.896873,-0.442289,0.000000
-7.421075,4.046429,21.749371,-0.896873,0.442289,0.000000
-3.211586,7.828581,-21.464921,-0.321439,0.946930,0.000000
11.904615,1.331200,27.056478,0.881921,-0.471397,0.000000
9.470085,6.474083,30.143362,0.000000,-0.000000,1.000000
-4.729270,-7.711780,-30.143362,0.000000,-0.000000,-1.000000
4.022586,-9.295757,-22.204559,0.000000,0.000000,1.000000
-12.698002,-2.246579,22.204559,0.000000,0.000000,-1.000000
2.377706,-10.712496,22.204559,0.000000,0.000000,-1.000000
-2.075862,2.361879,-11.044611,0.634393,-0.773010,0.000000
4.412444,-7.208955,5.902973,0.555570,-0.831470,0.000000
16.393125,3.926582,-22.204559,0.000000,0.000000,1.000000
8.449865,-0.209112,-14.287046,0.997859,-0.065403,0.000000
2.215423,12.460850,30.143362,0.000000,-0.000000,1.000000
-4.238807,-14.350919,-22.204559,-0.000000,0.000000,1.000000
-13.919912,2.456292,-23.994399,-0.098017,-0.995185,0.000000
3.000516,7.900230,4.492147,0.321439,0.946930,0.000000
-15.690338,1.757187,23.043791,0.634393,-0.773011,0.000000
11.727409,-0.999670,-27.800282,0.881921,0.471397,-0.000000
13.777618,13.654870,27.228579,0.751840,0.659346,-0.000000
-19.342689,-0.329634,-22.204559,0.000000,-0.000000,1.000000
-6.072683,-5.884264,-18.920262,-0.751840,-0.659346,0.000000
-4.273490,0.912606,-30.143362,0.000000,0.000000,-1.000000
-0.642047,8.421489,17.278776,-0.065403,0.997859,0.000000
10.253043,8.312557,-30.143362,-0.000000,0.000000,-1.000000
11.903970,-1.329992,25.806061,0.881921,0.471397,0.000000
0.266307,-6.830011,30.143362,0.000000,-0.000000,1.000000
-0.344248,-19.380824,-29.956794,-0.065403,-0.997859,0.000000
-2.381391,-8.110394,-9.444663,-0.321439,-0.946930,0.000000
-0.351935,-3.123213,-21.053573,0.098017,0.995185,-0.000000
-8.259605,1.766108,-9.767189,-0.980785,0.195091,0.000000
-8.196360,-2.084062,-11.369266,-0.980785,-0.195091,0.000000
-2.901980,1.237496,28.423673,0.881921,-0.471397,0.000000
0.678813,11.616721,-27.555556,-0.290283,0.956941,0.000000
3.074557,0.690709,0.912240,-0.956940,-0.290285,0.000000
-2.457558,-14.008107,-25.479989,0.995185,0.098017,0.000000
-3.139313,18.986223,30.143362,-0.000000,-0.000000,1.000000
-1.291032,-19.318768,-22.728193,-0.065403,-0.997859,0.000000
-7.443733,4.000482,21.354519,-0.896873,0.442289,0.000000
13.842860,8.279482,30.143362,0.000000,-0.000000,1.000000
7.833039,-3.198454,15.753945,0.946930,-0.321439,0.000000
-16.413312,-0.186768,-28.491590,0.995185,0.098017,-0.000000
-2.918625,1.204748,-28.939620,0.956940,-0.290285,0.000000
-1.195285,8.373149,3.521681,-0.195091,0.980785,0.000000
16.916105,-9.474012,-27.653856,0.896873,-0.442289,0.000000
-0.236679,19.387874,-22.435647,-0.065403,0.997859,0.000000
-0.168676,3.141263,-29.975647,0.098017,-0.995185,-0.000000
16.565789,0.170010,-22.204559,0.000000,-0.000000,1.000000
