x,y,z,nx,ny,nz
-32.556755,15.271444,-2.563008,0.000000,0.000000,-1.000000
-20.852693,14.471611,2.563008,-0.000000,0.000000,1.000000
24.981468,-4.378785,2.563008,0.000000,0.000000,1.000000
17.954629,20.348098,2.563008,0.000000,-0.000000,1.000000
18.450176,-28.390708,-2.563008,0.000000,0.000000,-1.000000
16.969783,17.999868,2.563008,0.000000,-0.000000,1.000000
-10.940061,3.208057,2.563008,0.000000,-0.000000,1.000000
-27.864046,21.890115,-2.563008,0.000000,-0.000000,-1.000000
-0.042150,-14.684826,2.563008,0.000000,0.000000,1.000000
-28.831602,6.308064,-2.563008,0.000000,0.000000,-1.000000
-3.949869,-23.620372,-2.563008,0.000000,0.000000,-1.000000
-4.032813,8.512558,-2.563008,0.000000,0.000000,-1.000000
8.800994,-11.828408,2.563008,0.000000,0.000000,1.000000
-29.115924,-11.387103,2.563008,0.000000,-0.000000,1.000000
-1.438939,-32.510978,-2.563008,0.000000,0.000000,-1.000000
4.311403,-27.943707,2.563008,0.000000,0.000000,1.000000
2.226068,33.576736,-2.270258,-0.000000,1.000000,0.000000
-1.047847,-25.962772,2.563008,0.000000,0.000000,1.000000
20.814757,-4.853131,-2.563008,0.000000,0.000000,-1.000000
-29.874197,-24.939426,-2.563008,0.000000,0.000000,-1.000000
-10.383398,-30.672077,-2.563008,0.000000,0.000000,-1.000000
19.001823,30.379149,-2.563008,0.000000,-0.000000,-1.000000
26.990834,18.935679,2.563008,0.000000,0.000000,1.000000
-15.915942,-24.384341,-2.563008,0.000000,0.000000,-1.000000
-15.244302,-27.585587,2.563008,0.000000,0.000000,1.000000
3.897837,-22.735990,-2.563008,0.000000,0.000000,-1.000000
-17.290014,25.257104,-2.563008,0.000000,-0.000000,-1.000000
-17.570096,2.795715,2.563008,0.000000,-0.000000,1.000000
12.988773,30.863819,-2.563008,0.000000,-0.000000,-1.000000
4.940943,-30.781953,2.563008,0.000000,0.000000,1.000000
33.105560,-16.191496,2.202524,1.000000,-0.000000,0.000000
21.339187,17.946987,-2.563008,0.000000,0.000000,-1.000000
20.532731,11.291456,2.563008,0.000000,0.000000,1.000000
12.937372,18.592557,2.563008,0.000000,-0.000000,1.000000
16.016044,4.411727,-2.563008,0.000000,0.000000,-1.000000
-12.422845,18.009171,0.328035,-0.290286,-0.956940,0.000000
-8.856743,13.372687,2.094948,-0.995185,0.098017,0.000000
1.973157,-31.224806,2.563008,0.000000,0.000000,1.000000
33.105560,-7.959941,-2.408319,1.000000,0.000000,-0.000000
26.923977,-2.853398,-2.563008,0.000000,0.000000,-1.000000
-14.476007,-25.358870,2.563008,0.000000,0.000000,1.000000
8.249406,5.931794,-2.563008,0.000000,0.000000,-1.000000
-30.370078,-4.842291,-2.563008,0.000000,0.000000,-1.000000
-5.077332,-22.551212,2.563008,0.000000,0.000000,1.000000
2.830761,19.461859,2.563008,0.000000,-0.000000,1.000000
15.249602,-23.886719,-2.563008,0.000000,0.000000,-1.000000
8.321842,33.576736,0.252247,-0.000000,1.000000,0.000000
3.565764,15.233141,-2.563008,0.000000,0.000000,-1.000000
29.685522,33.576736,2.084483,-0.000000,1.000000,0.000000
21.549167,-11.223571,-2.563008,0.000000,0.000000,-1.000000
-28.330136,0.352209,-2.563008,0.000000,0.000000,-1.000000
-28.189876,0.388141,2.563008,0.000000,-0.000000,1.000000
23.020461,-18.758993,2.563008,0.000000,0.000000,1.000000
-16.535129,20.774843,-2.563008,0.000000,-0.000000,-1.000000
-29.068682,28.255124,-2.563008,-0.000000,0.000000,-1.000000
21.294270,-33.576736,-2.370177,0.000000,-1.000000,0.000000
21.750419,12.778649,2.563008,0.000000,0.000000,1.000000
-26.174257,30.058131,2.563008,-0.000000,0.000000,1.000000
27.873745,26.894652,-2.563008,0.000000,0.000000,-1.000000
-13.390962,-26.941569,-2.563008,0.000000,0.000000,-1.000000
-32.726726,-27.080653,-2.563008,0.000000,0.000000,-1.000000
23.950092,-28.195345,-2.563008,0.000000,0.000000,-1.000000
0.587977,-15.673955,-2.563008,0.000000,0.000000,-1.000000
9.776503,-22.960512,2.563008,0.000000,0.000000,1.000000
23.929374,-17.442532,-2.563008,0.000000,0.000000,-1.000000
-0.926401,-7.794304,2.563008,0.000000,0.000000,1.000000
15.210479,-10.047547,2.563008,0.000000,0.000000,1.000000
32.595844,-31.265997,-2.563008,0.000000,0.000000,-1.000000
-29.478912,25.695281,2.563008,-0.000000,0.000000,1.000000
-2.765702,-11.635933,-2.563008,0.000000,0.000000,-1.000000
8.856120,25.238699,-2.563008,0.000000,-0.000000,-1.000000
-25.770906,-18.997643,-2.563008,0.000000,0.000000,-1.000000
-26.131707,6.687083,2.563008,0.000000,-0.000000,1.000000
-28.102177,6.172995,2.563008,0.000000,-0.000000,1.000000
13.557641,-7.774447,2.563008,0.000000,0.000000,1.000000
26.315705,-21.324150,2.563008,0.000000,0.000000,1.000000
9.769220,-33.564628,2.563008,0.000000,0.000000,1.000000
33.105560,-30.590408,-0.534683,1.000000,0.000000,-0.000000
-31.618001,-12.281714,2.563008,0.000000,-0.000000,1.000000
26.559877,-33.425272,-2.563008,0.000000,0.000000,-1.000000
7.648672,26.012193,-2.563008,0.000000,-0.000000,-1.000000
-14.524123,33.576736,-0.561221,0.000000,1.000000,0.000000
-1.164524,17.947021,2.563008,0.000000,-0.000000,1.000000
31.541779,-33.482448,-2.563008,0.000000,0.000000,-1.000000
12.950385,-7.079633,-2.563008,0.000000,0.000000,-1.000000
16.697294,-4.876067,2.563008,0.000000,0.000000,1.000000
-10.466201,23.596988,-2.563008,0.000000,-0.000000,-1.000000
32.649933,-23.742635,-2.563008,0.000000,0.000000,-1.000000
-3.943437,19.134815,2.563008,-0.000000,0.000000,1.000000
32.962539,-8.349479,2.563008,0.000000,0.000000,1.000000
-4.043826,25.204184,-2.563008,0.000000,-0.000000,-1.000000
-7.833783,3.928184,2.563008,0.000000,-0.000000,1.000000
0.110053,-3.245804,-2.563008,0.000000,0.000000,-1.000000
0.584995,-10.635998,-2.563008,0.000000,0.000000,-1.000000
-33.105560,29.086034,1.468582,-1.000000,0.000000,0.000000
27.054993,-29.141238,2.563008,0.000000,0.000000,1.000000
16.823376,-1.468473,-2.563008,0.000000,0.000000,-1.000000
-3.185352,21.785723,2.563008,-0.000000,0.000000,1.000000
19.198116,26.458521,-2.563008,0.000000,0.000000,-1.000000
-19.790196,-6.402443,-2.563008,0.000000,0.000000,-1.000000
-30.502625,0.773844,2.563008,0.000000,-0.000000,1.000000
32.962889,29.403469,2.563008,0.000000,0.000000,1.000000
-9.759625,33.576736,2.200437,0.000000,1.000000,0.000000
-15.803992,-33.544600,-2.563008,0.000000,0.000000,-1.000000
-18.990163,-8.692721,-2.563008,0.000000,0.000000,-1.000000
-10.178825,22.673933,2.563008,-0.000000,0.000000,1.000000
-9.156349,15.260473,-0.097726,-0.956940,-0.290285,0.000000
-31.572269,3.235002,-2.563008,0.000000,0.000000,-1.000000
0.082194,-6.866644,-2.563008,0.000000,0.000000,-1.000000
11.259235,-10.770514,2.563008,0.000000,0.000000,1.000000
33.105560,-16.762081,-1.570658,1.000000,0.000000,-0.000000
-8.596322,14.514779,-2.563008,0.000000,0.000000,-1.000000
-5.339254,26.099595,2.563008,-0.000000,0.000000,1.000000
10.269019,23.687141,-2.563008,0.000000,0.000000,-1.000000
33.105560,-6.044383,1.614437,1.000000,-0.000000,0.000000
-15.821823,-13.327145,-2.563008,0.000000,0.000000,-1.000000
11.637391,-1.827871,-2.563008,0.000000,0.000000,-1.000000
26.128055,22.060792,-2.563008,0.000000,0.000000,-1.000000
-33.105560,26.223617,1.736879,-1.000000,0.000000,0.000000
-9.087471,-16.454434,2.563008,0.000000,0.000000,1.000000
6.466511,23.216113,2.563008,-0.000000,0.000000,1.000000
-22.732575,-26.354985,2.563008,0.000000,0.000000,1.000000
-28.109316,0.758393,2.563008,0.000000,-0.000000,1.000000
28.738655,-22.487204,-2.563008,0.000000,0.000000,-1.000000
33.105560,-29.452927,-1.862522,1.000000,0.000000,-0.000000
-26.520006,-33.576736,-0.740264,0.000000,-1.000000,0.000000
-17.875545,25.096113,-2.563008,0.000000,-0.000000,-1.000000
7.079868,-12.979333,2.563008,0.000000,0.000000,1.000000
-1.372028,21.460284,2.563008,-0.000000,0.000000,1.000000
-1.460801,-16.340750,2.563008,0.000000,0.000000,1.000000
-7.471965,16.097234,2.563008,-0.000000,0.000000,1.000000
31.623363,-17.435776,-2.563008,0.000000,0.000000,-1.000000
-5.706626,25.269086,-2.563008,0.000000,-0.000000,-1.000000
26.749466,-29.121656,2.563008,0.000000,0.000000,1.000000
-25.902596,13.428916,-2.563008,0.000000,-0.000000,-1.000000
16.388233,11.132795,2.563008,0.000000,0.000000,1.000000
-6.262634,25.018621,-2.563008,0.000000,-0.000000,-1.000000
22.650830,-26.265689,2.563008,0.000000,0.000000,1.000000
-9.739036,-23.154075,-2.563008,0.000000,0.000000,-1.000000
27.392073,-5.696466,-2.563008,0.000000,0.000000,-1.000000
2.123447,33.576736,0.010804,-0.000000,1.000000,0.000000
18.634928,33.576736,0.375095,-0.000000,1.000000,0.000000
-20.574247,-29.356181,-2.563008,0.000000,0.000000,-1.000000
29.687196,-0.217057,2.563008,0.000000,0.000000,1.000000
25.732075,-11.148621,-2.563008,0.000000,0.000000,-1.000000
-3.037317,13.476224,-2.563008,0.000000,0.000000,-1.000000
-2.966861,11.188151,-2.563008,0.000000,0.000000,-1.000000
15.569245,1.614972,2.563008,0.000000,0.000000,1.000000
26.696455,5.681434,2.563008,0.000000,0.000000,1.000000
0.828631,-24.136894,-2.563008,0.000000,0.000000,-1.000000
-5.185521,28.588780,-2.563008,0.000000,-0.000000,-1.000000
16.844431,27.272992,-2.563008,0.000000,0.000000,-1.000000
-19.025153,23.422942,2.563008,-0.000000,0.000000,1.000000
18.980940,-28.783579,-2.563008,0.000000,0.000000,-1.000000
21.250876,-7.965601,2.563008,0.000000,0.000000,1.000000
22.891835,33.576736,1.725710,-0.000000,1.000000,0.000000
-24.060451,6.823499,-2.563008,0.000000,0.000000,-1.000000
-27.772885,1.078830,-2.563008,0.000000,0.000000,-1.000000
13.379650,-3.995418,2.563008,0.000000,0.000000,1.000000
24.091033,-27.987870,2.563008,0.000000,0.000000,1.000000
0.346519,2.584128,2.563008,0.000000,-0.000000,1.000000
-28.059898,-32.102630,2.563008,0.000000,0.000000,1.000000
-23.002309,1.579441,-2.563008,0.000000,0.000000,-1.000000
-33.105560,-18.649312,0.396235,-1.000000,0.000000,0.000000
-2.354679,19.388555,2.563008,-0.000000,0.000000,1.000000
27.817126,5.169114,-2.563008,0.000000,0.000000,-1.000000
28.113852,12.301562,2.563008,0.000000,0.000000,1.000000
-26.599672,15.995243,2.563008,-0.000000,0.000000,1.000000
7.240914,20.396813,-2.563008,0.000000,0.000000,-1.000000
16.434469,6.526262,-2.563008,0.000000,0.000000,-1.000000
-9.743796,-0.550134,-2.563008,0.000000,0.000000,-1.000000
-25.884210,20.011364,-2.563008,0.000000,-0.000000,-1.000000
-18.005247,-28.211301,2.563008,0.000000,0.000000,1.000000
27.729812,-28.050278,2.563008,0.000000,0.000000,1.000000
-1.877341,24.154300,-2.563008,0.000000,-0.000000,-1.000000
-26.487994,19.465870,-2.563008,0.000000,-0.000000,-1.000000
18.003842,10.768104,2.563008,0.000000,0.000000,1.000000
-31.956203,32.715475,-2.563008,0.000000,-0.000000,-1.000000
-0.281773,-13.360161,-2.563008,0.000000,0.000000,-1.000000
-14.067541,18.034047,-1.586861,0.098017,-0.995185,0.000000
33.105560,-30.598701,0.637028,1.000000,0.000000,-0.000000
-29.305890,0.033325,2.563008,0.000000,-0.000000,1.000000
-2.295542,11.937216,-2.563008,0.000000,0.000000,-1.000000
4.271945,-10.320639,-2.563008,0.000000,0.000000,-1.000000
2.298833,11.472037,2.563008,0.000000,-0.000000,1.000000
-23.968554,33.576736,-2.274686,-0.000000,1.000000,0.000000
-19.023844,26.709312,-2.563008,0.000000,-0.000000,-1.000000
4.484864,-20.731196,-2.563008,0.000000,0.000000,-1.000000
23.788709,-32.606866,-2.563008,0.000000,0.000000,-1.000000
-10.987075,7.141930,2.563008,0.000000,-0.000000,1.000000
0.918871,-23.101485,-2.563008,0.000000,0.000000,-1.000000
-9.261869,15.486737,-2.363079,-0.881921,-0.471397,0.000000
24.200647,-4.251028,-2.563008,0.000000,0.000000,-1.000000
-31.986079,27.903927,-2.563008,0.000000,0.000000,-1.000000
23.636187,30.486322,2.563008,-0.000000,0.000000,1.000000
31.155270,22.285546,-2.563008,0.000000,0.000000,-1.000000
-33.105560,-22.571614,-0.636672,-1.000000,0.000000,0.000000
-30.802521,-20.561512,-2.563008,0.000000,0.000000,-1.000000
-2.639449,15.672073,2.563008,0.000000,-0.000000,1.000000
-30.717718,-28.690878,2.563008,0.000000,-0.000000,1.000000
-11.580564,33.576736,-2.308397,-0.000000,1.000000,0.000000
-8.514890,10.584261,2.563008,0.000000,-0.000000,1.000000
26.256756,27.627048,-2.563008,0.000000,0.000000,-1.000000
18.577714,20.102585,-2.563008,0.000000,0.000000,-1.000000
32.190297,5.857278,-2.563008,0.000000,0.000000,-1.000000
-24.012201,6.890204,-0.352870,0.881921,0.471398,-0.000000
-31.493215,-5.417799,-2.563008,0.000000,0.000000,-1.000000
1.278318,29.499012,2.563008,-0.000000,0.000000,1.000000
27.610727,-18.897904,-2.563008,0.000000,0.000000,-1.000000
-33.105560,-3.403523,-0.952737,-1.000000,0.000000,0.000000
-5.340812,-0.439987,-2.563008,0.000000,0.000000,-1.000000
-30.863165,-8.473805,-2.563008,0.000000,0.000000,-1.000000
-33.105560,20.067310,-1.617136,-1.000000,0.000000,0.000000
19.593205,3.990035,2.563008,0.000000,0.000000,1.000000
32.197913,19.702176,-2.563008,0.000000,0.000000,-1.000000
6.035126,-1.247265,2.563008,0.000000,0.000000,1.000000
-1.827459,10.850875,2.563008,0.000000,-0.000000,1.000000
-33.105560,26.314133,-0.913666,-1.000000,0.000000,0.000000
-8.540566,-12.492014,2.563008,0.000000,0.000000,1.000000
7.359912,7.663795,-2.563008,0.000000,0.000000,-1.000000
25.786660,-12.108756,2.563008,0.000000,0.000000,1.000000
23.150270,31.906652,2.563008,-0.000000,0.000000,1.000000
12.789504,23.890324,-2.563008,0.000000,0.000000,-1.000000
-1.891668,21.923452,-2.563008,0.000000,-0.000000,-1.000000
7.119431,31.725796,2.563008,-0.000000,0.000000,1.000000
29.833960,27.759942,-2.563008,0.000000,0.000000,-1.000000
-6.858571,-10.397831,2.563008,0.000000,0.000000,1.000000
-16.340425,-0.648516,-2.563008,0.000000,0.000000,-1.000000
-14.554183,-23.117900,2.563008,0.000000,0.000000,1.000000
-9.055615,-2.719183,2.563008,0.000000,-0.000000,1.000000
-9.386381,17.773329,-2.563008,0.000000,0.000000,-1.000000
19.840342,19.080705,2.563008,0.000000,0.000000,1.000000
9.361545,25.794913,-2.563008,0.000000,-0.000000,-1.000000
12.226118,-15.041615,2.563008,0.000000,0.000000,1.000000
-14.037086,-29.157469,2.563008,0.000000,0.000000,1.000000
-33.105560,-17.292892,2.226525,-1.000000,0.000000,0.000000
33.105560,1.744085,-2.100024,1.000000,0.000000,-0.000000
-8.281257,-17.233323,-2.563008,0.000000,0.000000,-1.000000
-4.915845,28.938521,-2.563008,0.000000,-0.000000,-1.000000
-9.710387,-10.559229,2.563008,0.000000,0.000000,1.000000
23.655707,27.149426,-2.563008,0.000000,0.000000,-1.000000
-16.426373,21.803208,-2.563008,0.000000,-0.000000,-1.000000
-33.105560,24.778508,0.937673,-1.000000,0.000000,0.000000
14.006367,-8.534537,-2.563008,0.000000,0.000000,-1.000000
30.888672,-21.804653,2.563008,0.000000,0.000000,1.000000
19.747367,-3.461666,-2.563008,0.000000,0.000000,-1.000000
-9.510629,-24.417884,2.563008,0.000000,0.000000,1.000000
-12.053005,-11.328911,-2.563008,0.000000,0.000000,-1.000000
30.587280,-4.368438,2.563008,0.000000,0.000000,1.000000
6.361771,-7.847356,2.563008,0.000000,0.000000,1.000000
30.165703,-0.552389,2.563008,0.000000,0.000000,1.000000
12.940439,-15.946128,-2.563008,0.000000,0.000000,-1.000000
-7.639112,-8.138895,-2.563008,0.000000,0.000000,-1.000000
-14.458980,-28.015245,2.563008,0.000000,0.000000,1.000000
-7.767304,-28.205815,-2.563008,0.000000,0.000000,-1.000000
9.343357,16.965600,-2.563008,0.000000,0.000000,-1.000000
-23.020556,0.007359,2.563008,0.000000,-0.000000,1.000000
-31.628177,-5.970989,-2.563008,0.000000,0.000000,-1.000000
4.006178,-27.746490,-2.563008,0.000000,0.000000,-1.000000
-28.083540,-23.571901,2.563008,0.000000,-0.000000,1.000000
33.105560,3.060339,-1.801136,1.000000,0.000000,-0.000000
-13.302484,-28.455462,-2.563008,0.000000,0.000000,-1.000000
-1.387805,-33.576736,-1.502137,0.000000,-1.000000,0.000000
-26.845034,-25.230755,2.563008,0.000000,-0.000000,1.000000
-22.002802,-15.905343,-2.563008,0.000000,0.000000,-1.000000
-23.123655,-0.405584,2.563008,0.000000,-0.000000,1.000000
-15.828861,-6.761292,-2.563008,0.000000,0.000000,-1.000000
32.962986,18.629026,-2.563008,0.000000,0.000000,-1.000000
-10.454284,-8.112314,2.563008,0.000000,-0.000000,1.000000
-25.162444,30.594870,2.563008,-0.000000,0.000000,1.000000
8.173347,3.462016,2.563008,0.000000,0.000000,1.000000
11.504825,-27.702284,-2.563008,0.000000,0.000000,-1.000000
33.105560,-6.965275,1.235919,1.000000,-0.000000,0.000000
32.917971,13.080580,-2.563008,0.000000,0.000000,-1.000000
-24.575877,-7.462309,2.563008,0.000000,-0.000000,1.000000
-29.860993,-12.456258,-2.563008,0.000000,0.000000,-1.000000
14.849981,-27.803223,-2.563008,0.000000,0.000000,-1.000000
-24.223560,7.332533,-1.549762,0.956941,0.290284,0.000000
-32.140358,-19.215357,2.563008,0.000000,-0.000000,1.000000
-8.877624,14.048251,-1.933267,-0.995185,-0.098017,0.000000
4.465533,-10.879150,-2.563008,0.000000,0.000000,-1.000000
-6.734260,15.810885,-2.563008,0.000000,0.000000,-1.000000
33.105560,-27.645900,0.150020,1.000000,0.000000,-0.000000
-8.539541,-32.500577,2.563008,0.000000,0.000000,1.000000
-11.003007,17.437488,-2.398217,-0.471396,-0.881922,0.000000
29.757800,29.668856,-2.563008,0.000000,0.000000,-1.000000
11.095983,-2.332634,2.563008,0.000000,0.000000,1.000000
-11.278429,20.598327,-2.563008,0.000000,-0.000000,-1.000000
-12.864121,21.761814,2.563008,-0.000000,0.000000,1.000000
5.809520,21.096292,2.563008,0.000000,-0.000000,1.000000
9.719100,-11.400569,-2.563008,0.000000,0.000000,-1.000000
30.927980,-5.742148,-2.563008,0.000000,0.000000,-1.000000
-7.922885,-22.152370,2.563008,0.000000,0.000000,1.000000
-32.162222,14.134580,2.563008,0.000000,-0.000000,1.000000
29.131265,9.681295,-2.563008,0.000000,0.000000,-1.000000
15.165223,11.040510,-2.563008,0.000000,0.000000,-1.000000
18.331302,9.545766,2.563008,0.000000,0.000000,1.000000
-21.510623,32.470951,-2.563008,0.000000,-0.000000,-1.000000
-27.584603,13.631972,-2.563008,0.000000,0.000000,-1.000000
10.993475,-33.567060,-2.563008,0.000000,0.000000,-1.000000
17.554034,22.771819,2.563008,0.000000,-0.000000,1.000000
-15.313327,-9.853350,2.563008,0.000000,-0.000000,1.000000
-16.323271,-15.183949,2.563008,0.000000,-0.000000,1.000000
-0.824160,31.785388,2.563008,-0.000000,0.000000,1.000000
-1.358207,33.576736,-1.725582,-0.000000,1.000000,0.000000
20.359662,3.704963,2.563008,0.000000,0.000000,1.000000
23.978411,3.044385,2.563008,0.000000,0.000000,1.000000
-21.595476,13.153998,2.363111,0.290284,-0.956940,0.000000
32.131448,9.513257,2.563008,0.000000,0.000000,1.000000
33.105560,-18.122360,-0.517553,1.000000,0.000000,-0.000000
-20.438826,13.408364,-1.772967,0.098017,-0.995185,0.000000
-30.901787,33.576736,-0.345550,0.000000,1.000000,0.000000
-33.105560,-13.749147,-0.469167,-1.000000,0.000000,0.000000
-22.568169,-33.576736,0.425670,0.000000,-1.000000,0.000000
-0.856041,-1.669302,2.563008,0.000000,0.000000,1.000000
-13.253995,-8.758349,2.563008,0.000000,-0.000000,1.000000
5.375765,-16.278080,2.563008,0.000000,0.000000,1.000000
17.320432,-31.790468,-2.563008,0.000000,0.000000,-1.000000
27.201436,16.401491,-2.563008,0.000000,0.000000,-1.000000
-5.143466,-1.226452,2.563008,0.000000,-0.000000,1.000000
-23.336461,-31.468025,-2.563008,0.000000,0.000000,-1.000000
-28.221863,-10.969349,2.563008,0.000000,-0.000000,1.000000
-15.104370,-2.444717,-2.563008,0.000000,0.000000,-1.000000
4.428611,27.875285,-2.563008,0.000000,-0.000000,-1.000000
26.169845,-6.498682,2.563008,0.000000,0.000000,1.000000
-1.871684,0.341778,-2.563008,0.000000,0.000000,-1.000000
30.847549,-33.576736,0.358520,0.000000,-1.000000,0.000000
-4.522412,28.514219,-2.563008,0.000000,-0.000000,-1.000000
-16.451796,18.992508,-2.563008,0.000000,-0.000000,-1.000000
-33.105560,-24.229493,1.556135,-1.000000,0.000000,0.000000
-4.544070,14.731814,2.563008,0.000000,-0.000000,1.000000
-11.612475,20.439917,-2.563008,0.000000,-0.000000,-1.000000
-4.032664,-19.549043,-2.563008,0.000000,0.000000,-1.000000
30.900003,3.385502,2.563008,0.000000,0.000000,1.000000
-11.269475,-15.855605,-2.563008,0.000000,0.000000,-1.000000
7.618752,9.805439,2.563008,0.000000,-0.000000,1.000000
-0.051975,7.190894,2.563008,0.000000,-0.000000,1.000000
10.856441,-24.878791,-2.563008,0.000000,0.000000,-1.000000
-25.332591,13.885081,-2.563008,0.000000,-0.000000,-1.000000
-33.105560,29.702969,-2.121016,-1.000000,0.000000,0.000000
7.909777,-10.830809,2.563008,0.000000,0.000000,1.000000
-31.837039,-25.266432,2.563008,0.000000,-0.000000,1.000000
-22.115762,28.669139,-2.563008,0.000000,-0.000000,-1.000000
-12.848665,-10.293056,2.563008,0.000000,-0.000000,1.000000
-21.930236,-32.444329,-2.563008,0.000000,0.000000,-1.000000
-17.567389,-0.096702,2.563008,0.000000,-0.000000,1.000000
18.584104,-6.260639,2.563008,0.000000,0.000000,1.000000
-16.909226,-29.025061,2.563008,0.000000,0.000000,1.000000
28.447844,33.576736,1.563260,-0.000000,1.000000,0.000000
-15.581314,26.318186,2.563008,-0.000000,0.000000,1.000000
5.615328,-10.665512,2.563008,0.000000,0.000000,1.000000
31.799852,10.765597,-2.563008,0.000000,0.000000,-1.000000
-11.049097,3.754683,-2.563008,0.000000,0.000000,-1.000000
5.162096,9.886299,2.563008,0.000000,-0.000000,1.000000
28.289503,-23.816394,2.563008,0.000000,0.000000,1.000000
-22.288880,-19.500701,-2.563008,0.000000,0.000000,-1.000000
26.060693,-23.210824,2.563008,0.000000,0.000000,1.000000
-8.532753,9.618450,-2.563008,0.000000,0.000000,-1.000000
28.027243,-26.302465,-2.563008,0.000000,0.000000,-1.000000
-0.037214,-14.653602,2.563008,0.000000,0.000000,1.000000
-1.444877,5.590727,2.563008,0.000000,-0.000000,1.000000
-12.673394,33.576736,-0.535252,0.000000,1.000000,0.000000
-23.694222,-26.315536,-2.563008,0.000000,0.000000,-1.000000
-19.533804,-18.780849,-2.563008,0.000000,0.000000,-1.000000
4.237032,-29.608536,2.563008,0.000000,0.000000,1.000000
-11.482317,-8.596861,-2.563008,0.000000,0.000000,-1.000000
-9.291014,18.684245,-2.563008,0.000000,-0.000000,-1.000000
5.646064,-22.477295,-2.563008,0.000000,0.000000,-1.000000
-1.459862,-27.125292,-2.563008,0.000000,0.000000,-1.000000
0.742575,-4.931467,2.563008,0.000000,0.000000,1.000000
4.403263,24.800190,2.563008,-0.000000,0.000000,1.000000
-30.309725,-27.218762,-2.563008,0.000000,0.000000,-1.000000
9.936613,-27.969614,2.563008,0.000000,0.000000,1.000000
13.906749,-24.279922,2.563008,0.000000,0.000000,1.000000
16.973049,-5.404285,2.563008,0.000000,0.000000,1.000000
-13.257730,32.952370,-2.563008,0.000000,-0.000000,-1.000000
-5.715927,25.761864,2.563008,-0.000000,0.000000,1.000000
-0.889280,25.201594,2.563008,-0.000000,0.000000,1.000000
16.755850,-33.383868,-2.563008,0.000000,0.000000,-1.000000
11.617555,-5.728905,2.563008,0.000000,0.000000,1.000000
18.843184,-15.835511,2.563008,0.000000,0.000000,1.000000
10.451880,-18.571897,-2.563008,0.000000,0.000000,-1.000000
-9.091974,30.454667,-2.563008,0.000000,-0.000000,-1.000000
16.938527,-5.672377,2.563008,0.000000,0.000000,1.000000
14.772092,33.576736,-0.183508,-0.000000,1.000000,0.000000
-6.145753,-5.322611,-2.563008,0.000000,0.000000,-1.000000
-19.305945,13.376991,1.818133,-0.098017,-0.995185,0.000000
-2.648779,-23.268713,2.563008,0.000000,0.000000,1.000000
8.035662,31.567590,2.563008,-0.000000,0.000000,1.000000
22.892002,23.148336,2.563008,0.000000,0.000000,1.000000
-0.950543,-24.234172,2.563008,0.000000,0.000000,1.000000
-5.251245,33.576736,-1.459569,-0.000000,1.000000,0.000000
24.499496,-15.160542,-2.563008,0.000000,0.000000,-1.000000
25.474947,-33.576736,2.467061,0.000000,-1.000000,0.000000
-19.754657,13.421185,0.182405,-0.098017,-0.995185,0.000000
-18.659484,-29.218031,2.563008,0.000000,0.000000,1.000000
13.766514,-21.297188,-2.563008,0.000000,0.000000,-1.000000
2.546469,-17.510194,2.563008,0.000000,0.000000,1.000000
4.741356,-13.792444,-2.563008,0.000000,0.000000,-1.000000
-21.254667,4.636204,-0.299950,0.290284,0.956940,0.000000
-16.954990,-9.013949,2.563008,0.000000,-0.000000,1.000000
5.519912,-29.669261,2.563008,0.000000,0.000000,1.000000
-7.417798,-5.603689,-2.563008,0.000000,0.000000,-1.000000
10.628620,-11.016078,-2.563008,0.000000,0.000000,-1.000000
-33.105560,16.725062,-0.815039,-1.000000,0.000000,0.000000
-13.776309,-10.213709,2.563008,0.000000,-0.000000,1.000000
27.388626,-9.186188,-2.563008,0.000000,0.000000,-1.000000
31.387801,20.886396,2.563008,0.000000,0.000000,1.000000
-27.070370,-7.562271,-2.563008,0.000000,0.000000,-1.000000
24.662213,-33.576736,0.206645,0.000000,-1.000000,0.000000
-1.991293,2.614965,2.563008,0.000000,-0.000000,1.000000
-28.603504,24.915348,-2.563008,0.000000,-0.000000,-1.000000
20.872017,2.224408,-2.563008,0.000000,0.000000,-1.000000
-19.991374,20.033314,2.563008,0.000000,-0.000000,1.000000
3.481732,6.361797,-2.563008,0.000000,0.000000,-1.000000
-0.001904,-20.048629,2.563008,0.000000,0.000000,1.000000
-11.362392,4.874479,-2.563008,0.000000,0.000000,-1.000000
-5.031982,3.162154,-2.563008,0.000000,0.000000,-1.000000
-10.893409,-3.052269,-2.563008,0.000000,0.000000,-1.000000
33.105560,-23.840007,-0.477739,1.000000,0.000000,-0.000000
-4.961129,33.576736,2.081270,0.000000,1.000000,0.000000
-19.311262,22.328603,-2.563008,0.000000,-0.000000,-1.000000
-18.665855,22.237524,2.563008,-0.000000,0.000000,1.000000
-25.350356,-28.014358,-2.563008,0.000000,0.000000,-1.000000
-10.126530,9.297495,-2.563008,0.000000,0.000000,-1.000000
-20.088897,-16.955559,-2.563008,0.000000,0.000000,-1.000000
20.988640,-7.571335,-2.563008,0.000000,0.000000,-1.000000
0.553170,17.764890,-2.563008,0.000000,0.000000,-1.000000
22.264445,18.249559,2.563008,0.000000,0.000000,1.000000
-9.999207,5.628180,2.563008,0.000000,-0.000000,1.000000
-22.470960,-31.102474,2.563008,0.000000,0.000000,1.000000
11.463431,10.709779,-2.563008,0.000000,0.000000,-1.000000
-14.249796,-3.497831,2.563008,0.000000,-0.000000,1.000000
7.472036,-33.576736,0.504850,0.000000,-1.000000,0.000000
-15.560434,8.637598,-0.899120,-0.995185,0.098017,0.000000
25.074436,28.729734,-2.563008,0.000000,0.000000,-1.000000
-14.544697,-26.215882,-2.563008,0.000000,0.000000,-1.000000
16.826672,2.587149,-2.563008,0.000000,0.000000,-1.000000
-2.768045,-15.726417,-2.563008,0.000000,0.000000,-1.000000
-2.619982,14.609363,2.563008,0.000000,-0.000000,1.000000
-21.729247,21.924278,-2.563008,0.000000,0.000000,-1.000000
13.474194,7.315251,-2.563008,0.000000,0.000000,-1.000000
-12.271834,-26.341563,2.563008,0.000000,0.000000,1.000000
-4.056523,21.431887,2.563008,-0.000000,0.000000,1.000000
-18.932259,-14.193211,2.563008,0.000000,-0.000000,1.000000
-1.911125,27.738268,-2.563008,0.000000,-0.000000,-1.000000
-0.088883,32.581339,-2.563008,0.000000,-0.000000,-1.000000
-10.977866,-7.245635,-2.563008,0.000000,0.000000,-1.000000
-11.914681,33.576736,1.273068,0.000000,1.000000,0.000000
-16.952625,-30.916117,-2.563008,0.000000,0.000000,-1.000000
26.770504,-32.104912,2.563008,0.000000,0.000000,1.000000
-25.091163,-10.833596,-2.563008,0.000000,0.000000,-1.000000
10.569173,13.987761,-2.563008,0.000000,0.000000,-1.000000
3.275562,-7.182310,2.563008,0.000000,0.000000,1.000000
-33.105560,-7.911520,0.915097,-1.000000,0.000000,0.000000
1.374924,22.034852,2.563008,-0.000000,0.000000,1.000000
-13.524172,-14.568306,-2.563008,0.000000,0.000000,-1.000000
33.105560,-4.353065,-0.939314,1.000000,0.000000,-0.000000
-0.497296,14.668992,-2.563008,0.000000,0.000000,-1.000000
-14.710904,-20.281415,2.563008,0.000000,0.000000,1.000000
-32.824988,-27.226666,2.563008,0.000000,-0.000000,1.000000
9.964749,16.240768,2.563008,0.000000,-0.000000,1.000000
-1.206228,-12.257173,-2.563008,0.000000,0.000000,-1.000000
30.897965,-27.610516,-2.563008,0.000000,0.000000,-1.000000
-27.154997,-5.461159,2.563008,0.000000,-0.000000,1.000000
24.653073,-2.323657,-2.563008,0.000000,0.000000,-1.000000
14.768408,15.357757,-2.563008,0.000000,0.000000,-1.000000
-30.884170,-11.569487,2.563008,0.000000,-0.000000,1.000000
-0.014716,32.849507,2.563008,-0.000000,0.000000,1.000000
-33.105560,12.100457,-0.639356,-1.000000,0.000000,0.000000
-15.601027,8.225442,1.673763,-0.995185,0.098017,0.000000
5.016223,-32.677237,2.563008,0.000000,0.000000,1.000000
20.778919,-11.012174,2.563008,0.000000,0.000000,1.000000
-15.356669,-2.633162,2.563008,0.000000,-0.000000,1.000000
12.604788,24.386442,-2.563008,0.000000,0.000000,-1.000000
-30.377195,-26.048995,-2.563008,0.000000,0.000000,-1.000000
25.205849,9.966508,2.563008,0.000000,0.000000,1.000000
-22.855336,-32.823200,2.563008,0.000000,0.000000,1.000000
21.088576,15.945255,2.563008,0.000000,0.000000,1.000000
-8.290517,-33.576736,-1.710085,0.000000,-1.000000,0.000000
-8.935154,12.677635,-0.737046,-0.956940,0.290285,0.000000
11.134065,3.168704,2.563008,0.000000,0.000000,1.000000
-17.790110,-17.293137,-2.563008,0.000000,0.000000,-1.000000
18.662007,14.947399,2.563008,0.000000,0.000000,1.000000
-4.484960,18.949656,2.563008,-0.000000,0.000000,1.000000
27.916693,3.823862,-2.563008,0.000000,0.000000,-1.000000
-11.214366,30.638912,2.563008,-0.000000,0.000000,1.000000
15.455359,-31.935942,2.563008,0.000000,0.000000,1.000000
12.399379,30.611506,-2.563008,0.000000,-0.000000,-1.000000
9.858131,29.504519,-2.563008,0.000000,-0.000000,-1.000000
-29.065296,8.966633,-2.563008,0.000000,0.000000,-1.000000
-0.531427,12.842412,2.563008,0.000000,-0.000000,1.000000
31.425502,15.158768,2.563008,0.000000,0.000000,1.000000
-5.812936,-0.057447,-2.563008,0.000000,0.000000,-1.000000
-16.533512,-18.266915,2.563008,0.000000,0.000000,1.000000
-0.675811,33.557553,-2.563008,0.000000,-0.000000,-1.000000
-1.513038,-14.790259,-2.563008,0.000000,0.000000,-1.000000
-22.917144,-21.006047,-2.563008,0.000000,0.000000,-1.000000
20.941332,-10.206404,-2.563008,0.000000,0.000000,-1.000000
-16.646757,-28.528304,2.563008,0.000000,0.000000,1.000000
-15.594133,9.598146,-0.121751,-0.995185,-0.098017,-0.000000
8.434425,25.568482,2.563008,-0.000000,0.000000,1.000000
9.173608,-25.285243,2.563008,0.000000,0.000000,1.000000
5.648562,27.575041,-2.563008,0.000000,-0.000000,-1.000000
-8.572045,31.124239,-2.563008,0.000000,-0.000000,-1.000000
-23.537503,-17.130725,-2.563008,0.000000,0.000000,-1.000000
28.082135,1.212990,-2.563008,0.000000,0.000000,-1.000000
23.129345,-33.576736,-1.961160,0.000000,-1.000000,0.000000
-24.031725,33.576736,2.434960,0.000000,1.000000,0.000000
9.711325,-28.065631,-2.563008,0.000000,0.000000,-1.000000
16.699070,-4.257953,2.563008,0.000000,0.000000,1.000000
-19.097282,17.735538,2.563008,0.000000,-0.000000,1.000000
-23.650543,16.618982,2.563008,-0.000000,0.000000,1.000000
-14.246076,18.946065,-2.563008,0.000000,-0.000000,-1.000000
1.349438,10.008583,-2.563008,0.000000,0.000000,-1.000000
9.893566,19.217336,-2.563008,0.000000,0.000000,-1.000000
6.188173,-30.494859,2.563008,0.000000,0.000000,1.000000
-24.583602,24.901571,-2.563008,0.000000,0.000000,-1.000000
5.276572,3.898174,2.563008,0.000000,0.000000,1.000000
-32.736113,6.380468,2.563008,0.000000,-0.000000,1.000000
32.812376,0.808186,-2.563008,0.000000,0.000000,-1.000000
33.105560,1.168058,0.624315,1.000000,-0.000000,0.000000
-17.910001,-4.546561,-2.563008,0.000000,0.000000,-1.000000
6.038081,-19.472909,2.563008,0.000000,0.000000,1.000000
18.354559,-29.851163,-2.563008,0.000000,0.000000,-1.000000
-22.092871,-33.576736,0.189750,0.000000,-1.000000,0.000000
14.728346,16.026309,2.563008,0.000000,-0.000000,1.000000
-5.357499,23.444172,2.563008,-0.000000,0.000000,1.000000
32.813055,6.849676,2.563008,0.000000,0.000000,1.000000
2.030251,32.401908,-2.563008,0.000000,-0.000000,-1.000000
3.937821,-15.251723,-2.563008,0.000000,0.000000,-1.000000
-22.322478,-2.465834,2.563008,0.000000,-0.000000,1.000000
16.874535,-12.721553,-2.563008,0.000000,0.000000,-1.000000
8.165636,-29.140313,2.563008,0.000000,0.000000,1.000000
7.703694,-26.473980,2.563008,0.000000,0.000000,1.000000
-1.007533,1.606433,2.563008,0.000000,-0.000000,1.000000
12.470465,-26.702031,-2.563008,0.000000,0.000000,-1.000000
-13.025437,2.616797,-2.563008,0.000000,0.000000,-1.000000
-22.920419,21.243932,-2.563008,-0.000000,0.000000,-1.000000
19.920175,-30.569756,2.563008,0.000000,0.000000,1.000000
-30.719327,2.650208,-2.563008,0.000000,0.000000,-1.000000
30.237010,-6.992178,-2.563008,0.000000,0.000000,-1.000000
-0.965822,-19.661850,2.563008,0.000000,0.000000,1.000000
-7.580887,-15.623621,2.563008,0.000000,0.000000,1.000000
-32.481767,-28.916536,-2.563008,0.000000,0.000000,-1.000000
-10.417054,26.750287,-2.563008,0.000000,-0.000000,-1.000000
33.105560,0.578293,-1.006054,1.000000,0.000000,-0.000000
-10.657958,-10.902141,-2.563008,0.000000,0.000000,-1.000000
26.396362,-17.411247,-2.563008,0.000000,0.000000,-1.000000
-13.979823,-18.359049,-2.563008,0.000000,0.000000,-1.000000
-33.105560,-6.167412,-1.118075,-1.000000,0.000000,0.000000
-27.042093,-24.742116,-2.563008,0.000000,0.000000,-1.000000
18.424656,22.862914,2.563008,0.000000,-0.000000,1.000000
-32.224903,16.068911,2.563008,0.000000,-0.000000,1.000000
32.518500,-21.533262,2.563008,0.000000,0.000000,1.000000
27.265994,8.055702,2.563008,0.000000,0.000000,1.000000
31.496653,-18.558081,2.563008,0.000000,0.000000,1.000000
-13.178523,24.998907,2.563008,-0.000000,0.000000,1.000000
-28.593439,-4.737398,-2.563008,0.000000,0.000000,-1.000000
-15.674061,-6.082863,2.563008,0.000000,-0.000000,1.000000
28.664164,-8.524432,2.563008,0.000000,0.000000,1.000000
15.034894,-32.846842,2.563008,0.000000,0.000000,1.000000
13.153025,-6.668430,2.563008,0.000000,0.000000,1.000000
-29.672927,-9.339033,-2.563008,0.000000,0.000000,-1.000000
22.112186,23.940586,2.563008,0.000000,-0.000000,1.000000
32.813553,-27.865242,2.563008,0.000000,0.000000,1.000000
2.777695,-27.604120,-2.563008,0.000000,0.000000,-1.000000
31.744792,-11.723776,2.563008,0.000000,0.000000,1.000000
20.438270,-11.350729,2.563008,0.000000,0.000000,1.000000
-19.516085,-28.017522,2.563008,0.000000,0.000000,1.000000
-22.910557,5.513927,0.562511,0.634394,0.773010,0.000000
-33.105560,-29.327798,-2.281320,-1.000000,0.000000,0.000000
-0.871643,-31.388937,2.563008,0.000000,0.000000,1.000000
21.911982,33.576736,-2.203687,-0.000000,1.000000,0.000000
12.587343,28.614516,2.563008,-0.000000,0.000000,1.000000
-21.603733,13.151493,1.140747,0.290284,-0.956940,0.000000
-33.105560,-11.561037,2.295149,-1.000000,0.000000,0.000000
21.235604,31.401663,-2.563008,0.000000,-0.000000,-1.000000
0.147045,27.878836,2.563008,-0.000000,0.000000,1.000000
32.046331,-26.826734,-2.563008,0.000000,0.000000,-1.000000
2.176826,-24.019753,-2.563008,0.000000,0.000000,-1.000000
22.867594,-16.313327,-2.563008,0.000000,0.000000,-1.000000
-8.309569,15.931915,2.563008,-0.000000,0.000000,1.000000
8.312559,-33.576736,0.235716,0.000000,-1.000000,0.000000
24.943540,29.533724,2.563008,0.000000,-0.000000,1.000000
33.105560,11.688130,-0.763642,1.000000,-0.000000,0.000000
-0.004443,-20.260135,-2.563008,0.000000,0.000000,-1.000000
8.678490,5.193800,2.563008,0.000000,0.000000,1.000000
-25.147547,22.347313,-2.563008,-0.000000,0.000000,-1.000000
-2.571587,-2.278201,-2.563008,0.000000,0.000000,-1.000000
33.105560,-8.238280,0.101011,1.000000,0.000000,-0.000000
-12.649651,18.038579,2.395007,-0.098017,-0.995185,0.000000
28.360397,27.120834,-2.563008,0.000000,0.000000,-1.000000
-8.359567,6.884032,-2.563008,0.000000,0.000000,-1.000000
8.368839,-12.737247,-2.563008,0.000000,0.000000,-1.000000
25.263246,29.358047,-2.563008,0.000000,0.000000,-1.000000
23.268995,5.931530,-2.563008,0.000000,0.000000,-1.000000
5.907798,-29.658046,2.563008,0.000000,0.000000,1.000000
-28.260327,-16.178620,-2.563008,0.000000,0.000000,-1.000000
-29.231655,21.517518,2.563008,0.000000,-0.000000,1.000000
-29.745500,0.378339,-2.563008,0.000000,0.000000,-1.000000
-26.824052,-8.117541,-2.563008,0.000000,0.000000,-1.000000
-8.483559,-19.609550,-2.563008,0.000000,0.000000,-1.000000
-2.096480,-25.830298,-2.563008,0.000000,0.000000,-1.000000
0.297456,-9.793624,2.563008,0.000000,0.000000,1.000000
-16.972705,-23.599534,2.563008,0.000000,0.000000,1.000000
-30.375542,33.576736,-0.092528,0.000000,1.000000,0.000000
-21.116365,-22.560743,-2.563008,0.000000,0.000000,-1.000000
16.383363,23.008598,-2.563008,0.000000,0.000000,-1.000000
33.105560,18.727122,-0.117105,1.000000,-0.000000,0.000000
-24.186210,15.237758,-2.563008,0.000000,-0.000000,-1.000000
31.164838,20.891654,2.563008,0.000000,0.000000,1.000000
9.290360,8.950041,2.563008,0.000000,0.000000,1.000000
-5.365544,9.987241,-2.563008,0.000000,0.000000,-1.000000
-27.650832,5.104150,-2.563008,0.000000,0.000000,-1.000000
-32.252066,-26.850753,2.563008,0.000000,-0.000000,1.000000
27.068451,-30.999670,2.563008,0.000000,0.000000,1.000000
27.015151,-33.576736,-1.786641,0.000000,-1.000000,0.000000
5.683798,-13.240075,-2.563008,0.000000,0.000000,-1.000000
-6.313580,14.279958,2.563008,0.000000,-0.000000,1.000000
-0.413100,-1.777377,-2.563008,0.000000,0.000000,-1.000000
-28.982221,33.576736,-0.967926,0.000000,1.000000,0.000000
15.600573,-33.576736,0.531303,0.000000,-1.000000,0.000000
-1.466304,25.643163,-2.563008,0.000000,-0.000000,-1.000000
-30.094012,26.517387,-2.563008,0.000000,-0.000000,-1.000000
11.860579,-13.112463,-2.563008,0.000000,0.000000,-1.000000
20.068372,-32.897372,2.563008,0.000000,0.000000,1.000000
19.768470,-21.290089,-2.563008,0.000000,0.000000,-1.000000
-24.061755,-26.297163,-2.563008,0.000000,0.000000,-1.000000
33.105560,15.109340,1.256857,1.000000,-0.000000,0.000000
9.753967,16.854075,2.563008,0.000000,-0.000000,1.000000
-32.972903,11.194896,-2.563008,0.000000,0.000000,-1.000000
21.776807,-24.329875,-2.563008,0.000000,0.000000,-1.000000
-21.981115,-23.176617,2.563008,0.000000,0.000000,1.000000
-26.631178,-3.159305,2.563008,0.000000,-0.000000,1.000000
-15.309377,-16.504389,2.563008,0.000000,0.000000,1.000000
21.262351,6.326872,2.563008,0.000000,0.000000,1.000000
27.251601,19.256095,-2.563008,0.000000,0.000000,-1.000000
31.267472,23.420442,2.563008,0.000000,0.000000,1.000000
16.761744,13.552505,-2.563008,0.000000,0.000000,-1.000000
4.326303,-22.396903,-2.563008,0.000000,0.000000,-1.000000
-10.520887,-6.772161,2.563008,0.000000,-0.000000,1.000000
8.830080,16.588155,2.563008,0.000000,-0.000000,1.000000
-24.964885,33.576736,-1.352484,0.000000,1.000000,0.000000
24.867068,0.591966,2.563008,0.000000,0.000000,1.000000
25.813077,33.576736,-1.351581,-0.000000,1.000000,0.000000
15.610412,18.723437,2.563008,0.000000,-0.000000,1.000000
-24.321877,-16.064806,2.563008,0.000000,-0.000000,1.000000
-22.943172,-29.962254,-2.563008,0.000000,0.000000,-1.000000
-8.526947,-26.195431,2.563008,0.000000,0.000000,1.000000
-14.805117,-18.074280,2.563008,0.000000,0.000000,1.000000
6.755623,-33.576736,-2.497341,0.000000,-1.000000,0.000000
31.570227,7.230593,2.563008,0.000000,0.000000,1.000000
-10.650738,-12.979930,2.563008,0.000000,0.000000,1.000000
-29.959542,-7.607980,2.563008,0.000000,-0.000000,1.000000
15.712813,5.206021,-2.563008,0.000000,0.000000,-1.000000
-3.475043,3.171500,2.563008,0.000000,-0.000000,1.000000
4.263393,-11.639853,2.563008,0.000000,0.000000,1.000000
-8.641544,-19.498001,2.563008,0.000000,0.000000,1.000000
14.354671,29.503089,2.563008,-0.000000,0.000000,1.000000
-3.978175,-25.192282,2.563008,0.000000,0.000000,1.000000
-24.019877,-12.435877,2.563008,0.000000,-0.000000,1.000000
-27.554941,-9.706286,2.563008,0.000000,-0.000000,1.000000
-33.055486,-23.049029,-2.563008,0.000000,0.000000,-1.000000
-19.965280,13.441930,-2.297502,-0.098017,-0.995185,0.000000
-21.749304,22.052778,-2.563008,0.000000,0.000000,-1.000000
17.951027,25.591698,2.563008,0.000000,-0.000000,1.000000
17.404762,21.971490,-2.563008,0.000000,0.000000,-1.000000
27.195336,33.576736,2.336269,0.000000,1.000000,0.000000
-3.743571,0.148606,2.563008,0.000000,-0.000000,1.000000
-33.105560,31.534364,2.092161,-1.000000,0.000000,0.000000
17.025564,14.706584,-2.563008,0.000000,0.000000,-1.000000
5.916749,-28.625014,-2.563008,0.000000,0.000000,-1.000000
-11.248203,-6.659737,-2.563008,0.000000,0.000000,-1.000000
-13.411405,-25.414900,-2.563008,0.000000,0.000000,-1.000000
-1.002144,22.216001,2.563008,-0.000000,0.000000,1.000000
-1.519497,-4.822823,-2.563008,0.000000,0.000000,-1.000000
-11.081640,-13.888612,-2.563008,0.000000,0.000000,-1.000000
-14.592745,4.770045,2.563008,0.000000,-0.000000,1.000000
-13.487819,-31.785761,-2.563008,0.000000,0.000000,-1.000000
7.101305,-7.049176,2.563008,0.000000,0.000000,1.000000
21.855161,25.545520,2.563008,0.000000,-0.000000,1.000000
-30.076415,-14.201804,2.563008,0.000000,-0.000000,1.000000
-9.922645,-21.983899,2.563008,0.000000,0.000000,1.000000
25.853760,-15.600404,-2.563008,0.000000,0.000000,-1.000000
-20.586337,-7.934801,2.563008,0.000000,-0.000000,1.000000
-8.481353,33.080110,2.563008,-0.000000,0.000000,1.000000
28.448862,25.723555,2.563008,0.000000,0.000000,1.000000
-16.332759,-5.358538,2.563008,0.000000,-0.000000,1.000000
33.105560,28.430727,1.218384,1.000000,-0.000000,0.000000
14.552845,-29.825735,2.563008,0.000000,0.000000,1.000000
-18.218642,4.836053,-1.974569,-0.471397,0.881921,0.000000
-24.358613,-33.576736,1.546587,0.000000,-1.000000,0.000000
7.873358,15.823820,2.563008,0.000000,-0.000000,1.000000
20.906837,-8.804899,2.563008,0.000000,0.000000,1.000000
19.255845,12.344932,2.563008,0.000000,0.000000,1.000000
0.297658,33.576736,0.812020,0.000000,1.000000,0.000000
-5.754051,33.576736,-0.150785,0.000000,1.000000,0.000000
13.028770,-22.166622,-2.563008,0.000000,0.000000,-1.000000
7.537739,13.803650,2.563008,0.000000,-0.000000,1.000000
6.480543,23.139273,2.563008,-0.000000,0.000000,1.000000
10.594336,19.097185,2.563008,0.000000,-0.000000,1.000000
-15.109874,-33.576736,-0.786902,0.000000,-1.000000,0.000000
23.882609,-24.568882,2.563008,0.000000,0.000000,1.000000
29.624557,15.475903,2.563008,0.000000,0.000000,1.000000
-27.565170,-5.397394,2.563008,0.000000,-0.000000,1.000000
-10.097035,-12.339161,2.563008,0.000000,0.000000,1.000000
-24.432493,-21.576855,2.563008,0.000000,-0.000000,1.000000
21.889961,10.071881,-2.563008,0.000000,0.000000,-1.000000
-19.027189,-24.047432,2.563008,0.000000,0.000000,1.000000
23.100463,29.867086,-2.563008,0.000000,0.000000,-1.000000
-31.845004,33.009917,2.563008,-0.000000,0.000000,1.000000
24.048192,-33.576736,0.496809,0.000000,-1.000000,0.000000
18.305187,19.377418,-2.563008,0.000000,0.000000,-1.000000
-12.382324,-22.125870,-2.563008,0.000000,0.000000,-1.000000
3.490820,-29.881814,-2.563008,0.000000,0.000000,-1.000000
-17.271206,-30.412179,2.563008,0.000000,0.000000,1.000000
20.426566,-28.564151,2.563008,0.000000,0.000000,1.000000
4.060031,-6.774321,2.563008,0.000000,0.000000,1.000000
17.572410,3.468536,-2.563008,0.000000,0.000000,-1.000000
-23.845440,32.997631,-2.563008,0.000000,-0.000000,-1.000000
3.651696,13.893407,2.563008,0.000000,-0.000000,1.000000
27.471659,-18.533751,-2.563008,0.000000,0.000000,-1.000000
-26.028494,17.255420,-2.563008,0.000000,-0.000000,-1.000000
-3.008872,16.225754,2.563008,0.000000,-0.000000,1.000000
16.070384,-24.393266,2.563008,0.000000,0.000000,1.000000
31.002646,0.919039,2.563008,0.000000,0.000000,1.000000
2.856726,29.644958,2.563008,-0.000000,0.000000,1.000000
-33.105560,22.748553,-0.963685,-1.000000,0.000000,0.000000
-6.371061,25.016514,-2.563008,0.000000,-0.000000,-1.000000
5.734416,-19.345446,-2.563008,0.000000,0.000000,-1.000000
-14.790846,-24.474216,-2.563008,0.000000,0.000000,-1.000000
1.788766,22.820241,-2.563008,0.000000,-0.000000,-1.000000
-23.161583,-20.113546,2.563008,0.000000,-0.000000,1.000000
-5.030121,31.689081,2.563008,-0.000000,0.000000,1.000000
-6.065929,1.005280,-2.563008,0.000000,0.000000,-1.000000
-9.993370,31.784170,-2.563008,0.000000,-0.000000,-1.000000
-25.737871,2.245247,-2.563008,0.000000,0.000000,-1.000000
-12.654782,-11.349444,2.563008,0.000000,-0.000000,1.000000
33.105560,11.384021,-1.936834,1.000000,0.000000,-0.000000
-9.141870,-7.083820,2.563008,0.000000,-0.000000,1.000000
-31.581971,-32.794526,2.563008,0.000000,0.000000,1.000000
12.137987,20.351805,-2.563008,0.000000,0.000000,-1.000000
-4.551908,-24.555640,-2.563008,0.000000,0.000000,-1.000000
28.127364,-26.126368,-2.563008,0.000000,0.000000,-1.000000
10.388922,19.178062,-2.563008,0.000000,0.000000,-1.000000
14.410127,-1.561646,2.563008,0.000000,0.000000,1.000000
-13.939503,18.046658,-0.967930,0.098017,-0.995185,0.000000
1.727701,6.892737,2.563008,0.000000,-0.000000,1.000000
-10.960921,33.473836,-2.563008,0.000000,-0.000000,-1.000000
0.609388,-27.063457,2.563008,0.000000,0.000000,1.000000
-23.625354,-3.739323,2.563008,0.000000,-0.000000,1.000000
-15.963386,22.516393,2.563008,-0.000000,0.000000,1.000000
-11.245196,-15.919066,-2.563008,0.000000,0.000000,-1.000000
31.273723,-14.690474,-2.563008,0.000000,0.000000,-1.000000
-25.891943,-20.094558,2.563008,0.000000,-0.000000,1.000000
-5.767512,-11.588454,-2.563008,0.000000,0.000000,-1.000000
33.105560,25.208110,0.591956,1.000000,-0.000000,0.000000
11.802122,14.414828,-2.563008,0.000000,0.000000,-1.000000
-26.045321,-22.169355,-2.563008,0.000000,0.000000,-1.000000
16.104826,4.186714,2.563008,0.000000,0.000000,1.000000
-33.105560,-8.120762,1.696315,-1.000000,0.000000,0.000000
26.702223,32.862501,2.563008,-0.000000,0.000000,1.000000
0.794742,-4.024329,-2.563008,0.000000,0.000000,-1.000000
2.244712,-26.652519,-2.563008,0.000000,0.000000,-1.000000
9.829257,10.869793,-2.563008,0.000000,0.000000,-1.000000
15.248822,-25.367984,-2.563008,0.000000,0.000000,-1.000000
3.998349,27.837422,-2.563008,0.000000,-0.000000,-1.000000
-7.975749,22.585023,2.563008,-0.000000,0.000000,1.000000
-8.337002,-9.493889,2.563008,0.000000,0.000000,1.000000
28.379477,-31.046482,2.563008,0.000000,0.000000,1.000000
-17.275919,-28.134106,2.563008,0.000000,0.000000,1.000000
-30.835674,18.374776,2.563008,0.000000,-0.000000,1.000000
-21.047804,-5.758678,2.563008,0.000000,-0.000000,1.000000
9.426516,-29.133832,-2.563008,0.000000,0.000000,-1.000000
10.560786,-15.212330,-2.563008,0.000000,0.000000,-1.000000
-32.887961,7.014544,2.563008,0.000000,-0.000000,1.000000
-18.660773,-9.606154,-2.563008,0.000000,0.000000,-1.000000
18.162191,-1.751890,-2.563008,0.000000,0.000000,-1.000000
-13.095398,-16.451839,-2.563008,0.000000,0.000000,-1.000000
-32.032148,-24.365829,2.563008,0.000000,-0.000000,1.000000
27.178915,31.547799,-2.563008,0.000000,-0.000000,-1.000000
-16.007824,-30.730703,-2.563008,0.000000,0.000000,-1.000000
26.050111,27.023971,2.563008,0.000000,-0.000000,1.000000
27.695060,-21.145290,-2.563008,0.000000,0.000000,-1.000000
-18.401057,-26.728646,-2.563008,0.000000,0.000000,-1.000000
-29.571341,3.571811,-2.563008,0.000000,0.000000,-1.000000
29.693651,-6.927769,2.563008,0.000000,0.000000,1.000000
29.452518,32.536994,2.563008,-0.000000,0.000000,1.000000
31.107637,-19.876488,2.563008,0.000000,0.000000,1.000000
6.528132,3.913847,2.563008,0.000000,0.000000,1.000000
31.859069,0.037285,2.563008,0.000000,0.000000,1.000000
-6.551890,-4.565305,-2.563008,0.000000,0.000000,-1.000000
18.776752,31.501517,2.563008,-0.000000,0.000000,1.000000
-25.689656,-19.451162,-2.563008,0.000000,0.000000,-1.000000
-16.187697,33.576736,1.827515,0.000000,1.000000,0.000000
-18.928538,-22.099514,-2.563008,0.000000,0.000000,-1.000000
10.270768,-23.158481,-2.563008,0.000000,0.000000,-1.000000
6.827759,29.685657,2.563008,-0.000000,0.000000,1.000000
22.690633,-20.750300,-2.563008,0.000000,0.000000,-1.000000
19.872129,13.763559,-2.563008,0.000000,0.000000,-1.000000
8.212408,-32.294197,2.563008,0.000000,0.000000,1.000000
10.615518,-32.922192,2.563008,0.000000,0.000000,1.000000
-31.799392,33.576736,0.955988,0.000000,1.000000,0.000000
-10.007531,-8.411234,2.563008,0.000000,-0.000000,1.000000
-4.948302,28.451619,-2.563008,0.000000,-0.000000,-1.000000
-26.294370,-3.211241,2.563008,0.000000,-0.000000,1.000000
9.547551,-3.041318,2.563008,0.000000,0.000000,1.000000
-17.384805,-18.078650,-2.563008,0.000000,0.000000,-1.000000
-24.498378,9.301657,1.644746,0.995185,-0.098017,0.000000
5.613320,-16.734779,2.563008,0.000000,0.000000,1.000000
33.105560,-5.499217,-0.146966,1.000000,0.000000,-0.000000
2.207583,-8.908110,-2.563008,0.000000,0.000000,-1.000000
5.734218,6.170246,2.563008,0.000000,-0.000000,1.000000
8.187961,22.151206,-2.563008,0.000000,0.000000,-1.000000
13.841658,-21.375516,2.563008,0.000000,0.000000,1.000000
17.920279,-24.465937,-2.563008,0.000000,0.000000,-1.000000
-11.592407,-22.600559,2.563008,0.000000,0.000000,1.000000
20.400571,23.095985,2.563008,0.000000,-0.000000,1.000000
7.626521,24.591152,2.563008,-0.000000,0.000000,1.000000
32.749421,23.407230,-2.563008,0.000000,0.000000,-1.000000
-17.256802,-31.591720,-2.563008,0.000000,0.000000,-1.000000
8.693248,28.596179,-2.563008,0.000000,-0.000000,-1.000000
7.123078,11.536243,-2.563008,0.000000,0.000000,-1.000000
17.470490,-5.324819,-2.563008,0.000000,0.000000,-1.000000
8.192613,1.608743,-2.563008,0.000000,0.000000,-1.000000
25.598761,-25.772200,-2.563008,0.000000,0.000000,-1.000000
17.628112,-0.447847,-2.563008,0.000000,0.000000,-1.000000
-8.575024,-18.456363,-2.563008,0.000000,0.000000,-1.000000
