x,y,z,nx,ny,nz
-3.613716,0.093603,-92.820811,-0.995185,0.098017,0.000000
-0.968557,-3.473919,-86.337364,-0.290285,-0.956940,0.000000
1.726646,3.165311,-53.761592,0.471397,0.881921,-0.000000
2.245623,-2.821284,-83.728676,0.634393,-0.773011,0.000000
-0.388773,-3.073420,0.000000,0.000000,0.000000,-1.000000
-4.394706,4.584493,3.169577,-0.866025,0.500000,0.000000
-2.813873,2.254653,-79.231699,-0.773011,0.634393,0.000000
-3.527131,-6.087177,6.381083,-0.866025,-0.500000,0.000000
1.897736,3.073861,-43.572269,0.471397,0.881921,-0.000000
-0.859248,6.098174,5.721420,-0.000000,1.000000,0.000000
-1.819393,-2.782139,9.831945,0.000000,0.000000,1.000000
2.237512,-2.827941,-70.447603,0.634393,-0.773011,0.000000
0.003556,3.622585,-77.520096,0.098017,0.995185,-0.000000
-0.840319,-3.512819,-52.266943,-0.290285,-0.956940,0.000000
5.200379,-3.189027,0.621626,0.866025,-0.500000,0.000000
1.750458,3.152583,-63.844029,0.471397,0.881921,0.000000
3.422799,6.098174,7.490093,-0.000000,1.000000,0.000000
0.561798,3.567603,-90.469436,0.098017,0.995185,0.000000
-1.183018,-2.775783,-34.866337,-0.000000,0.000000,1.000000
-3.019259,-1.999889,-48.867709,-0.881921,-0.471397,0.000000
-0.643901,3.559517,-45.755069,-0.098017,0.995185,0.000000
-1.729201,6.098174,6.262096,-0.000000,1.000000,0.000000
3.007888,-3.080623,9.831945,-0.000000,0.000000,1.000000
2.073980,-2.962148,-54.377123,0.634393,-0.773011,0.000000
3.074939,1.895719,-68.808357,0.881921,0.471397,-0.000000
1.943466,-1.424278,9.831945,-0.000000,0.000000,1.000000
-0.513564,2.470977,-94.767059,-0.000000,-0.000000,-1.000000
-0.493217,3.574358,-61.491517,-0.098017,0.995185,0.000000
4.392738,-3.846789,0.000000,0.000000,0.000000,-1.000000
-0.662817,-3.557654,-83.694345,-0.098017,-0.995185,0.000000
-3.263987,-1.542036,-35.955519,-0.881921,-0.471397,0.000000
-1.028515,-3.455731,-44.854940,-0.290285,-0.956940,0.000000
-3.940464,5.371263,8.926935,-0.866025,0.500000,0.000000
0.227157,-3.600563,-42.050411,0.098017,-0.995185,0.000000
3.471217,-0.977462,-65.913008,0.956940,-0.290285,0.000000
-2.693611,-2.401194,-54.356413,-0.773011,-0.634393,0.000000
-2.571760,-1.235578,-34.866337,-0.000000,0.000000,1.000000
-2.074781,0.663915,-34.866337,0.000000,0.000000,1.000000
-1.788110,-3.132458,-51.394693,-0.471397,-0.881921,0.000000
3.594716,0.286522,-35.734538,0.995185,0.098017,-0.000000
-1.560702,-5.409779,0.000000,0.000000,0.000000,-1.000000
1.788498,-3.132250,-79.742669,0.471397,-0.881921,0.000000
-1.229136,-1.464509,9.831945,0.000000,0.000000,1.000000
2.277399,-2.795206,-80.056579,0.634393,-0.773011,0.000000
-1.369138,3.612294,0.000000,0.000000,0.000000,-1.000000
-3.235610,-1.595125,-57.725901,-0.881921,-0.471397,0.000000
-4.242310,-4.848450,5.259215,-0.866025,-0.500000,0.000000
3.759023,-4.511135,9.831945,0.000000,0.000000,1.000000
4.699881,-4.055915,2.239969,0.866025,-0.500000,0.000000
-0.355710,6.098174,3.472137,-0.000000,1.000000,0.000000
-1.774246,1.499456,0.000000,0.000000,0.000000,-1.000000
3.566689,0.571085,-37.791806,0.995185,0.098017,-0.000000
-2.607385,6.098174,2.855133,-0.000000,1.000000,0.000000
-3.013473,2.010714,-81.664920,-0.881921,0.471397,0.000000
0.890708,3.497534,-73.915100,0.290285,0.956940,-0.000000
1.704406,-3.177198,-91.448358,0.471397,-0.881921,0.000000
4.386305,4.599044,4.644617,0.866025,0.500000,0.000000
-1.992820,3.023038,-72.508717,-0.471397,0.881921,0.000000
-3.364196,1.330264,-90.952943,-0.956940,0.290285,0.000000
-6.249730,1.371498,5.215132,-0.866025,0.500000,0.000000
2.488034,-2.622343,-73.343884,0.634393,-0.773011,0.000000
3.574959,-0.487113,-82.633752,0.995185,-0.098017,0.000000
-1.898699,3.073346,-72.925614,-0.471397,0.881921,0.000000
3.541690,0.745144,-71.383735,0.956940,0.290285,0.000000
-0.804287,3.523749,-83.605025,-0.290285,0.956940,0.000000
1.501590,-3.285606,-72.631117,0.471397,-0.881921,0.000000
3.225545,-5.449304,0.000000,0.000000,0.000000,-1.000000
-2.983094,2.048457,-61.593213,-0.773011,0.634393,0.000000
-2.731898,2.354540,-68.647854,-0.773011,0.634393,0.000000
-3.144640,-1.765319,-82.278302,-0.881921,-0.471397,0.000000
2.196284,2.861775,-42.586305,0.634393,0.773011,-0.000000
-2.637635,2.469400,-93.168871,-0.773011,0.634393,0.000000
-1.452759,-2.581128,0.000000,0.000000,0.000000,-1.000000
0.883163,3.499823,-59.728967,0.290285,0.956940,-0.000000
-3.617268,0.057547,-44.302910,-0.995185,0.098017,0.000000
-3.417581,-1.154278,-69.818677,-0.956940,-0.290285,0.000000
3.290267,1.492869,-56.944517,0.881921,0.471397,0.000000
0.994020,3.466195,-76.754094,0.290285,0.956940,0.000000
2.146346,-2.902758,-58.704748,0.634393,-0.773011,0.000000
-1.249190,-3.388790,-91.669974,-0.290285,-0.956940,0.000000
-3.353769,6.098174,7.543505,-0.000000,1.000000,0.000000
-1.754941,3.150187,-91.167941,-0.471397,0.881921,0.000000
-2.569134,6.098174,8.825585,-0.000000,1.000000,0.000000
3.263494,1.542957,-65.367420,0.881921,0.471397,0.000000
2.653407,2.450182,-72.328011,0.773011,0.634393,-0.000000
-0.725945,-0.930796,9.831945,0.000000,0.000000,1.000000
3.651083,5.872486,7.651634,0.866025,0.500000,0.000000
2.357019,2.729864,-66.158781,0.634393,0.773011,0.000000
1.725627,3.165855,-94.100893,0.471397,0.881921,0.000000
2.421640,-2.676831,-43.977815,0.634393,-0.773011,0.000000
-0.558411,4.598012,9.831945,0.000000,0.000000,1.000000
6.839262,-0.350397,0.407788,0.866025,-0.500000,0.000000
3.267204,1.536016,-73.635312,0.881921,0.471397,0.000000
3.605378,0.178264,-65.846660,0.995185,0.098017,0.000000
5.016545,3.507437,9.568973,0.866025,0.500000,0.000000
-4.296022,-0.611209,0.000000,0.000000,0.000000,-1.000000
1.634364,1.812932,-34.866337,0.000000,0.000000,1.000000
-4.778009,3.920593,7.464520,-0.866025,0.500000,0.000000
-0.597169,-3.313232,0.000000,0.000000,0.000000,-1.000000
6.294023,-1.294780,8.153964,0.866025,-0.500000,0.000000
3.509340,-0.851787,-41.618634,0.956940,-0.290285,0.000000
-3.386555,-6.089855,0.000000,0.000000,0.000000,-1.000000
-2.117142,-0.000368,-34.866337,-0.000000,0.000000,1.000000
3.231813,1.602229,-70.442554,0.881921,0.471397,0.000000
-1.091267,3.436695,-86.525835,-0.290285,0.956940,0.000000
3.601853,-0.214057,-42.327382,0.995185,-0.098017,0.000000
0.144026,5.943740,0.000000,0.000000,0.000000,-1.000000
-2.281375,-2.791943,-75.635371,-0.634393,-0.773011,0.000000
-3.724779,-5.744841,7.653039,-0.866025,-0.500000,0.000000
-3.238447,-1.589817,-93.829790,-0.881921,-0.471397,0.000000
0.190623,0.837591,0.000000,0.000000,0.000000,-1.000000
-1.089648,-3.437186,-93.216298,-0.290285,-0.956940,0.000000
2.606360,-2.507508,-80.117928,0.773011,-0.634393,0.000000
2.913745,-2.132959,-62.087204,0.773011,-0.634393,0.000000
3.436561,-1.091709,-48.522649,0.956940,-0.290285,0.000000
3.560579,-0.633116,-91.618681,0.995185,-0.098017,0.000000
2.555901,-0.604406,0.000000,0.000000,0.000000,-1.000000
-3.791630,4.278640,0.000000,0.000000,0.000000,-1.000000
0.313047,-3.592103,-36.732431,0.098017,-0.995185,0.000000
-0.680759,-3.555887,-84.473792,-0.098017,-0.995185,0.000000
-3.448416,-1.052628,-91.030108,-0.956940,-0.290285,0.000000
1.407705,5.088729,9.831945,0.000000,0.000000,1.000000
1.967680,-3.036476,-39.693512,0.471397,-0.881921,0.000000
-2.299463,-2.777099,-78.863221,-0.634393,-0.773011,0.000000
0.943568,-3.481499,-58.091661,0.290285,-0.956940,0.000000
-3.417939,1.153098,-86.209417,-0.956940,0.290285,0.000000
-2.177188,2.877447,-64.357415,-0.634393,0.773011,0.000000
-4.836601,3.819109,9.174406,-0.866025,0.500000,0.000000
-3.101398,5.463449,0.000000,0.000000,0.000000,-1.000000
3.155681,-1.744662,-40.055330,0.881921,-0.471397,0.000000
-0.331834,3.590253,-85.421755,-0.098017,0.995185,0.000000
-2.431173,-2.669007,-79.792163,-0.634393,-0.773011,0.000000
3.135350,-6.098174,3.894924,-0.000000,-1.000000,-0.000000
-2.949675,2.089178,-75.699131,-0.773011,0.634393,0.000000
-2.558799,-2.564267,-82.014638,-0.634393,-0.773011,0.000000
3.506579,0.860889,-47.185496,0.956940,0.290285,-0.000000
3.576132,-0.475200,-92.193096,0.995185,-0.098017,0.000000
1.442408,3.317239,-89.921295,0.471397,0.881921,0.000000
1.564423,-3.252021,-60.613414,0.471397,-0.881921,0.000000
2.791384,-0.110920,-94.767059,0.000000,0.000000,-1.000000
-3.186727,-1.686579,-91.169605,-0.881921,-0.471397,0.000000
-6.319327,-1.250952,2.479661,-0.866025,-0.500000,-0.000000
0.165616,1.556272,9.831945,0.000000,0.000000,1.000000
-1.511129,3.280507,-35.960339,-0.471397,0.881921,0.000000
-1.395075,-3.342539,-40.491381,-0.471397,-0.881921,0.000000
3.334318,-1.410456,-74.458380,0.881921,-0.471397,0.000000
-0.781013,3.530809,-58.207029,-0.290285,0.956940,0.000000
-3.385453,-1.260190,-57.413027,-0.956940,-0.290285,0.000000
-6.061746,1.697095,4.192829,-0.866025,0.500000,0.000000
3.117289,-1.816488,-44.685016,0.881921,-0.471397,0.000000
-0.236381,3.383451,0.000000,0.000000,0.000000,-1.000000
2.248215,2.819157,-45.417115,0.634393,0.773011,-0.000000
0.914560,-3.490299,-59.750757,0.290285,-0.956940,0.000000
3.504389,-0.868109,-39.748245,0.956940,-0.290285,0.000000
1.360972,3.354881,-83.704852,0.290285,0.956940,0.000000
-5.875175,-2.020245,1.195864,-0.866025,-0.500000,-0.000000
-1.577406,3.245081,-75.991619,-0.471397,0.881921,0.000000
2.879535,6.098174,8.096847,-0.000000,1.000000,0.000000
-1.834834,3.107483,-52.059351,-0.471397,0.881921,0.000000
-1.670797,-3.195163,-94.120158,-0.471397,-0.881921,0.000000
2.594412,2.522067,-35.495415,0.773011,0.634393,-0.000000
2.133592,0.997022,-94.767059,-0.000000,0.000000,-1.000000
6.859562,-0.315237,2.310270,0.866025,-0.500000,0.000000
0.574568,-3.566346,-76.366670,0.098017,-0.995185,0.000000
3.460952,1.011303,-70.468435,0.956940,0.290285,0.000000
2.346314,-6.098174,6.340703,-0.000000,-1.000000,-0.000000
-1.468221,3.303442,-47.034369,-0.471397,0.881921,0.000000
-1.429512,3.324132,-75.853330,-0.471397,0.881921,0.000000
3.564666,-0.591617,-35.643701,0.995185,-0.098017,0.000000
0.282598,3.595102,-40.553464,0.098017,0.995185,-0.000000
-2.488682,2.621811,-55.221609,-0.634393,0.773011,0.000000
-0.700112,-3.553980,-45.646014,-0.098017,-0.995185,0.000000
-0.242656,-6.098174,7.633099,-0.000000,-1.000000,-0.000000
1.069598,3.443268,-82.010226,0.290285,0.956940,0.000000
-3.300531,-2.912722,0.000000,0.000000,0.000000,-1.000000
0.715468,-0.586651,-34.866337,0.000000,-0.000000,1.000000
3.059149,1.925260,-64.207284,0.881921,0.471397,-0.000000
3.559636,0.642687,-63.125647,0.995185,0.098017,-0.000000
-1.821800,3.114450,-59.462818,-0.471397,0.881921,0.000000
1.822486,1.735378,-34.866337,0.000000,0.000000,1.000000
-2.595298,2.520988,-56.168768,-0.773011,0.634393,0.000000
-3.378618,6.098174,5.372824,-0.000000,1.000000,0.000000
-1.508347,3.281994,-36.844707,-0.471397,0.881921,0.000000
4.310385,4.730542,7.182530,0.866025,0.500000,0.000000
3.486831,-0.925990,-43.164790,0.956940,-0.290285,0.000000
-2.994100,2.035047,-82.373844,-0.773011,0.634393,0.000000
6.812731,0.396350,0.736601,0.866025,0.500000,0.000000
0.167441,3.606444,-87.952682,0.098017,0.995185,0.000000
3.615600,0.074484,-87.026145,0.995185,0.098017,0.000000
3.397044,1.221979,-54.367178,0.956940,0.290285,-0.000000
6.575638,-0.807008,8.608334,0.866025,-0.500000,0.000000
1.191824,-2.969531,0.000000,0.000000,0.000000,-1.000000
3.566306,0.574965,-83.069767,0.995185,0.098017,-0.000000
4.679774,4.090740,1.772457,0.866025,0.500000,0.000000
6.732671,0.535019,4.272256,0.866025,0.500000,0.000000
-2.410560,2.685924,-40.913986,-0.634393,0.773011,0.000000
0.256699,-3.597653,-65.469237,0.098017,-0.995185,0.000000
-1.532679,6.098174,7.641662,-0.000000,1.000000,0.000000
1.481299,3.296452,-65.579362,0.471397,0.881921,-0.000000
1.261303,3.385115,-86.985936,0.290285,0.956940,0.000000
-0.461233,-6.098174,5.711491,-0.000000,-1.000000,-0.000000
2.456997,-2.647814,-70.554890,0.634393,-0.773011,0.000000
5.617302,2.466894,0.642982,0.866025,0.500000,0.000000
3.610922,-0.121972,-47.029075,0.995185,-0.098017,0.000000
-6.156363,1.533214,2.104420,-0.866025,0.500000,0.000000
-0.476209,3.576033,-47.141266,-0.098017,0.995185,0.000000
3.565697,-0.450601,-94.767059,0.000000,0.000000,-1.000000
-6.138132,-1.564792,7.270613,-0.866025,-0.500000,-0.000000
0.628828,3.561001,-79.703450,0.098017,0.995185,0.000000
-1.028337,3.455784,-42.873188,-0.290285,0.956940,0.000000
0.634059,3.560486,-70.956372,0.098017,0.995185,0.000000
-3.174183,1.710047,-85.092581,-0.881921,0.471397,0.000000
-0.157157,-3.607457,-75.405919,-0.098017,-0.995185,0.000000
-1.702518,6.098174,4.960277,-0.000000,1.000000,0.000000
-1.248870,-3.388887,-86.256042,-0.290285,-0.956940,0.000000
1.445648,2.540428,0.000000,0.000000,0.000000,-1.000000
0.623239,-3.561552,-43.296626,0.098017,-0.995185,0.000000
-2.910374,2.137066,-80.891763,-0.773011,0.634393,0.000000
6.366756,-0.408679,0.000000,0.000000,0.000000,-1.000000
3.477656,-0.956237,-89.460765,0.956940,-0.290285,0.000000
-0.542639,-3.569490,-86.375264,-0.098017,-0.995185,0.000000
3.540453,6.064103,6.473091,0.866025,0.500000,0.000000
2.842586,-2.219666,-50.415393,0.773011,-0.634393,0.000000
-5.752375,2.232941,3.434909,-0.866025,0.500000,0.000000
-0.379642,3.585544,-71.901852,-0.098017,0.995185,0.000000
1.319826,6.098174,6.130663,-0.000000,1.000000,0.000000
-2.482154,-0.339280,0.000000,0.000000,0.000000,-1.000000
-2.184073,-2.871796,-80.899032,-0.634393,-0.773011,0.000000
1.052683,3.448399,-41.364674,0.290285,0.956940,-0.000000
0.311688,2.278576,-94.767059,-0.000000,0.000000,-1.000000
3.435194,-1.096216,-67.938613,0.956940,-0.290285,0.000000
-3.604430,-0.187894,-66.128998,-0.995185,-0.098017,0.000000
3.534361,-0.769304,-58.865188,0.956940,-0.290285,0.000000
4.031107,2.628268,0.000000,0.000000,0.000000,-1.000000
2.545499,0.651206,-94.767059,-0.000000,0.000000,-1.000000
1.172961,3.801498,0.000000,0.000000,0.000000,-1.000000
3.569665,0.540863,-69.051156,0.995185,0.098017,-0.000000
1.954332,3.043610,-66.160717,0.471397,0.881921,0.000000
1.902625,6.098174,2.839248,-0.000000,1.000000,0.000000
1.023282,3.457318,-68.707902,0.290285,0.956940,0.000000
-0.502400,-3.573453,-77.340240,-0.098017,-0.995185,0.000000
3.953199,5.349206,0.114610,0.866025,0.500000,0.000000
-3.425083,1.129548,-64.283188,-0.956940,0.290285,0.000000
-0.543518,-3.569404,-76.154020,-0.098017,-0.995185,0.000000
5.100073,-3.362761,5.745845,0.866025,-0.500000,0.000000
-0.621264,-3.561746,-57.823617,-0.098017,-0.995185,0.000000
2.039479,-2.990462,-72.162315,0.634393,-0.773011,0.000000
-1.314543,3.368965,-60.871592,-0.290285,0.956940,0.000000
-2.503861,2.609354,-75.816973,-0.634393,0.773011,0.000000
-1.144716,-2.938994,-94.767059,0.000000,-0.000000,-1.000000
-2.875631,-2.179401,-49.039341,-0.773011,-0.634393,0.000000
-3.561249,-0.626311,-71.512601,-0.995185,-0.098017,0.000000
-3.231913,-1.602041,-94.654356,-0.881921,-0.471397,0.000000
-0.236034,2.035678,0.000000,0.000000,0.000000,-1.000000
-0.139124,-3.609233,-42.453558,-0.098017,-0.995185,0.000000
3.598990,-0.243120,-69.420748,0.995185,-0.098017,0.000000
-2.845621,-2.215968,-87.846276,-0.773011,-0.634393,0.000000
-0.192174,1.653727,-34.866337,0.000000,0.000000,1.000000
3.503892,0.869748,-62.278616,0.956940,0.290285,0.000000
2.903009,2.146041,-52.138084,0.773011,0.634393,0.000000
3.586198,0.373001,-36.767671,0.995185,0.098017,-0.000000
-3.538201,-0.756648,-65.141250,-0.956940,-0.290285,0.000000
-1.978890,3.030484,-70.814709,-0.471397,0.881921,0.000000
-2.296153,2.779815,-62.617538,-0.634393,0.773011,0.000000
-2.409542,-2.686759,-91.738803,-0.634393,-0.773011,0.000000
5.259648,3.086370,7.631897,0.866025,0.500000,0.000000
2.818384,-2.249157,-49.820333,0.773011,-0.634393,0.000000
3.369933,1.311351,-66.637238,0.956940,0.290285,-0.000000
0.181128,-3.605096,-46.380037,0.098017,-0.995185,0.000000
0.002989,3.622641,-57.639641,0.098017,0.995185,-0.000000
3.585839,-0.376649,-88.806691,0.995185,-0.098017,0.000000
1.768928,0.607556,0.000000,0.000000,0.000000,-1.000000
4.803792,-3.875935,2.325369,0.866025,-0.500000,0.000000
3.404430,1.197631,-65.533120,0.956940,0.290285,-0.000000
-3.759705,5.684347,9.704321,-0.866025,0.500000,0.000000
-3.591135,0.322872,-77.542452,-0.995185,0.098017,0.000000
-2.391062,-2.701925,-67.507483,-0.634393,-0.773011,0.000000
6.980313,0.106091,6.713558,0.866025,0.500000,0.000000
-3.357102,1.353649,-54.429126,-0.956940,0.290285,0.000000
3.082379,1.881800,-79.603193,0.881921,0.471397,-0.000000
2.131513,2.914932,-57.720549,0.634393,0.773011,-0.000000
6.830304,-0.365915,4.514413,0.866025,-0.500000,0.000000
-2.952737,2.085447,-80.444851,-0.773011,0.634393,0.000000
6.499563,0.938773,3.969121,0.866025,0.500000,0.000000
3.060100,1.923481,-64.451554,0.881921,0.471397,-0.000000
-2.819640,1.541006,0.000000,0.000000,0.000000,-1.000000
-2.984767,-2.046418,-83.887981,-0.773011,-0.634393,0.000000
-1.489060,-1.999087,9.831945,0.000000,0.000000,1.000000
-1.452502,-0.309221,-34.866337,-0.000000,0.000000,1.000000
0.255062,-1.580428,-34.866337,0.000000,-0.000000,1.000000
4.924348,-3.667126,4.282834,0.866025,-0.500000,0.000000
-4.382727,4.605241,6.544506,-0.866025,0.500000,0.000000
2.879803,2.174317,-77.119279,0.773011,0.634393,0.000000
3.307908,1.459866,-79.075758,0.881921,0.471397,0.000000
-3.735593,-5.726110,2.574425,-0.866025,-0.500000,0.000000
-1.151110,-3.418542,-56.751935,-0.290285,-0.956940,0.000000
3.593320,-0.300695,-90.705032,0.995185,-0.098017,0.000000
3.572788,0.509158,-78.645912,0.995185,0.098017,0.000000
-3.273114,-6.098174,5.216613,-0.000000,-1.000000,-0.000000
4.940950,3.638371,4.328706,0.866025,0.500000,0.000000
4.174326,4.966202,5.880181,0.866025,0.500000,0.000000
-1.668504,-3.196388,-73.028717,-0.471397,-0.881921,0.000000
-1.541098,6.098174,6.147332,-0.000000,1.000000,0.000000
-3.414399,-2.475592,0.000000,0.000000,0.000000,-1.000000
-2.913794,-2.132899,-86.455336,-0.773011,-0.634393,0.000000
-3.580828,0.427525,-46.817332,-0.995185,0.098017,0.000000
-1.780374,6.098174,2.174104,-0.000000,1.000000,0.000000
-2.827195,-6.098174,4.643751,-0.000000,-1.000000,-0.000000
-3.996645,-5.273955,2.009048,-0.866025,-0.500000,0.000000
3.141866,1.770508,-56.332927,0.881921,0.471397,-0.000000
6.567433,0.821220,6.900825,0.866025,0.500000,0.000000
-1.104915,-3.432555,-62.953094,-0.290285,-0.956940,0.000000
6.532164,-0.882308,7.993148,0.866025,-0.500000,0.000000
-0.230371,3.600246,-90.059647,-0.098017,0.995185,0.000000
-3.392374,1.237373,-90.424655,-0.956940,0.290285,0.000000
-2.104153,2.527180,9.831945,0.000000,0.000000,1.000000
-3.038845,-1.963247,-61.801450,-0.881921,-0.471397,0.000000
4.557488,4.302546,4.016449,0.866025,0.500000,0.000000
-0.564501,3.567337,-40.621876,-0.098017,0.995185,0.000000
3.611308,0.118052,-92.800382,0.995185,0.098017,0.000000
-2.320560,2.759785,-41.157363,-0.634393,0.773011,0.000000
1.348358,-3.358707,-92.799902,0.290285,-0.956940,0.000000
5.609854,-2.479795,7.644418,0.866025,-0.500000,0.000000
-2.206706,-2.853222,-35.173970,-0.634393,-0.773011,0.000000
4.035579,-5.206520,3.457134,0.866025,-0.500000,0.000000
-2.193590,-2.863986,-48.051921,-0.634393,-0.773011,0.000000
4.844501,-3.805425,1.204991,0.866025,-0.500000,0.000000
-4.967658,3.592111,5.181983,-0.866025,0.500000,0.000000
3.481805,-0.942560,-85.197663,0.956940,-0.290285,0.000000
-1.028675,1.392738,9.831945,0.000000,0.000000,1.000000
-5.759996,-2.219742,1.666388,-0.866025,-0.500000,-0.000000
3.594591,0.287787,-66.292331,0.995185,0.098017,0.000000
3.523905,-0.803774,-77.238360,0.956940,-0.290285,0.000000
0.725091,6.098174,3.264915,-0.000000,1.000000,0.000000
-2.624246,2.485714,-38.435397,-0.773011,0.634393,0.000000
-2.577995,-2.542071,-40.268668,-0.773011,-0.634393,0.000000
-2.100420,2.940449,-73.341845,-0.634393,0.773011,0.000000
2.478754,2.629959,-77.355632,0.634393,0.773011,0.000000
-3.595336,-0.280228,-41.227858,-0.995185,-0.098017,0.000000
-6.873169,0.291670,3.088912,-0.866025,0.500000,0.000000
-3.557753,0.661810,-81.124152,-0.995185,0.098017,0.000000
-1.217887,3.398285,-42.574242,-0.290285,0.956940,0.000000
6.626048,0.719695,3.368976,0.866025,0.500000,0.000000
2.920325,-2.117693,0.000000,0.000000,0.000000,-1.000000
0.715693,-6.098174,9.518209,-0.000000,-1.000000,-0.000000
-0.007035,-3.622243,-81.387748,-0.098017,-0.995185,0.000000
-3.527085,-6.087257,6.396736,-0.866025,-0.500000,0.000000
0.798285,3.525570,-41.861973,0.290285,0.956940,-0.000000
-3.190693,-0.230891,9.831945,0.000000,0.000000,1.000000
-2.996690,-2.031890,-44.737685,-0.773011,-0.634393,0.000000
3.538885,-0.754392,-86.290391,0.956940,-0.290285,0.000000
2.563370,2.559893,-70.782574,0.773011,0.634393,-0.000000
2.197639,2.860664,-85.636512,0.634393,0.773011,0.000000
0.703243,3.553672,-54.325695,0.098017,0.995185,0.000000
-3.846205,5.534525,7.395649,-0.866025,0.500000,0.000000
-3.566993,-0.567991,-81.847697,-0.995185,-0.098017,0.000000
-1.451101,-3.312592,-66.978313,-0.471397,-0.881921,0.000000
2.034758,-2.994336,-39.064788,0.634393,-0.773011,0.000000
-1.840990,3.104193,-92.242225,-0.471397,0.881921,0.000000
0.184231,3.227936,-34.866337,0.000000,0.000000,1.000000
-3.565660,0.581524,-48.000408,-0.995185,0.098017,0.000000
0.121850,-3.610934,-43.147770,0.098017,-0.995185,0.000000
3.776379,0.366995,0.000000,0.000000,0.000000,-1.000000
-6.283883,1.312343,9.304702,-0.866025,0.500000,0.000000
6.379901,1.146035,8.168371,0.866025,0.500000,0.000000
1.595248,3.235544,-49.632360,0.471397,0.881921,-0.000000
3.411793,1.173359,-59.819241,0.956940,0.290285,-0.000000
3.616969,-0.060583,-62.793908,0.995185,-0.098017,0.000000
-0.990262,-3.467335,-82.585700,-0.290285,-0.956940,0.000000
0.410504,-3.582504,-67.804531,0.098017,-0.995185,0.000000
3.296090,1.481975,-53.750703,0.881921,0.471397,0.000000
6.690827,0.607495,4.825506,0.866025,0.500000,0.000000
-0.304113,6.098174,8.305608,-0.000000,1.000000,0.000000
-3.005186,-2.021538,-46.881622,-0.773011,-0.634393,0.000000
-0.302866,-3.593106,-79.295818,-0.098017,-0.995185,0.000000
-2.814665,-2.253688,-57.683349,-0.773011,-0.634393,0.000000
3.778790,-5.651290,0.045604,0.866025,-0.500000,0.000000
-3.552117,0.710771,-76.791394,-0.956940,0.290285,0.000000
2.957014,-2.080236,-61.825806,0.773011,-0.634393,0.000000
-2.614754,-2.497280,-89.558252,-0.773011,-0.634393,0.000000
-3.025678,-1.987881,-42.242156,-0.881921,-0.471397,0.000000
6.064148,0.406658,0.000000,0.000000,0.000000,-1.000000
-3.846976,-3.033084,9.831945,0.000000,0.000000,1.000000
1.499201,3.286883,-69.819565,0.471397,0.881921,-0.000000
1.633061,-3.215333,-58.251909,0.471397,-0.881921,0.000000
-3.873693,-5.486915,7.705289,-0.866025,-0.500000,0.000000
-5.367012,-2.900409,3.786025,-0.866025,-0.500000,-0.000000
-2.635522,2.471975,-72.503031,-0.773011,0.634393,0.000000
-0.781912,3.530537,-43.109930,-0.290285,0.956940,0.000000
1.646643,1.358196,0.000000,0.000000,0.000000,-1.000000
-3.552656,0.708995,-83.241656,-0.956940,0.290285,0.000000
-2.255210,2.813416,-77.409207,-0.634393,0.773011,0.000000
-0.998883,-3.464719,-73.677846,-0.290285,-0.956940,0.000000
-3.916108,-1.437760,0.000000,0.000000,0.000000,-1.000000
3.612060,0.110421,-60.744212,0.995185,0.098017,0.000000
-1.158776,-2.400554,-94.767059,0.000000,-0.000000,-1.000000
2.129487,2.916595,-50.567601,0.634393,0.773011,-0.000000
-1.146681,3.419885,-39.306574,-0.290285,0.956940,0.000000
-1.760213,-3.147369,-71.824757,-0.471397,-0.881921,0.000000
-4.064605,5.156246,5.184958,-0.866025,0.500000,0.000000
0.919066,3.488931,-63.354385,0.290285,0.956940,-0.000000
2.376291,-2.714048,-61.462252,0.634393,-0.773011,0.000000
3.275138,1.521173,-53.027329,0.881921,0.471397,0.000000
3.309747,1.456424,-82.616662,0.881921,0.471397,0.000000
3.352162,1.369936,-75.034858,0.956940,0.290285,-0.000000
1.396068,4.069334,0.000000,0.000000,0.000000,-1.000000
1.351084,3.357880,-87.740218,0.290285,0.956940,0.000000
-2.995828,-2.032940,-86.156100,-0.773011,-0.634393,0.000000
-1.929114,3.057089,-63.861218,-0.471397,0.881921,0.000000
-3.362302,-0.654913,-34.866337,-0.000000,0.000000,1.000000
-2.883268,-0.612581,-34.866337,-0.000000,0.000000,1.000000
-4.117493,2.546217,0.000000,0.000000,0.000000,-1.000000
4.066529,5.152912,2.318365,0.866025,0.500000,0.000000
-0.369124,3.586580,-49.041624,-0.098017,0.995185,0.000000
2.925183,2.119022,-42.287881,0.773011,0.634393,-0.000000
-4.083205,-5.124029,3.499311,-0.866025,-0.500000,0.000000
-3.609846,-0.132902,-65.815400,-0.995185,-0.098017,0.000000
2.344639,-2.740024,-81.969244,0.634393,-0.773011,0.000000
3.892739,-5.453926,3.630055,0.866025,-0.500000,0.000000
-0.381443,3.585367,-56.770779,-0.098017,0.995185,0.000000
-4.013072,-5.245503,7.401256,-0.866025,-0.500000,0.000000
-2.964515,-6.098174,2.395060,-0.000000,-1.000000,-0.000000
3.163603,1.729841,-60.746188,0.881921,0.471397,-0.000000
3.569111,-0.546489,-78.837418,0.995185,-0.098017,0.000000
4.060688,-5.163030,2.036089,0.866025,-0.500000,0.000000
0.059456,-1.220784,0.000000,0.000000,0.000000,-1.000000
2.036537,-6.098174,3.647476,-0.000000,-1.000000,-0.000000
-1.196134,-3.404884,-54.306555,-0.290285,-0.956940,0.000000
0.414832,1.246227,-94.767059,-0.000000,0.000000,-1.000000
-3.402154,-1.205135,-87.049898,-0.956940,-0.290285,0.000000
-3.541602,-6.062112,8.072586,-0.866025,-0.500000,0.000000
-5.308107,-3.002437,6.344188,-0.866025,-0.500000,0.000000
-3.556059,-0.679012,-47.779772,-0.995185,-0.098017,0.000000
-3.065962,-6.098174,0.424398,-0.000000,-1.000000,-0.000000
0.511835,3.572524,-44.504064,0.098017,0.995185,-0.000000
-1.893800,-2.328719,0.000000,0.000000,0.000000,-1.000000
-4.578075,-2.546462,9.831945,0.000000,0.000000,1.000000
7.021087,-0.035468,5.903397,0.866025,-0.500000,0.000000
-4.626671,4.182719,5.792964,-0.866025,0.500000,0.000000
-2.729043,2.358019,-77.671886,-0.773011,0.634393,0.000000
1.561565,3.253549,-36.585128,0.471397,0.881921,-0.000000
6.253386,1.365165,2.692573,0.866025,0.500000,0.000000
-2.861496,-2.196625,-79.802462,-0.773011,-0.634393,0.000000
2.063158,-2.971029,-38.821873,0.634393,-0.773011,0.000000
3.135390,1.782623,-93.472481,0.881921,0.471397,0.000000
2.632362,-4.857733,9.831945,-0.000000,0.000000,1.000000
-3.908475,-3.054461,0.000000,0.000000,0.000000,-1.000000
-2.120509,6.098174,5.156058,-0.000000,1.000000,0.000000
3.464399,-0.999940,-43.349846,0.956940,-0.290285,0.000000
6.270192,1.336056,3.003590,0.866025,0.500000,0.000000
-3.085218,-1.876489,-35.163300,-0.881921,-0.471397,0.000000
5.105407,3.353523,9.813511,0.866025,0.500000,0.000000
-1.739863,-3.158246,-56.890242,-0.471397,-0.881921,0.000000
-0.487471,3.574924,-82.702905,-0.098017,0.995185,0.000000
-1.858513,6.098174,2.867206,-0.000000,1.000000,0.000000
3.271571,-1.527848,-87.451277,0.881921,-0.471397,0.000000
1.103900,-6.098174,5.049311,-0.000000,-1.000000,-0.000000
3.513962,0.836551,-76.457519,0.956940,0.290285,0.000000
-3.474992,0.965019,-71.400609,-0.956940,0.290285,0.000000
2.652915,-2.450781,-69.469259,0.773011,-0.634393,0.000000
2.255074,0.498779,0.000000,0.000000,0.000000,-1.000000
2.906164,-2.142196,-42.479228,0.773011,-0.634393,0.000000
-1.070796,2.380537,-94.767059,-0.000000,-0.000000,-1.000000
-2.971922,1.642381,-94.767059,-0.000000,-0.000000,-1.000000
3.250013,1.568180,-70.457902,0.881921,0.471397,0.000000
1.938402,-3.052125,-72.930646,0.471397,-0.881921,0.000000
4.121050,5.058479,0.453242,0.866025,0.500000,0.000000
2.236071,2.829123,-89.346915,0.634393,0.773011,0.000000
2.065944,2.968743,-91.021022,0.634393,0.773011,0.000000
-3.585587,-0.379211,-38.460786,-0.995185,-0.098017,0.000000
-3.162503,1.731899,-49.053786,-0.881921,0.471397,0.000000
-3.557521,-0.664167,-56.494658,-0.995185,-0.098017,0.000000
0.175396,-6.098174,6.960929,-0.000000,-1.000000,-0.000000
5.232980,-1.808299,9.831945,0.000000,0.000000,1.000000
-3.236594,-1.593284,-69.123216,-0.881921,-0.471397,0.000000
-1.797660,3.127353,-60.295446,-0.471397,0.881921,0.000000
-3.350091,-1.376763,-70.902973,-0.956940,-0.290285,0.000000
1.400152,3.339825,-41.068698,0.471397,0.881921,-0.000000
2.038519,2.991250,-67.975535,0.634393,0.773011,-0.000000
3.612149,-0.109519,-67.480385,0.995185,-0.098017,0.000000
2.015472,-3.010164,-35.909402,0.634393,-0.773011,0.000000
3.007149,2.019145,-71.139706,0.773011,0.634393,0.000000
6.680690,-0.625053,1.188288,0.866025,-0.500000,0.000000
0.251715,3.598144,-74.000610,0.098017,0.995185,0.000000
-0.001239,-3.622814,-73.209707,-0.098017,-0.995185,0.000000
3.002014,-2.025403,-88.889876,0.773011,-0.634393,0.000000
-1.300952,3.373088,-72.268908,-0.290285,0.956940,0.000000
3.588092,0.353773,-90.872608,0.995185,0.098017,0.000000
-5.752849,2.232121,9.529374,-0.866025,0.500000,0.000000
-2.443548,-2.089563,0.000000,0.000000,0.000000,-1.000000
-3.602615,0.206321,-52.053265,-0.995185,0.098017,0.000000
2.470940,2.636372,-73.193741,0.634393,0.773011,0.000000
-0.751705,3.539700,-63.702329,-0.290285,0.956940,0.000000
1.811753,-3.119820,-41.284952,0.471397,-0.881921,0.000000
2.549893,2.729550,9.831945,-0.000000,0.000000,1.000000
0.577476,-2.109715,-34.866337,0.000000,-0.000000,1.000000
5.360801,2.640436,9.831945,0.000000,0.000000,1.000000
-3.513261,0.456899,0.000000,0.000000,0.000000,-1.000000
-3.324354,1.156579,0.000000,0.000000,0.000000,-1.000000
2.872192,-2.183592,-59.899125,0.773011,-0.634393,0.000000
-0.776005,-3.532329,-83.137784,-0.290285,-0.956940,0.000000
-5.965532,-1.863743,2.882620,-0.866025,-0.500000,-0.000000
-1.295909,-3.374618,-42.794753,-0.290285,-0.956940,0.000000
3.268209,-1.534137,-52.795348,0.881921,-0.471397,0.000000
3.437675,1.088035,-74.048704,0.956940,0.290285,0.000000
2.218721,-2.690825,-94.767059,0.000000,0.000000,-1.000000
0.808297,3.522533,-36.535499,0.290285,0.956940,-0.000000
-0.742456,3.542506,-91.286489,-0.290285,0.956940,0.000000
2.440530,2.661328,-75.050256,0.634393,0.773011,0.000000
3.323484,-1.430725,-81.945680,0.881921,-0.471397,0.000000
-3.059378,-1.924832,-86.650636,-0.881921,-0.471397,0.000000
0.048338,-3.618175,-51.638180,0.098017,-0.995185,0.000000
-1.862754,-3.092559,-69.158831,-0.471397,-0.881921,0.000000
-3.372317,-1.303494,-72.842349,-0.956940,-0.290285,0.000000
-1.199340,3.403911,-61.359203,-0.290285,0.956940,0.000000
-3.528016,-0.790221,-75.931222,-0.956940,-0.290285,0.000000
1.103215,-3.433071,-88.035963,0.290285,-0.956940,0.000000
-4.285511,4.773624,8.951894,-0.866025,0.500000,0.000000
-2.354655,-5.670046,0.000000,0.000000,0.000000,-1.000000
1.287893,-3.185387,-34.866337,0.000000,-0.000000,1.000000
1.035800,3.453521,-55.346814,0.290285,0.956940,-0.000000
-6.265612,-1.343990,6.858982,-0.866025,-0.500000,-0.000000
2.333887,2.748848,-87.403251,0.634393,0.773011,0.000000
3.314133,-1.448219,-38.970094,0.881921,-0.471397,0.000000
-2.347320,1.266666,9.831945,0.000000,0.000000,1.000000
-4.304956,3.738928,9.831945,0.000000,0.000000,1.000000
-0.440442,6.098174,3.903916,-0.000000,1.000000,0.000000
-3.455701,1.028612,-52.634108,-0.956940,0.290285,0.000000
-3.525069,-0.799937,-81.651987,-0.956940,-0.290285,0.000000
-0.103271,3.612764,-56.376308,-0.098017,0.995185,0.000000
-3.581328,-0.422451,-48.437766,-0.995185,-0.098017,0.000000
1.594572,-3.235906,-37.860881,0.471397,-0.881921,0.000000
-3.519614,0.817918,-66.673694,-0.956940,0.290285,0.000000
-3.349473,-1.378799,-74.084375,-0.956940,-0.290285,0.000000
-1.046416,-3.450300,-86.721792,-0.290285,-0.956940,0.000000
-1.940537,2.807109,9.831945,0.000000,0.000000,1.000000
3.407010,-5.829032,9.831945,-0.000000,0.000000,1.000000
0.379565,2.717858,0.000000,0.000000,0.000000,-1.000000
-5.270611,3.067382,1.852687,-0.866025,0.500000,0.000000
-3.280350,-3.712473,9.831945,0.000000,0.000000,1.000000
3.249943,1.568311,-45.666155,0.881921,0.471397,-0.000000
-2.077192,6.098174,4.518522,-0.000000,1.000000,0.000000
-5.036872,-3.162167,0.000000,0.000000,0.000000,-1.000000
3.074210,1.897083,-72.722498,0.881921,0.471397,-0.000000
4.051237,-1.904918,9.831945,0.000000,0.000000,1.000000
-1.849652,-3.099562,-53.669049,-0.471397,-0.881921,0.000000
-3.260644,-1.548290,-44.105081,-0.881921,-0.471397,0.000000
-3.398720,1.216453,-43.566947,-0.956940,0.290285,0.000000
3.108939,1.832110,-45.009167,0.881921,0.471397,-0.000000
3.285252,1.502251,-52.477497,0.881921,0.471397,0.000000
-1.761416,3.146726,-40.318233,-0.471397,0.881921,0.000000
-1.163200,-3.414874,-68.954464,-0.290285,-0.956940,0.000000
-2.072494,2.963367,-75.658003,-0.634393,0.773011,0.000000
-4.567229,-4.285675,4.248212,-0.866025,-0.500000,0.000000
1.561918,-3.322062,0.000000,0.000000,0.000000,-1.000000
-3.453267,-1.036636,-83.510966,-0.956940,-0.290285,0.000000
-3.883891,-5.469251,6.994387,-0.866025,-0.500000,0.000000
0.233995,3.599889,-81.536939,0.098017,0.995185,0.000000
-1.809037,3.121272,-73.427662,-0.471397,0.881921,0.000000
-4.495333,4.410203,3.660834,-0.866025,0.500000,0.000000
3.427712,-1.120879,-60.798736,0.956940,-0.290285,0.000000
-3.596893,0.264413,-87.121837,-0.995185,0.098017,0.000000
4.576184,-4.270164,6.463621,0.866025,-0.500000,0.000000
2.928534,-0.952382,0.000000,0.000000,0.000000,-1.000000
2.096658,-2.943537,-61.247411,0.634393,-0.773011,0.000000
-3.433081,-1.103180,-45.376146,-0.956940,-0.290285,0.000000
-2.357243,-2.729680,-52.510248,-0.634393,-0.773011,0.000000
2.188725,2.867979,-74.480566,0.634393,0.773011,-0.000000
-1.273847,3.381310,-74.015099,-0.290285,0.956940,0.000000
6.668415,0.646314,2.144447,0.866025,0.500000,0.000000
-1.472387,3.301215,-45.613247,-0.471397,0.881921,0.000000
3.183445,1.692719,-51.235115,0.881921,0.471397,-0.000000
6.673469,0.637560,2.389000,0.866025,0.500000,0.000000
0.643462,3.559560,-83.732666,0.098017,0.995185,0.000000
3.020541,1.997490,-67.944132,0.881921,0.471397,-0.000000
-6.448999,0.131916,0.000000,0.000000,0.000000,-1.000000
1.866697,3.090452,-71.066660,0.471397,0.881921,0.000000
-3.103025,-1.843174,-65.393186,-0.881921,-0.471397,0.000000
-4.347326,2.427428,0.000000,0.000000,0.000000,-1.000000
-3.082592,-1.881402,-39.486926,-0.881921,-0.471397,0.000000
-2.833913,-2.230235,-91.022377,-0.773011,-0.634393,0.000000
1.613993,-3.225525,-65.280693,0.471397,-0.881921,0.000000
3.466027,0.994573,-67.080094,0.956940,0.290285,0.000000
1.634921,3.214339,-86.147434,0.471397,0.881921,0.000000
-1.051988,3.448610,-84.865064,-0.290285,0.956940,0.000000
5.860901,2.044970,6.458880,0.866025,0.500000,0.000000
-3.109798,1.830503,-37.950141,-0.881921,0.471397,0.000000
-5.081855,-3.394316,9.161792,-0.866025,-0.500000,0.000000
1.170734,5.935574,9.831945,0.000000,0.000000,1.000000
5.982457,1.834428,8.619720,0.866025,0.500000,0.000000
2.576817,2.543506,-74.390645,0.773011,0.634393,-0.000000
3.021418,-1.995850,-58.470378,0.881921,-0.471397,0.000000
-3.864694,-5.502502,6.945277,-0.866025,-0.500000,0.000000
3.548332,-0.723250,-61.630184,0.956940,-0.290285,0.000000
6.086827,0.393145,9.831945,0.000000,0.000000,1.000000
1.878099,3.084358,-52.984986,0.471397,0.881921,0.000000
3.747859,5.704865,1.066480,0.866025,0.500000,0.000000
3.482796,0.939292,-81.154820,0.956940,0.290285,0.000000
1.498433,3.287293,-35.954211,0.471397,0.881921,-0.000000
-0.231376,6.098174,2.164334,-0.000000,1.000000,0.000000
2.555055,2.567340,-77.527727,0.634393,0.773011,0.000000
3.143712,-1.767055,-35.129455,0.881921,-0.471397,0.000000
-5.521469,1.234631,9.831945,0.000000,0.000000,1.000000
0.452211,-4.059589,9.831945,-0.000000,0.000000,1.000000
-3.419706,1.147273,-57.232515,-0.956940,0.290285,0.000000
-0.722048,0.622052,-94.767059,-0.000000,-0.000000,-1.000000
3.546147,0.730452,-87.237817,0.956940,0.290285,0.000000
3.857652,-5.514698,2.684521,0.866025,-0.500000,0.000000
3.343299,1.393653,-35.061104,0.881921,0.471397,-0.000000
2.069054,2.966190,-42.235986,0.634393,0.773011,-0.000000
1.647712,3.207502,-75.068693,0.471397,0.881921,0.000000
3.416520,-1.157776,-52.575532,0.956940,-0.290285,0.000000
-3.593555,0.298302,-55.881884,-0.995185,0.098017,0.000000
1.328067,-3.364862,-48.553910,0.290285,-0.956940,0.000000
2.991480,2.038238,-49.693570,0.773011,0.634393,0.000000
1.080587,3.439935,-57.981527,0.290285,0.956940,-0.000000
-3.568881,0.548827,-46.151872,-0.995185,0.098017,0.000000
2.267383,-2.803426,-60.829080,0.634393,-0.773011,0.000000
3.075820,-6.098174,2.540721,-0.000000,-1.000000,-0.000000
0.254364,-5.212165,9.831945,-0.000000,0.000000,1.000000
-3.422798,-1.137080,-62.705205,-0.956940,-0.290285,0.000000
0.950068,6.098174,1.336807,-0.000000,1.000000,0.000000
0.821646,6.098174,3.118937,-0.000000,1.000000,0.000000
0.717337,-3.550125,-66.880708,0.290285,-0.956940,0.000000
-2.538180,-2.581189,-74.551529,-0.634393,-0.773011,0.000000
-1.414221,-3.332306,-67.059775,-0.471397,-0.881921,0.000000
-3.374445,-1.296479,-53.027207,-0.956940,-0.290285,0.000000
1.670506,6.098174,7.524548,-0.000000,1.000000,0.000000
1.426927,-3.325514,-46.771922,0.471397,-0.881921,0.000000
-0.656772,1.546624,-34.866337,0.000000,0.000000,1.000000
2.639891,2.466652,-40.675086,0.773011,0.634393,-0.000000
-5.466986,-2.727249,0.947529,-0.866025,-0.500000,-0.000000
3.416408,1.158146,-85.004087,0.956940,0.290285,0.000000
0.351788,-3.588287,-54.695908,0.098017,-0.995185,0.000000
4.056533,-5.170226,8.292874,0.866025,-0.500000,0.000000
3.366713,1.321966,-70.599278,0.956940,0.290285,-0.000000
-2.989932,1.253020,9.831945,0.000000,0.000000,1.000000
3.963870,-5.330723,1.036447,0.866025,-0.500000,0.000000
2.314088,-2.765096,-54.100908,0.634393,-0.773011,0.000000
0.080056,3.615051,-75.717815,0.098017,0.995185,-0.000000
2.796561,-4.159810,0.000000,0.000000,0.000000,-1.000000
-2.474101,-2.633777,-73.849563,-0.634393,-0.773011,0.000000
3.593292,-0.300981,-69.992495,0.995185,-0.098017,0.000000
-3.075381,1.894892,-40.056279,-0.881921,0.471397,0.000000
0.962167,-3.475857,-81.247013,0.290285,-0.956940,0.000000
3.238863,6.098174,8.058585,-0.000000,1.000000,0.000000
-6.595020,-0.773438,3.608673,-0.866025,-0.500000,-0.000000
1.957482,-6.098174,9.731993,-0.000000,-1.000000,-0.000000
-0.524084,3.571318,-64.709207,-0.098017,0.995185,0.000000
-1.999616,6.098174,6.782279,-0.000000,1.000000,0.000000
-2.762245,2.051179,0.000000,0.000000,0.000000,-1.000000
1.141589,3.421430,-52.151883,0.290285,0.956940,-0.000000
1.053130,3.448264,-66.575925,0.290285,0.956940,0.000000
0.106020,-3.612493,-64.618664,0.098017,-0.995185,0.000000
3.605249,-0.179579,-65.518088,0.995185,-0.098017,0.000000
-3.414122,1.165680,-37.414744,-0.956940,0.290285,0.000000
-2.546738,-2.574165,-83.857381,-0.634393,-0.773011,0.000000
2.374924,2.715169,-52.012716,0.634393,0.773011,-0.000000
6.104972,1.622226,3.546273,0.866025,0.500000,0.000000
2.369576,3.308068,9.831945,-0.000000,0.000000,1.000000
1.644913,3.208998,-60.416722,0.471397,0.881921,-0.000000
-3.467775,0.988809,-66.446057,-0.956940,0.290285,0.000000
1.073679,3.442030,-73.705598,0.290285,0.956940,0.000000
-3.537845,-0.757820,-60.255247,-0.956940,-0.290285,0.000000
-3.610622,-1.142966,0.000000,0.000000,0.000000,-1.000000
-0.192107,-3.604015,-54.769945,-0.098017,-0.995185,0.000000
1.053525,-4.905645,0.000000,0.000000,0.000000,-1.000000
-1.754910,-4.200529,0.000000,0.000000,0.000000,-1.000000
2.094360,0.599393,-94.767059,-0.000000,0.000000,-1.000000
0.263733,3.596960,-56.772910,0.098017,0.995185,-0.000000
2.823702,4.390461,9.831945,-0.000000,0.000000,1.000000
-0.045837,-3.618421,-93.376595,-0.098017,-0.995185,0.000000
5.177923,3.227921,5.285598,0.866025,0.500000,0.000000
2.374709,-2.715346,-76.536209,0.634393,-0.773011,0.000000
1.393535,-3.343362,-48.692214,0.471397,-0.881921,0.000000
-1.098642,-3.434458,-54.592325,-0.290285,-0.956940,0.000000
-3.317976,-1.441029,-78.426795,-0.881921,-0.471397,0.000000
-3.327064,-1.424028,-62.588074,-0.881921,-0.471397,0.000000
2.198724,-2.859773,-51.189440,0.634393,-0.773011,0.000000
-3.472969,-0.971688,-54.609586,-0.956940,-0.290285,0.000000
2.066281,-5.730647,0.000000,0.000000,0.000000,-1.000000
-3.611556,-0.115535,-38.578006,-0.995185,-0.098017,0.000000
2.995156,1.629997,0.000000,0.000000,0.000000,-1.000000
-1.570811,-3.248606,-72.165760,-0.471397,-0.881921,0.000000
-3.369562,-1.312576,-35.338527,-0.956940,-0.290285,0.000000
2.679069,2.418913,-46.338417,0.773011,0.634393,-0.000000
-3.402561,-1.203790,-83.433056,-0.956940,-0.290285,0.000000
-0.822177,3.518322,-40.379084,-0.290285,0.956940,0.000000
3.234456,1.597284,-91.410160,0.881921,0.471397,0.000000
-3.204151,-1.653980,-90.988955,-0.881921,-0.471397,0.000000
-1.068082,-3.443728,-67.610697,-0.290285,-0.956940,0.000000
0.290573,-3.594317,-43.213086,0.098017,-0.995185,0.000000
-6.811956,-0.397694,3.172731,-0.866025,-0.500000,-0.000000
-2.676124,-2.422502,-61.825190,-0.773011,-0.634393,0.000000
-3.622500,0.004423,-84.906262,-0.995185,0.098017,0.000000
2.658234,-2.961807,9.831945,-0.000000,0.000000,1.000000
3.299661,-1.475295,-68.284339,0.881921,-0.471397,0.000000
-3.197702,-1.666046,-94.722860,-0.881921,-0.471397,0.000000
-0.120672,-3.611050,-37.157908,-0.098017,-0.995185,0.000000
-2.538405,-2.581004,-82.907999,-0.634393,-0.773011,0.000000
-6.088010,-1.651605,9.377481,-0.866025,-0.500000,0.000000
0.213789,3.601879,-65.540690,0.098017,0.995185,-0.000000
0.546891,3.569071,-91.987913,0.098017,0.995185,0.000000
3.386486,-1.256784,-74.106262,0.956940,-0.290285,0.000000
-1.841555,6.098174,4.173464,-0.000000,1.000000,0.000000
3.107514,0.310765,9.831945,-0.000000,0.000000,1.000000
2.219903,-2.842392,-78.052809,0.634393,-0.773011,0.000000
-2.853348,2.206553,-35.955631,-0.773011,0.634393,0.000000
-0.192281,-3.603998,-70.937851,-0.098017,-0.995185,0.000000
-4.894542,3.718752,6.333084,-0.866025,0.500000,0.000000
3.392362,-1.237413,-85.396262,0.956940,-0.290285,0.000000
0.964507,1.257175,0.000000,0.000000,0.000000,-1.000000
2.135627,-2.911555,-82.150077,0.634393,-0.773011,0.000000
0.242222,3.599079,-51.165512,0.098017,0.995185,-0.000000
2.619717,-0.046083,0.000000,0.000000,0.000000,-1.000000
2.225124,0.423031,-94.767059,0.000000,0.000000,-1.000000
-0.489679,-3.574706,-43.508084,-0.098017,-0.995185,0.000000
0.566404,3.567150,-86.557930,0.098017,0.995185,0.000000
2.950147,2.088603,-77.890485,0.773011,0.634393,0.000000
-3.419121,-1.149200,-76.488774,-0.956940,-0.290285,0.000000
-2.938398,-6.098174,4.898144,-0.000000,-1.000000,-0.000000
-4.462244,4.467514,9.151730,-0.866025,0.500000,0.000000
2.218897,-2.843217,-46.248010,0.634393,-0.773011,0.000000
2.211023,2.849679,-74.826126,0.634393,0.773011,0.000000
3.584110,-0.394207,-58.079575,0.995185,-0.098017,0.000000
0.319519,3.591466,-51.977728,0.098017,0.995185,-0.000000
1.827382,3.111466,-76.172805,0.471397,0.881921,0.000000
0.959459,-0.405847,-34.866337,0.000000,-0.000000,1.000000
6.197355,1.462213,8.621360,0.866025,0.500000,0.000000
3.616143,0.068961,-87.737336,0.995185,0.098017,0.000000
-2.094353,2.945428,-57.641293,-0.634393,0.773011,0.000000
0.713456,-3.551303,-72.943017,0.290285,-0.956940,0.000000
3.199054,1.663517,-71.657099,0.881921,0.471397,0.000000
5.007683,-0.466808,0.000000,0.000000,0.000000,-1.000000
2.118970,-2.925225,-83.176197,0.634393,-0.773011,0.000000
0.252036,-3.598112,-82.898932,0.098017,-0.995185,0.000000
-5.605246,-2.487776,2.059453,-0.866025,-0.500000,-0.000000
1.807141,-3.122285,-70.710310,0.471397,-0.881921,0.000000
-0.108809,6.098174,9.800874,-0.000000,1.000000,0.000000
-1.026333,1.066122,9.831945,0.000000,0.000000,1.000000
0.946253,3.480684,-57.178955,0.290285,0.956940,-0.000000
0.999686,-6.098174,7.852255,-0.000000,-1.000000,-0.000000
-1.016443,-0.341198,9.831945,0.000000,0.000000,1.000000
-1.643341,-3.209838,-45.404909,-0.471397,-0.881921,0.000000
1.338651,3.361652,-45.353560,0.290285,0.956940,0.000000
-3.490979,-0.912318,-76.648941,-0.956940,-0.290285,0.000000
1.218022,-3.398244,-67.478645,0.290285,-0.956940,0.000000
-1.388872,-4.389892,9.831945,-0.000000,0.000000,1.000000
-0.977783,-3.471120,-60.508286,-0.290285,-0.956940,0.000000
-1.675838,-3.192468,-75.325128,-0.471397,-0.881921,0.000000
1.063282,3.445184,-88.003909,0.290285,0.956940,0.000000
0.417920,-3.581774,-91.401408,0.098017,-0.995185,0.000000
2.143074,-2.905444,-85.681687,0.634393,-0.773011,0.000000
3.609839,-0.132975,-81.878093,0.995185,-0.098017,0.000000
-0.377497,3.585755,-55.655696,-0.098017,0.995185,0.000000
-3.382812,-1.268896,-51.620921,-0.956940,-0.290285,0.000000
-1.443188,3.316822,-80.292576,-0.471397,0.881921,0.000000
3.476958,0.958536,-61.329328,0.956940,0.290285,0.000000
-3.610951,0.121684,-87.240561,-0.995185,0.098017,0.000000
0.559179,-3.567861,-56.370574,0.098017,-0.995185,0.000000
-3.598265,-0.250481,-94.239655,-0.995185,-0.098017,0.000000
-0.467385,-2.673636,-94.767059,0.000000,-0.000000,-1.000000
4.006556,-5.256789,0.198211,0.866025,-0.500000,0.000000
0.020133,3.620953,-51.996011,0.098017,0.995185,-0.000000
-3.889201,-5.460054,4.606436,-0.866025,-0.500000,0.000000
0.992179,3.466753,-71.996260,0.290285,0.956940,0.000000
4.302212,4.744697,1.296906,0.866025,0.500000,0.000000
-3.559850,0.640517,-55.094861,-0.995185,0.098017,0.000000
1.093975,3.435874,-42.838803,0.290285,0.956940,-0.000000
3.238981,-1.588819,-62.854087,0.881921,-0.471397,0.000000
2.375269,1.352520,9.831945,-0.000000,0.000000,1.000000
1.311654,-1.324586,-34.866337,0.000000,-0.000000,1.000000
0.844101,-3.511672,-84.151521,0.290285,-0.956940,0.000000
-3.241826,0.985939,0.000000,0.000000,0.000000,-1.000000
-3.491089,-5.397927,0.000000,0.000000,0.000000,-1.000000
5.925005,1.933938,5.627033,0.866025,0.500000,0.000000
-1.494333,-6.098174,3.876667,-0.000000,-1.000000,-0.000000
4.732199,-3.999938,6.479278,0.866025,-0.500000,0.000000
-1.162846,-3.414982,-35.733949,-0.290285,-0.956940,0.000000
2.163908,2.888346,-36.814159,0.634393,0.773011,-0.000000
-2.568763,2.553321,-60.551601,-0.773011,0.634393,0.000000
-3.424952,-6.098174,4.179826,-0.000000,-1.000000,-0.000000
5.457589,0.839379,9.831945,0.000000,0.000000,1.000000
3.471246,0.977366,-91.084592,0.956940,0.290285,0.000000
-2.890638,-6.098174,1.461473,-0.000000,-1.000000,-0.000000
-3.518063,0.823033,-63.972098,-0.956940,0.290285,0.000000
0.506936,-3.573007,-67.760651,0.098017,-0.995185,0.000000
2.068238,2.966860,-84.137855,0.634393,0.773011,-0.000000
-6.819681,0.384314,8.448869,-0.866025,0.500000,0.000000
0.847944,-2.788801,9.831945,-0.000000,0.000000,1.000000
3.406323,-1.191390,-49.884751,0.956940,-0.290285,0.000000
2.879276,-2.174960,-83.096923,0.773011,-0.634393,0.000000
-3.142968,1.768446,-85.669747,-0.881921,0.471397,0.000000
4.173360,4.967876,3.597212,0.866025,0.500000,0.000000
2.196444,-0.117517,-94.767059,0.000000,0.000000,-1.000000
3.538584,0.755385,-56.836796,0.956940,0.290285,0.000000
-2.762150,-6.098174,6.250650,-0.000000,-1.000000,-0.000000
0.438746,4.874228,0.000000,0.000000,0.000000,-1.000000
-6.360573,-1.179511,1.048261,-0.866025,-0.500000,-0.000000
-3.370359,-1.309949,-88.874495,-0.956940,-0.290285,0.000000
2.775375,-2.301563,-87.285961,0.773011,-0.634393,0.000000
-3.155755,-1.744523,-41.533760,-0.881921,-0.471397,0.000000
3.299688,1.475245,-44.962549,0.881921,0.471397,0.000000
2.771033,-2.306854,-71.102043,0.773011,-0.634393,0.000000
5.941389,1.905559,7.800147,0.866025,0.500000,0.000000
-3.618012,0.049994,-93.923123,-0.995185,0.098017,0.000000
5.135672,-3.301102,1.474907,0.866025,-0.500000,0.000000
3.117944,-1.384076,0.000000,0.000000,0.000000,-1.000000
-2.865053,-2.192291,-47.925329,-0.773011,-0.634393,0.000000
3.065036,1.914247,-82.712846,0.881921,0.471397,-0.000000
3.038437,-2.855900,0.000000,0.000000,0.000000,-1.000000
0.831098,-3.515616,-86.183608,0.290285,-0.956940,0.000000
3.593969,-0.294102,-38.470508,0.995185,-0.098017,0.000000
-3.247823,1.572276,-44.296590,-0.881921,0.471397,0.000000
-6.583490,-0.221494,9.831945,0.000000,0.000000,1.000000
-3.435205,1.096178,-69.450900,-0.956940,0.290285,0.000000
0.457106,-3.577915,-74.233433,0.098017,-0.995185,0.000000
1.978417,3.030736,-57.512584,0.471397,0.881921,0.000000
1.489048,-3.292310,-84.845175,0.471397,-0.881921,0.000000
3.307441,1.460740,-53.843748,0.881921,0.471397,0.000000
2.904467,-2.144264,-79.565926,0.773011,-0.634393,0.000000
2.352898,-6.048325,9.831945,-0.000000,0.000000,1.000000
-1.751100,-2.762114,-34.866337,-0.000000,0.000000,1.000000
0.398285,-3.583708,-75.255072,0.098017,-0.995185,0.000000
-1.279859,0.480410,0.000000,0.000000,0.000000,-1.000000
1.622901,-6.098174,0.506188,-0.000000,-1.000000,-0.000000
3.478362,0.953910,-47.089236,0.956940,0.290285,-0.000000
-3.365131,-1.327181,-41.020882,-0.956940,-0.290285,0.000000
1.511371,-3.280378,-72.665452,0.471397,-0.881921,0.000000
-3.604628,0.185880,-71.241675,-0.995185,0.098017,0.000000
5.518218,2.638514,3.331494,0.866025,0.500000,0.000000
-1.832186,3.108898,-58.205981,-0.471397,0.881921,0.000000
-3.036903,-1.966880,-35.096383,-0.881921,-0.471397,0.000000
-4.777284,-3.921849,2.201186,-0.866025,-0.500000,-0.000000
-3.908013,1.778926,9.831945,0.000000,0.000000,1.000000
