x,y,z,nx,ny,nz
50.948584,-0.068237,-3.619360,0.000000,0.000000,-1.000000
6.634700,0.123077,-3.619360,0.000000,0.000000,-1.000000
-11.667453,10.544583,3.619360,0.000000,-0.000000,1.000000
-29.747879,-1.645109,-3.619360,0.000000,0.000000,-1.000000
40.130944,-30.663721,-2.371121,0.000000,-1.000000,0.000000
-42.376857,-24.266159,3.619360,0.000000,-0.000000,1.000000
52.237732,-18.211957,0.851917,1.000000,0.000000,-0.000000
39.881252,10.090043,-3.619360,0.000000,-0.000000,-1.000000
-50.285257,-6.328234,-3.619360,0.000000,0.000000,-1.000000
-2.087792,-6.769286,3.619360,0.000000,0.000000,1.000000
-26.197065,-29.693731,-3.619360,0.000000,0.000000,-1.000000
-52.237732,13.855149,-1.892488,-1.000000,0.000000,0.000000
-48.800456,-30.517324,-3.619360,0.000000,0.000000,-1.000000
-37.412462,-3.497395,-3.619360,0.000000,0.000000,-1.000000
-39.423341,23.615692,-3.619360,0.000000,0.000000,-1.000000
4.311566,-17.760626,-3.619360,0.000000,0.000000,-1.000000
25.004432,-13.039730,3.619360,0.000000,0.000000,1.000000
49.487688,-9.082718,3.619360,0.000000,-0.000000,1.000000
49.934898,29.774886,-3.619360,0.000000,-0.000000,-1.000000
-4.385820,-30.663721,-0.944206,0.000000,-1.000000,0.000000
-17.878405,27.090838,3.619360,-0.000000,0.000000,1.000000
43.003255,20.655169,3.619360,0.000000,0.000000,1.000000
-32.877838,-30.585260,3.619360,0.000000,-0.000000,1.000000
-52.237732,18.864099,1.385833,-1.000000,0.000000,0.000000
4.611264,15.508885,-3.619360,0.000000,-0.000000,-1.000000
23.560349,-20.116225,-3.619360,0.000000,0.000000,-1.000000
20.180106,11.950755,-3.619360,0.000000,-0.000000,-1.000000
4.937154,30.663721,2.859798,0.000000,1.000000,0.000000
-14.166348,3.541004,3.619360,0.000000,-0.000000,1.000000
-6.698243,20.080241,3.619360,-0.000000,0.000000,1.000000
2.995260,-22.413090,-3.619360,0.000000,0.000000,-1.000000
51.971986,0.989337,-3.619360,0.000000,0.000000,-1.000000
14.137372,-30.253471,3.619360,0.000000,-0.000000,1.000000
10.924856,14.535974,-1.085251,-0.634393,-0.773011,0.000000
-2.823565,2.694549,3.619360,0.000000,-0.000000,1.000000
21.224967,14.903515,-3.619360,0.000000,-0.000000,-1.000000
52.237732,-13.009294,-0.975048,1.000000,0.000000,-0.000000
-26.522967,28.596978,-3.619360,0.000000,-0.000000,-1.000000
14.300545,24.855079,-3.619360,0.000000,-0.000000,-1.000000
-0.688758,22.616679,3.619360,-0.000000,0.000000,1.000000
50.939402,-27.593128,3.619360,0.000000,-0.000000,1.000000
27.667987,-28.589929,-3.619360,0.000000,0.000000,-1.000000
-32.806053,-16.487445,3.619360,0.000000,-0.000000,1.000000
-31.669997,9.502302,-3.619360,0.000000,0.000000,-1.000000
7.584584,-29.853847,-3.619360,0.000000,0.000000,-1.000000
48.496185,-5.564890,-3.619360,0.000000,0.000000,-1.000000
44.623772,-1.534600,-3.619360,0.000000,0.000000,-1.000000
-16.045653,-30.451163,-3.619360,0.000000,0.000000,-1.000000
-21.515834,-30.663721,3.200252,0.000000,-1.000000,0.000000
-25.350965,-9.721238,-3.619360,0.000000,0.000000,-1.000000
10.583637,-28.534365,3.619360,0.000000,-0.000000,1.000000
-37.424083,27.282075,-3.619360,0.000000,-0.000000,-1.000000
15.318826,-24.270431,3.619360,0.000000,-0.000000,1.000000
52.237732,23.066554,1.571087,1.000000,-0.000000,0.000000
17.018989,12.236064,3.619360,0.000000,-0.000000,1.000000
-43.443077,-10.224356,-3.619360,0.000000,0.000000,-1.000000
-45.693019,-19.171824,3.619360,0.000000,-0.000000,1.000000
9.060300,8.263971,3.619360,0.000000,-0.000000,1.000000
2.988158,-13.118542,-3.619360,0.000000,0.000000,-1.000000
-34.220535,22.894483,-3.619360,0.000000,0.000000,-1.000000
32.398033,8.008301,3.619360,0.000000,0.000000,1.000000
39.308266,-16.361051,3.619360,0.000000,0.000000,1.000000
43.690935,22.360004,3.619360,0.000000,0.000000,1.000000
26.279029,8.277381,3.619360,0.000000,0.000000,1.000000
40.197072,-1.313443,3.619360,0.000000,0.000000,1.000000
52.237732,26.328287,1.524799,1.000000,-0.000000,0.000000
-44.656573,-23.372471,3.619360,0.000000,-0.000000,1.000000
-32.869091,11.227690,-3.619360,0.000000,0.000000,-1.000000
30.737197,4.500541,-3.619360,0.000000,-0.000000,-1.000000
-42.009782,-13.873018,-3.619360,0.000000,0.000000,-1.000000
-41.181628,14.157213,3.619360,0.000000,-0.000000,1.000000
-50.046249,-15.222547,3.619360,0.000000,-0.000000,1.000000
-14.856639,12.811508,3.619360,0.000000,-0.000000,1.000000
-18.883488,15.364778,-3.619360,0.000000,0.000000,-1.000000
-40.242296,18.703252,-3.619360,0.000000,0.000000,-1.000000
52.237732,29.810254,-0.221785,1.000000,-0.000000,0.000000
-12.644922,-10.103353,-3.619360,0.000000,0.000000,-1.000000
-42.877144,12.784468,3.619360,0.000000,-0.000000,1.000000
38.066610,-30.663721,-0.138362,0.000000,-1.000000,0.000000
-14.606409,9.945219,3.619360,0.000000,-0.000000,1.000000
-26.970719,-10.944427,3.619360,0.000000,-0.000000,1.000000
18.993702,28.717763,-3.619360,0.000000,-0.000000,-1.000000
16.558017,-23.167147,-3.619360,0.000000,0.000000,-1.000000
10.797087,22.036642,-3.619360,0.000000,-0.000000,-1.000000
-40.904445,17.570328,-3.619360,0.000000,0.000000,-1.000000
-4.352649,30.663721,-1.078774,-0.000000,1.000000,0.000000
37.045176,9.683093,3.619360,0.000000,0.000000,1.000000
-30.962530,29.348776,3.619360,-0.000000,0.000000,1.000000
-48.992028,8.776478,3.619360,0.000000,-0.000000,1.000000
-33.829811,15.306648,3.619360,0.000000,-0.000000,1.000000
-28.266029,-11.612381,-3.619360,0.000000,0.000000,-1.000000
37.061191,20.740317,-3.619360,0.000000,-0.000000,-1.000000
-52.237732,-9.943661,0.794638,-1.000000,0.000000,0.000000
14.774991,-14.663172,3.619360,0.000000,0.000000,1.000000
-17.643315,28.594503,3.619360,-0.000000,0.000000,1.000000
-22.799362,-13.671351,-3.619360,0.000000,0.000000,-1.000000
-10.730137,-30.663721,-1.391856,0.000000,-1.000000,0.000000
-19.880158,10.128014,3.619360,0.000000,-0.000000,1.000000
-17.524632,30.663721,3.081526,0.000000,1.000000,0.000000
10.292091,-23.776326,3.619360,0.000000,-0.000000,1.000000
6.534989,-14.591407,-3.619360,0.000000,0.000000,-1.000000
-12.777054,16.746944,-3.619360,0.000000,0.000000,-1.000000
20.474502,-30.663721,-0.933791,0.000000,-1.000000,0.000000
7.012830,14.713836,-3.051914,0.471397,-0.881921,0.000000
-6.539570,-6.326958,3.619360,0.000000,0.000000,1.000000
20.019601,-11.036727,3.619360,0.000000,0.000000,1.000000
22.486031,5.243271,3.619360,0.000000,0.000000,1.000000
35.831514,16.865036,3.619360,0.000000,0.000000,1.000000
15.122630,-23.451008,-3.619360,0.000000,0.000000,-1.000000
45.684038,-8.755686,-3.619360,0.000000,0.000000,-1.000000
32.572359,14.301761,-3.619360,0.000000,-0.000000,-1.000000
-35.575031,-30.663721,1.845587,0.000000,-1.000000,0.000000
-52.144658,5.811598,-3.619360,0.000000,0.000000,-1.000000
23.581305,19.049153,3.619360,-0.000000,0.000000,1.000000
-9.944346,29.634752,3.619360,-0.000000,0.000000,1.000000
-0.381805,-0.092390,-3.619360,0.000000,0.000000,-1.000000
-30.692312,-20.166155,3.619360,0.000000,0.000000,1.000000
13.494463,-12.661585,3.619360,0.000000,0.000000,1.000000
-4.924233,11.396433,3.619360,0.000000,-0.000000,1.000000
32.462255,21.502834,-3.619360,0.000000,-0.000000,-1.000000
29.553777,-27.112305,3.619360,0.000000,-0.000000,1.000000
16.231205,28.450236,3.619360,-0.000000,0.000000,1.000000
-52.237732,7.022153,-0.307320,-1.000000,0.000000,0.000000
-7.654243,10.008581,3.619360,0.000000,-0.000000,1.000000
-1.327183,24.627482,-3.619360,0.000000,-0.000000,-1.000000
-44.392343,12.725034,-3.619360,0.000000,0.000000,-1.000000
-34.955042,-6.706546,3.619360,0.000000,-0.000000,1.000000
4.936443,10.776936,3.619360,0.000000,-0.000000,1.000000
12.240502,7.450221,-3.619360,0.000000,0.000000,-1.000000
8.890423,30.663721,3.277185,0.000000,1.000000,0.000000
25.312160,14.795194,3.619360,0.000000,0.000000,1.000000
-44.803031,30.663721,2.933144,0.000000,1.000000,0.000000
8.225444,8.322279,-1.133998,0.098016,0.995185,-0.000000
-7.309474,0.772445,3.619360,0.000000,-0.000000,1.000000
46.183122,-9.814389,-3.619360,0.000000,0.000000,-1.000000
27.657157,19.682288,-3.619360,0.000000,0.000000,-1.000000
8.986567,-30.663721,-0.361649,0.000000,-1.000000,0.000000
-37.464782,-12.104434,-3.619360,0.000000,0.000000,-1.000000
42.088780,1.070415,-3.619360,-0.000000,0.000000,-1.000000
-11.328203,-6.702750,-3.619360,0.000000,0.000000,-1.000000
48.067423,12.175388,-3.619360,0.000000,0.000000,-1.000000
52.237732,18.877366,-3.326578,1.000000,0.000000,-0.000000
-28.514689,-30.663721,-2.028574,0.000000,-1.000000,0.000000
-27.736732,29.301881,-3.619360,0.000000,-0.000000,-1.000000
-13.205526,-10.165662,3.619360,0.000000,0.000000,1.000000
-9.213821,-4.769756,3.619360,0.000000,-0.000000,1.000000
-38.898113,12.659920,-3.619360,0.000000,0.000000,-1.000000
-4.435222,-29.810368,3.619360,0.000000,-0.000000,1.000000
-24.903852,4.625378,-3.619360,0.000000,0.000000,-1.000000
44.045361,4.949334,-3.619360,-0.000000,0.000000,-1.000000
44.058564,-7.434330,-3.619360,0.000000,0.000000,-1.000000
-42.509076,24.160843,3.619360,0.000000,-0.000000,1.000000
-9.948087,30.663721,0.435890,0.000000,1.000000,0.000000
48.388835,9.921227,-3.619360,0.000000,0.000000,-1.000000
31.234959,-19.701250,-3.619360,0.000000,0.000000,-1.000000
-12.113129,11.145737,-3.619360,0.000000,0.000000,-1.000000
19.815251,-1.240656,-3.619360,0.000000,-0.000000,-1.000000
42.747519,-18.571677,-3.619360,0.000000,0.000000,-1.000000
-21.527123,14.145256,3.619360,0.000000,-0.000000,1.000000
-49.214489,-2.168456,-3.619360,0.000000,0.000000,-1.000000
-3.462179,-30.213954,3.619360,0.000000,-0.000000,1.000000
52.237732,20.023653,1.568948,1.000000,-0.000000,0.000000
-41.263532,23.391677,-3.619360,0.000000,0.000000,-1.000000
47.778934,-13.735228,3.619360,0.000000,-0.000000,1.000000
10.990660,2.131030,3.619360,0.000000,0.000000,1.000000
-15.871444,-23.842035,-3.619360,0.000000,0.000000,-1.000000
5.840620,-26.626486,-3.619360,0.000000,0.000000,-1.000000
-27.125507,-30.663721,2.093363,0.000000,-1.000000,0.000000
-41.918838,3.511373,-3.619360,0.000000,0.000000,-1.000000
28.947711,-24.422658,3.619360,0.000000,-0.000000,1.000000
16.457664,-8.920987,3.619360,0.000000,0.000000,1.000000
17.179865,7.987349,3.619360,0.000000,0.000000,1.000000
49.181555,7.654673,3.619360,0.000000,-0.000000,1.000000
-52.237732,21.673011,-1.804300,-1.000000,0.000000,0.000000
47.312459,-30.663721,2.732297,0.000000,-1.000000,0.000000
-41.180021,6.205245,-3.619360,0.000000,0.000000,-1.000000
-19.489977,7.015259,-3.619360,0.000000,0.000000,-1.000000
-15.031970,-29.329580,-3.619360,0.000000,0.000000,-1.000000
-25.355438,-3.504054,-3.619360,0.000000,0.000000,-1.000000
36.195008,-15.901994,1.699483,-0.290285,0.956940,0.000000
15.024962,13.557732,-3.619360,0.000000,-0.000000,-1.000000
-17.548265,18.726924,3.619360,0.000000,-0.000000,1.000000
45.128566,28.748741,3.619360,-0.000000,0.000000,1.000000
29.667356,-8.391825,-3.619360,0.000000,0.000000,-1.000000
-16.974489,21.288273,-3.619360,0.000000,-0.000000,-1.000000
18.648945,-1.885113,3.619360,0.000000,0.000000,1.000000
-5.302474,-4.818203,3.619360,0.000000,0.000000,1.000000
-1.114270,3.733225,3.619360,0.000000,-0.000000,1.000000
-34.442849,1.919910,-3.619360,0.000000,0.000000,-1.000000
26.918143,-12.349294,-3.619360,0.000000,0.000000,-1.000000
13.651683,11.416364,3.619360,0.000000,-0.000000,1.000000
-12.478182,-12.850701,-3.619360,0.000000,0.000000,-1.000000
-30.699690,-29.264798,-3.619360,0.000000,0.000000,-1.000000
43.905828,29.096608,-3.619360,0.000000,-0.000000,-1.000000
28.564867,-7.774030,-3.619360,0.000000,-0.000000,-1.000000
-36.543727,22.705607,-3.619360,0.000000,0.000000,-1.000000
27.259357,-11.708431,-3.619360,0.000000,0.000000,-1.000000
-17.898722,-14.110361,-3.619360,0.000000,0.000000,-1.000000
-33.270828,-12.315737,3.619360,0.000000,-0.000000,1.000000
6.312907,-11.231612,3.619360,0.000000,0.000000,1.000000
43.335893,3.028415,3.619360,0.000000,0.000000,1.000000
8.834022,-25.614156,-3.619360,0.000000,0.000000,-1.000000
50.635011,-29.544309,-3.619360,0.000000,0.000000,-1.000000
-45.346923,-25.825812,-3.619360,0.000000,0.000000,-1.000000
-52.237732,19.976595,-2.734038,-1.000000,0.000000,0.000000
-39.253664,-15.815908,3.619360,0.000000,-0.000000,1.000000
18.746071,-1.069198,-3.619360,0.000000,0.000000,-1.000000
22.717500,-8.935203,-3.619360,0.000000,0.000000,-1.000000
-9.305145,10.232829,3.619360,0.000000,-0.000000,1.000000
-10.623496,-22.824341,-3.619360,0.000000,0.000000,-1.000000
-13.574764,30.075335,3.619360,-0.000000,0.000000,1.000000
-43.184208,2.389338,-3.619360,0.000000,0.000000,-1.000000
2.865867,18.966384,-3.619360,0.000000,-0.000000,-1.000000
13.957454,1.211370,-3.619360,0.000000,0.000000,-1.000000
-47.091825,-30.663721,1.060002,0.000000,-1.000000,0.000000
18.022670,1.363828,3.619360,0.000000,0.000000,1.000000
-52.237732,-0.323051,1.946104,-1.000000,0.000000,0.000000
-34.880229,-30.229299,3.619360,0.000000,-0.000000,1.000000
-10.775179,-12.666549,3.619360,0.000000,0.000000,1.000000
35.585489,-29.337883,3.619360,0.000000,-0.000000,1.000000
7.663990,-4.494270,-3.619360,0.000000,0.000000,-1.000000
-25.509826,3.121260,-3.619360,0.000000,0.000000,-1.000000
21.274118,-18.976007,3.619360,0.000000,-0.000000,1.000000
-29.268896,30.663721,-2.066829,-0.000000,1.000000,0.000000
-34.120215,-15.714567,-3.619360,0.000000,0.000000,-1.000000
1.928279,13.382074,-3.619360,0.000000,-0.000000,-1.000000
36.874722,2.076310,-3.619360,0.000000,-0.000000,-1.000000
-18.534106,-6.772919,-3.619360,0.000000,0.000000,-1.000000
35.029731,-9.199806,-1.602039,-0.098016,-0.995185,-0.000000
-15.770424,-9.838092,-3.619360,0.000000,0.000000,-1.000000
22.320573,-18.081196,-3.619360,0.000000,0.000000,-1.000000
-18.577984,10.518346,3.619360,0.000000,-0.000000,1.000000
-37.147609,-25.706198,3.619360,0.000000,0.000000,1.000000
6.007921,9.728763,1.877497,0.773011,0.634393,-0.000000
-11.662292,-25.313875,-3.619360,0.000000,0.000000,-1.000000
-30.660519,-0.361797,3.619360,0.000000,-0.000000,1.000000
-5.189841,-30.663721,3.152339,0.000000,-1.000000,0.000000
6.683086,-11.630573,3.619360,0.000000,0.000000,1.000000
-13.240245,-27.420390,3.619360,0.000000,-0.000000,1.000000
21.861926,-5.525728,3.619360,0.000000,0.000000,1.000000
-29.328165,-19.140136,3.619360,0.000000,0.000000,1.000000
52.237732,3.860474,-0.615150,1.000000,0.000000,-0.000000
-6.705049,-12.439007,-3.619360,0.000000,0.000000,-1.000000
52.237732,-15.787804,2.538859,1.000000,-0.000000,0.000000
-20.394903,-15.411211,-3.619360,0.000000,0.000000,-1.000000
-20.134724,-6.139236,-3.619360,0.000000,0.000000,-1.000000
45.507346,-17.988265,-3.619360,0.000000,0.000000,-1.000000
-39.327182,3.644451,-3.619360,0.000000,0.000000,-1.000000
0.466921,6.075819,3.619360,0.000000,-0.000000,1.000000
-44.830662,-30.663721,-0.664067,0.000000,-1.000000,0.000000
18.399670,3.751417,-3.619360,0.000000,-0.000000,-1.000000
-52.237732,17.456615,-1.491746,-1.000000,0.000000,0.000000
1.899294,-29.392259,3.619360,0.000000,-0.000000,1.000000
-28.256705,-24.343680,3.619360,0.000000,0.000000,1.000000
-48.066729,18.605027,-3.619360,0.000000,0.000000,-1.000000
-14.838705,30.663721,-2.842715,-0.000000,1.000000,0.000000
20.384014,-30.663721,-1.222708,0.000000,-1.000000,0.000000
28.059650,-29.379570,-3.619360,0.000000,0.000000,-1.000000
40.749960,19.351092,-3.619360,0.000000,-0.000000,-1.000000
-30.981863,-29.532562,3.619360,0.000000,-0.000000,1.000000
-37.558930,-30.663721,2.093850,0.000000,-1.000000,0.000000
-20.989407,23.979761,3.619360,-0.000000,0.000000,1.000000
18.305982,9.886681,-3.619360,0.000000,-0.000000,-1.000000
47.009842,-11.211523,-3.619360,0.000000,0.000000,-1.000000
-20.157638,6.700879,-3.619360,0.000000,0.000000,-1.000000
-15.214035,1.461808,-3.619360,0.000000,0.000000,-1.000000
-23.307457,-1.297111,-3.619360,0.000000,0.000000,-1.000000
-12.218268,8.917721,3.619360,0.000000,-0.000000,1.000000
-1.936928,30.663721,2.454827,0.000000,1.000000,0.000000
28.980256,-18.040264,-3.619360,0.000000,0.000000,-1.000000
18.400793,-18.445208,-3.619360,0.000000,0.000000,-1.000000
-41.376232,18.623442,-3.619360,0.000000,0.000000,-1.000000
-9.234129,10.820042,3.619360,0.000000,-0.000000,1.000000
-52.237732,-17.202574,-3.602131,-1.000000,0.000000,0.000000
-45.369429,1.493142,-3.619360,0.000000,0.000000,-1.000000
-52.237732,-22.024503,3.160505,-1.000000,0.000000,0.000000
-13.450727,30.663721,-0.201076,0.000000,1.000000,0.000000
-22.718819,24.849543,3.619360,-0.000000,0.000000,1.000000
34.285234,-0.440189,3.619360,0.000000,0.000000,1.000000
-0.706647,21.391225,3.619360,-0.000000,0.000000,1.000000
-24.457835,-30.663721,-0.540122,0.000000,-1.000000,0.000000
46.600583,15.088639,3.619360,0.000000,0.000000,1.000000
-48.195403,13.129906,3.619360,0.000000,-0.000000,1.000000
-25.952962,15.495745,-3.619360,0.000000,0.000000,-1.000000
-37.808834,8.047279,3.619360,0.000000,-0.000000,1.000000
-34.750471,-23.019346,3.619360,0.000000,0.000000,1.000000
-30.769719,24.136969,-3.619360,0.000000,-0.000000,-1.000000
-29.318456,30.142746,3.619360,-0.000000,0.000000,1.000000
10.836962,8.896330,1.900764,-0.634393,0.773011,0.000000
-27.458920,-22.522428,-3.619360,0.000000,0.000000,-1.000000
-17.250401,-30.157350,-3.619360,0.000000,0.000000,-1.000000
-40.916619,-24.880034,-3.619360,0.000000,0.000000,-1.000000
7.525368,-10.988090,-3.619360,0.000000,0.000000,-1.000000
36.486353,7.065035,-3.619360,0.000000,-0.000000,-1.000000
4.956005,30.663721,-1.694663,-0.000000,1.000000,0.000000
3.710368,-2.359322,-3.619360,0.000000,0.000000,-1.000000
-6.466262,7.537814,3.619360,0.000000,-0.000000,1.000000
38.358030,-3.151866,-3.619360,-0.000000,0.000000,-1.000000
-14.604142,-4.218630,3.619360,0.000000,-0.000000,1.000000
-33.366415,-17.188876,-3.619360,0.000000,0.000000,-1.000000
16.010420,19.357109,-3.619360,0.000000,-0.000000,-1.000000
-11.451635,4.940340,-3.619360,0.000000,0.000000,-1.000000
8.588855,-1.459096,3.619360,0.000000,0.000000,1.000000
-1.040132,-10.465532,-3.619360,0.000000,0.000000,-1.000000
31.182401,-30.663721,2.132549,0.000000,-1.000000,0.000000
-32.054601,-3.244689,3.619360,0.000000,-0.000000,1.000000
-51.977688,6.339970,3.619360,0.000000,-0.000000,1.000000
-14.917450,7.657737,3.619360,0.000000,-0.000000,1.000000
-52.237732,2.991746,3.533208,-1.000000,0.000000,0.000000
47.520690,12.869879,3.619360,0.000000,-0.000000,1.000000
23.193060,12.749667,-3.619360,0.000000,-0.000000,-1.000000
-22.190299,-29.217684,-3.619360,0.000000,0.000000,-1.000000
8.115424,6.835344,-3.619360,0.000000,0.000000,-1.000000
45.766885,-15.782910,-3.619360,0.000000,0.000000,-1.000000
16.989890,-19.683140,3.619360,0.000000,-0.000000,1.000000
-52.237732,-1.674316,0.508959,-1.000000,0.000000,0.000000
1.596539,-19.474702,-3.619360,0.000000,0.000000,-1.000000
52.237732,17.227897,2.451233,1.000000,-0.000000,0.000000
47.248852,12.993916,-3.619360,0.000000,0.000000,-1.000000
-52.237732,30.110838,1.417596,-1.000000,0.000000,0.000000
50.792763,22.798900,3.619360,0.000000,-0.000000,1.000000
8.591930,-29.269743,-3.619360,0.000000,0.000000,-1.000000
-30.486398,-18.026842,-3.619360,0.000000,0.000000,-1.000000
11.626387,-19.090983,-3.619360,0.000000,0.000000,-1.000000
-30.593723,-30.663721,-0.204521,0.000000,-1.000000,0.000000
-7.771826,25.976782,-3.619360,0.000000,-0.000000,-1.000000
-3.050377,30.663721,3.493485,0.000000,1.000000,0.000000
52.237732,29.707884,2.303933,1.000000,-0.000000,0.000000
-29.467654,-30.663721,-2.332685,0.000000,-1.000000,0.000000
31.477997,0.608097,3.619360,0.000000,0.000000,1.000000
18.905127,-17.677352,-3.619360,0.000000,0.000000,-1.000000
20.576905,-30.663721,1.261476,0.000000,-1.000000,0.000000
7.230067,6.310937,3.619360,0.000000,-0.000000,1.000000
-32.946381,7.997172,3.619360,0.000000,-0.000000,1.000000
-23.608778,14.913469,3.619360,0.000000,-0.000000,1.000000
8.300477,-19.483448,3.619360,0.000000,-0.000000,1.000000
27.455415,13.935064,-3.619360,0.000000,-0.000000,-1.000000
36.103125,24.089617,3.619360,-0.000000,0.000000,1.000000
-22.901598,17.223020,-3.619360,0.000000,0.000000,-1.000000
18.333424,-5.187306,3.619360,0.000000,0.000000,1.000000
51.393347,-16.492215,3.619360,0.000000,-0.000000,1.000000
51.372275,27.469768,-3.619360,0.000000,0.000000,-1.000000
-45.231012,-30.663721,-2.200593,0.000000,-1.000000,0.000000
-26.235263,-30.470322,3.619360,0.000000,-0.000000,1.000000
-0.627348,-2.280760,3.619360,0.000000,0.000000,1.000000
-42.369922,-0.357379,-3.619360,0.000000,0.000000,-1.000000
-18.583784,-26.043603,-3.619360,0.000000,0.000000,-1.000000
-5.942795,7.641887,-3.619360,0.000000,0.000000,-1.000000
-2.707482,18.866302,3.619360,-0.000000,0.000000,1.000000
35.418371,13.825196,-3.619360,0.000000,-0.000000,-1.000000
-37.487256,3.398159,-3.619360,0.000000,0.000000,-1.000000
-8.428508,18.530501,-3.619360,0.000000,-0.000000,-1.000000
23.407954,25.875450,-3.619360,0.000000,-0.000000,-1.000000
6.938596,-30.663721,2.464196,0.000000,-1.000000,0.000000
11.125332,-0.471098,-3.619360,0.000000,0.000000,-1.000000
-0.295086,-18.216357,-3.619360,0.000000,0.000000,-1.000000
47.311920,-19.260972,3.619360,0.000000,-0.000000,1.000000
-6.286647,29.001766,-3.619360,0.000000,-0.000000,-1.000000
-52.237732,4.092445,-2.722768,-1.000000,0.000000,0.000000
2.636586,18.539003,3.619360,-0.000000,0.000000,1.000000
32.730878,-28.751406,-3.619360,0.000000,0.000000,-1.000000
-49.478138,11.950552,-3.619360,0.000000,0.000000,-1.000000
23.607736,4.407285,-3.619360,0.000000,-0.000000,-1.000000
17.747144,22.979843,-3.619360,0.000000,-0.000000,-1.000000
-7.196645,-26.790186,-3.619360,0.000000,0.000000,-1.000000
-32.760689,-24.245856,3.619360,0.000000,0.000000,1.000000
-27.122958,30.663721,3.429564,0.000000,1.000000,0.000000
-51.864532,19.488002,-3.619360,0.000000,0.000000,-1.000000
-44.103281,24.877183,-3.619360,0.000000,0.000000,-1.000000
-29.279801,-21.635424,3.619360,0.000000,0.000000,1.000000
35.752031,-17.764523,3.619360,0.000000,-0.000000,1.000000
-50.924329,-18.360084,-3.619360,0.000000,0.000000,-1.000000
-26.875043,4.042715,-3.619360,0.000000,0.000000,-1.000000
-33.442412,-28.946110,3.619360,0.000000,-0.000000,1.000000
32.076507,-30.663721,2.077898,0.000000,-1.000000,0.000000
-19.818186,28.088671,3.619360,-0.000000,0.000000,1.000000
21.679069,17.893015,-3.619360,0.000000,-0.000000,-1.000000
0.250135,-30.663721,-0.830888,0.000000,-1.000000,0.000000
-36.456771,0.421932,-3.619360,0.000000,0.000000,-1.000000
8.892888,-26.800983,-3.619360,0.000000,0.000000,-1.000000
33.715161,-0.663864,-3.619360,0.000000,-0.000000,-1.000000
-49.682799,-30.663721,-0.084252,0.000000,-1.000000,0.000000
-16.285612,1.360315,-3.619360,0.000000,0.000000,-1.000000
-45.328570,-23.660647,-3.619360,0.000000,0.000000,-1.000000
2.025896,15.249931,3.619360,-0.000000,0.000000,1.000000
1.085180,30.663721,3.059212,0.000000,1.000000,0.000000
44.194730,-20.050614,-3.619360,0.000000,0.000000,-1.000000
-46.042291,-30.663721,-3.434094,0.000000,-1.000000,0.000000
-50.780998,4.308572,3.619360,0.000000,-0.000000,1.000000
9.787880,1.747948,-3.619360,0.000000,0.000000,-1.000000
-15.760349,16.755461,-3.619360,0.000000,0.000000,-1.000000
-36.553379,-20.301132,3.619360,0.000000,-0.000000,1.000000
50.161125,6.604902,3.619360,0.000000,-0.000000,1.000000
6.610608,17.443712,3.619360,-0.000000,0.000000,1.000000
-3.178454,17.765290,3.619360,-0.000000,0.000000,1.000000
-44.070441,16.247397,-3.619360,0.000000,0.000000,-1.000000
-7.184675,-12.971338,3.619360,0.000000,0.000000,1.000000
-6.054341,-5.922837,3.619360,0.000000,0.000000,1.000000
20.111508,0.570304,3.619360,0.000000,0.000000,1.000000
-25.328121,-10.041362,-3.619360,0.000000,0.000000,-1.000000
-24.124356,-9.572975,-3.619360,0.000000,0.000000,-1.000000
-49.872248,-22.949271,3.619360,0.000000,-0.000000,1.000000
41.370316,-11.402253,3.619360,0.000000,-0.000000,1.000000
-30.155993,-28.848486,3.619360,0.000000,-0.000000,1.000000
-36.772693,28.900623,3.619360,-0.000000,0.000000,1.000000
-14.708831,5.798855,3.619360,0.000000,-0.000000,1.000000
-35.271131,-11.269306,-3.619360,0.000000,0.000000,-1.000000
-3.412871,-30.663721,-1.814758,0.000000,-1.000000,0.000000
8.754614,-1.102946,-3.619360,0.000000,0.000000,-1.000000
2.480130,-21.193597,-3.619360,0.000000,0.000000,-1.000000
-28.809206,1.834072,3.619360,0.000000,-0.000000,1.000000
51.371157,-0.413102,-3.619360,0.000000,0.000000,-1.000000
49.972501,28.440707,-3.619360,0.000000,-0.000000,-1.000000
3.768588,-17.409412,-3.619360,0.000000,0.000000,-1.000000
6.812616,-24.488862,3.619360,0.000000,-0.000000,1.000000
28.781804,-18.811751,-3.619360,0.000000,0.000000,-1.000000
-1.681112,10.897765,-3.619360,0.000000,0.000000,-1.000000
-14.051913,29.409806,-3.619360,0.000000,-0.000000,-1.000000
-45.200625,20.246156,-3.619360,0.000000,0.000000,-1.000000
31.186543,0.129291,3.619360,0.000000,0.000000,1.000000
29.622109,-27.240122,3.619360,0.000000,-0.000000,1.000000
39.991435,-1.740367,3.619360,0.000000,0.000000,1.000000
-46.091940,-11.555398,-3.619360,0.000000,0.000000,-1.000000
-9.563067,-5.859908,-3.619360,0.000000,0.000000,-1.000000
6.383902,-2.033990,3.619360,0.000000,0.000000,1.000000
-23.092131,24.730973,-3.619360,0.000000,-0.000000,-1.000000
15.641498,16.481040,-3.619360,0.000000,0.000000,-1.000000
-18.975523,30.663721,1.664185,0.000000,1.000000,0.000000
52.237732,-11.786899,-2.789809,1.000000,0.000000,-0.000000
35.383621,17.153332,3.619360,0.000000,0.000000,1.000000
48.103070,4.722823,3.619360,0.000000,-0.000000,1.000000
12.421905,-0.907521,-3.619360,0.000000,0.000000,-1.000000
44.810098,16.138795,-3.619360,0.000000,-0.000000,-1.000000
-8.842311,12.388946,-3.619360,0.000000,0.000000,-1.000000
20.063962,-22.600579,3.619360,0.000000,-0.000000,1.000000
38.067320,-29.906429,3.619360,0.000000,-0.000000,1.000000
49.925187,-4.974779,-3.619360,0.000000,0.000000,-1.000000
36.869477,2.263240,-3.619360,0.000000,-0.000000,-1.000000
-49.700593,-12.151901,-3.619360,0.000000,0.000000,-1.000000
-0.913163,20.470291,-3.619360,0.000000,-0.000000,-1.000000
-49.502873,-14.518969,-3.619360,0.000000,0.000000,-1.000000
-52.237732,26.427035,0.077858,-1.000000,0.000000,0.000000
-0.801646,-11.797794,-3.619360,0.000000,0.000000,-1.000000
-20.060072,24.458413,3.619360,-0.000000,0.000000,1.000000
52.237732,-14.340063,-1.103128,1.000000,0.000000,-0.000000
4.671588,6.876429,3.619360,0.000000,-0.000000,1.000000
32.926565,-25.865356,-3.619360,0.000000,0.000000,-1.000000
13.121195,-23.392078,3.619360,0.000000,-0.000000,1.000000
24.590548,-14.205685,-3.619360,0.000000,0.000000,-1.000000
38.221359,-13.586675,-0.709813,-0.956941,0.290281,0.000000
-29.510284,1.464106,-3.619360,0.000000,0.000000,-1.000000
46.252313,0.967974,-3.619360,0.000000,0.000000,-1.000000
-26.297290,16.183442,3.619360,0.000000,-0.000000,1.000000
-52.237732,17.753201,2.832813,-1.000000,0.000000,0.000000
48.475208,-0.609224,-3.619360,0.000000,0.000000,-1.000000
10.914562,-8.508671,3.619360,0.000000,0.000000,1.000000
52.237732,11.916681,2.841374,1.000000,-0.000000,0.000000
13.148461,-9.949162,3.619360,0.000000,0.000000,1.000000
-45.171777,-2.664819,-3.619360,0.000000,0.000000,-1.000000
48.990313,-18.395267,3.619360,0.000000,-0.000000,1.000000
-12.256097,-19.531304,-3.619360,0.000000,0.000000,-1.000000
15.898549,-0.222120,3.619360,0.000000,0.000000,1.000000
26.217487,20.364558,-3.619360,0.000000,0.000000,-1.000000
37.128098,-4.246169,-3.619360,-0.000000,0.000000,-1.000000
33.132896,11.118963,3.619360,0.000000,0.000000,1.000000
31.782223,-14.270482,2.000983,0.881921,0.471397,0.000000
-16.176201,-8.796624,3.619360,0.000000,-0.000000,1.000000
31.760594,30.663721,1.476193,-0.000000,1.000000,0.000000
-19.252533,-2.063087,-3.619360,0.000000,0.000000,-1.000000
-27.762573,-7.237690,-3.619360,0.000000,0.000000,-1.000000
37.560994,-10.480147,-2.250229,-0.773011,-0.634392,0.000000
52.237732,23.874783,0.433229,1.000000,-0.000000,0.000000
-27.164269,-26.053732,3.619360,0.000000,-0.000000,1.000000
45.629522,30.663721,-1.872265,-0.000000,1.000000,0.000000
44.421259,30.663721,-3.363484,-0.000000,1.000000,0.000000
-32.013968,16.851592,-3.619360,0.000000,0.000000,-1.000000
-41.279291,17.562282,3.619360,0.000000,-0.000000,1.000000
-48.577233,-18.592422,3.619360,0.000000,-0.000000,1.000000
-4.981602,2.008230,-3.619360,0.000000,0.000000,-1.000000
-7.996968,1.728170,-3.619360,0.000000,0.000000,-1.000000
8.695101,-12.523587,-3.619360,0.000000,0.000000,-1.000000
-6.698974,-30.663721,2.717814,0.000000,-1.000000,0.000000
49.068268,20.774698,3.619360,0.000000,0.000000,1.000000
14.761538,7.735673,-3.619360,0.000000,0.000000,-1.000000
51.048209,26.074701,3.619360,0.000000,-0.000000,1.000000
-5.770435,30.506481,3.619360,-0.000000,0.000000,1.000000
-8.435526,-30.663721,-1.571213,0.000000,-1.000000,0.000000
48.823123,30.663721,-0.164068,-0.000000,1.000000,0.000000
26.778687,10.681560,-3.619360,0.000000,-0.000000,-1.000000
-13.431945,23.923151,-3.619360,0.000000,-0.000000,-1.000000
-24.069909,22.353064,3.619360,-0.000000,0.000000,1.000000
30.697809,-22.968493,-3.619360,0.000000,0.000000,-1.000000
-48.027158,-23.820596,-3.619360,0.000000,0.000000,-1.000000
22.491249,-29.471395,3.619360,0.000000,-0.000000,1.000000
-24.811834,30.663721,1.189114,0.000000,1.000000,0.000000
-22.614745,-16.284558,3.619360,0.000000,0.000000,1.000000
-34.726376,8.275713,-3.619360,0.000000,0.000000,-1.000000
-36.319370,24.603667,3.619360,0.000000,-0.000000,1.000000
-0.653860,-30.663721,0.741457,0.000000,-1.000000,0.000000
28.225980,11.356135,3.619360,0.000000,0.000000,1.000000
8.909424,-30.663721,1.847073,0.000000,-1.000000,0.000000
-29.992435,16.725227,3.619360,0.000000,-0.000000,1.000000
-19.884930,19.323780,3.619360,0.000000,-0.000000,1.000000
-52.237732,18.637365,0.343920,-1.000000,0.000000,0.000000
-48.462373,30.663721,-0.764638,0.000000,1.000000,0.000000
-37.025680,8.208107,-3.619360,0.000000,0.000000,-1.000000
-33.907270,26.054698,-3.619360,0.000000,-0.000000,-1.000000
-25.773477,-15.770037,3.619360,0.000000,0.000000,1.000000
-16.826530,2.292277,3.619360,0.000000,-0.000000,1.000000
18.702662,-24.904581,-3.619360,0.000000,0.000000,-1.000000
-8.804582,5.102436,-3.619360,0.000000,0.000000,-1.000000
-12.759284,30.663721,2.845384,0.000000,1.000000,0.000000
-38.079553,18.975491,3.619360,0.000000,-0.000000,1.000000
-16.137547,4.697795,3.619360,0.000000,-0.000000,1.000000
12.505486,-29.605918,3.619360,0.000000,-0.000000,1.000000
-40.458615,-4.066392,3.619360,0.000000,-0.000000,1.000000
-39.341298,2.525280,3.619360,0.000000,-0.000000,1.000000
-41.996321,-25.406462,-3.619360,0.000000,0.000000,-1.000000
-40.831382,10.500057,3.619360,0.000000,-0.000000,1.000000
49.625622,-24.824739,-3.619360,0.000000,0.000000,-1.000000
-9.118745,21.974613,-3.619360,0.000000,-0.000000,-1.000000
-29.936679,-22.093546,3.619360,0.000000,0.000000,1.000000
6.496870,20.437418,-3.619360,0.000000,-0.000000,-1.000000
24.651677,28.152505,-3.619360,0.000000,-0.000000,-1.000000
34.581811,-9.212064,1.057412,0.098017,-0.995185,0.000000
-33.052909,3.725881,-3.619360,0.000000,0.000000,-1.000000
-22.487148,-7.852307,-3.619360,0.000000,0.000000,-1.000000
52.237732,-5.296259,-2.352137,1.000000,0.000000,-0.000000
-35.717689,17.417532,3.619360,0.000000,-0.000000,1.000000
-52.237732,-14.437275,-0.265294,-1.000000,0.000000,0.000000
30.162938,-21.324041,-3.619360,0.000000,0.000000,-1.000000
17.157624,30.663721,-2.840854,-0.000000,1.000000,0.000000
-33.832949,8.511755,-3.619360,0.000000,0.000000,-1.000000
-4.048742,-0.160958,-3.619360,0.000000,0.000000,-1.000000
4.987291,30.663721,-1.008940,-0.000000,1.000000,0.000000
30.605201,21.010245,3.619360,0.000000,-0.000000,1.000000
12.489874,25.751429,-3.619360,0.000000,-0.000000,-1.000000
0.136176,-30.663721,2.705829,0.000000,-1.000000,0.000000
4.387140,5.139760,-3.619360,0.000000,0.000000,-1.000000
-24.187146,-15.349352,-3.619360,0.000000,0.000000,-1.000000
36.009905,-4.326157,-3.619360,0.000000,0.000000,-1.000000
-52.237732,7.068482,2.677220,-1.000000,0.000000,0.000000
-34.488688,21.884870,-3.619360,0.000000,0.000000,-1.000000
52.237732,-13.132681,1.799787,1.000000,-0.000000,0.000000
-6.823121,0.423232,-3.619360,0.000000,0.000000,-1.000000
-52.237732,3.168003,-1.470507,-1.000000,0.000000,0.000000
23.092319,5.937895,3.619360,0.000000,0.000000,1.000000
-18.435191,18.969513,3.619360,0.000000,-0.000000,1.000000
52.237732,13.996022,2.322801,1.000000,-0.000000,0.000000
-42.506078,6.478190,-3.619360,0.000000,0.000000,-1.000000
38.402660,-4.227770,3.619360,0.000000,0.000000,1.000000
-2.488271,-30.599620,3.619360,0.000000,-0.000000,1.000000
-14.479886,-30.663721,1.208952,0.000000,-1.000000,0.000000
-32.190619,15.600156,-3.619360,0.000000,0.000000,-1.000000
-45.590574,-11.247429,3.619360,0.000000,-0.000000,1.000000
29.013112,-27.655007,-3.619360,0.000000,0.000000,-1.000000
-42.782426,3.209333,3.619360,0.000000,-0.000000,1.000000
25.316345,4.998191,-3.619360,0.000000,-0.000000,-1.000000
-29.601246,19.670056,-3.619360,0.000000,0.000000,-1.000000
-5.148252,-4.682089,-3.619360,0.000000,0.000000,-1.000000
36.979917,10.236750,3.619360,0.000000,0.000000,1.000000
-10.098474,-17.872867,-3.619360,0.000000,0.000000,-1.000000
-12.402278,0.768630,-3.619360,0.000000,0.000000,-1.000000
12.723683,4.853214,-3.619360,0.000000,0.000000,-1.000000
-0.325156,4.699179,-3.619360,0.000000,0.000000,-1.000000
-15.763657,15.477258,3.619360,0.000000,-0.000000,1.000000
16.430624,22.393341,-3.619360,0.000000,-0.000000,-1.000000
-34.158216,-9.651994,-3.619360,0.000000,0.000000,-1.000000
-41.117111,-10.908935,-3.619360,0.000000,0.000000,-1.000000
-10.136814,28.960006,-3.619360,0.000000,-0.000000,-1.000000
48.502569,25.923817,-3.619360,0.000000,-0.000000,-1.000000
9.888847,-19.332207,-3.619360,0.000000,0.000000,-1.000000
-37.370517,-14.425825,3.619360,0.000000,-0.000000,1.000000
25.259963,-19.366789,3.619360,0.000000,-0.000000,1.000000
42.995850,25.315381,3.619360,0.000000,-0.000000,1.000000
-52.237732,26.025000,-3.267578,-1.000000,0.000000,0.000000
40.103656,-6.304077,3.619360,0.000000,0.000000,1.000000
-7.363850,-29.532545,3.619360,0.000000,-0.000000,1.000000
32.643354,-30.663721,2.342057,0.000000,-1.000000,0.000000
-12.359603,-14.326418,-3.619360,0.000000,0.000000,-1.000000
30.099610,23.911811,-3.619360,0.000000,-0.000000,-1.000000
49.898184,-18.017018,-3.619360,0.000000,0.000000,-1.000000
-40.268742,-14.899021,-3.619360,0.000000,0.000000,-1.000000
52.237732,14.698256,-0.184103,1.000000,-0.000000,0.000000
8.117487,30.663721,-2.091828,-0.000000,1.000000,0.000000
-11.053450,-23.910803,-3.619360,0.000000,0.000000,-1.000000
-17.589722,-10.427535,-3.619360,0.000000,0.000000,-1.000000
5.119212,18.289567,-3.619360,0.000000,-0.000000,-1.000000
26.336785,23.909826,3.619360,-0.000000,0.000000,1.000000
-36.681347,24.365036,3.619360,0.000000,-0.000000,1.000000
36.303772,7.841283,3.619360,0.000000,0.000000,1.000000
-52.237732,-30.565803,3.025490,-1.000000,0.000000,0.000000
23.119374,30.663721,2.363558,0.000000,1.000000,0.000000
-51.961458,-10.924307,3.619360,0.000000,-0.000000,1.000000
-7.405318,-28.329472,3.619360,0.000000,-0.000000,1.000000
26.716765,-7.783210,3.619360,0.000000,0.000000,1.000000
-24.811536,-18.102118,3.619360,0.000000,0.000000,1.000000
-35.253906,0.657612,3.619360,0.000000,-0.000000,1.000000
-45.772527,-5.075185,3.619360,0.000000,-0.000000,1.000000
-0.683264,-4.423462,3.619360,0.000000,0.000000,1.000000
37.184596,-29.933917,3.619360,0.000000,-0.000000,1.000000
26.921017,-13.762756,-3.619360,0.000000,0.000000,-1.000000
-44.999664,13.933536,-3.619360,0.000000,0.000000,-1.000000
28.198355,15.313443,3.619360,0.000000,0.000000,1.000000
-42.856563,-30.663721,-0.619356,0.000000,-1.000000,0.000000
-3.376785,-9.617491,-3.619360,0.000000,0.000000,-1.000000
-9.596460,-20.828924,3.619360,0.000000,0.000000,1.000000
-25.963331,-4.123321,-3.619360,0.000000,0.000000,-1.000000
-18.082503,-20.921708,3.619360,0.000000,0.000000,1.000000
13.671861,23.062690,3.619360,-0.000000,0.000000,1.000000
-4.712998,-10.213770,3.619360,0.000000,0.000000,1.000000
29.869201,28.870879,3.619360,-0.000000,0.000000,1.000000
38.183313,-11.636816,-1.997536,-0.956941,-0.290281,0.000000
52.237732,-29.025830,2.677100,1.000000,0.000000,-0.000000
39.029666,28.676413,-3.619360,0.000000,-0.000000,-1.000000
-20.047142,-30.663721,0.268109,0.000000,-1.000000,0.000000
-42.267952,-8.238996,-3.619360,0.000000,0.000000,-1.000000
-52.237732,-13.700817,0.375938,-1.000000,0.000000,0.000000
-19.649260,11.482205,3.619360,0.000000,-0.000000,1.000000
39.971582,-17.997037,3.619360,0.000000,0.000000,1.000000
52.237732,-15.821894,2.452767,1.000000,-0.000000,0.000000
41.509203,-12.303336,-3.619360,0.000000,0.000000,-1.000000
40.947003,9.883056,3.619360,0.000000,0.000000,1.000000
-28.719533,-28.386732,3.619360,0.000000,-0.000000,1.000000
38.177624,-3.305005,-3.619360,-0.000000,0.000000,-1.000000
-29.498503,28.004481,-3.619360,0.000000,-0.000000,-1.000000
-44.960727,21.172295,-3.619360,0.000000,0.000000,-1.000000
-52.237732,13.245444,0.554420,-1.000000,0.000000,0.000000
21.336822,25.920502,3.619360,-0.000000,0.000000,1.000000
46.747726,9.089930,3.619360,0.000000,-0.000000,1.000000
-29.052195,11.615609,-3.619360,0.000000,0.000000,-1.000000
-50.042737,6.690998,-3.619360,0.000000,0.000000,-1.000000
15.886747,17.662184,3.619360,-0.000000,0.000000,1.000000
35.260731,-9.222558,-0.373853,-0.098016,-0.995185,0.000000
-40.301517,30.663721,3.053551,0.000000,1.000000,0.000000
22.329710,-23.907806,3.619360,0.000000,-0.000000,1.000000
-14.497781,-19.592027,-3.619360,0.000000,0.000000,-1.000000
37.624123,-14.791843,-1.172289,-0.773011,0.634392,0.000000
-18.114840,-19.446112,-3.619360,0.000000,0.000000,-1.000000
-49.458924,24.341567,3.619360,0.000000,-0.000000,1.000000
36.490705,30.663721,3.285354,0.000000,1.000000,0.000000
46.557791,-20.996347,-3.619360,0.000000,0.000000,-1.000000
-14.808089,27.569445,3.619360,-0.000000,0.000000,1.000000
16.955585,9.743961,3.619360,0.000000,0.000000,1.000000
-43.845392,22.795919,-3.619360,0.000000,0.000000,-1.000000
46.964795,16.313520,-3.619360,-0.000000,0.000000,-1.000000
-18.183670,23.235144,3.619360,-0.000000,0.000000,1.000000
40.874968,30.663721,1.698392,-0.000000,1.000000,0.000000
-45.026617,-13.156144,-3.619360,0.000000,0.000000,-1.000000
-18.643791,12.088667,-3.619360,0.000000,0.000000,-1.000000
-33.957821,-17.542774,3.619360,0.000000,-0.000000,1.000000
23.728360,10.432582,3.619360,0.000000,0.000000,1.000000
32.339193,-22.269422,3.619360,0.000000,-0.000000,1.000000
33.593469,-15.917913,-1.534260,0.290285,0.956940,0.000000
-52.237732,3.099624,-2.905636,-1.000000,0.000000,0.000000
-17.713203,13.154241,3.619360,0.000000,-0.000000,1.000000
23.358923,17.125789,3.619360,0.000000,-0.000000,1.000000
39.841235,-14.811067,3.619360,0.000000,0.000000,1.000000
-52.165785,-27.787057,3.619360,0.000000,-0.000000,1.000000
39.154753,-15.488009,3.619360,0.000000,0.000000,1.000000
16.378655,-1.879369,-3.619360,0.000000,0.000000,-1.000000
-0.469517,-15.291585,-3.619360,0.000000,0.000000,-1.000000
11.892713,13.412220,0.374599,-0.881921,-0.471396,0.000000
-0.650601,-12.005122,3.619360,0.000000,0.000000,1.000000
52.237732,19.539274,-3.377060,1.000000,0.000000,-0.000000
11.612438,28.582827,3.619360,-0.000000,0.000000,1.000000
52.237732,-13.352071,-2.407714,1.000000,0.000000,-0.000000
-13.259366,-16.599447,-3.619360,0.000000,0.000000,-1.000000
-25.543163,23.408325,3.619360,-0.000000,0.000000,1.000000
29.131503,-15.036262,3.619360,0.000000,-0.000000,1.000000
21.242467,17.106080,-3.619360,0.000000,0.000000,-1.000000
21.717047,-12.361695,-3.619360,0.000000,0.000000,-1.000000
28.754402,29.509277,3.619360,-0.000000,0.000000,1.000000
-3.666676,3.927607,3.619360,0.000000,-0.000000,1.000000
-41.514646,27.039322,-3.619360,0.000000,0.000000,-1.000000
-25.848689,-21.007247,-3.619360,0.000000,0.000000,-1.000000
22.914834,16.603962,3.619360,0.000000,-0.000000,1.000000
32.792901,14.674363,-3.619360,0.000000,-0.000000,-1.000000
-35.698804,16.879563,3.619360,0.000000,-0.000000,1.000000
-23.970151,-25.276597,-3.619360,0.000000,0.000000,-1.000000
10.251414,28.430456,-3.619360,0.000000,-0.000000,-1.000000
-34.067643,-2.958442,3.619360,0.000000,-0.000000,1.000000
-14.767535,3.579048,-3.619360,0.000000,0.000000,-1.000000
-16.516385,8.679070,3.619360,0.000000,-0.000000,1.000000
-9.868467,-11.426367,3.619360,0.000000,0.000000,1.000000
24.499811,-17.310574,3.619360,0.000000,-0.000000,1.000000
-28.742673,-28.769557,-3.619360,0.000000,0.000000,-1.000000
-49.712552,18.367473,3.619360,0.000000,-0.000000,1.000000
-23.738857,15.150322,-3.619360,0.000000,0.000000,-1.000000
-21.036004,-22.931179,3.619360,0.000000,0.000000,1.000000
-45.078350,-26.465326,-3.619360,0.000000,0.000000,-1.000000
0.678755,-4.092453,3.619360,0.000000,0.000000,1.000000
-18.099904,27.375485,-3.619360,0.000000,-0.000000,-1.000000
37.879857,-14.408764,-3.026360,-0.881920,0.471400,0.000000
49.912294,24.035916,-3.619360,-0.000000,0.000000,-1.000000
25.362070,17.417545,-3.619360,0.000000,-0.000000,-1.000000
-28.359765,-15.696607,-3.619360,0.000000,0.000000,-1.000000
-24.945583,8.792319,3.619360,0.000000,-0.000000,1.000000
3.422032,-18.896874,-3.619360,0.000000,0.000000,-1.000000
-26.564705,9.582227,3.619360,0.000000,-0.000000,1.000000
-28.023986,-12.087268,3.619360,0.000000,-0.000000,1.000000
-51.626129,-23.407059,3.619360,0.000000,-0.000000,1.000000
36.416072,3.993674,-3.619360,0.000000,-0.000000,-1.000000
-13.644004,19.360765,-3.619360,0.000000,-0.000000,-1.000000
-43.858252,23.778295,-3.619360,0.000000,0.000000,-1.000000
-52.237732,-9.887818,2.452558,-1.000000,0.000000,0.000000
29.029615,5.409040,3.619360,0.000000,0.000000,1.000000
15.447171,9.150046,3.619360,0.000000,-0.000000,1.000000
-3.420041,30.663721,0.231202,0.000000,1.000000,0.000000
-41.433890,13.279070,-3.619360,0.000000,0.000000,-1.000000
45.605950,-21.101327,3.619360,0.000000,-0.000000,1.000000
11.141952,9.146629,3.584092,-0.634393,0.773011,0.000000
25.353295,29.131548,3.619360,-0.000000,0.000000,1.000000
51.418553,1.703827,3.619360,0.000000,-0.000000,1.000000
1.562485,-26.515840,3.619360,0.000000,-0.000000,1.000000
11.511583,4.035386,3.619360,0.000000,0.000000,1.000000
37.581957,-14.843222,-0.001465,-0.773011,0.634392,0.000000
-52.237732,19.883384,-1.543749,-1.000000,0.000000,0.000000
34.922344,-1.258467,3.619360,0.000000,0.000000,1.000000
1.874519,-30.663721,-3.250004,0.000000,-1.000000,0.000000
5.674565,-3.281323,-3.619360,0.000000,0.000000,-1.000000
4.811240,22.533165,-3.619360,0.000000,-0.000000,-1.000000
-12.065587,18.999977,-3.619360,0.000000,-0.000000,-1.000000
-31.106229,12.558439,-3.619360,0.000000,0.000000,-1.000000
-52.237732,10.656109,1.144041,-1.000000,0.000000,0.000000
2.601154,-25.984527,3.619360,0.000000,-0.000000,1.000000
37.075253,-15.356829,2.770179,-0.634394,0.773010,0.000000
31.999322,-7.308236,3.619360,0.000000,0.000000,1.000000
-21.029163,-27.743086,-3.619360,0.000000,0.000000,-1.000000
-49.447505,1.872824,-3.619360,0.000000,0.000000,-1.000000
-19.535138,8.926148,-3.619360,0.000000,0.000000,-1.000000
-10.694413,-19.261169,3.619360,0.000000,0.000000,1.000000
-52.237732,11.964022,3.193652,-1.000000,0.000000,0.000000
-49.440812,28.261572,-3.619360,0.000000,0.000000,-1.000000
-0.496604,-1.219059,-3.619360,0.000000,0.000000,-1.000000
-49.337966,4.221445,3.619360,0.000000,-0.000000,1.000000
-43.786260,3.559837,-3.619360,0.000000,0.000000,-1.000000
-24.135365,-21.424257,3.619360,0.000000,0.000000,1.000000
-10.938490,-13.204896,-3.619360,0.000000,0.000000,-1.000000
7.854612,8.421396,-1.805472,0.290285,0.956940,-0.000000
17.872633,-30.663721,1.171197,0.000000,-1.000000,0.000000
-46.423072,30.663721,-0.127293,0.000000,1.000000,0.000000
-51.280534,1.169601,-3.619360,0.000000,0.000000,-1.000000
38.540188,-16.108207,3.619360,0.000000,0.000000,1.000000
-19.791638,29.634090,-3.619360,0.000000,-0.000000,-1.000000
11.968343,20.012516,-3.619360,0.000000,-0.000000,-1.000000
13.831267,28.489050,3.619360,-0.000000,0.000000,1.000000
-12.544046,-21.253495,-3.619360,0.000000,0.000000,-1.000000
52.237732,-9.034959,2.220263,1.000000,-0.000000,0.000000
-26.062158,-12.474762,3.619360,0.000000,-0.000000,1.000000
2.722269,-1.220986,-3.619360,0.000000,0.000000,-1.000000
-6.285218,9.669312,3.619360,0.000000,-0.000000,1.000000
47.502313,13.842829,-3.619360,0.000000,0.000000,-1.000000
-47.881602,18.017761,3.619360,0.000000,-0.000000,1.000000
-22.657256,17.902325,-3.619360,0.000000,0.000000,-1.000000
35.248046,-4.523422,-3.619360,0.000000,-0.000000,-1.000000
26.586341,16.279257,3.619360,0.000000,-0.000000,1.000000
23.082531,-2.297778,-3.619360,0.000000,-0.000000,-1.000000
22.424151,-24.924100,3.619360,0.000000,-0.000000,1.000000
14.989791,-22.223850,-3.619360,0.000000,0.000000,-1.000000
44.988567,21.080692,3.619360,0.000000,0.000000,1.000000
11.335118,14.189029,0.351527,-0.773010,-0.634394,0.000000
31.037897,-29.798281,-3.619360,0.000000,0.000000,-1.000000
-17.591572,-5.812603,-3.619360,0.000000,0.000000,-1.000000
-18.056997,-8.721134,-3.619360,0.000000,0.000000,-1.000000
36.466106,13.428560,-3.619360,0.000000,-0.000000,-1.000000
16.049904,-30.663721,3.076468,0.000000,-1.000000,0.000000
-5.864944,-27.066543,-3.619360,0.000000,0.000000,-1.000000
33.458235,-25.547369,-3.619360,0.000000,0.000000,-1.000000
16.849005,29.533616,-3.619360,0.000000,-0.000000,-1.000000
4.455587,-24.940916,3.619360,0.000000,-0.000000,1.000000
40.745010,30.663721,-3.413317,-0.000000,1.000000,0.000000
35.426687,-27.733656,3.619360,0.000000,-0.000000,1.000000
41.309175,14.911140,3.619360,0.000000,0.000000,1.000000
28.536211,17.412323,3.619360,0.000000,-0.000000,1.000000
16.252939,13.453940,3.619360,0.000000,-0.000000,1.000000
32.903420,-9.792920,-2.423187,0.634394,-0.773010,0.000000
39.135218,8.804648,3.619360,0.000000,0.000000,1.000000
37.103682,29.428866,-3.619360,0.000000,-0.000000,-1.000000
52.237732,21.598273,0.817949,1.000000,-0.000000,0.000000
28.807667,30.663721,2.237104,0.000000,1.000000,0.000000
-39.148023,19.000871,3.619360,0.000000,-0.000000,1.000000
-2.497846,-12.033382,-3.619360,0.000000,0.000000,-1.000000
5.990844,-9.032207,-3.619360,0.000000,0.000000,-1.000000
10.739519,-5.508532,3.619360,0.000000,0.000000,1.000000
-30.764094,16.134998,-3.619360,0.000000,0.000000,-1.000000
34.579142,-6.002717,3.619360,0.000000,0.000000,1.000000
-14.709562,10.468744,-3.619360,0.000000,0.000000,-1.000000
-38.134561,-17.843544,3.619360,0.000000,-0.000000,1.000000
-20.478292,30.663721,-1.071562,0.000000,1.000000,0.000000
30.941864,15.969738,-3.619360,0.000000,-0.000000,-1.000000
16.282800,8.476947,-3.619360,0.000000,-0.000000,-1.000000
51.721563,21.728933,3.619360,0.000000,-0.000000,1.000000
-12.921507,25.795441,-3.619360,0.000000,-0.000000,-1.000000
46.039238,-11.760379,-3.619360,0.000000,0.000000,-1.000000
-5.825879,3.003178,3.619360,0.000000,-0.000000,1.000000
-30.561958,23.122921,3.619360,0.000000,-0.000000,1.000000
-52.237732,1.559276,-2.286938,-1.000000,0.000000,0.000000
22.834881,30.663721,-1.230147,-0.000000,1.000000,0.000000
-5.934815,3.812247,-3.619360,0.000000,0.000000,-1.000000
-7.881694,-28.968728,-3.619360,0.000000,0.000000,-1.000000
-30.268427,30.663721,-2.602819,-0.000000,1.000000,0.000000
30.835983,-30.663721,1.017958,0.000000,-1.000000,0.000000
-38.220369,27.558955,-3.619360,0.000000,-0.000000,-1.000000
-21.166648,0.516460,3.619360,0.000000,-0.000000,1.000000
-46.787488,10.474074,-3.619360,0.000000,0.000000,-1.000000
-44.629639,15.805169,3.619360,0.000000,-0.000000,1.000000
22.689823,13.587918,-3.619360,0.000000,-0.000000,-1.000000
0.881730,-21.048241,-3.619360,0.000000,0.000000,-1.000000
-7.276063,19.218744,3.619360,-0.000000,0.000000,1.000000
-40.964260,-24.987501,-3.619360,0.000000,0.000000,-1.000000
-21.346387,-3.491189,3.619360,0.000000,-0.000000,1.000000
20.296551,-30.663721,3.468512,0.000000,-1.000000,0.000000
-5.061642,-30.167384,3.619360,0.000000,-0.000000,1.000000
2.489851,30.225271,3.619360,-0.000000,0.000000,1.000000
-52.237732,-27.393099,-3.396961,-1.000000,0.000000,0.000000
51.781630,-3.320267,3.619360,0.000000,-0.000000,1.000000
20.174125,2.947828,3.619360,0.000000,0.000000,1.000000
-48.908252,0.553021,3.619360,0.000000,-0.000000,1.000000
49.425426,30.663721,0.155987,-0.000000,1.000000,0.000000
39.345802,-11.627959,-3.619360,0.000000,0.000000,-1.000000
28.417955,30.297593,-3.619360,0.000000,-0.000000,-1.000000
-2.406068,-30.663721,1.988278,0.000000,-1.000000,0.000000
-5.953652,7.826572,3.619360,0.000000,-0.000000,1.000000
9.739946,-30.663721,0.773107,0.000000,-1.000000,0.000000
-32.729219,13.251744,3.619360,0.000000,-0.000000,1.000000
