x,y,z,nx,ny,nz
-18.075157,29.144888,-0.868369,0.881921,-0.471397,0.000000
0.223811,-13.501765,-0.698422,-0.098017,0.995185,0.000000
42.513426,4.714306,1.176722,0.989176,0.146731,0.000000
26.621600,11.851085,3.497891,0.000000,-0.000000,1.000000
-40.209509,-14.503227,-0.698361,-0.941544,-0.336889,-0.000000
-25.588651,34.240057,-2.922569,-0.595699,0.803208,0.000000
-4.414367,42.557918,2.983305,-0.146731,0.989176,0.000000
-34.709896,-19.412196,3.497891,0.000000,-0.000000,1.000000
17.057743,1.639135,3.497891,-0.000000,0.000000,1.000000
-28.000901,32.310847,-1.705967,-0.671559,0.740951,0.000000
7.558416,11.207713,0.567509,-0.634393,-0.773010,0.000000
-16.642656,-30.148485,2.484323,0.290284,0.956941,0.000000
-40.404885,-5.371824,-3.497891,0.000000,0.000000,-1.000000
-41.694922,-9.464292,-0.610678,-0.970031,-0.242980,-0.000000
-17.332567,-35.258972,-3.497891,0.000000,-0.000000,-1.000000
-16.823262,33.815038,3.497891,0.000000,0.000000,1.000000
-25.129008,28.172572,3.497891,-0.000000,-0.000000,1.000000
-28.817539,-28.218779,-3.497891,0.000000,-0.000000,-1.000000
32.363522,-19.549607,3.497891,-0.000000,0.000000,1.000000
-13.729816,-32.419137,-3.497891,0.000000,0.000000,-1.000000
16.787868,4.294687,-3.497891,0.000000,0.000000,-1.000000
-32.600987,-25.050728,3.497891,0.000000,-0.000000,1.000000
-28.793213,-31.308186,3.497891,0.000000,-0.000000,1.000000
42.670672,2.562624,-2.523464,0.998795,0.049068,0.000000
19.358094,-14.876116,3.497891,-0.000000,-0.000000,1.000000
11.279062,39.615415,3.497891,0.000000,-0.000000,1.000000
20.079183,-30.585678,3.497891,0.000000,0.000000,1.000000
-26.194707,-27.233266,3.497891,0.000000,-0.000000,1.000000
-15.754956,23.670582,3.497891,0.000000,0.000000,1.000000
-38.979628,17.559959,3.285560,-0.903989,0.427555,0.000000
18.224847,15.199671,-3.497891,0.000000,0.000000,-1.000000
4.024976,28.655870,3.497891,0.000000,-0.000000,1.000000
-19.069558,38.265641,-0.645845,-0.427555,0.903989,0.000000
13.933931,-2.995186,-3.497891,0.000000,0.000000,-1.000000
-20.378652,-8.063543,3.497891,0.000000,-0.000000,1.000000
16.567530,25.423094,-1.136724,-0.290284,0.956941,0.000000
28.102448,-14.870072,-3.497891,0.000000,0.000000,-1.000000
-42.474915,-4.973929,1.008713,-0.989176,-0.146731,-0.000000
-42.730500,-1.344797,2.465988,-0.998795,-0.049068,0.000000
-15.269548,-37.758540,3.497891,-0.000000,0.000000,1.000000
-11.267663,29.042097,-3.497891,0.000000,0.000000,-1.000000
28.301467,30.742928,-3.497891,0.000000,0.000000,-1.000000
28.864942,25.585221,3.497891,0.000000,-0.000000,1.000000
23.476152,-0.027075,-3.497891,0.000000,0.000000,-1.000000
-36.250916,-4.398725,3.497891,0.000000,-0.000000,1.000000
-36.076963,22.954109,-3.199332,-0.857728,0.514103,0.000000
42.744085,-1.068280,-0.307961,0.998795,-0.049068,0.000000
39.566946,16.299073,-1.783543,0.941544,0.336889,-0.000000
0.977224,-26.427761,-3.497891,0.000000,0.000000,-1.000000
-23.702088,35.417584,-3.497891,0.000000,0.000000,-1.000000
30.792554,-16.205622,3.497891,-0.000000,-0.000000,1.000000
20.949301,-7.501038,3.497891,-0.000000,0.000000,1.000000
8.052187,15.594378,-3.497891,0.000000,-0.000000,-1.000000
-30.965325,4.076427,-3.497891,0.000000,0.000000,-1.000000
-19.987616,-32.946108,3.497891,-0.000000,0.000000,1.000000
-17.277999,16.333835,3.497891,-0.000000,-0.000000,1.000000
-3.726489,41.969042,3.497891,-0.000000,0.000000,1.000000
42.679621,2.380462,-2.278473,0.998795,0.049068,0.000000
21.513775,-32.267589,-3.497891,0.000000,0.000000,-1.000000
-40.927320,2.400763,3.497891,-0.000000,-0.000000,1.000000
14.556782,-5.896075,-3.497891,0.000000,0.000000,-1.000000
16.722052,39.375928,-0.205648,0.427555,0.903989,-0.000000
-41.817651,-7.516400,3.497891,0.000000,-0.000000,1.000000
-19.890368,37.877427,3.324751,-0.427555,0.903989,0.000000
25.701092,-18.790960,3.497891,-0.000000,0.000000,1.000000
34.298819,2.245660,3.497891,-0.000000,0.000000,1.000000
-29.472298,17.265978,3.497891,-0.000000,-0.000000,1.000000
14.277900,-0.706331,-3.497891,0.000000,0.000000,-1.000000
27.702040,-32.581719,0.753671,0.671559,-0.740951,0.000000
19.361508,30.002479,-3.497891,0.000000,-0.000000,-1.000000
-1.054262,-13.419973,-0.840622,0.098017,0.995185,-0.000000
-13.423848,-1.014913,-1.966321,0.995185,0.098017,-0.000000
39.664546,2.323997,-3.497891,0.000000,0.000000,-1.000000
27.494758,24.511290,-3.497891,0.000000,0.000000,-1.000000
6.264116,12.918576,3.497891,-0.000000,0.000000,1.000000
34.550957,-14.393532,3.497891,-0.000000,0.000000,1.000000
-14.220077,26.206825,-0.049265,-0.773012,0.634391,0.000000
27.934398,0.056377,-3.497891,0.000000,-0.000000,-1.000000
0.102781,33.664721,3.497891,0.000000,-0.000000,1.000000
-5.837171,-18.145912,-3.497891,0.000000,0.000000,-1.000000
11.164019,35.205900,-3.497891,0.000000,0.000000,-1.000000
-7.946365,-12.184379,3.497891,-0.000000,0.000000,1.000000
28.609595,-31.759159,-1.451830,0.671559,-0.740951,0.000000
11.073124,-25.920215,-3.497891,0.000000,0.000000,-1.000000
27.390074,4.562056,3.497891,0.000000,-0.000000,1.000000
4.361001,-33.238887,3.497891,0.000000,-0.000000,1.000000
-13.587522,16.033992,-3.497891,0.000000,0.000000,-1.000000
-30.116086,-8.213980,-3.497891,0.000000,0.000000,-1.000000
33.005912,-27.234014,-3.240944,0.740951,-0.671559,0.000000
12.274285,12.974978,-3.497891,0.000000,0.000000,-1.000000
-17.294702,7.945444,-3.497891,0.000000,0.000000,-1.000000
28.687471,1.887084,3.497891,0.000000,0.000000,1.000000
-11.141180,-12.188387,-3.497891,0.000000,0.000000,-1.000000
16.381511,-30.198595,1.676862,-0.098017,0.995185,0.000000
15.371276,-23.282586,-3.497891,-0.000000,-0.000000,-1.000000
-26.023403,5.139425,-3.497891,0.000000,0.000000,-1.000000
-8.231447,-25.579994,-3.497891,0.000000,-0.000000,-1.000000
39.667602,-16.017758,-3.004162,0.941544,-0.336889,0.000000
0.583745,-26.605555,3.497891,0.000000,-0.000000,1.000000
-39.619648,16.151782,0.149205,-0.941544,0.336889,0.000000
-15.505173,39.851008,3.127163,-0.336889,0.941544,0.000000
-26.778056,23.503377,-3.497891,0.000000,0.000000,-1.000000
-13.466393,-39.392145,3.497891,-0.000000,0.000000,1.000000
-6.690618,42.220267,-0.687402,-0.146731,0.989176,0.000000
27.117936,33.105862,3.346721,0.595699,0.803208,0.000000
17.591950,13.658311,3.497891,-0.000000,0.000000,1.000000
-7.878028,-37.846874,-3.497891,0.000000,-0.000000,-1.000000
21.735635,-17.090557,3.497891,-0.000000,0.000000,1.000000
21.639227,16.460880,-3.497891,0.000000,0.000000,-1.000000
-41.378654,-2.617106,3.497891,0.000000,-0.000000,1.000000
-7.871613,24.289651,3.497891,0.000000,0.000000,1.000000
9.640890,28.588983,3.497891,0.000000,-0.000000,1.000000
-30.088161,-12.019556,-3.497891,0.000000,0.000000,-1.000000
33.614363,-26.432303,-0.357655,0.803208,-0.595699,0.000000
-18.005306,38.768994,-2.541246,-0.427555,0.903989,0.000000
-35.006535,-20.647924,-3.497891,0.000000,0.000000,-1.000000
4.908425,-42.484631,-1.097321,0.146731,-0.989176,0.000000
-5.755571,-29.091457,-3.497891,0.000000,-0.000000,-1.000000
6.738307,11.658945,-3.210555,-0.471397,-0.881921,0.000000
-6.269533,16.623081,-3.497891,0.000000,0.000000,-1.000000
12.233953,26.011095,-3.497891,0.000000,-0.000000,-1.000000
1.738323,-31.072669,3.497891,0.000000,-0.000000,1.000000
17.314824,39.095568,-1.516225,0.427555,0.903989,-0.000000
-14.238960,30.818938,3.497891,0.000000,0.000000,1.000000
35.954014,-13.990085,-3.497891,0.000000,-0.000000,-1.000000
17.499645,29.740244,-2.565309,-0.634394,-0.773010,0.000000
7.435492,-21.485611,3.497891,0.000000,0.000000,1.000000
-40.443366,4.358530,-3.497891,0.000000,0.000000,-1.000000
-18.118719,6.732388,3.497891,-0.000000,-0.000000,1.000000
40.169074,0.764454,-3.497891,0.000000,0.000000,-1.000000
40.563251,13.514584,1.332539,0.941544,0.336889,0.000000
-29.159327,12.054525,3.497891,-0.000000,-0.000000,1.000000
10.130026,-30.477922,-3.497891,0.000000,0.000000,-1.000000
27.919074,-11.803561,3.497891,-0.000000,0.000000,1.000000
1.796287,-17.657657,3.497891,0.000000,0.000000,1.000000
-9.406648,38.981653,-3.497891,0.000000,0.000000,-1.000000
6.797410,34.554342,3.497891,0.000000,-0.000000,1.000000
-13.686244,-4.816693,-3.497891,0.000000,0.000000,-1.000000
26.091388,7.502697,3.497891,0.000000,-0.000000,1.000000
-2.088731,30.783299,-3.497891,0.000000,-0.000000,-1.000000
24.108187,35.338043,-2.478277,0.595699,0.803208,-0.000000
-6.709522,40.822008,-3.497891,0.000000,0.000000,-1.000000
-14.836310,31.968519,3.497891,-0.000000,-0.000000,1.000000
25.065163,-26.244926,-3.497891,0.000000,-0.000000,-1.000000
20.578203,-37.501029,2.489421,0.514103,-0.857728,0.000000
-20.288489,-16.407589,-3.497891,0.000000,0.000000,-1.000000
7.774039,27.570992,3.497891,0.000000,-0.000000,1.000000
32.976178,-6.564031,-3.497891,0.000000,-0.000000,-1.000000
-19.686997,-37.277824,-3.497891,0.000000,-0.000000,-1.000000
-6.240481,-17.180741,-3.497891,0.000000,0.000000,-1.000000
14.281346,24.236444,3.497891,0.000000,-0.000000,1.000000
-41.878399,-8.731813,-2.049489,-0.970031,-0.242980,-0.000000
-5.104836,-33.030620,-3.497891,0.000000,-0.000000,-1.000000
-26.354508,32.542153,3.497891,-0.000000,-0.000000,1.000000
-23.210855,35.621261,3.497891,-0.000000,-0.000000,1.000000
8.245913,-10.643498,0.964808,-0.634393,0.773010,0.000000
-32.072626,13.504470,3.497891,-0.000000,-0.000000,1.000000
-29.618283,19.190641,3.497891,-0.000000,-0.000000,1.000000
-24.327420,35.175449,-2.469928,-0.595699,0.803208,0.000000
14.905507,40.065572,-2.799102,0.336889,0.941544,0.000000
-24.776719,2.663775,-3.497891,0.000000,-0.000000,-1.000000
32.082694,-28.252629,2.827602,0.740951,-0.671559,0.000000
-11.708582,34.995384,3.497891,0.000000,0.000000,1.000000
-14.428550,-19.330339,-3.497891,0.000000,-0.000000,-1.000000
34.639245,-9.409639,3.497891,-0.000000,0.000000,1.000000
5.724220,-42.363619,-3.006481,0.146731,-0.989176,0.000000
10.859197,-7.983084,-1.027859,-0.773010,0.634393,0.000000
25.515545,28.623478,-3.497891,0.000000,0.000000,-1.000000
8.535188,10.841800,3.497891,0.000000,-0.000000,1.000000
-24.109267,3.450313,3.497891,-0.000000,-0.000000,1.000000
-10.514326,-32.443539,3.497891,-0.000000,0.000000,1.000000
10.087112,-34.584171,3.497891,0.000000,-0.000000,1.000000
23.647040,-27.873317,3.497891,-0.000000,0.000000,1.000000
-13.469152,10.035786,3.497891,-0.000000,0.000000,1.000000
-37.586507,-2.225002,-3.497891,0.000000,0.000000,-1.000000
18.151510,-24.788733,3.497891,0.000000,0.000000,1.000000
-24.363793,2.850310,-3.497891,0.000000,-0.000000,-1.000000
22.614266,30.005968,3.497891,0.000000,-0.000000,1.000000
-26.202015,-9.970235,3.497891,0.000000,-0.000000,1.000000
6.201444,11.945904,1.977640,-0.471397,-0.881921,0.000000
1.357810,28.449551,-3.497891,0.000000,0.000000,-1.000000
-34.911513,24.683297,3.109689,-0.803208,0.595699,0.000000
22.126845,24.820210,-3.497891,0.000000,0.000000,-1.000000
-10.912226,41.332234,2.496707,-0.242980,0.970031,0.000000
-23.334346,-6.876338,3.497891,0.000000,-0.000000,1.000000
33.353089,-14.332509,-3.497891,0.000000,-0.000000,-1.000000
-4.855603,27.123594,3.497891,0.000000,0.000000,1.000000
4.657347,-23.924402,-3.497891,0.000000,0.000000,-1.000000
-3.178410,28.943197,-3.497891,0.000000,0.000000,-1.000000
28.231187,24.777014,-3.497891,0.000000,0.000000,-1.000000
6.313814,26.253190,-3.497891,0.000000,0.000000,-1.000000
32.322879,13.758961,-3.497891,0.000000,0.000000,-1.000000
25.734929,-32.863550,3.497891,0.000000,-0.000000,1.000000
4.971624,-42.475257,2.787906,0.146731,-0.989176,0.000000
31.945365,-15.425571,3.497891,-0.000000,0.000000,1.000000
17.375993,-12.119420,3.497891,-0.000000,-0.000000,1.000000
-32.027508,-2.427303,2.267746,-0.098017,0.995185,0.000000
-19.982539,-12.265628,3.497891,0.000000,-0.000000,1.000000
16.146701,-7.111811,3.497891,-0.000000,0.000000,1.000000
1.432454,-13.382724,2.808067,-0.098017,0.995185,0.000000
20.134717,-24.219365,-3.497891,0.000000,-0.000000,-1.000000
-4.615766,30.127231,-3.497891,0.000000,0.000000,-1.000000
35.479693,-7.185399,3.497891,-0.000000,-0.000000,1.000000
35.248471,24.228962,0.613625,0.803208,0.595699,0.000000
30.256578,14.189904,-3.497891,0.000000,0.000000,-1.000000
31.218182,-3.048709,3.497891,-0.000000,-0.000000,1.000000
38.661868,8.061096,-3.497891,0.000000,0.000000,-1.000000
-22.811660,-21.359237,-3.497891,0.000000,-0.000000,-1.000000
-2.707048,26.258168,-3.497891,0.000000,0.000000,-1.000000
-32.638816,2.367243,0.752693,0.290286,-0.956940,0.000000
27.453652,-18.275622,-3.497891,0.000000,-0.000000,-1.000000
-11.809387,15.131232,-3.497891,0.000000,0.000000,-1.000000
-19.478033,29.630885,-3.497891,0.000000,-0.000000,-1.000000
23.971771,-26.857615,3.497891,-0.000000,0.000000,1.000000
-35.701459,-23.580597,-2.838433,-0.857728,-0.514103,0.000000
-35.801113,9.103629,3.497891,-0.000000,-0.000000,1.000000
25.656087,-7.178337,-3.497891,0.000000,-0.000000,-1.000000
-16.294742,33.089938,3.497891,0.000000,0.000000,1.000000
-31.569623,-28.818715,2.199162,-0.740951,-0.671559,0.000000
-10.567177,-15.879558,3.497891,0.000000,0.000000,1.000000
-2.230270,-34.613840,3.497891,-0.000000,0.000000,1.000000
-34.254858,-18.080566,-3.497891,0.000000,0.000000,-1.000000
26.966831,-17.365908,3.497891,-0.000000,0.000000,1.000000
19.966545,-11.875145,3.497891,-0.000000,0.000000,1.000000
15.859105,-6.261986,3.497891,-0.000000,0.000000,1.000000
19.194462,2.740138,3.497891,-0.000000,0.000000,1.000000
-8.067332,40.036495,-3.497891,0.000000,0.000000,-1.000000
24.159973,23.456936,-3.497891,0.000000,0.000000,-1.000000
-10.328531,9.876623,3.497891,-0.000000,0.000000,1.000000
4.680726,-35.629848,3.497891,0.000000,-0.000000,1.000000
-0.329635,-21.587977,3.497891,-0.000000,0.000000,1.000000
-2.530228,-19.880312,-3.497891,0.000000,0.000000,-1.000000
-37.907202,1.701143,-3.497891,0.000000,0.000000,-1.000000
-30.426708,14.245755,3.497891,-0.000000,-0.000000,1.000000
7.531569,-21.602497,-3.497891,0.000000,0.000000,-1.000000
-32.922371,2.281227,-3.364130,0.290286,-0.956940,0.000000
-28.593588,20.854710,-3.497891,0.000000,0.000000,-1.000000
16.027374,-34.188975,3.497891,0.000000,-0.000000,1.000000
-33.013603,14.107644,-3.497891,0.000000,0.000000,-1.000000
12.487240,11.861205,3.497891,0.000000,-0.000000,1.000000
-34.357318,-0.895271,0.049243,0.956940,0.290285,0.000000
-40.696871,-12.963424,3.497891,0.000000,-0.000000,1.000000
-10.830846,-8.208822,3.497891,0.000000,-0.000000,1.000000
13.009565,-25.659599,3.497891,-0.000000,0.000000,1.000000
-13.551552,-39.321566,3.497891,-0.000000,0.000000,1.000000
-22.413531,-11.149044,3.497891,0.000000,-0.000000,1.000000
-11.788734,24.073016,-3.497891,0.000000,0.000000,-1.000000
-9.860405,41.595701,1.543361,-0.242980,0.970031,0.000000
-4.951273,37.198201,-3.497891,0.000000,0.000000,-1.000000
-40.188290,-14.562531,2.143574,-0.941544,-0.336889,0.000000
-6.592148,-29.010648,3.497891,0.000000,-0.000000,1.000000
16.112697,-34.219198,3.497891,0.000000,-0.000000,1.000000
-19.943402,-12.255170,-3.497891,0.000000,0.000000,-1.000000
-15.760290,-7.934456,3.497891,0.000000,-0.000000,1.000000
21.543108,33.230167,3.497891,0.000000,-0.000000,1.000000
-26.437341,33.194611,-3.497891,0.000000,0.000000,-1.000000
-24.494906,-14.150654,-3.497891,0.000000,0.000000,-1.000000
-18.449825,28.133005,-2.302663,0.995185,-0.098016,0.000000
38.523676,-16.217361,3.497891,-0.000000,0.000000,1.000000
7.951000,15.382341,-3.497891,0.000000,-0.000000,-1.000000
40.523828,-13.624764,-2.877333,0.941544,-0.336889,0.000000
2.866510,-36.344748,-3.497891,0.000000,0.000000,-1.000000
18.658400,13.891438,3.497891,0.000000,-0.000000,1.000000
-16.985138,18.673220,-3.497891,0.000000,0.000000,-1.000000
14.129413,-36.793569,3.497891,0.000000,-0.000000,1.000000
38.698861,13.564610,-3.497891,0.000000,0.000000,-1.000000
11.406882,-7.209883,2.046314,-0.881921,0.471397,0.000000
2.122673,27.548906,3.497891,0.000000,-0.000000,1.000000
-13.840249,-17.453921,3.497891,0.000000,0.000000,1.000000
-37.898774,-7.282015,3.497891,0.000000,-0.000000,1.000000
21.791283,-36.773935,-0.905921,0.514103,-0.857728,0.000000
-8.205028,32.929137,3.497891,0.000000,0.000000,1.000000
-23.721574,29.456262,-3.497891,0.000000,0.000000,-1.000000
-18.243138,-28.830617,1.929396,0.881921,0.471397,0.000000
-1.411803,23.831026,-3.497891,0.000000,-0.000000,-1.000000
-27.437231,13.074924,3.497891,-0.000000,-0.000000,1.000000
2.365590,37.071914,3.497891,0.000000,-0.000000,1.000000
10.648872,-8.386294,3.497891,-0.000000,-0.000000,1.000000
13.251630,2.678984,2.728778,-0.956940,-0.290285,0.000000
-3.621302,21.620737,3.497891,0.000000,0.000000,1.000000
-4.173975,-22.801203,-3.497891,0.000000,-0.000000,-1.000000
-28.242245,-20.883290,-3.497891,0.000000,0.000000,-1.000000
-34.370831,-0.850727,-1.067233,0.956940,0.290285,0.000000
-8.664247,-20.227296,3.497891,0.000000,-0.000000,1.000000
30.684597,10.779001,3.497891,0.000000,-0.000000,1.000000
8.208982,19.761957,-3.497891,0.000000,-0.000000,-1.000000
-10.147241,17.108252,-3.497891,0.000000,0.000000,-1.000000
19.298542,-2.906696,3.497891,-0.000000,-0.000000,1.000000
38.042967,-19.540363,-2.048210,0.903989,-0.427555,0.000000
25.328320,-7.362367,3.497891,-0.000000,0.000000,1.000000
29.743783,-30.468397,-3.497891,0.000000,-0.000000,-1.000000
18.275618,-28.769851,1.855418,-0.881921,0.471397,0.000000
-15.675863,18.834786,3.497891,-0.000000,0.000000,1.000000
-33.685187,-16.746202,3.497891,0.000000,-0.000000,1.000000
32.543162,-4.238635,3.497891,-0.000000,0.000000,1.000000
-4.662361,14.488091,-3.497891,0.000000,0.000000,-1.000000
39.770016,-1.068588,3.497891,0.000000,-0.000000,1.000000
24.673644,-30.774783,3.497891,0.000000,0.000000,1.000000
-18.901017,24.331016,3.497891,-0.000000,-0.000000,1.000000
-9.823590,41.604923,2.149529,-0.242980,0.970031,0.000000
-21.518757,1.630632,-3.497891,0.000000,-0.000000,-1.000000
-24.481958,-35.060837,0.650626,-0.595699,-0.803208,0.000000
-14.876167,5.752054,3.497891,-0.000000,-0.000000,1.000000
14.377330,40.254556,-2.908317,0.336889,0.941544,0.000000
31.896844,4.683048,3.497891,0.000000,-0.000000,1.000000
-8.005696,13.238515,3.497891,0.000000,-0.000000,1.000000
-23.552569,-21.620802,3.497891,-0.000000,0.000000,1.000000
11.496219,41.185952,-0.836231,0.242980,0.970031,0.000000
7.232280,-27.276247,3.497891,0.000000,-0.000000,1.000000
-5.681535,25.600185,-3.497891,0.000000,0.000000,-1.000000
9.149928,37.960396,-3.497891,0.000000,0.000000,-1.000000
-29.672725,3.544331,3.497891,-0.000000,-0.000000,1.000000
12.847646,4.010742,1.166475,-0.956940,-0.290285,0.000000
3.013920,13.150028,3.222391,-0.290285,-0.956940,0.000000
-2.179425,-27.183434,-3.497891,0.000000,0.000000,-1.000000
-29.984945,1.186746,-1.533045,-0.881921,-0.471397,0.000000
7.313149,-28.255859,-3.497891,0.000000,0.000000,-1.000000
-36.610887,-12.273073,3.497891,0.000000,-0.000000,1.000000
-11.995546,22.462703,3.497891,0.000000,0.000000,1.000000
-14.311911,20.270089,-3.497891,0.000000,0.000000,-1.000000
11.678070,-36.864105,3.497891,0.000000,-0.000000,1.000000
8.568835,-10.378483,-0.695847,-0.634393,0.773010,0.000000
-11.746746,6.574043,-0.274556,0.881921,-0.471397,0.000000
-28.185365,7.180648,3.497891,-0.000000,-0.000000,1.000000
1.272446,36.488321,3.497891,0.000000,-0.000000,1.000000
-10.221347,8.760306,-2.878638,0.773010,-0.634393,0.000000
-40.526040,13.618581,3.418086,-0.941544,0.336889,0.000000
17.382466,-39.063576,2.794256,0.427555,-0.903989,0.000000
42.749212,0.963911,1.016761,0.998795,0.049068,0.000000
-20.798414,9.641719,3.497891,-0.000000,-0.000000,1.000000
4.542950,27.751898,3.497891,0.000000,-0.000000,1.000000
-24.294655,23.800737,3.497891,-0.000000,-0.000000,1.000000
37.434215,15.396190,3.497891,0.000000,-0.000000,1.000000
-21.520917,-8.256549,-3.497891,0.000000,0.000000,-1.000000
2.619722,-15.822020,3.497891,0.000000,0.000000,1.000000
-1.166102,16.464365,-3.497891,0.000000,0.000000,-1.000000
-21.481506,36.959609,-1.348468,-0.514103,0.857728,0.000000
32.466906,-27.828716,3.411327,0.740951,-0.671559,0.000000
-32.102953,-14.749138,3.497891,0.000000,-0.000000,1.000000
-13.454721,0.701457,-1.998184,0.995185,-0.098017,0.000000
15.393691,-39.812985,-3.497891,0.000000,0.000000,-1.000000
-3.277718,-36.226579,-3.497891,0.000000,0.000000,-1.000000
14.610255,-14.530267,-3.497891,0.000000,-0.000000,-1.000000
-26.657467,-29.429192,3.497891,0.000000,-0.000000,1.000000
1.146401,38.845801,3.497891,0.000000,-0.000000,1.000000
-32.375038,6.752264,-3.497891,0.000000,0.000000,-1.000000
15.224760,-25.515655,2.326822,0.290285,-0.956940,0.000000
26.017202,-25.951677,-3.497891,0.000000,-0.000000,-1.000000
-30.666482,4.185386,3.497891,-0.000000,-0.000000,1.000000
17.530339,-38.993637,0.260853,0.427555,-0.903989,0.000000
-21.121349,3.428485,-3.497891,0.000000,0.000000,-1.000000
-22.904549,4.751787,-3.497891,0.000000,0.000000,-1.000000
-0.746901,-38.450075,3.497891,-0.000000,0.000000,1.000000
-40.308800,-1.531429,3.497891,0.000000,-0.000000,1.000000
37.940037,19.757989,-1.576497,0.903989,0.427555,-0.000000
-16.184624,-23.469888,3.497891,0.000000,0.000000,1.000000
8.687609,38.490582,-3.497891,0.000000,0.000000,-1.000000
15.724303,30.199422,2.038141,0.098017,-0.995185,0.000000
27.832744,-17.096339,-3.497891,0.000000,-0.000000,-1.000000
-42.566788,4.354571,-3.123418,-0.989176,0.146731,0.000000
-25.132030,15.790286,3.497891,-0.000000,-0.000000,1.000000
-30.731652,15.572722,-3.497891,0.000000,0.000000,-1.000000
-16.318930,10.546140,3.497891,-0.000000,-0.000000,1.000000
-29.644940,28.429942,3.497891,-0.000000,-0.000000,1.000000
-10.683244,25.116448,-3.497891,0.000000,0.000000,-1.000000
-3.650941,31.847238,3.497891,0.000000,0.000000,1.000000
-32.925292,-2.280341,-2.407310,0.290286,0.956940,-0.000000
-35.131497,8.537151,-3.497891,0.000000,0.000000,-1.000000
-36.916825,21.552887,3.107848,-0.857728,0.514103,0.000000
-24.346564,-31.448431,3.497891,-0.000000,0.000000,1.000000
0.285486,-23.724239,-3.497891,0.000000,0.000000,-1.000000
7.859650,21.185200,3.497891,0.000000,-0.000000,1.000000
-30.532708,-5.711066,3.497891,0.000000,-0.000000,1.000000
17.776215,26.083595,1.310598,-0.773011,0.634392,0.000000
23.288124,-3.377522,3.497891,-0.000000,0.000000,1.000000
-17.372853,37.535361,3.497891,0.000000,0.000000,1.000000
10.527988,-9.873298,3.497891,-0.000000,-0.000000,1.000000
11.949326,-24.318637,3.497891,-0.000000,0.000000,1.000000
33.467818,6.920619,3.497891,0.000000,-0.000000,1.000000
-22.742267,6.380489,3.497891,-0.000000,-0.000000,1.000000
-38.918757,3.146288,3.497891,-0.000000,0.000000,1.000000
31.021432,11.760595,-3.497891,0.000000,0.000000,-1.000000
-24.598198,-5.767034,-3.497891,0.000000,0.000000,-1.000000
-31.969932,2.421632,3.241492,-0.098017,-0.995185,0.000000
14.066592,40.365740,-0.596030,0.336889,0.941544,0.000000
38.388470,-9.737701,3.497891,-0.000000,0.000000,1.000000
24.872403,-34.771263,0.789897,0.595699,-0.803208,0.000000
-9.729436,26.656339,-3.497891,0.000000,0.000000,-1.000000
-31.908711,9.392514,3.497891,-0.000000,-0.000000,1.000000
21.789571,-29.373546,-3.497891,0.000000,-0.000000,-1.000000
-25.397235,-29.997717,-3.497891,0.000000,0.000000,-1.000000
-29.150326,-21.808411,-3.497891,0.000000,0.000000,-1.000000
-11.236516,-38.689656,-3.497891,0.000000,-0.000000,-1.000000
-19.405525,7.494596,3.497891,-0.000000,-0.000000,1.000000
-7.913834,27.831263,-3.497891,0.000000,0.000000,-1.000000
-33.824256,22.041698,3.497891,-0.000000,-0.000000,1.000000
5.037366,42.465505,1.004239,0.146731,0.989176,-0.000000
-29.521593,29.938068,-3.497891,0.000000,0.000000,-1.000000
-19.389920,12.255904,-3.497891,0.000000,0.000000,-1.000000
18.033554,26.397164,-3.027658,-0.773011,0.634392,0.000000
-21.532138,-27.583489,3.497891,-0.000000,0.000000,1.000000
18.990843,15.386933,-3.497891,0.000000,0.000000,-1.000000
13.385644,17.519056,3.497891,0.000000,-0.000000,1.000000
7.684765,-39.135419,3.497891,0.000000,-0.000000,1.000000
-25.004941,-34.672966,-1.771771,-0.595699,-0.803208,0.000000
-37.335178,-2.134249,-3.497891,0.000000,0.000000,-1.000000
9.406914,18.880960,-3.497891,0.000000,0.000000,-1.000000
0.564385,16.674284,3.497891,0.000000,-0.000000,1.000000
6.220832,36.906661,3.497891,0.000000,-0.000000,1.000000
-28.830031,16.063392,3.497891,-0.000000,-0.000000,1.000000
33.849346,-1.683836,-0.737342,-0.773014,0.634389,0.000000
22.752418,30.689880,-3.497891,0.000000,0.000000,-1.000000
-34.490170,-0.420771,-3.198326,0.995185,0.098017,-0.000000
24.866644,26.080370,3.497891,0.000000,-0.000000,1.000000
17.013933,10.919691,3.497891,0.000000,-0.000000,1.000000
-28.134489,24.927270,3.497891,-0.000000,-0.000000,1.000000
14.746570,-20.600711,3.497891,0.000000,0.000000,1.000000
19.682573,27.410540,-3.497891,0.000000,0.000000,-1.000000
-7.173283,-20.161247,3.497891,-0.000000,0.000000,1.000000
20.349678,-23.009623,3.497891,-0.000000,0.000000,1.000000
-11.585789,30.560254,3.497891,0.000000,0.000000,1.000000
-1.161616,-42.739499,-3.304250,-0.049068,-0.998795,0.000000
-21.666163,-15.255465,3.497891,0.000000,-0.000000,1.000000
-23.562885,5.701522,3.497891,-0.000000,0.000000,1.000000
18.233591,30.072235,3.497891,-0.000000,0.000000,1.000000
-5.394176,18.605370,-3.497891,0.000000,0.000000,-1.000000
0.984032,21.537570,3.497891,0.000000,-0.000000,1.000000
-9.214230,-31.678061,-3.497891,0.000000,-0.000000,-1.000000
-30.672410,25.236389,-3.497891,0.000000,-0.000000,-1.000000
-36.330447,-22.531198,3.163167,-0.857728,-0.514103,0.000000
36.528274,-14.279373,-3.497891,0.000000,-0.000000,-1.000000
42.595664,-4.089452,-1.924493,0.998795,-0.049068,0.000000
-8.507105,-15.804409,3.497891,0.000000,-0.000000,1.000000
-1.886144,-23.275467,3.497891,0.000000,-0.000000,1.000000
15.997932,0.655397,-3.497891,0.000000,-0.000000,-1.000000
26.634692,1.407033,-3.497891,0.000000,-0.000000,-1.000000
12.405200,-26.931667,-3.497891,0.000000,0.000000,-1.000000
-19.736684,13.200895,3.497891,-0.000000,0.000000,1.000000
21.724620,5.335873,3.497891,0.000000,-0.000000,1.000000
10.415501,15.547539,3.497891,0.000000,-0.000000,1.000000
-10.161664,-28.711421,3.497891,-0.000000,0.000000,1.000000
-34.493236,-0.389639,-3.419619,0.995185,0.098017,-0.000000
-1.913687,16.836542,-3.497891,0.000000,0.000000,-1.000000
7.345074,42.123187,-2.527755,0.146731,0.989176,0.000000
-16.166275,12.678872,3.497891,-0.000000,0.000000,1.000000
-13.481219,-20.263511,3.497891,0.000000,0.000000,1.000000
5.539058,-19.327234,3.497891,0.000000,-0.000000,1.000000
25.047239,6.444097,-3.497891,0.000000,0.000000,-1.000000
-6.737387,42.213330,0.526653,-0.146731,0.989176,0.000000
-31.152362,-10.017109,3.497891,0.000000,-0.000000,1.000000
34.868279,4.553746,-3.497891,0.000000,0.000000,-1.000000
6.178083,36.426282,3.497891,0.000000,-0.000000,1.000000
-8.561573,-19.786396,-3.497891,0.000000,0.000000,-1.000000
-30.560863,-16.394601,-3.497891,0.000000,0.000000,-1.000000
25.549663,27.965328,3.497891,0.000000,-0.000000,1.000000
6.289957,42.279700,-2.763357,0.146731,0.989176,0.000000
3.004351,18.273255,3.497891,0.000000,-0.000000,1.000000
18.952368,-35.692205,-3.497891,0.000000,0.000000,-1.000000
-10.918306,-7.911059,-2.734765,0.773010,0.634393,-0.000000
-7.899754,-10.927584,-0.441213,0.634393,0.773010,0.000000
3.926571,-13.272868,-3.497891,0.000000,0.000000,-1.000000
7.914411,17.759376,-3.497891,0.000000,-0.000000,-1.000000
-14.020311,-29.141226,-2.870937,-0.881921,0.471398,0.000000
36.911053,-13.483795,3.497891,-0.000000,0.000000,1.000000
16.381169,-18.499624,3.497891,-0.000000,0.000000,1.000000
-1.961570,28.728058,-3.497891,0.000000,-0.000000,-1.000000
-9.728752,21.710220,3.497891,0.000000,0.000000,1.000000
-3.994343,36.082351,3.497891,0.000000,0.000000,1.000000
-37.254360,20.989744,-1.674201,-0.857728,0.514103,0.000000
9.631617,-10.382642,3.497891,-0.000000,-0.000000,1.000000
-26.484020,-14.346865,-3.497891,0.000000,0.000000,-1.000000
12.510413,-5.122450,-2.586064,-0.956940,0.290285,0.000000
-27.180867,16.222999,-3.497891,0.000000,0.000000,-1.000000
9.772122,34.658270,-3.497891,0.000000,0.000000,-1.000000
-16.334576,-24.937834,-3.497891,0.000000,-0.000000,-1.000000
-17.935718,-26.277951,2.286912,0.773011,-0.634392,0.000000
25.058292,18.384574,-3.497891,0.000000,0.000000,-1.000000
37.206354,21.069838,-1.754955,0.857728,0.514103,0.000000
-19.413749,-29.308339,3.497891,0.000000,-0.000000,1.000000
6.463808,-41.994601,3.497891,0.000000,-0.000000,1.000000
38.918446,1.571433,-3.497891,0.000000,0.000000,-1.000000
-37.480504,20.612446,2.398988,-0.857728,0.514103,0.000000
2.161528,42.690377,0.276106,0.049068,0.998795,-0.000000
-22.974292,-16.420954,3.497891,0.000000,-0.000000,1.000000
-16.268787,-32.728444,3.497891,-0.000000,0.000000,1.000000
18.682114,-23.177628,3.497891,-0.000000,-0.000000,1.000000
25.230477,23.718589,-3.497891,0.000000,0.000000,-1.000000
9.800840,-9.272696,-0.845458,-0.773010,0.634393,0.000000
-10.404534,-16.288782,3.497891,-0.000000,0.000000,1.000000
20.885447,32.155639,3.497891,0.000000,-0.000000,1.000000
30.831967,2.070406,1.513474,0.471398,-0.881920,0.000000
1.161825,-39.074837,3.497891,0.000000,-0.000000,1.000000
-29.612198,24.397893,3.497891,-0.000000,-0.000000,1.000000
21.724952,-24.569681,3.497891,-0.000000,0.000000,1.000000
-27.918282,-6.356305,3.497891,0.000000,-0.000000,1.000000
-3.847313,38.102129,3.497891,0.000000,-0.000000,1.000000
-42.312709,-6.067426,1.772149,-0.989176,-0.146731,0.000000
-16.493874,-6.775940,3.497891,0.000000,-0.000000,1.000000
4.911496,-36.257096,-3.497891,0.000000,0.000000,-1.000000
-29.419882,16.287526,-3.497891,0.000000,0.000000,-1.000000
-5.986739,35.902101,3.497891,0.000000,0.000000,1.000000
6.532120,-34.428566,-3.497891,0.000000,0.000000,-1.000000
0.088260,19.799788,-3.497891,0.000000,0.000000,-1.000000
-24.388154,-15.373502,3.497891,0.000000,-0.000000,1.000000
3.459884,-30.541553,3.497891,0.000000,0.000000,1.000000
32.333241,11.411618,-3.497891,0.000000,0.000000,-1.000000
9.220297,36.278302,3.497891,0.000000,-0.000000,1.000000
-18.737763,-22.424177,3.497891,-0.000000,0.000000,1.000000
7.878169,40.725363,-3.497891,0.000000,0.000000,-1.000000
-31.107913,22.150139,3.497891,-0.000000,-0.000000,1.000000
-15.141005,39.981309,-1.317253,-0.336889,0.941544,0.000000
-1.857102,23.732515,3.497891,0.000000,-0.000000,1.000000
35.257912,21.046713,3.497891,0.000000,-0.000000,1.000000
-17.946929,-26.291611,2.451035,0.773011,-0.634392,0.000000
-23.697156,27.544657,-3.497891,0.000000,0.000000,-1.000000
18.820335,29.772108,3.497891,0.000000,-0.000000,1.000000
24.042871,17.526431,-3.497891,0.000000,0.000000,-1.000000
34.003966,15.852252,-3.497891,0.000000,0.000000,-1.000000
10.243649,-37.274311,-3.497891,0.000000,0.000000,-1.000000
-18.747581,38.417925,-0.060700,-0.427555,0.903989,0.000000
-8.517520,27.108075,3.497891,0.000000,0.000000,1.000000
-22.413467,16.985390,3.497891,-0.000000,-0.000000,1.000000
29.517998,-17.294165,-3.497891,0.000000,-0.000000,-1.000000
-36.968709,11.173941,-3.497891,0.000000,0.000000,-1.000000
27.038873,-33.164500,2.082919,0.595699,-0.803208,0.000000
-34.002372,1.497371,3.357491,0.773014,-0.634389,0.000000
-18.171193,13.738377,-3.497891,0.000000,0.000000,-1.000000
12.913849,-40.778197,0.583292,0.336889,-0.941544,0.000000
38.304741,2.049126,3.497891,0.000000,-0.000000,1.000000
25.393300,19.013050,3.497891,0.000000,-0.000000,1.000000
-36.433374,4.694219,-3.497891,0.000000,0.000000,-1.000000
-20.091013,-26.080580,-3.497891,0.000000,-0.000000,-1.000000
10.619194,-34.235950,3.497891,0.000000,-0.000000,1.000000
15.899551,-33.649467,-3.497891,0.000000,0.000000,-1.000000
24.276149,-31.855727,-3.497891,0.000000,-0.000000,-1.000000
18.352000,-27.044964,2.682837,-0.956940,-0.290285,0.000000
-12.311210,-37.632291,3.497891,-0.000000,0.000000,1.000000
-41.755835,-8.948159,3.497891,0.000000,-0.000000,1.000000
36.312826,22.560596,1.800027,0.857728,0.514103,-0.000000
-25.817082,-5.774009,-3.497891,0.000000,0.000000,-1.000000
28.069529,19.072662,-3.497891,0.000000,-0.000000,-1.000000
-42.754173,-0.862924,-2.230358,-0.998795,-0.049068,-0.000000
-17.101353,-34.958679,-3.497891,0.000000,-0.000000,-1.000000
12.911000,14.077493,3.497891,0.000000,-0.000000,1.000000
4.349066,42.567605,2.741975,0.146731,0.989176,-0.000000
22.599535,-28.136274,3.497891,0.000000,0.000000,1.000000
38.159051,-4.946629,-3.497891,0.000000,-0.000000,-1.000000
36.413389,13.297818,-3.497891,0.000000,0.000000,-1.000000
4.938001,19.052994,3.497891,-0.000000,0.000000,1.000000
-33.153257,16.253201,-3.497891,0.000000,0.000000,-1.000000
30.612240,13.423865,3.497891,0.000000,-0.000000,1.000000
-42.619223,3.609896,1.593010,-0.998795,0.049068,0.000000
-12.352669,-34.163856,-3.497891,0.000000,-0.000000,-1.000000
14.384970,-18.412407,3.497891,-0.000000,-0.000000,1.000000
27.528241,32.739241,-1.189987,0.671559,0.740951,-0.000000
31.166039,12.308634,3.497891,0.000000,-0.000000,1.000000
21.830799,-8.730026,3.497891,-0.000000,0.000000,1.000000
3.681959,12.947381,1.080331,-0.290285,-0.956940,0.000000
26.108922,10.982284,3.497891,0.000000,-0.000000,1.000000
-0.329957,-31.680664,3.497891,-0.000000,0.000000,1.000000
5.876745,41.295424,3.497891,0.000000,-0.000000,1.000000
-21.877115,17.159815,3.497891,-0.000000,-0.000000,1.000000
-15.986394,-39.678825,2.945523,-0.336889,-0.941544,0.000000
12.996697,-3.519385,-2.522778,-0.956940,0.290285,0.000000
14.151543,29.304035,-3.383086,0.773011,-0.634393,0.000000
5.592138,-39.533105,-3.497891,0.000000,0.000000,-1.000000
-35.740710,14.371057,-3.497891,0.000000,0.000000,-1.000000
34.053423,3.324759,3.497891,-0.000000,0.000000,1.000000
12.499332,28.918126,3.497891,0.000000,0.000000,1.000000
-3.767343,-15.840135,-3.497891,0.000000,-0.000000,-1.000000
36.438766,-20.288357,-3.497891,0.000000,-0.000000,-1.000000
-20.215117,-27.358558,-3.497891,0.000000,-0.000000,-1.000000
22.648115,25.295238,-3.497891,0.000000,0.000000,-1.000000
-23.822097,11.679181,3.497891,-0.000000,-0.000000,1.000000
-27.452883,-14.905747,3.497891,0.000000,-0.000000,1.000000
17.787749,-19.492279,-3.497891,0.000000,-0.000000,-1.000000
41.713487,2.633116,-3.497891,0.000000,0.000000,-1.000000
-18.099311,-9.249203,-3.497891,0.000000,0.000000,-1.000000
-6.853925,-42.196043,3.039041,-0.146731,-0.989176,0.000000
-13.623997,-36.414961,-3.497891,0.000000,-0.000000,-1.000000
-12.731082,32.506228,3.497891,0.000000,-0.000000,1.000000
-33.272227,16.220657,3.497891,-0.000000,-0.000000,1.000000
-33.520934,-21.983957,3.497891,0.000000,-0.000000,1.000000
-14.451873,-33.961925,-3.497891,0.000000,0.000000,-1.000000
-36.930186,21.530595,2.166969,-0.857728,0.514103,0.000000
1.769475,-31.614949,3.497891,0.000000,-0.000000,1.000000
-5.961607,-38.173214,-3.497891,0.000000,-0.000000,-1.000000
-19.180924,-4.736474,3.497891,0.000000,-0.000000,1.000000
-34.325098,8.587971,3.497891,-0.000000,-0.000000,1.000000
-14.931126,-25.647739,-2.979700,-0.471397,-0.881921,0.000000
-13.426451,19.346849,3.497891,-0.000000,-0.000000,1.000000
-25.437033,-6.651829,-3.497891,0.000000,0.000000,-1.000000
37.435855,-1.177423,-3.497891,0.000000,0.000000,-1.000000
33.977883,-22.581006,3.497891,-0.000000,0.000000,1.000000
14.244002,11.319477,-3.497891,0.000000,-0.000000,-1.000000
15.636265,-38.643298,-3.497891,0.000000,0.000000,-1.000000
14.611754,-12.199602,-3.497891,0.000000,0.000000,-1.000000
-15.553288,-0.884131,3.497891,0.000000,-0.000000,1.000000
-3.143568,21.769971,3.497891,0.000000,0.000000,1.000000
-22.032021,30.117134,3.497891,-0.000000,-0.000000,1.000000
-25.310463,30.781736,-3.497891,0.000000,0.000000,-1.000000
-2.199911,42.559092,-3.497891,0.000000,-0.000000,-1.000000
-13.627423,-27.928157,-2.220905,-0.995185,0.098016,0.000000
-15.479610,-8.892046,3.497891,0.000000,-0.000000,1.000000
-39.826094,-15.574802,1.869637,-0.941544,-0.336889,0.000000
2.669248,42.665434,3.031893,0.049068,0.998795,-0.000000
29.707262,-0.447018,-1.565111,0.995185,0.098017,0.000000
-27.276871,-23.048136,3.497891,-0.000000,0.000000,1.000000
17.440675,-7.817497,-3.497891,0.000000,-0.000000,-1.000000
28.829243,-31.560082,-1.531992,0.671559,-0.740951,0.000000
11.170366,10.571449,3.497891,-0.000000,0.000000,1.000000
-41.310404,0.114394,3.497891,-0.000000,-0.000000,1.000000
23.096473,35.991633,1.946936,0.514103,0.857728,0.000000
-16.407743,31.478976,3.497891,-0.000000,-0.000000,1.000000
1.836956,31.702909,3.497891,0.000000,-0.000000,1.000000
25.876334,-29.222615,3.497891,-0.000000,0.000000,1.000000
-42.556135,-4.426385,2.553171,-0.989176,-0.146731,-0.000000
3.769322,-12.920880,-1.054292,-0.290285,0.956940,0.000000
-28.251781,-0.956431,3.497891,0.000000,-0.000000,1.000000
31.260216,28.290314,3.497891,0.000000,-0.000000,1.000000
-30.120365,14.620379,-3.497891,0.000000,0.000000,-1.000000
7.328396,31.244216,-3.497891,0.000000,0.000000,-1.000000
19.425450,12.403010,-3.497891,0.000000,0.000000,-1.000000
3.871470,-39.894348,-3.497891,0.000000,0.000000,-1.000000
20.686173,-16.904570,-3.497891,0.000000,0.000000,-1.000000
8.244318,-39.740598,3.497891,0.000000,-0.000000,1.000000
-13.852475,-29.329384,-3.497891,0.000000,0.000000,-1.000000
-16.037393,15.053518,3.497891,-0.000000,-0.000000,1.000000
28.134734,23.530840,-3.497891,0.000000,0.000000,-1.000000
-31.443323,26.524257,-3.497891,0.000000,0.000000,-1.000000
39.503957,5.834682,3.497891,0.000000,-0.000000,1.000000
-40.148187,14.674612,2.148386,-0.941544,0.336889,0.000000
35.989469,15.495985,3.497891,0.000000,-0.000000,1.000000
6.964170,-29.896276,-3.497891,0.000000,0.000000,-1.000000
26.729535,-33.393920,-2.560655,0.595699,-0.803208,0.000000
-3.690424,24.682872,3.497891,0.000000,0.000000,1.000000
-13.487751,0.366099,-2.220280,0.995185,-0.098017,0.000000
-10.582691,-37.222341,3.497891,-0.000000,0.000000,1.000000
31.995858,-5.837840,-3.497891,0.000000,-0.000000,-1.000000
11.892613,25.999542,-3.497891,0.000000,-0.000000,-1.000000
25.611377,-34.223202,3.118029,0.595699,-0.803208,0.000000
25.748326,22.868858,-3.497891,0.000000,0.000000,-1.000000
18.435898,38.565340,-2.606530,0.427555,0.903989,0.000000
12.466726,-12.414925,-3.497891,0.000000,-0.000000,-1.000000
28.442604,30.029598,-3.497891,0.000000,0.000000,-1.000000
-27.961890,31.809252,-3.497891,0.000000,0.000000,-1.000000
13.804120,15.346259,3.497891,0.000000,-0.000000,1.000000
2.370295,-22.422115,-3.497891,0.000000,0.000000,-1.000000
20.483035,14.747355,-3.497891,0.000000,-0.000000,-1.000000
41.939044,7.336901,3.497891,0.000000,-0.000000,1.000000
11.528119,-33.909687,3.497891,0.000000,-0.000000,1.000000
14.068186,0.356509,-3.497891,0.000000,-0.000000,-1.000000
29.192615,0.905497,-3.497891,0.000000,-0.000000,-1.000000
26.722137,-25.962854,-3.497891,0.000000,-0.000000,-1.000000
-1.565640,-36.056614,3.497891,-0.000000,0.000000,1.000000
-29.597517,13.540822,3.497891,-0.000000,-0.000000,1.000000
-40.951063,8.146666,3.497891,-0.000000,0.000000,1.000000
-28.454092,14.261983,3.497891,-0.000000,-0.000000,1.000000
17.955814,31.037211,-3.497891,0.000000,0.000000,-1.000000
-22.041693,29.338606,3.497891,-0.000000,-0.000000,1.000000
-34.369056,0.856576,-2.269798,0.956940,-0.290285,0.000000
0.784669,14.916020,3.497891,0.000000,-0.000000,1.000000
30.667725,25.358728,3.497891,0.000000,-0.000000,1.000000
0.336518,13.490664,-0.348402,-0.098017,-0.995185,0.000000
42.591933,4.165383,1.088983,0.998795,0.049068,-0.000000
8.631613,10.326963,-0.799442,-0.634393,-0.773010,0.000000
-8.482026,29.853817,3.497891,0.000000,0.000000,1.000000
34.144549,25.717429,1.099988,0.803208,0.595699,-0.000000
-19.061005,18.671750,3.497891,-0.000000,-0.000000,1.000000
-13.463120,-0.616184,-3.117691,0.995185,0.098017,-0.000000
24.924326,34.732754,-0.558873,0.595699,0.803208,-0.000000
30.290448,25.127122,3.497891,0.000000,-0.000000,1.000000
30.815796,29.650436,-0.969748,0.740951,0.671559,-0.000000
-27.776900,-29.627382,3.497891,0.000000,-0.000000,1.000000
-14.890933,-3.042984,-3.497891,0.000000,0.000000,-1.000000
-2.985317,32.243819,3.497891,0.000000,-0.000000,1.000000
35.200685,12.537962,-3.497891,0.000000,0.000000,-1.000000
-16.890647,-9.504987,-3.497891,0.000000,0.000000,-1.000000
-39.956618,15.210012,1.722040,-0.941544,0.336889,0.000000
29.524874,7.951951,-3.497891,0.000000,0.000000,-1.000000
39.168846,-17.159891,-0.504761,0.903989,-0.427555,0.000000
33.429362,19.120317,3.497891,0.000000,-0.000000,1.000000
-3.298021,-23.846584,3.497891,-0.000000,0.000000,1.000000
15.577820,18.311673,-3.497891,0.000000,0.000000,-1.000000
23.612220,-9.990842,3.497891,-0.000000,0.000000,1.000000
25.118059,22.847681,-3.497891,0.000000,0.000000,-1.000000
-22.465970,18.732616,-3.497891,0.000000,-0.000000,-1.000000
-10.162603,19.393310,-3.497891,0.000000,0.000000,-1.000000
14.088912,-26.366650,-1.459437,0.773012,-0.634391,0.000000
-13.646756,0.940483,-3.497891,0.000000,-0.000000,-1.000000
-13.852248,1.226681,-3.497891,0.000000,-0.000000,-1.000000
33.645191,-7.449527,3.497891,-0.000000,-0.000000,1.000000
-37.140705,-18.437430,-3.497891,0.000000,0.000000,-1.000000
14.716815,40.133086,-1.201983,0.336889,0.941544,0.000000
-15.062905,-1.988268,-3.497891,0.000000,0.000000,-1.000000
-13.520968,8.353615,3.497891,-0.000000,0.000000,1.000000
-1.600031,34.865351,-3.497891,0.000000,-0.000000,-1.000000
-19.879977,-26.696230,-3.497891,0.000000,-0.000000,-1.000000
-16.236761,1.774829,3.497891,-0.000000,0.000000,1.000000
-39.263850,7.782773,-3.497891,0.000000,0.000000,-1.000000
-4.180552,-30.267609,3.497891,-0.000000,0.000000,1.000000
-19.396802,-0.102147,-3.497891,0.000000,0.000000,-1.000000
-14.460665,-29.627717,2.471806,-0.634393,0.773010,0.000000
13.381272,31.083946,-3.497891,0.000000,-0.000000,-1.000000
33.278487,-11.766189,-3.497891,0.000000,-0.000000,-1.000000
40.044240,-14.965124,1.822903,0.941544,-0.336889,0.000000
-33.563501,-23.631289,3.497891,0.000000,-0.000000,1.000000
-24.154417,6.263541,-3.497891,0.000000,0.000000,-1.000000
2.467470,-41.961772,-3.497891,0.000000,0.000000,-1.000000
-23.659229,34.883630,-3.497891,0.000000,0.000000,-1.000000
-19.174081,3.311674,-3.497891,0.000000,0.000000,-1.000000
38.149811,19.314460,-3.186161,0.903989,0.427555,0.000000
-31.662510,27.574247,3.497891,-0.000000,-0.000000,1.000000
-27.221289,-9.135659,3.497891,0.000000,-0.000000,1.000000
-20.316400,26.439348,-3.497891,0.000000,0.000000,-1.000000
16.614464,25.437331,-3.156582,-0.290284,0.956941,0.000000
20.308002,-18.751883,3.497891,-0.000000,0.000000,1.000000
25.123546,-11.885097,-3.497891,0.000000,-0.000000,-1.000000
30.272822,-18.435427,3.497891,-0.000000,0.000000,1.000000
-37.918502,-0.899879,-3.497891,0.000000,0.000000,-1.000000
12.961826,29.143381,3.497891,0.000000,0.000000,1.000000
24.242222,15.578494,3.497891,0.000000,-0.000000,1.000000
-39.466942,0.063236,-3.497891,0.000000,0.000000,-1.000000
7.040753,15.933566,3.497891,0.000000,0.000000,1.000000
5.178216,-29.018800,-3.497891,0.000000,0.000000,-1.000000
-38.083165,-18.654309,-3.497891,0.000000,0.000000,-1.000000
-10.019287,-41.555904,-1.274807,-0.242980,-0.970031,0.000000
-31.677799,-2.392859,-1.561770,-0.098017,0.995185,0.000000
34.515491,0.163685,2.249037,-0.995185,-0.098017,0.000000
5.673794,28.026300,3.497891,-0.000000,0.000000,1.000000
-37.863720,19.919349,-3.109005,-0.903989,0.427555,0.000000
13.005199,-36.049762,-3.497891,0.000000,0.000000,-1.000000
8.894654,-38.114500,3.497891,0.000000,-0.000000,1.000000
19.076519,-18.484237,-3.497891,0.000000,-0.000000,-1.000000
19.229830,11.699110,-3.497891,0.000000,0.000000,-1.000000
-31.043166,5.072583,-3.497891,0.000000,0.000000,-1.000000
-19.911502,33.399993,-3.497891,0.000000,0.000000,-1.000000
-7.300108,11.358656,0.602830,0.471397,-0.881921,0.000000
11.477084,7.078546,3.275281,-0.881921,-0.471397,0.000000
-30.502080,-29.996569,-2.179587,-0.740951,-0.671559,0.000000
-29.099827,24.282257,3.497891,-0.000000,-0.000000,1.000000
4.821548,-31.345159,-3.497891,0.000000,0.000000,-1.000000
8.475428,-41.942620,-0.771216,0.242980,-0.970031,0.000000
31.028130,-21.717910,3.497891,-0.000000,0.000000,1.000000
31.465769,-28.121138,-3.497891,0.000000,-0.000000,-1.000000
-22.669550,-29.451974,-3.497891,0.000000,-0.000000,-1.000000
13.429645,0.956055,-0.586242,-0.995185,-0.098017,0.000000
-40.552003,5.484753,-3.497891,0.000000,0.000000,-1.000000
-12.284130,36.089674,-3.497891,0.000000,0.000000,-1.000000
33.671476,-26.355295,-0.309646,0.803208,-0.595699,0.000000
-0.198424,-13.504265,-2.611690,0.098017,0.995185,0.000000
6.810954,42.202417,-2.789583,0.146731,0.989176,0.000000
20.053616,-0.011979,-3.497891,0.000000,0.000000,-1.000000
-15.850503,0.799751,3.497891,-0.000000,0.000000,1.000000
35.921118,22.198191,-3.497891,0.000000,0.000000,-1.000000
37.088158,-0.758018,-3.497891,0.000000,0.000000,-1.000000
-27.817382,-18.331695,-3.497891,0.000000,0.000000,-1.000000
24.318406,-27.728075,3.497891,-0.000000,0.000000,1.000000
-19.327178,-13.790974,3.497891,0.000000,-0.000000,1.000000
-37.541641,19.576418,-3.497891,0.000000,0.000000,-1.000000
-8.005206,35.493165,-3.497891,0.000000,0.000000,-1.000000
3.140680,-42.642274,-0.345224,0.049068,-0.998795,0.000000
12.592158,-19.491216,-3.497891,-0.000000,-0.000000,-1.000000
10.201578,15.560767,-3.497891,0.000000,0.000000,-1.000000
40.209571,0.354062,-3.497891,0.000000,0.000000,-1.000000
28.096117,-32.143863,-3.497891,0.000000,-0.000000,-1.000000
2.014012,-28.401031,3.497891,0.000000,-0.000000,1.000000
24.833996,-11.790005,-3.497891,0.000000,-0.000000,-1.000000
29.545564,13.785661,3.497891,0.000000,-0.000000,1.000000
-39.284930,-9.596852,3.497891,0.000000,-0.000000,1.000000
-14.167802,17.433227,3.497891,-0.000000,0.000000,1.000000
13.440745,35.383875,3.497891,0.000000,-0.000000,1.000000
22.697385,-36.230837,-0.874933,0.514103,-0.857728,0.000000
26.038644,-16.771954,3.497891,-0.000000,0.000000,1.000000
-7.113276,29.715102,-3.497891,0.000000,0.000000,-1.000000
-15.263053,-37.611932,-3.497891,0.000000,-0.000000,-1.000000
16.950545,36.904315,3.497891,0.000000,-0.000000,1.000000
22.908098,-11.655799,-3.497891,0.000000,0.000000,-1.000000
2.718444,-42.663017,-2.743250,0.049068,-0.998795,0.000000
-40.378984,-6.075250,-3.497891,0.000000,0.000000,-1.000000
14.164896,22.800331,-3.497891,0.000000,0.000000,-1.000000
37.288625,-2.058973,3.497891,-0.000000,-0.000000,1.000000
16.194894,32.801843,3.497891,0.000000,-0.000000,1.000000
-17.086153,-25.095199,-3.497891,0.000000,-0.000000,-1.000000
21.553955,-36.916184,1.149121,0.514103,-0.857728,0.000000
7.343501,-20.072244,3.497891,0.000000,0.000000,1.000000
42.106833,-7.455326,-2.645573,0.989176,-0.146731,0.000000
-26.701246,-16.689690,3.497891,0.000000,-0.000000,1.000000
-13.625644,35.654247,3.497891,0.000000,0.000000,1.000000
-13.096018,-3.191968,0.009812,0.956940,0.290285,-0.000000
9.802383,9.270815,0.029453,-0.773010,-0.634393,0.000000
-5.465633,-19.341593,3.497891,0.000000,-0.000000,1.000000
-29.798230,-2.132790,-3.497891,0.000000,0.000000,-1.000000
-28.762648,-14.134601,-3.497891,0.000000,0.000000,-1.000000
-19.297698,-7.259225,3.497891,0.000000,-0.000000,1.000000
4.025489,42.598806,-3.064543,0.049068,0.998795,0.000000
19.089719,26.191601,3.497891,0.000000,-0.000000,1.000000
-13.007909,-14.078655,-3.497891,0.000000,0.000000,-1.000000
-31.278392,12.519817,3.497891,-0.000000,-0.000000,1.000000
19.462941,-20.990262,-3.497891,0.000000,-0.000000,-1.000000
22.413115,3.562405,-3.497891,0.000000,0.000000,-1.000000
30.616777,-8.716796,-3.497891,0.000000,-0.000000,-1.000000
-38.048759,19.528116,1.140491,-0.903989,0.427555,0.000000
16.906242,-30.135019,-3.497891,0.000000,0.000000,-1.000000
-23.192141,-11.064212,3.497891,0.000000,-0.000000,1.000000
20.938185,-7.849230,3.497891,-0.000000,0.000000,1.000000
15.251055,-5.170153,3.497891,-0.000000,-0.000000,1.000000
34.961042,24.616515,-3.448002,0.803208,0.595699,0.000000
-19.199324,-8.131017,-3.497891,0.000000,0.000000,-1.000000
19.176828,13.572268,-3.497891,0.000000,-0.000000,-1.000000
-37.433501,-10.756632,3.497891,0.000000,-0.000000,1.000000
42.761470,0.714401,2.323040,0.998795,0.049068,-0.000000
-25.025561,-1.753809,3.497891,0.000000,-0.000000,1.000000
38.168971,8.116075,-3.497891,0.000000,0.000000,-1.000000
-6.219190,-29.881869,3.497891,0.000000,-0.000000,1.000000
4.084072,-31.671456,-3.497891,0.000000,0.000000,-1.000000
16.728657,18.091389,3.497891,0.000000,-0.000000,1.000000
39.511100,9.688401,-3.497891,0.000000,0.000000,-1.000000
10.831196,-41.352531,-3.159222,0.242980,-0.970031,0.000000
-12.815641,14.242745,-3.497891,0.000000,0.000000,-1.000000
-11.965806,-22.112047,3.497891,0.000000,-0.000000,1.000000
-4.380186,39.860296,-3.497891,0.000000,0.000000,-1.000000
4.836954,-12.597017,-0.324014,-0.290285,0.956940,0.000000
-26.557899,-22.588185,-3.497891,0.000000,-0.000000,-1.000000
39.771430,-7.795157,3.497891,-0.000000,0.000000,1.000000
