x,y,z,nx,ny,nz
-0.222268,0.048586,0.179198,-0.866025,0.000000,0.500000
0.304417,0.096735,0.036913,0.866025,0.000000,0.500000
0.317615,0.008239,0.014053,0.866025,0.000000,0.500000
-0.175948,-0.061339,-0.259426,-0.866025,0.000000,-0.500000
0.276163,-0.076487,-0.085849,0.866025,0.000000,-0.500000
-0.095388,0.087847,-0.101028,0.686519,0.000000,0.727111
0.047849,-0.007693,0.130445,-0.344374,0.000000,-0.938833
0.319077,-0.081903,0.011520,0.866025,0.000000,0.500000
-0.000837,-0.096585,0.282089,0.000000,0.000000,1.000000
0.270271,0.060433,-0.096055,0.866025,0.000000,-0.500000
0.316711,0.084495,0.015618,0.866025,0.000000,0.500000
0.323174,0.087005,-0.004424,0.866025,0.000000,-0.500000
-0.000627,-0.066014,-0.282089,-0.000000,0.000000,-1.000000
-0.210885,0.025572,-0.198914,-0.866025,0.000000,-0.500000
0.079665,-0.109016,0.282089,0.000000,0.000000,1.000000
0.283241,0.100295,0.073591,0.866025,0.000000,0.500000
0.100099,-0.075320,-0.282089,-0.000000,0.000000,-1.000000
-0.117956,-0.088784,0.282089,0.000000,0.000000,1.000000
-0.325286,-0.094289,-0.000766,-0.866025,0.000000,-0.500000
-0.236471,0.026814,-0.154599,-0.866025,0.000000,-0.500000
-0.046906,-0.056604,0.130788,0.337585,0.000000,-0.941295
-0.075410,-0.015486,-0.282089,-0.000000,0.000000,-1.000000
-0.214679,-0.005626,0.192343,-0.866025,0.000000,0.500000
-0.183135,-0.112457,-0.196867,0.000000,-1.000000,0.000000
-0.245837,0.096474,-0.138376,-0.866025,0.000000,-0.500000
0.254685,0.058022,0.123050,0.866025,0.000000,0.500000
-0.146030,-0.112457,-0.019266,0.000000,-1.000000,0.000000
0.067008,-0.045188,-0.282089,-0.000000,0.000000,-1.000000
0.026640,-0.084146,0.282089,0.000000,0.000000,1.000000
-0.046467,-0.112457,0.252957,0.000000,-1.000000,0.000000
0.004501,-0.025877,-0.282089,-0.000000,0.000000,-1.000000
0.151105,0.079810,-0.282089,-0.000000,0.000000,-1.000000
0.135366,0.026068,-0.031329,-0.974248,0.000000,0.225478
0.235716,0.082444,0.155906,0.866025,0.000000,0.500000
0.135162,-0.025053,-0.032200,-0.972776,0.000000,0.231748
-0.077787,0.112457,-0.160048,0.000000,1.000000,0.000000
-0.238055,0.112457,0.077770,0.000000,1.000000,0.000000
0.099397,-0.031538,0.097086,-0.715372,0.000000,-0.698744
0.304233,-0.022582,-0.037231,0.866025,0.000000,-0.500000
-0.288621,0.042855,0.064272,-0.866025,0.000000,0.500000
-0.142756,0.088383,-0.282089,-0.000000,0.000000,-1.000000
0.094448,0.059888,0.101908,-0.679751,0.000000,-0.733443
0.024754,-0.112457,0.180397,0.000000,-1.000000,0.000000
-0.257582,-0.083079,0.118033,-0.866025,0.000000,0.500000
0.014674,-0.041107,-0.282089,-0.000000,0.000000,-1.000000
0.241017,-0.054391,0.146724,0.866025,0.000000,0.500000
0.181412,0.112457,-0.149446,0.000000,1.000000,0.000000
-0.204466,-0.112457,-0.156929,0.000000,-1.000000,0.000000
-0.129507,0.019583,0.050334,0.932076,0.000000,-0.362262
0.166653,-0.010001,0.275526,0.866025,0.000000,0.500000
-0.061197,0.047449,-0.282089,-0.000000,0.000000,-1.000000
-0.138850,0.086212,-0.005130,0.999318,0.000000,0.036920
0.088892,0.054962,0.282089,0.000000,0.000000,1.000000
-0.192600,0.007828,0.230585,-0.866025,0.000000,0.500000
0.325339,0.025193,-0.000674,0.866025,0.000000,-0.500000
0.171772,-0.054665,0.266659,0.866025,0.000000,0.500000
-0.064230,-0.080376,-0.282089,-0.000000,0.000000,-1.000000
-0.229685,0.112457,-0.035857,0.000000,1.000000,0.000000
0.164492,0.006895,0.279269,0.866025,0.000000,0.500000
0.137114,-0.038018,-0.022479,-0.986827,0.000000,0.161781
-0.268982,0.110386,0.098288,-0.866025,0.000000,0.500000
0.195946,0.045666,-0.224790,0.866025,0.000000,-0.500000
-0.089288,0.030368,0.282089,0.000000,0.000000,1.000000
-0.038261,0.045663,-0.282089,-0.000000,0.000000,-1.000000
0.264511,-0.021908,-0.106031,0.866025,0.000000,-0.500000
0.080978,0.093578,0.282089,0.000000,0.000000,1.000000
0.134507,0.084725,0.034836,-0.968060,0.000000,-0.250717
-0.088098,0.112457,-0.131926,0.000000,1.000000,0.000000
0.218640,-0.034776,-0.185482,0.866025,0.000000,-0.500000
0.022308,0.107380,0.282089,0.000000,0.000000,1.000000
-0.117611,0.112457,0.229571,0.000000,1.000000,0.000000
-0.117788,-0.085367,0.282089,0.000000,0.000000,1.000000
0.107299,0.112457,0.188226,0.000000,1.000000,0.000000
-0.183199,0.034216,0.246868,-0.866025,0.000000,0.500000
-0.091623,0.005265,-0.282089,-0.000000,0.000000,-1.000000
0.234051,0.018416,-0.158790,0.866025,0.000000,-0.500000
0.063047,-0.099866,0.282089,0.000000,0.000000,1.000000
0.008145,0.109404,-0.138705,-0.058621,0.000000,0.998280
0.053539,-0.008430,0.128215,-0.385328,0.000000,-0.922780
0.040085,-0.099186,0.282089,0.000000,0.000000,1.000000
-0.195435,0.111883,-0.225674,-0.866025,0.000000,-0.500000
0.320444,-0.050069,-0.009152,0.866025,0.000000,-0.500000
0.291078,0.027892,-0.060016,0.866025,0.000000,-0.500000
-0.185499,0.069543,0.242884,-0.866025,0.000000,0.500000
-0.208904,-0.097078,0.202345,-0.866025,0.000000,0.500000
0.292338,0.043292,-0.057834,0.866025,0.000000,-0.500000
-0.138726,-0.052894,-0.007781,0.998431,0.000000,0.056002
0.097178,-0.040623,-0.282089,-0.000000,0.000000,-1.000000
-0.217652,0.043142,-0.187194,-0.866025,0.000000,-0.500000
-0.116883,0.112457,0.107748,0.000000,1.000000,0.000000
0.002945,-0.111167,-0.138913,-0.021194,0.000000,0.999775
-0.274473,-0.010523,0.088777,-0.866025,0.000000,0.500000
-0.307358,0.045133,-0.031818,-0.866025,0.000000,-0.500000
0.036129,0.006296,-0.134165,-0.260026,0.000000,0.965601
0.127742,-0.079897,0.282089,0.000000,0.000000,1.000000
0.056627,0.085383,-0.282089,-0.000000,0.000000,-1.000000
-0.223584,0.033177,0.176920,-0.866025,0.000000,0.500000
-0.191140,0.100014,-0.233114,-0.866025,0.000000,-0.500000
0.046399,-0.076310,-0.130968,-0.333940,0.000000,0.942594
0.158418,0.014992,0.282089,0.000000,0.000000,1.000000
0.303676,0.052911,0.038195,0.866025,0.000000,0.500000
-0.164135,-0.012431,-0.279888,-0.866025,0.000000,-0.500000
-0.186066,-0.051296,0.241902,-0.866025,0.000000,0.500000
-0.288047,0.066637,-0.065267,-0.866025,0.000000,-0.500000
-0.131138,-0.069732,0.282089,0.000000,0.000000,1.000000
-0.095202,-0.105062,0.282089,0.000000,0.000000,1.000000
-0.187648,0.033493,0.239162,-0.866025,0.000000,0.500000
0.297696,-0.084898,0.048554,0.866025,0.000000,0.500000
0.049298,-0.075074,-0.282089,-0.000000,0.000000,-1.000000
0.075946,0.112457,-0.201489,0.000000,1.000000,0.000000
0.226899,0.015928,-0.171178,0.866025,0.000000,-0.500000
0.171672,-0.072049,0.266833,0.866025,0.000000,0.500000
0.256702,0.065028,-0.119557,0.866025,0.000000,-0.500000
-0.129153,0.026909,-0.282089,-0.000000,0.000000,-1.000000
-0.206646,0.012714,-0.206256,-0.866025,0.000000,-0.500000
0.203145,-0.049129,-0.212321,0.866025,0.000000,-0.500000
-0.205056,-0.038676,0.209010,-0.866025,0.000000,0.500000
0.246425,-0.098407,0.137357,0.866025,0.000000,0.500000
-0.107456,-0.046133,-0.088084,0.773375,0.000000,0.633948
0.321716,0.043772,0.006950,0.866025,0.000000,0.500000
0.215301,0.012424,0.191266,0.866025,0.000000,0.500000
0.206007,-0.066514,0.207363,0.866025,0.000000,0.500000
-0.033219,-0.048055,-0.282089,-0.000000,0.000000,-1.000000
0.219455,-0.109203,0.184072,0.866025,0.000000,0.500000
0.033264,0.076246,0.282089,0.000000,0.000000,1.000000
0.310765,-0.030625,0.025917,0.866025,0.000000,0.500000
-0.247241,0.001074,-0.135943,-0.866025,0.000000,-0.500000
0.239222,0.110685,-0.149834,0.866025,0.000000,-0.500000
0.173302,0.112457,-0.107629,0.000000,1.000000,0.000000
-0.303085,-0.068504,0.039219,-0.866025,0.000000,0.500000
0.165168,0.041357,0.278100,0.866025,0.000000,0.500000
0.039864,-0.072386,0.282089,0.000000,0.000000,1.000000
-0.132303,-0.098189,0.042443,0.952202,0.000000,-0.305469
0.098349,-0.004566,0.282089,0.000000,0.000000,1.000000
0.028670,-0.054841,0.135954,-0.206342,0.000000,-0.978480
-0.130535,0.086848,-0.047604,0.939477,0.000000,0.342611
0.027780,-0.112457,-0.210138,0.000000,-1.000000,0.000000
0.224984,0.066615,0.174495,0.866025,0.000000,0.500000
-0.087664,0.108205,0.282089,0.000000,0.000000,1.000000
-0.180035,0.112457,-0.112515,0.000000,1.000000,0.000000
0.224802,0.014243,0.174809,0.866025,0.000000,0.500000
0.260942,0.109594,0.112213,0.866025,0.000000,0.500000
-0.254869,-0.062930,-0.122731,-0.866025,0.000000,-0.500000
-0.316857,-0.056075,-0.015365,-0.866025,0.000000,-0.500000
0.117005,-0.112457,0.147477,0.000000,-1.000000,0.000000
-0.299697,0.111162,0.045087,-0.866025,0.000000,0.500000
-0.005602,-0.024979,-0.138831,0.040317,0.000000,0.999187
0.319949,0.106060,-0.010010,0.866025,0.000000,-0.500000
0.165998,0.064268,-0.276662,0.866025,0.000000,-0.500000
-0.195173,-0.018644,0.226128,-0.866025,0.000000,0.500000
0.008324,-0.082565,0.282089,0.000000,0.000000,1.000000
-0.260326,0.079400,-0.113280,-0.866025,0.000000,-0.500000
-0.166495,-0.112457,0.216290,0.000000,-1.000000,0.000000
-0.188162,0.065309,-0.238273,-0.866025,0.000000,-0.500000
0.173524,0.082992,0.263625,0.866025,0.000000,0.500000
0.155063,-0.054108,0.282089,0.000000,0.000000,1.000000
0.040507,-0.053413,0.282089,0.000000,0.000000,1.000000
-0.117183,-0.016827,0.074657,0.843379,0.000000,-0.537319
0.114126,-0.081159,-0.079251,-0.821380,0.000000,0.570382
-0.069136,-0.068369,0.282089,0.000000,0.000000,1.000000
0.268067,-0.012040,0.099873,0.866025,0.000000,0.500000
-0.130185,0.057656,0.048553,0.936957,0.000000,-0.349445
-0.082244,0.011883,-0.282089,-0.000000,0.000000,-1.000000
-0.001754,0.076106,0.282089,0.000000,0.000000,1.000000
0.131085,0.112457,0.130115,0.000000,1.000000,0.000000
-0.304974,0.051092,-0.035948,-0.866025,0.000000,-0.500000
-0.185818,0.069861,-0.242332,-0.866025,0.000000,-0.500000
-0.292362,-0.020179,0.057792,-0.866025,0.000000,0.500000
0.190661,0.028423,-0.233943,0.866025,0.000000,-0.500000
0.004911,0.103505,0.282089,0.000000,0.000000,1.000000
-0.240485,-0.112457,-0.047840,0.000000,-1.000000,0.000000
0.165727,0.033863,-0.277130,0.866025,0.000000,-0.500000
0.310884,-0.090053,0.025712,0.866025,0.000000,0.500000
-0.253649,-0.107482,-0.124846,-0.866025,0.000000,-0.500000
-0.316513,-0.095053,0.015962,-0.866025,0.000000,0.500000
0.004726,-0.009884,0.282089,0.000000,0.000000,1.000000
0.017006,-0.108476,-0.282089,-0.000000,0.000000,-1.000000
-0.254435,0.021593,-0.123484,-0.866025,0.000000,-0.500000
0.229497,-0.044673,0.166677,0.866025,0.000000,0.500000
-0.171441,-0.042886,-0.267234,-0.866025,0.000000,-0.500000
-0.302065,-0.076098,-0.040987,-0.866025,0.000000,-0.500000
0.225309,0.112457,0.044338,0.000000,1.000000,0.000000
-0.276822,-0.065921,-0.084708,-0.866025,0.000000,-0.500000
-0.125708,-0.091534,-0.282089,-0.000000,0.000000,-1.000000
0.217783,-0.069121,0.186967,0.866025,0.000000,0.500000
0.267675,0.076735,-0.100551,0.866025,0.000000,-0.500000
0.163677,0.069478,0.280680,0.866025,0.000000,0.500000
-0.050424,-0.044983,-0.129472,0.362908,0.000000,0.931825
0.011685,0.091418,-0.282089,-0.000000,0.000000,-1.000000
0.169459,0.112457,0.194198,0.000000,1.000000,0.000000
-0.072495,-0.047273,-0.282089,-0.000000,0.000000,-1.000000
0.262889,0.075942,-0.108840,0.866025,0.000000,-0.500000
0.176690,-0.112457,0.055622,0.000000,-1.000000,0.000000
0.055209,-0.112457,-0.221108,0.000000,-1.000000,0.000000
-0.292125,0.042524,0.058203,-0.866025,0.000000,0.500000
-0.200164,0.085415,0.217485,-0.866025,0.000000,0.500000
0.145375,0.112457,0.178278,0.000000,1.000000,0.000000
0.154849,-0.106040,-0.282089,-0.000000,0.000000,-1.000000
-0.219164,0.035671,-0.184574,-0.866025,0.000000,-0.500000
0.111871,-0.030608,-0.282089,-0.000000,0.000000,-1.000000
0.053501,-0.083629,0.128231,-0.385052,0.000000,-0.922895
0.182993,-0.074033,0.247225,0.866025,0.000000,0.500000
0.047527,-0.112457,0.207600,0.000000,-1.000000,0.000000
-0.097076,0.082289,0.282089,0.000000,0.000000,1.000000
0.288867,0.098308,-0.063846,0.866025,0.000000,-0.500000
-0.081337,-0.112457,-0.176220,0.000000,-1.000000,0.000000
0.218811,0.090657,0.185187,0.866025,0.000000,0.500000
0.215154,0.041312,0.191520,0.866025,0.000000,0.500000
0.011515,-0.073695,0.282089,0.000000,0.000000,1.000000
-0.001722,0.008975,0.282089,0.000000,0.000000,1.000000
0.011881,-0.021595,-0.282089,-0.000000,0.000000,-1.000000
0.237041,0.003197,0.153611,0.866025,0.000000,0.500000
0.200028,-0.026664,0.217720,0.866025,0.000000,0.500000
-0.010577,-0.112457,0.218189,0.000000,-1.000000,0.000000
-0.009663,0.030001,-0.138608,0.069543,0.000000,0.997579
0.226342,-0.025282,0.172143,0.866025,0.000000,0.500000
0.222354,0.078343,0.179049,0.866025,0.000000,0.500000
0.092950,0.112457,-0.145849,0.000000,1.000000,0.000000
0.049512,0.060990,0.282089,0.000000,0.000000,1.000000
0.240360,-0.008777,0.147863,0.866025,0.000000,0.500000
0.196351,-0.112457,-0.121511,0.000000,-1.000000,0.000000
0.058912,-0.021696,0.125837,-0.424000,0.000000,-0.905662
-0.118302,-0.101325,0.072870,0.851437,0.000000,-0.524457
-0.302350,-0.066430,0.040492,-0.866025,0.000000,0.500000
0.055218,-0.069821,-0.127501,-0.397410,0.000000,0.917641
0.262477,0.045508,0.109555,0.866025,0.000000,0.500000
-0.067078,0.091196,0.282089,0.000000,0.000000,1.000000
-0.268950,0.080714,0.098344,-0.866025,0.000000,0.500000
0.247904,-0.099769,-0.134796,0.866025,0.000000,-0.500000
0.174442,0.071495,0.262036,0.866025,0.000000,0.500000
0.091985,-0.112457,0.161677,0.000000,-1.000000,0.000000
0.192783,-0.078828,-0.230268,0.866025,0.000000,-0.500000
-0.041232,-0.112457,-0.173624,0.000000,-1.000000,0.000000
-0.164897,-0.047173,0.278568,-0.866025,0.000000,0.500000
-0.090819,0.111159,0.105154,0.653637,0.000000,-0.756808
-0.229213,0.028098,-0.167169,-0.866025,0.000000,-0.500000
0.245231,-0.019063,0.139425,0.866025,0.000000,0.500000
-0.138856,0.070729,0.282089,0.000000,0.000000,1.000000
-0.162379,-0.112457,0.202048,0.000000,-1.000000,0.000000
-0.275269,-0.095157,-0.087399,-0.866025,0.000000,-0.500000
0.028900,-0.026182,0.282089,0.000000,0.000000,1.000000
0.198748,-0.037094,-0.219937,0.866025,0.000000,-0.500000
0.004049,0.028646,0.138885,-0.029143,0.000000,-0.999575
0.016108,0.112457,-0.173845,0.000000,1.000000,0.000000
-0.165546,0.010377,-0.277444,-0.866025,0.000000,-0.500000
-0.194172,0.010527,-0.227862,-0.866025,0.000000,-0.500000
-0.225600,-0.049465,0.173428,-0.866025,0.000000,0.500000
-0.152702,-0.022956,-0.282089,-0.000000,0.000000,-1.000000
-0.160496,0.078340,-0.282089,-0.000000,0.000000,-1.000000
-0.305667,-0.053485,-0.034748,-0.866025,0.000000,-0.500000
0.275744,0.093018,-0.086576,0.866025,0.000000,-0.500000
-0.146101,0.073488,-0.282089,-0.000000,0.000000,-1.000000
-0.077846,0.112457,-0.235457,0.000000,1.000000,0.000000
0.072866,0.112457,0.223081,0.000000,1.000000,0.000000
0.217588,0.033942,-0.187304,0.866025,0.000000,-0.500000
0.102841,0.043675,0.282089,0.000000,0.000000,1.000000
-0.076417,0.091609,-0.282089,-0.000000,0.000000,-1.000000
-0.181205,-0.091144,-0.250321,-0.866025,0.000000,-0.500000
0.094411,0.112457,-0.112875,0.000000,1.000000,0.000000
-0.107270,0.112457,0.188191,0.000000,1.000000,0.000000
0.187193,0.054135,0.239950,0.866025,0.000000,0.500000
0.121213,-0.107493,0.067919,-0.872385,0.000000,-0.488820
0.288500,0.048858,0.064481,0.866025,0.000000,0.500000
-0.149764,-0.056849,0.282089,0.000000,0.000000,1.000000
-0.251627,-0.027804,0.128348,-0.866025,0.000000,0.500000
-0.218594,0.084428,-0.185563,-0.866025,0.000000,-0.500000
-0.277048,0.034456,0.084317,-0.866025,0.000000,0.500000
-0.275672,-0.090907,-0.086700,-0.866025,0.000000,-0.500000
-0.099081,0.035723,0.282089,0.000000,0.000000,1.000000
0.128608,0.090163,-0.282089,-0.000000,0.000000,-1.000000
0.005160,0.016378,-0.282089,-0.000000,0.000000,-1.000000
-0.049123,0.071725,0.282089,0.000000,0.000000,1.000000
0.180948,0.010303,-0.250768,0.866025,0.000000,-0.500000
0.070189,0.102603,-0.282089,-0.000000,0.000000,-1.000000
-0.121745,-0.112457,-0.196187,0.000000,-1.000000,0.000000
-0.163507,0.074645,0.280976,-0.866025,0.000000,0.500000
0.261005,-0.050657,0.112104,0.866025,0.000000,0.500000
-0.069200,0.076145,-0.282089,-0.000000,0.000000,-1.000000
-0.118424,0.112457,0.247676,0.000000,1.000000,0.000000
-0.138773,-0.075835,-0.282089,-0.000000,0.000000,-1.000000
0.129983,-0.029925,-0.282089,-0.000000,0.000000,-1.000000
-0.320687,-0.095852,0.008731,-0.866025,0.000000,0.500000
0.298946,0.044038,0.046389,0.866025,0.000000,0.500000
0.243990,-0.097302,-0.141576,0.866025,0.000000,-0.500000
-0.273065,-0.066425,-0.091216,-0.866025,0.000000,-0.500000
0.037444,-0.083147,0.133804,-0.269489,0.000000,-0.963003
0.140975,-0.063769,0.282089,0.000000,0.000000,1.000000
0.248849,0.098972,0.133159,0.866025,0.000000,0.500000
-0.221461,0.111362,0.180597,-0.866025,0.000000,0.500000
0.242217,-0.041135,0.144646,0.866025,0.000000,0.500000
-0.207614,-0.066918,0.204580,-0.866025,0.000000,0.500000
-0.089040,-0.020185,0.282089,0.000000,0.000000,1.000000
-0.045100,-0.060173,0.282089,0.000000,0.000000,1.000000
0.114973,-0.082640,0.282089,0.000000,0.000000,1.000000
-0.200576,0.007011,0.216771,-0.866025,0.000000,0.500000
-0.000837,-0.016579,0.282089,0.000000,0.000000,1.000000
-0.187084,-0.097064,-0.240139,-0.866025,0.000000,-0.500000
-0.188747,0.097309,0.237259,-0.866025,0.000000,0.500000
0.246456,0.036038,-0.137304,0.866025,0.000000,-0.500000
0.228778,-0.107579,-0.167923,0.866025,0.000000,-0.500000
-0.138382,-0.040041,0.012483,0.995956,0.000000,-0.089844
0.250859,0.070728,-0.129677,0.866025,0.000000,-0.500000
-0.135019,0.026565,-0.032794,0.971748,0.000000,0.236019
0.053594,0.023004,0.282089,0.000000,0.000000,1.000000
-0.319028,0.000738,0.011605,-0.866025,0.000000,0.500000
0.239390,0.033889,0.149542,0.866025,0.000000,0.500000
-0.022323,0.091537,0.282089,0.000000,0.000000,1.000000
-0.285807,-0.085109,0.069146,-0.866025,0.000000,0.500000
-0.116001,0.001252,-0.076480,0.834876,0.000000,0.550438
0.073143,0.112457,0.178722,0.000000,1.000000,0.000000
-0.013354,0.090261,-0.282089,-0.000000,0.000000,-1.000000
-0.230036,0.066323,0.165745,-0.866025,0.000000,0.500000
0.008178,-0.112457,0.235951,0.000000,-1.000000,0.000000
0.270086,0.053153,-0.096376,0.866025,0.000000,-0.500000
0.189308,0.112457,0.135968,0.000000,1.000000,0.000000
0.244634,-0.095377,-0.140460,0.866025,0.000000,-0.500000
-0.105769,0.076044,-0.090102,0.761233,0.000000,0.648479
0.214923,0.081185,0.191921,0.866025,0.000000,0.500000
-0.157898,0.112457,0.038653,0.000000,1.000000,0.000000
-0.166000,-0.095630,-0.276658,-0.866025,0.000000,-0.500000
0.039487,0.025830,0.282089,0.000000,0.000000,1.000000
0.158653,-0.090718,-0.282089,-0.000000,0.000000,-1.000000
-0.324362,0.051029,-0.002367,-0.866025,0.000000,-0.500000
0.213881,0.008078,-0.193726,0.866025,0.000000,-0.500000
0.116482,0.111658,0.282089,0.000000,0.000000,1.000000
0.186069,0.067321,0.241898,0.866025,0.000000,0.500000
0.256597,-0.049946,-0.119739,0.866025,0.000000,-0.500000
0.294722,0.011188,-0.053704,0.866025,0.000000,-0.500000
0.227338,-0.050829,-0.170417,0.866025,0.000000,-0.500000
-0.143856,-0.027582,-0.282089,-0.000000,0.000000,-1.000000
-0.254781,-0.031511,0.122884,-0.866025,0.000000,0.500000
0.041264,-0.076239,-0.282089,-0.000000,0.000000,-1.000000
-0.150930,-0.112457,-0.211061,0.000000,-1.000000,0.000000
-0.180581,0.045582,-0.251402,-0.866025,0.000000,-0.500000
0.017262,0.112457,0.174575,0.000000,1.000000,0.000000
0.318519,0.072788,0.012487,0.866025,0.000000,0.500000
0.036887,0.094742,-0.282089,-0.000000,0.000000,-1.000000
0.068842,-0.101825,0.282089,0.000000,0.000000,1.000000
0.322863,0.090120,-0.004964,0.866025,0.000000,-0.500000
0.166138,-0.054912,0.276418,0.866025,0.000000,0.500000
-0.262954,0.050633,-0.108728,-0.866025,0.000000,-0.500000
0.187057,0.112457,0.075488,0.000000,1.000000,0.000000
0.138510,0.059303,-0.010983,-0.996871,0.000000,0.079045
0.138320,-0.112457,0.052886,0.000000,-1.000000,0.000000
0.274216,-0.077497,-0.089223,0.866025,0.000000,-0.500000
0.033579,0.112457,-0.245455,0.000000,1.000000,0.000000
0.067826,-0.112457,0.128900,0.000000,-1.000000,0.000000
0.206487,0.029055,0.206531,0.866025,0.000000,0.500000
0.155316,-0.030257,-0.282089,-0.000000,0.000000,-1.000000
-0.239367,-0.112457,-0.117234,0.000000,-1.000000,0.000000
-0.225622,-0.015626,0.173389,-0.866025,0.000000,0.500000
-0.308433,-0.021422,0.029957,-0.866025,0.000000,0.500000
0.038798,0.024857,-0.282089,-0.000000,0.000000,-1.000000
0.258742,-0.077600,-0.116025,0.866025,0.000000,-0.500000
0.226653,-0.043968,-0.171604,0.866025,0.000000,-0.500000
0.189296,-0.052978,0.236307,0.866025,0.000000,0.500000
-0.226887,0.030792,-0.171199,-0.866025,0.000000,-0.500000
-0.155113,-0.086920,0.282089,0.000000,0.000000,1.000000
0.316693,0.020950,-0.015649,0.866025,0.000000,-0.500000
-0.000845,-0.090691,0.282089,0.000000,0.000000,1.000000
-0.214574,0.095840,0.192525,-0.866025,0.000000,0.500000
0.281702,0.087784,0.076255,0.866025,0.000000,0.500000
0.155777,0.080216,-0.282089,-0.000000,0.000000,-1.000000
-0.243761,0.029357,0.141971,-0.866025,0.000000,0.500000
0.300339,0.004331,0.043975,0.866025,0.000000,0.500000
0.273797,0.034386,0.089948,0.866025,0.000000,0.500000
0.258151,0.080009,-0.117048,0.866025,0.000000,-0.500000
0.077358,-0.111281,0.282089,0.000000,0.000000,1.000000
0.176178,0.096316,-0.259029,0.866025,0.000000,-0.500000
0.075707,-0.056946,-0.282089,-0.000000,0.000000,-1.000000
-0.203951,0.112457,-0.101684,0.000000,1.000000,0.000000
0.162952,-0.027132,-0.281936,0.866025,0.000000,-0.500000
0.065163,-0.039666,0.122716,-0.468988,0.000000,-0.883204
0.286686,0.075184,0.067624,0.866025,0.000000,0.500000
0.123022,-0.112457,-0.141592,0.000000,-1.000000,0.000000
-0.203404,0.072697,0.211873,-0.866025,0.000000,0.500000
-0.243190,-0.023671,-0.142960,-0.866025,0.000000,-0.500000
0.028321,0.039935,-0.282089,-0.000000,0.000000,-1.000000
0.121724,-0.105857,0.282089,0.000000,0.000000,1.000000
-0.190260,0.014078,-0.234639,-0.866025,0.000000,-0.500000
-0.235981,-0.065989,0.155446,-0.866025,0.000000,0.500000
-0.026427,-0.002308,0.282089,0.000000,0.000000,1.000000
0.138929,-0.104654,0.002073,-0.999889,0.000000,-0.014916
0.250661,0.006528,-0.130020,0.866025,0.000000,-0.500000
-0.043181,0.024847,0.282089,0.000000,0.000000,1.000000
0.168625,-0.092656,-0.272111,0.866025,0.000000,-0.500000
-0.177178,0.068036,0.257296,-0.866025,0.000000,0.500000
0.164427,-0.017524,0.279382,0.866025,0.000000,0.500000
-0.281328,-0.041953,-0.076903,-0.866025,0.000000,-0.500000
0.217260,-0.112457,-0.159175,0.000000,-1.000000,0.000000
-0.137969,0.000813,0.282089,0.000000,0.000000,1.000000
-0.267785,0.001493,-0.100361,-0.866025,0.000000,-0.500000
0.316499,0.039763,0.015986,0.866025,0.000000,0.500000
0.186378,-0.023403,0.241362,0.866025,0.000000,0.500000
0.076032,-0.048460,0.116295,-0.547215,0.000000,-0.836992
-0.058761,0.057136,-0.282089,-0.000000,0.000000,-1.000000
0.049165,0.029136,-0.129955,-0.353845,0.000000,0.935304
0.079842,0.107449,0.282089,0.000000,0.000000,1.000000
-0.166326,0.040423,-0.276093,-0.866025,0.000000,-0.500000
0.182812,-0.020299,-0.247539,0.866025,0.000000,-0.500000
-0.181990,0.026750,-0.248962,-0.866025,0.000000,-0.500000
-0.287727,0.107839,-0.065820,-0.866025,0.000000,-0.500000
0.232667,0.027694,-0.161188,0.866025,0.000000,-0.500000
-0.260600,0.038740,0.112806,-0.866025,0.000000,0.500000
-0.097472,-0.035592,-0.099018,0.701522,0.000000,0.712648
-0.069101,-0.016886,0.282089,0.000000,0.000000,1.000000
0.204893,-0.112457,-0.053089,0.000000,-1.000000,0.000000
0.155431,-0.007585,0.282089,0.000000,0.000000,1.000000
-0.082582,0.112457,-0.155562,0.000000,1.000000,0.000000
0.123497,0.112457,-0.185936,0.000000,1.000000,0.000000
-0.142302,-0.112457,-0.061239,0.000000,-1.000000,0.000000
-0.096175,-0.016737,-0.100279,0.692185,0.000000,0.721720
0.115006,-0.112457,-0.088756,0.000000,-1.000000,0.000000
0.177975,-0.112457,0.092064,0.000000,-1.000000,0.000000
0.320490,0.108763,-0.009072,0.866025,0.000000,-0.500000
-0.162559,-0.034217,0.282089,0.000000,0.000000,1.000000
-0.105433,-0.002895,-0.282089,-0.000000,0.000000,-1.000000
-0.156439,0.112457,0.040478,0.000000,1.000000,0.000000
-0.064996,-0.059082,-0.282089,-0.000000,0.000000,-1.000000
0.039028,0.082642,-0.282089,-0.000000,0.000000,-1.000000
0.080498,-0.063640,-0.282089,-0.000000,0.000000,-1.000000
0.021438,0.005824,0.282089,0.000000,0.000000,1.000000
-0.038862,-0.014137,0.282089,0.000000,0.000000,1.000000
0.088446,0.078448,0.282089,0.000000,0.000000,1.000000
0.082129,-0.103430,-0.282089,-0.000000,0.000000,-1.000000
0.065827,0.112457,0.130123,0.000000,1.000000,0.000000
0.288517,0.025980,-0.064452,0.866025,0.000000,-0.500000
0.181116,-0.112457,-0.051502,0.000000,-1.000000,0.000000
0.125305,-0.014725,0.060036,-0.901833,0.000000,-0.432084
-0.219876,0.040457,0.183342,-0.866025,0.000000,0.500000
-0.051476,0.082128,-0.129057,0.370478,0.000000,0.928841
0.206695,-0.055902,0.206172,0.866025,0.000000,0.500000
-0.130552,0.072592,-0.282089,-0.000000,0.000000,-1.000000
-0.048429,0.090910,-0.130231,0.348548,0.000000,0.937291
-0.275974,0.003461,-0.086177,-0.866025,0.000000,-0.500000
0.284628,-0.086904,-0.071188,0.866025,0.000000,-0.500000
0.009266,-0.112457,0.190675,0.000000,-1.000000,0.000000
0.296721,-0.027520,0.050243,0.866025,0.000000,0.500000
0.120983,-0.005309,-0.282089,-0.000000,0.000000,-1.000000
-0.245019,0.112457,0.021020,0.000000,1.000000,0.000000
-0.080228,0.102234,0.113442,0.577411,0.000000,-0.816453
-0.204449,0.108602,0.210063,-0.866025,0.000000,0.500000
-0.172718,0.095664,-0.265021,-0.866025,0.000000,-0.500000
-0.325182,-0.094311,-0.000946,-0.866025,0.000000,-0.500000
-0.050930,0.055946,0.282089,0.000000,0.000000,1.000000
-0.207365,0.087998,0.205011,-0.866025,0.000000,0.500000
-0.115028,-0.052112,0.282089,0.000000,0.000000,1.000000
0.149506,-0.011287,0.282089,0.000000,0.000000,1.000000
0.025108,0.089427,-0.282089,-0.000000,0.000000,-1.000000
0.124267,-0.047195,-0.062154,-0.894367,0.000000,0.447333
0.167203,0.033171,0.274573,0.866025,0.000000,0.500000
0.008303,-0.020296,-0.282089,-0.000000,0.000000,-1.000000
-0.110067,-0.021801,-0.282089,-0.000000,0.000000,-1.000000
-0.215390,-0.101942,0.191112,-0.866025,0.000000,0.500000
-0.318910,0.037731,0.011809,-0.866025,0.000000,0.500000
0.269103,-0.077319,0.098079,0.866025,0.000000,0.500000
0.262145,0.016040,0.110130,0.866025,0.000000,0.500000
-0.178384,0.108151,-0.255208,-0.866025,0.000000,-0.500000
0.002756,-0.112457,0.221328,0.000000,-1.000000,0.000000
-0.200712,-0.059164,0.216534,-0.866025,0.000000,0.500000
0.302100,-0.019836,0.040926,0.866025,0.000000,0.500000
-0.140157,0.112457,0.093288,0.000000,1.000000,0.000000
-0.128951,0.101151,-0.282089,-0.000000,0.000000,-1.000000
-0.287984,-0.066544,0.065375,-0.866025,0.000000,0.500000
-0.111413,0.012262,-0.083022,0.801853,0.000000,0.597522
-0.306353,0.005315,-0.033559,-0.866025,0.000000,-0.500000
0.038895,0.018671,0.282089,0.000000,0.000000,1.000000
0.149891,0.057832,-0.282089,-0.000000,0.000000,-1.000000
-0.210060,0.112457,0.039005,0.000000,1.000000,0.000000
0.011147,-0.050441,-0.138497,-0.080223,0.000000,0.996777
-0.041262,-0.063542,-0.132676,0.296967,0.000000,0.954888
0.043066,0.039554,-0.282089,-0.000000,0.000000,-1.000000
-0.015497,-0.056029,-0.282089,-0.000000,0.000000,-1.000000
0.097764,-0.032275,0.282089,0.000000,0.000000,1.000000
-0.005650,-0.109369,0.282089,0.000000,0.000000,1.000000
0.266741,-0.028167,0.102169,0.866025,0.000000,0.500000
0.164559,-0.064093,0.279154,0.866025,0.000000,0.500000
-0.325034,0.078144,-0.001203,-0.866025,0.000000,-0.500000
0.244897,0.112457,0.077944,0.000000,1.000000,0.000000
0.160416,0.002065,0.282089,0.000000,0.000000,1.000000
0.297766,0.009938,-0.048432,0.866025,0.000000,-0.500000
0.231722,0.027150,0.162825,0.866025,0.000000,0.500000
-0.012566,0.112457,-0.143243,0.000000,1.000000,0.000000
0.175857,0.047169,-0.259586,0.866025,0.000000,-0.500000
0.052493,0.068486,-0.282089,-0.000000,0.000000,-1.000000
-0.176915,0.034313,-0.257753,-0.866025,0.000000,-0.500000
-0.186809,-0.103364,-0.240616,-0.866025,0.000000,-0.500000
0.041297,0.112457,0.184097,0.000000,1.000000,0.000000
0.138944,0.026367,0.000035,-1.000000,0.000000,-0.000249
-0.318220,-0.082493,-0.013005,-0.866025,0.000000,-0.500000
0.250075,0.089107,0.131035,0.866025,0.000000,0.500000
0.272302,0.112457,0.034893,0.000000,1.000000,0.000000
0.087618,-0.004427,-0.282089,-0.000000,0.000000,-1.000000
0.130039,-0.010603,0.282089,0.000000,0.000000,1.000000
0.297046,0.072926,-0.049679,0.866025,0.000000,-0.500000
0.320558,0.084859,-0.008956,0.866025,0.000000,-0.500000
0.230577,0.080539,-0.164807,0.866025,0.000000,-0.500000
0.050887,-0.056477,-0.129291,-0.366237,0.000000,0.930522
-0.058203,0.112457,-0.225995,0.000000,1.000000,0.000000
0.165176,-0.112457,-0.202019,0.000000,-1.000000,0.000000
0.241011,0.081771,0.146735,0.866025,0.000000,0.500000
-0.192882,-0.055952,-0.230096,-0.866025,0.000000,-0.500000
-0.011660,0.090273,0.282089,0.000000,0.000000,1.000000
0.060794,-0.088187,0.124938,-0.437546,0.000000,-0.899196
-0.103843,0.025459,0.092316,0.747369,0.000000,-0.664409
-0.003336,0.055483,0.282089,0.000000,0.000000,1.000000
0.072107,0.069915,0.118769,-0.518966,0.000000,-0.854795
0.207070,-0.073691,0.205523,0.866025,0.000000,0.500000
-0.310454,0.009725,0.026456,-0.866025,0.000000,0.500000
-0.082688,-0.007736,0.111661,0.595116,0.000000,-0.803640
0.220818,0.051146,0.181711,0.866025,0.000000,0.500000
0.050511,0.045006,-0.282089,-0.000000,0.000000,-1.000000
-0.184708,-0.112457,-0.157842,0.000000,-1.000000,0.000000
-0.261219,0.095354,0.111733,-0.866025,0.000000,0.500000
-0.261774,0.082088,-0.110773,-0.866025,0.000000,-0.500000
-0.196617,-0.025740,-0.223628,-0.866025,0.000000,-0.500000
0.304873,0.006438,-0.036123,0.866025,0.000000,-0.500000
0.002928,-0.112457,0.202080,0.000000,-1.000000,0.000000
0.313008,-0.007131,-0.022032,0.866025,0.000000,-0.500000
-0.068764,0.002073,0.120736,0.494902,0.000000,-0.868949
-0.040700,0.112457,-0.135754,0.000000,1.000000,0.000000
0.318068,0.076139,0.013268,0.866025,0.000000,0.500000
-0.192673,-0.058239,0.230459,-0.866025,0.000000,0.500000
-0.060174,-0.094356,-0.282089,-0.000000,0.000000,-1.000000
-0.180697,-0.105325,0.251202,-0.866025,0.000000,0.500000
-0.236560,-0.028982,-0.154445,-0.866025,0.000000,-0.500000
0.120845,-0.090010,-0.068572,-0.869736,0.000000,0.493518
-0.060472,-0.003086,-0.282089,-0.000000,0.000000,-1.000000
0.193416,-0.021175,-0.229173,0.866025,0.000000,-0.500000
-0.218818,-0.027005,0.185174,-0.866025,0.000000,0.500000
0.137981,0.029663,-0.016335,-0.993066,0.000000,0.117562
-0.220767,0.019239,-0.181799,-0.866025,0.000000,-0.500000
0.007493,0.083463,0.282089,0.000000,0.000000,1.000000
0.126618,-0.112457,-0.060987,0.000000,-1.000000,0.000000
0.047411,-0.019295,0.282089,0.000000,0.000000,1.000000
-0.020667,0.018431,-0.137399,0.148741,0.000000,0.988876
0.306317,-0.084958,0.033622,0.866025,0.000000,0.500000
0.223610,-0.058255,0.176875,0.866025,0.000000,0.500000
0.249619,0.112457,0.037416,0.000000,1.000000,0.000000
0.324403,0.080529,0.002296,0.866025,0.000000,0.500000
0.028991,-0.088747,0.282089,0.000000,0.000000,1.000000
0.313238,-0.107895,0.021635,0.866025,0.000000,0.500000
0.041088,0.046534,0.282089,0.000000,0.000000,1.000000
-0.244643,0.025175,-0.140444,-0.866025,0.000000,-0.500000
-0.082162,0.090448,0.112049,0.591327,0.000000,-0.806432
-0.199742,-0.006884,0.218214,-0.866025,0.000000,0.500000
-0.222487,-0.091868,-0.178820,-0.866025,0.000000,-0.500000
-0.321641,0.063503,0.007080,-0.866025,0.000000,0.500000
-0.032557,-0.005692,-0.282089,-0.000000,0.000000,-1.000000
0.199507,-0.098387,0.218622,0.866025,0.000000,0.500000
-0.241079,0.020480,0.146618,-0.866025,0.000000,0.500000
-0.138274,0.101982,0.013636,0.995173,0.000000,-0.098139
-0.011200,0.059227,-0.282089,-0.000000,0.000000,-1.000000
-0.090675,0.099913,0.282089,0.000000,0.000000,1.000000
-0.065567,-0.021597,-0.282089,-0.000000,0.000000,-1.000000
0.225048,-0.112457,0.125472,0.000000,-1.000000,0.000000
0.179887,0.112457,-0.114800,0.000000,1.000000,0.000000
-0.239316,0.015644,-0.149670,-0.866025,0.000000,-0.500000
-0.131966,0.112457,-0.060589,0.000000,1.000000,0.000000
-0.000605,-0.112457,-0.213547,0.000000,-1.000000,0.000000
0.266349,0.018844,0.102847,0.866025,0.000000,0.500000
0.109583,0.015593,0.282089,0.000000,0.000000,1.000000
0.187530,-0.002486,-0.239366,0.866025,0.000000,-0.500000
0.237548,-0.000797,-0.152733,0.866025,0.000000,-0.500000
-0.217710,-0.016103,0.187093,-0.866025,0.000000,0.500000
0.107867,0.088735,-0.282089,-0.000000,0.000000,-1.000000
-0.214925,0.112205,-0.191917,-0.866025,0.000000,-0.500000
0.038219,-0.062488,0.133585,-0.275068,0.000000,-0.961425
0.168538,-0.032936,-0.272262,0.866025,0.000000,-0.500000
-0.235710,0.026558,0.155916,-0.866025,0.000000,0.500000
0.137187,-0.112457,0.216719,0.000000,-1.000000,0.000000
0.253818,-0.112457,-0.007245,0.000000,-1.000000,0.000000
-0.091057,0.112457,-0.255328,0.000000,1.000000,0.000000
-0.090303,-0.112457,-0.239904,0.000000,-1.000000,0.000000
0.051231,0.011120,-0.282089,-0.000000,0.000000,-1.000000
0.208661,-0.112457,0.178044,0.000000,-1.000000,0.000000
0.059582,0.016036,0.125521,-0.428823,0.000000,-0.903389
0.212662,-0.060713,0.195837,0.866025,0.000000,0.500000
0.199152,-0.112457,0.036696,0.000000,-1.000000,0.000000
-0.195068,-0.054872,-0.226311,-0.866025,0.000000,-0.500000
-0.253952,0.107253,0.124321,-0.866025,0.000000,0.500000
0.322620,-0.028075,0.005384,0.866025,0.000000,0.500000
-0.149098,0.112457,-0.049833,0.000000,1.000000,0.000000
-0.206141,0.112457,-0.108237,0.000000,1.000000,0.000000
-0.136735,0.040411,-0.024678,0.984101,0.000000,0.177610
0.141448,0.016373,0.282089,0.000000,0.000000,1.000000
0.204567,0.100169,-0.209858,0.866025,0.000000,-0.500000
0.226723,-0.001383,-0.171482,0.866025,0.000000,-0.500000
-0.118451,0.005047,-0.072629,0.852505,0.000000,0.522720
0.237913,0.026126,-0.152100,0.866025,0.000000,-0.500000
-0.267397,0.002753,-0.101033,-0.866025,0.000000,-0.500000
-0.226354,0.042441,-0.172121,-0.866025,0.000000,-0.500000
0.108086,-0.059240,-0.087310,-0.777907,0.000000,0.628379
0.014121,0.095440,0.138225,-0.101634,0.000000,-0.994822
-0.258046,0.055805,0.117229,-0.866025,0.000000,0.500000
0.189087,0.092305,0.236670,0.866025,0.000000,0.500000
0.038759,-0.112457,0.185376,0.000000,-1.000000,0.000000
0.011770,-0.112457,-0.198112,0.000000,-1.000000,0.000000
-0.160145,0.084113,-0.282089,-0.000000,0.000000,-1.000000
-0.281585,-0.064718,-0.076458,-0.866025,0.000000,-0.500000
-0.158292,-0.112457,0.080754,0.000000,-1.000000,0.000000
0.208319,-0.094646,-0.203359,0.866025,0.000000,-0.500000
-0.137332,-0.092647,-0.021105,0.988397,0.000000,0.151896
0.243223,-0.105210,-0.142904,0.866025,0.000000,-0.500000
0.105976,0.095047,0.089858,-0.762726,0.000000,-0.646722
-0.131719,-0.043535,0.282089,0.000000,0.000000,1.000000
-0.177032,0.036132,0.257550,-0.866025,0.000000,0.500000
-0.311342,-0.088085,0.024918,-0.866025,0.000000,0.500000
0.073035,-0.099968,0.282089,0.000000,0.000000,1.000000
-0.312552,-0.089418,-0.022823,-0.866025,0.000000,-0.500000
0.299501,-0.086006,0.045427,0.866025,0.000000,0.500000
-0.296665,-0.033205,0.050339,-0.866025,0.000000,0.500000
0.122189,-0.084220,-0.282089,-0.000000,0.000000,-1.000000
-0.050519,0.112457,-0.139187,0.000000,1.000000,0.000000
-0.237054,-0.012560,-0.153588,-0.866025,0.000000,-0.500000
-0.253998,-0.049991,-0.124242,-0.866025,0.000000,-0.500000
0.100661,-0.042786,0.282089,0.000000,0.000000,1.000000
0.138303,-0.112457,0.025410,0.000000,-1.000000,0.000000
0.036733,-0.112457,-0.256982,0.000000,-1.000000,0.000000
-0.253384,-0.084093,0.125305,-0.866025,0.000000,0.500000
-0.211217,0.027362,0.198340,-0.866025,0.000000,0.500000
0.287995,0.000610,0.065357,0.866025,0.000000,0.500000
0.124487,0.112457,0.250963,0.000000,1.000000,0.000000
0.180167,0.112457,-0.087370,0.000000,1.000000,0.000000
-0.160892,0.112457,-0.008244,0.000000,1.000000,0.000000
0.228804,-0.112457,0.080537,0.000000,-1.000000,0.000000
0.016038,-0.090434,0.282089,0.000000,0.000000,1.000000
-0.229008,-0.033602,0.167524,-0.866025,0.000000,0.500000
0.015831,0.082198,0.282089,0.000000,0.000000,1.000000
-0.267925,0.104892,-0.100119,-0.866025,0.000000,-0.500000
-0.192746,0.067178,0.230332,-0.866025,0.000000,0.500000
-0.319356,0.004571,-0.011036,-0.866025,0.000000,-0.500000
0.123761,-0.075480,0.063157,-0.890723,0.000000,-0.454546
-0.028080,0.112457,0.185673,0.000000,1.000000,0.000000
0.258200,-0.112457,0.058406,0.000000,-1.000000,0.000000
-0.269670,0.101664,-0.097097,-0.866025,0.000000,-0.500000
-0.194629,0.070983,-0.227070,-0.866025,0.000000,-0.500000
-0.272287,-0.079554,-0.092563,-0.866025,0.000000,-0.500000
0.082090,0.062568,0.112101,-0.590813,0.000000,-0.806809
0.119929,0.071104,-0.282089,-0.000000,0.000000,-1.000000
0.141946,0.075793,0.282089,0.000000,0.000000,1.000000
0.013383,0.007634,0.138298,-0.096316,0.000000,-0.995351
-0.314828,0.038592,-0.018879,-0.866025,0.000000,-0.500000
0.154076,-0.112457,0.096817,0.000000,-1.000000,0.000000
-0.038900,-0.098622,-0.133388,0.279971,0.000000,0.960009
-0.287332,-0.047363,-0.066505,-0.866025,0.000000,-0.500000
-0.071693,-0.044154,0.282089,0.000000,0.000000,1.000000
0.027747,0.104846,0.282089,0.000000,0.000000,1.000000
-0.094074,0.007487,-0.282089,-0.000000,0.000000,-1.000000
-0.281887,0.018462,0.075936,-0.866025,0.000000,0.500000
-0.260066,-0.026351,0.113730,-0.866025,0.000000,0.500000
-0.200346,0.031132,0.217168,-0.866025,0.000000,0.500000
-0.214356,-0.039953,0.192902,-0.866025,0.000000,0.500000
0.057310,0.069250,-0.282089,-0.000000,0.000000,-1.000000
-0.096784,-0.102668,0.282089,0.000000,0.000000,1.000000
-0.313468,-0.096772,-0.021235,-0.866025,0.000000,-0.500000
-0.285488,-0.054621,-0.069698,-0.866025,0.000000,-0.500000
-0.137241,-0.058884,0.021690,0.987740,0.000000,-0.156106
-0.177219,0.017996,-0.257225,-0.866025,0.000000,-0.500000
-0.210708,0.055511,-0.199221,-0.866025,0.000000,-0.500000
-0.207745,-0.070280,0.204353,-0.866025,0.000000,0.500000
0.180594,0.086148,0.251380,0.866025,0.000000,0.500000
0.085563,0.035168,0.109474,-0.615807,0.000000,-0.787897
0.259787,0.015924,-0.114213,0.866025,0.000000,-0.500000
-0.246930,-0.073754,0.136482,-0.866025,0.000000,0.500000
-0.155355,-0.068638,0.282089,0.000000,0.000000,1.000000
-0.050704,0.103338,0.282089,0.000000,0.000000,1.000000
-0.297125,-0.112447,0.049543,-0.866025,0.000000,0.500000
-0.206111,0.059900,0.207184,-0.866025,0.000000,0.500000
0.174325,0.047759,-0.262239,0.866025,0.000000,-0.500000
0.201055,0.088950,-0.215941,0.866025,0.000000,-0.500000
0.091082,-0.069019,0.104926,-0.655531,0.000000,-0.755168
0.013330,-0.051263,0.282089,0.000000,0.000000,1.000000
-0.087325,0.001960,0.282089,0.000000,0.000000,1.000000
0.219524,0.042063,-0.183952,0.866025,0.000000,-0.500000
0.289148,0.063784,-0.063360,0.866025,0.000000,-0.500000
-0.089596,0.016361,0.106199,0.644832,0.000000,-0.764325
-0.030009,-0.017485,0.282089,0.000000,0.000000,1.000000
0.221786,-0.101740,-0.180033,0.866025,0.000000,-0.500000
0.073996,0.100078,-0.282089,-0.000000,0.000000,-1.000000
-0.156276,-0.056748,-0.282089,-0.000000,0.000000,-1.000000
-0.308553,-0.028963,-0.029749,-0.866025,0.000000,-0.500000
0.064323,-0.017028,-0.282089,-0.000000,0.000000,-1.000000
0.159649,0.078978,0.282089,0.000000,0.000000,1.000000
-0.220578,0.006114,0.182125,-0.866025,0.000000,0.500000
0.044001,-0.112457,-0.142044,0.000000,-1.000000,0.000000
-0.065518,-0.075726,0.282089,0.000000,0.000000,1.000000
0.168764,0.075977,-0.271870,0.866025,0.000000,-0.500000
-0.068645,0.076102,0.120803,0.494045,0.000000,-0.869436
0.234047,0.104115,-0.158796,0.866025,0.000000,-0.500000
0.219800,0.032998,-0.183474,0.866025,0.000000,-0.500000
0.155136,0.098671,-0.282089,-0.000000,0.000000,-1.000000
-0.254642,-0.069158,0.123125,-0.866025,0.000000,0.500000
0.204186,-0.005185,-0.210518,0.866025,0.000000,-0.500000
0.123124,-0.008137,0.064390,-0.886137,0.000000,-0.463423
-0.308349,-0.018852,0.030102,-0.866025,0.000000,0.500000
-0.053618,0.106179,-0.128182,0.385897,0.000000,0.922542
0.093964,-0.045588,-0.282089,-0.000000,0.000000,-1.000000
0.215756,0.039784,0.190477,0.866025,0.000000,0.500000
-0.206456,0.006098,-0.206585,-0.866025,0.000000,-0.500000
0.109819,0.112457,-0.089403,0.000000,1.000000,0.000000
-0.036365,-0.031071,0.134101,0.261720,0.000000,-0.965144
-0.311527,0.017934,-0.024598,-0.866025,0.000000,-0.500000
-0.149625,-0.060933,0.282089,0.000000,0.000000,1.000000
0.268557,0.041227,-0.099024,0.866025,0.000000,-0.500000
-0.222854,0.066815,0.178184,-0.866025,0.000000,0.500000
-0.237377,0.042565,0.153028,-0.866025,0.000000,0.500000
0.150188,-0.112457,-0.067545,0.000000,-1.000000,0.000000
0.066690,-0.064964,0.282089,0.000000,0.000000,1.000000
0.321231,0.039206,0.007791,0.866025,0.000000,0.500000
0.063452,0.068440,-0.123610,-0.456669,0.000000,0.889637
0.121182,0.094767,0.067973,-0.872164,0.000000,-0.489213
-0.290452,0.090681,0.061101,-0.866025,0.000000,0.500000
-0.170057,0.103811,-0.269631,-0.866025,0.000000,-0.500000
-0.138813,-0.111415,-0.006046,0.999053,0.000000,0.043512
0.143999,0.022986,0.282089,0.000000,0.000000,1.000000
-0.295116,-0.094146,-0.053023,-0.866025,0.000000,-0.500000
-0.069828,0.051307,-0.282089,-0.000000,0.000000,-1.000000
0.233726,0.075087,0.159353,0.866025,0.000000,0.500000
-0.299559,0.022892,0.045327,-0.866025,0.000000,0.500000
-0.249680,-0.053455,-0.131719,-0.866025,0.000000,-0.500000
0.177839,-0.017733,0.256151,0.866025,0.000000,0.500000
-0.315976,-0.059343,-0.016891,-0.866025,0.000000,-0.500000
-0.143712,0.022694,0.282089,0.000000,0.000000,1.000000
0.112764,0.095583,0.282089,0.000000,0.000000,1.000000
-0.094671,-0.031489,0.101701,0.681356,0.000000,-0.731952
0.147841,0.112457,-0.180105,0.000000,1.000000,0.000000
-0.110302,-0.054472,0.282089,0.000000,0.000000,1.000000
0.259435,-0.021323,0.114824,0.866025,0.000000,0.500000
-0.113110,0.048039,-0.282089,-0.000000,0.000000,-1.000000
0.227289,0.080785,0.170502,0.866025,0.000000,0.500000
-0.171739,-0.022389,0.266717,-0.866025,0.000000,0.500000
-0.318196,0.010747,0.013047,-0.866025,0.000000,0.500000
0.050041,0.030438,-0.282089,-0.000000,0.000000,-1.000000
-0.302908,0.001187,-0.039526,-0.866025,0.000000,-0.500000
0.295380,-0.107625,-0.052566,0.866025,0.000000,-0.500000
0.134304,-0.071935,0.035610,-0.966600,0.000000,-0.256288
-0.023359,0.088388,0.136967,0.168118,0.000000,-0.985767
0.319907,-0.029254,0.010083,0.866025,0.000000,0.500000
0.048301,-0.038425,0.130279,-0.347630,0.000000,-0.937632
0.093629,-0.070846,0.102661,-0.673857,0.000000,-0.738862
0.289543,0.071782,0.062676,0.866025,0.000000,0.500000
-0.059237,-0.096017,0.125684,0.426337,0.000000,-0.904565
-0.257587,-0.027807,-0.118024,-0.866025,0.000000,-0.500000
-0.129034,-0.034791,0.051533,0.928676,0.000000,-0.370891
0.306364,0.045461,-0.033541,0.866025,0.000000,-0.500000
-0.024369,0.112457,-0.251540,0.000000,1.000000,0.000000
-0.090131,0.011874,-0.105745,0.648685,0.000000,0.761057
0.184863,-0.040460,0.243986,0.866025,0.000000,0.500000
0.236940,-0.084411,-0.153786,0.866025,0.000000,-0.500000
-0.041320,-0.112457,0.145884,0.000000,-1.000000,0.000000
0.039992,-0.001871,-0.282089,-0.000000,0.000000,-1.000000
0.059661,-0.080028,0.125484,-0.429386,0.000000,-0.903121
0.163912,-0.056669,0.280274,0.866025,0.000000,0.500000
0.225070,0.112457,0.045241,0.000000,1.000000,0.000000
-0.101897,0.032506,-0.094459,0.733366,0.000000,0.679834
0.010401,0.068272,0.282089,0.000000,0.000000,1.000000
0.023266,0.020316,0.136983,-0.167447,0.000000,-0.985881
0.136154,0.111248,-0.027708,-0.979914,0.000000,0.199419
-0.293515,0.016822,-0.055795,-0.866025,0.000000,-0.500000
0.183232,0.053226,-0.246811,0.866025,0.000000,-0.500000
0.040864,-0.052689,-0.132799,-0.294101,0.000000,0.955774
0.229794,-0.100350,-0.166164,0.866025,0.000000,-0.500000
0.174404,-0.090579,-0.262101,0.866025,0.000000,-0.500000
-0.171806,-0.097963,0.266602,-0.866025,0.000000,0.500000
-0.130874,0.077600,0.282089,0.000000,0.000000,1.000000
-0.249389,-0.063338,0.132223,-0.866025,0.000000,0.500000
0.312241,-0.027697,0.023361,0.866025,0.000000,0.500000
-0.306923,0.041642,0.032571,-0.866025,0.000000,0.500000
-0.169109,-0.029042,0.271272,-0.866025,0.000000,0.500000
0.008955,-0.018427,-0.282089,-0.000000,0.000000,-1.000000
0.275961,-0.076759,0.086200,0.866025,0.000000,0.500000
-0.237536,0.058126,-0.152754,-0.866025,0.000000,-0.500000
-0.117518,-0.090651,0.074129,0.845788,0.000000,-0.533518
0.157254,-0.027171,-0.282089,-0.000000,0.000000,-1.000000
0.138793,-0.019189,-0.006485,-0.998910,0.000000,0.046671
-0.085945,-0.034045,0.282089,0.000000,0.000000,1.000000
-0.233714,0.027898,0.159373,-0.866025,0.000000,0.500000
0.046060,-0.022744,-0.282089,-0.000000,0.000000,-1.000000
-0.208912,-0.093963,0.202332,-0.866025,0.000000,0.500000
0.200371,-0.103618,-0.217125,0.866025,0.000000,-0.500000
-0.022173,0.044892,0.282089,0.000000,0.000000,1.000000
0.250655,-0.088052,0.130031,0.866025,0.000000,0.500000
-0.256886,-0.045772,0.119239,-0.866025,0.000000,0.500000
0.027703,-0.101197,-0.282089,-0.000000,0.000000,-1.000000
0.295107,0.030887,0.053038,0.866025,0.000000,0.500000
-0.318537,0.048368,0.012456,-0.866025,0.000000,0.500000
0.002354,0.024735,0.138924,-0.016939,0.000000,-0.999857
-0.009429,-0.080568,0.282089,0.000000,0.000000,1.000000
-0.180838,-0.112457,-0.108147,0.000000,-1.000000,0.000000
0.213609,0.102670,-0.194197,0.866025,0.000000,-0.500000
-0.205410,-0.029791,0.208397,-0.866025,0.000000,0.500000
0.111949,-0.057444,-0.282089,-0.000000,0.000000,-1.000000
0.089597,-0.033178,-0.282089,-0.000000,0.000000,-1.000000
0.101089,0.112457,-0.132885,0.000000,1.000000,0.000000
0.123838,-0.109607,0.282089,0.000000,0.000000,1.000000
0.147807,0.050509,-0.282089,-0.000000,0.000000,-1.000000
0.313155,-0.033576,-0.021778,0.866025,0.000000,-0.500000
0.101647,-0.081798,0.094728,-0.731565,0.000000,-0.681772
0.173114,-0.112457,0.007073,0.000000,-1.000000,0.000000
-0.227708,-0.043417,-0.169776,-0.866025,0.000000,-0.500000
0.260818,0.111966,-0.112428,0.866025,0.000000,-0.500000
0.056252,-0.032394,0.127048,-0.404853,0.000000,-0.914382
0.071582,0.101253,0.119086,-0.515187,0.000000,-0.857078
-0.032055,-0.037554,0.282089,0.000000,0.000000,1.000000
-0.282498,0.100196,-0.074877,-0.866025,0.000000,-0.500000
-0.315224,-0.008489,0.018195,-0.866025,0.000000,0.500000
-0.239042,0.015800,-0.150145,-0.866025,0.000000,-0.500000
-0.001335,0.112242,0.282089,0.000000,0.000000,1.000000
-0.128696,-0.022607,-0.282089,-0.000000,0.000000,-1.000000
-0.188744,0.110262,0.237264,-0.866025,0.000000,0.500000
-0.246365,-0.006976,-0.137462,-0.866025,0.000000,-0.500000
-0.111701,0.112457,-0.105400,0.000000,1.000000,0.000000
0.224537,-0.086552,-0.175268,0.866025,0.000000,-0.500000
-0.192210,-0.030776,0.231260,-0.866025,0.000000,0.500000
-0.309834,0.086596,0.027529,-0.866025,0.000000,0.500000
0.007020,0.112457,0.273394,0.000000,1.000000,0.000000
0.167724,-0.004344,0.273672,0.866025,0.000000,0.500000
0.141017,-0.102692,-0.282089,-0.000000,0.000000,-1.000000
-0.185711,-0.107632,0.242517,-0.866025,0.000000,0.500000
-0.187674,0.024887,0.239118,-0.866025,0.000000,0.500000
-0.079530,-0.001599,-0.282089,-0.000000,0.000000,-1.000000
0.266414,0.028693,0.102736,0.866025,0.000000,0.500000
0.164468,-0.112457,-0.150391,0.000000,-1.000000,0.000000
-0.142360,-0.112457,0.126998,0.000000,-1.000000,0.000000
0.006042,0.086263,0.282089,0.000000,0.000000,1.000000
-0.179284,-0.046480,0.253648,-0.866025,0.000000,0.500000
0.211614,0.109763,-0.197651,0.866025,0.000000,-0.500000
-0.151103,0.043738,0.282089,0.000000,0.000000,1.000000
-0.085548,0.089047,-0.109485,0.615701,0.000000,0.787980
-0.214881,0.017020,0.191993,-0.866025,0.000000,0.500000
0.323348,0.008015,-0.004123,0.866025,0.000000,-0.500000
0.119269,0.008340,-0.071277,-0.858393,0.000000,0.512993
0.213846,-0.042241,-0.193786,0.866025,0.000000,-0.500000
-0.293095,0.081258,-0.056523,-0.866025,0.000000,-0.500000
-0.184145,0.073751,0.245230,-0.866025,0.000000,0.500000
-0.279014,-0.025167,0.080911,-0.866025,0.000000,0.500000
0.039746,0.012495,0.282089,0.000000,0.000000,1.000000
0.202336,0.011709,-0.213722,0.866025,0.000000,-0.500000
-0.138896,0.103933,-0.003671,0.999651,0.000000,0.026419
-0.096006,-0.036385,0.100441,0.690966,0.000000,-0.722887
-0.001632,-0.078645,-0.282089,-0.000000,0.000000,-1.000000
0.128574,-0.087255,0.052671,-0.925365,0.000000,-0.379078
-0.013825,-0.011777,0.282089,0.000000,0.000000,1.000000
0.139385,-0.084272,0.282089,0.000000,0.000000,1.000000
-0.261166,-0.038275,0.111826,-0.866025,0.000000,0.500000
0.167338,-0.011598,0.274339,0.866025,0.000000,0.500000
-0.167780,-0.038939,-0.273575,-0.866025,0.000000,-0.500000
0.054146,-0.009618,-0.282089,-0.000000,0.000000,-1.000000
0.175940,0.058968,-0.259441,0.866025,0.000000,-0.500000
0.186639,0.112457,-0.170640,0.000000,1.000000,0.000000
