x,y,z,nx,ny,nz
0.017875,0.031600,0.316288,0.000000,1.000000,0.000000
0.274883,0.031600,0.138133,0.000000,1.000000,0.000000
0.420626,-0.031600,0.177139,0.000000,-1.000000,0.000000
0.052498,0.031600,0.242357,0.000000,1.000000,0.000000
0.276000,0.026082,0.161174,-0.951502,0.000000,-0.307642
0.031600,0.115172,0.425295,1.000000,0.000000,0.000000
0.330394,-0.031600,0.125439,0.000000,-1.000000,0.000000
-0.031600,0.884089,0.253941,-1.000000,0.000000,0.000000
-0.031600,0.792777,0.481624,-1.000000,0.000000,0.000000
0.089851,0.031600,0.190597,0.000000,1.000000,0.000000
0.031600,0.373646,0.304384,1.000000,0.000000,0.000000
0.388032,0.013848,0.369352,0.499287,0.000000,0.866436
0.247833,-0.031600,0.123833,0.000000,-1.000000,0.000000
0.448677,-0.031600,0.276363,0.000000,-1.000000,0.000000
0.318244,-0.031600,0.284248,0.000000,-1.000000,0.000000
0.031600,0.603711,0.231725,1.000000,0.000000,0.000000
-0.031600,0.309945,0.240210,-1.000000,0.000000,0.000000
-0.031600,0.185617,0.413909,-1.000000,0.000000,0.000000
0.432861,-0.031600,0.419803,0.000000,-1.000000,0.000000
0.031600,0.351891,0.306783,1.000000,0.000000,0.000000
0.479763,-0.031600,0.395611,0.000000,-1.000000,0.000000
0.440067,0.004479,0.313898,0.994025,0.000000,-0.109154
0.297320,0.031600,0.196187,0.000000,1.000000,0.000000
-0.031600,0.084852,0.437119,-1.000000,0.000000,0.000000
0.375905,0.031600,0.104812,0.000000,1.000000,0.000000
0.242211,0.031600,0.320365,0.000000,1.000000,0.000000
0.031600,0.801393,0.143712,1.000000,0.000000,0.000000
0.227266,-0.031600,0.418020,0.000000,-1.000000,0.000000
0.031600,0.213356,0.043211,1.000000,0.000000,0.000000
0.031600,0.278944,0.337779,1.000000,0.000000,0.000000
0.198676,0.031600,0.352296,0.000000,1.000000,0.000000
0.062074,0.031600,0.112351,0.000000,1.000000,0.000000
0.275585,0.027082,0.176329,0.989277,0.000000,0.146054
-0.031600,0.349859,0.456783,-1.000000,0.000000,0.000000
-0.031600,0.793007,0.412813,-1.000000,0.000000,0.000000
-0.031600,0.317836,0.101015,-1.000000,0.000000,0.000000
0.418601,-0.031600,0.283080,0.000000,-1.000000,0.000000
0.377480,0.031600,0.406134,0.000000,1.000000,0.000000
0.031600,0.693422,0.244155,1.000000,0.000000,0.000000
0.184369,-0.009084,0.306967,0.990909,0.000000,-0.134531
-0.031600,0.270102,0.409454,-1.000000,0.000000,0.000000
0.031600,0.739189,0.310672,1.000000,0.000000,0.000000
0.210725,0.031600,0.401147,0.000000,1.000000,0.000000
-0.031600,0.833203,0.002471,-1.000000,0.000000,0.000000
0.419954,-0.031600,0.103147,0.000000,-1.000000,0.000000
0.459651,0.031600,0.066506,0.000000,1.000000,0.000000
-0.031600,0.790560,0.158187,-1.000000,0.000000,0.000000
0.031600,0.499838,0.040937,1.000000,0.000000,0.000000
0.253760,-0.031600,0.232488,0.000000,-1.000000,0.000000
0.193597,-0.018882,0.254209,-0.498732,0.000000,-0.866756
0.031600,0.515062,0.110789,1.000000,0.000000,0.000000
0.031600,0.746019,0.469347,1.000000,0.000000,0.000000
-0.031600,0.654137,0.039106,-1.000000,0.000000,0.000000
0.230027,-0.031600,0.052210,0.000000,-1.000000,0.000000
0.403024,-0.031600,0.290760,0.000000,-1.000000,0.000000
-0.031600,0.118563,0.044300,-1.000000,0.000000,0.000000
0.286703,0.031600,0.436224,0.000000,1.000000,0.000000
0.097076,0.031600,0.106599,0.000000,1.000000,0.000000
0.470041,-0.031600,0.229297,0.000000,-1.000000,0.000000
0.031600,0.590968,0.069410,1.000000,0.000000,0.000000
0.323441,-0.031600,0.411234,0.000000,-1.000000,0.000000
0.031600,0.589355,0.277146,1.000000,0.000000,0.000000
0.219440,-0.031600,0.267768,0.000000,-1.000000,0.000000
0.031600,0.732335,0.224782,1.000000,0.000000,0.000000
0.031600,0.593670,0.025558,1.000000,0.000000,0.000000
0.169465,-0.031600,0.037301,0.000000,-1.000000,0.000000
0.350498,0.031600,0.224187,0.000000,1.000000,0.000000
0.348931,-0.026123,0.258720,0.155155,0.000000,0.987890
0.210626,-0.016058,0.329390,0.988642,0.000000,0.150288
0.194705,0.031600,0.237237,0.000000,1.000000,0.000000
0.031600,0.537923,0.335051,1.000000,0.000000,0.000000
0.099175,0.031600,0.013915,0.000000,1.000000,0.000000
-0.031600,0.317385,0.193941,-1.000000,0.000000,0.000000
0.031600,0.070665,0.283575,1.000000,0.000000,0.000000
-0.031600,0.505850,0.114459,-1.000000,0.000000,0.000000
-0.031600,0.323902,0.370979,-1.000000,0.000000,0.000000
-0.031600,0.608919,0.284741,-1.000000,0.000000,0.000000
0.125438,0.025673,0.201401,0.120434,0.000000,0.992721
0.210099,-0.031600,0.443323,0.000000,-1.000000,0.000000
0.369926,-0.031600,0.089588,0.000000,-1.000000,0.000000
0.031600,0.766014,0.224980,1.000000,0.000000,0.000000
0.031600,0.893875,0.185294,1.000000,0.000000,0.000000
-0.031600,0.064729,0.143903,-1.000000,0.000000,0.000000
0.267753,0.011222,0.162756,0.181063,0.000000,-0.983472
0.248342,-0.018555,0.245242,-0.177028,0.000000,0.984206
-0.031600,0.684817,0.163113,-1.000000,0.000000,0.000000
-0.031600,0.409715,0.150939,-1.000000,0.000000,0.000000
0.054121,-0.031600,0.105161,0.000000,-1.000000,0.000000
0.341398,0.031600,0.107361,0.000000,1.000000,0.000000
0.031600,0.588414,0.410115,1.000000,0.000000,0.000000
-0.031600,0.469845,0.040822,-1.000000,0.000000,0.000000
0.031600,0.353403,0.432661,1.000000,0.000000,0.000000
0.031600,0.714994,0.447253,1.000000,0.000000,0.000000
-0.031600,0.749394,0.213181,-1.000000,0.000000,0.000000
0.031600,0.328383,0.114918,1.000000,0.000000,0.000000
0.307595,-0.011166,0.413687,0.550468,0.000000,0.834856
-0.031600,0.553074,0.278331,-1.000000,0.000000,0.000000
0.166972,0.028608,0.154159,-0.554112,0.000000,0.832442
0.031600,0.385657,0.212767,1.000000,0.000000,0.000000
0.268577,-0.031600,0.450621,0.000000,-1.000000,0.000000
-0.031600,0.149195,0.334319,-1.000000,0.000000,0.000000
-0.031600,0.005180,0.055216,-1.000000,0.000000,0.000000
0.114848,-0.031600,0.247920,0.000000,-1.000000,0.000000
0.136173,-0.030459,0.167790,-0.966462,0.000000,-0.256810
0.401751,0.031600,0.325194,0.000000,1.000000,0.000000
0.149192,-0.031600,0.471142,0.000000,-1.000000,0.000000
0.031600,0.226532,0.089379,1.000000,0.000000,0.000000
-0.031600,0.552658,0.334985,-1.000000,0.000000,0.000000
0.368108,-0.019163,0.366704,0.362173,0.000000,0.932111
-0.031600,0.319757,0.314857,-1.000000,0.000000,0.000000
0.243889,0.031600,0.297954,0.000000,1.000000,0.000000
0.031600,0.118446,0.400599,1.000000,0.000000,0.000000
0.187964,0.031600,0.472604,0.000000,1.000000,0.000000
-0.031600,0.694146,0.475260,-1.000000,0.000000,0.000000
0.119310,-0.031600,0.388429,0.000000,-1.000000,0.000000
0.198731,0.003174,0.270115,0.566947,0.000000,-0.823754
0.031600,0.796153,0.315962,1.000000,0.000000,0.000000
-0.031600,0.367408,0.315692,-1.000000,0.000000,0.000000
0.031600,0.637987,0.462111,1.000000,0.000000,0.000000
0.031600,0.621891,0.237271,1.000000,0.000000,0.000000
0.031600,0.281279,0.053673,1.000000,0.000000,0.000000
-0.031600,0.215968,0.386127,-1.000000,0.000000,0.000000
0.031600,0.811329,0.423135,1.000000,0.000000,0.000000
0.031600,0.244813,0.203490,1.000000,0.000000,0.000000
0.235829,-0.031600,0.073838,0.000000,-1.000000,0.000000
0.188195,0.031600,0.475875,0.000000,1.000000,0.000000
0.131164,0.031600,0.377263,0.000000,1.000000,0.000000
0.334034,0.031600,0.376504,0.000000,1.000000,0.000000
0.211550,0.021941,0.353002,-0.404665,0.000000,0.914465
-0.031600,0.017919,0.287950,-1.000000,0.000000,0.000000
0.222805,0.031600,0.311798,0.000000,1.000000,0.000000
0.031600,0.469726,0.174571,1.000000,0.000000,0.000000
0.078300,-0.031600,0.413817,0.000000,-1.000000,0.000000
-0.031600,0.198453,0.442030,-1.000000,0.000000,0.000000
0.051555,0.031600,0.004947,0.000000,1.000000,0.000000
0.220519,0.020619,0.207629,0.437937,0.000000,-0.899006
0.480434,0.031600,0.110918,0.000000,1.000000,0.000000
0.076209,0.031600,0.184409,0.000000,1.000000,0.000000
0.292161,-0.031600,0.081734,0.000000,-1.000000,0.000000
-0.031600,0.843375,0.447119,-1.000000,0.000000,0.000000
0.031600,0.452257,0.309088,1.000000,0.000000,0.000000
0.031600,0.612025,0.100603,1.000000,0.000000,0.000000
0.031600,0.100353,0.379615,1.000000,0.000000,0.000000
0.031600,0.774228,0.114269,1.000000,0.000000,0.000000
0.031600,0.393904,0.260915,1.000000,0.000000,0.000000
0.261452,0.029086,0.175493,0.956506,0.000000,-0.291712
0.031600,0.379609,0.025415,1.000000,0.000000,0.000000
0.031600,0.219472,0.029374,1.000000,0.000000,0.000000
0.031600,0.063480,0.264308,1.000000,0.000000,0.000000
-0.031600,0.766446,0.378836,-1.000000,0.000000,0.000000
0.279608,0.029507,0.209623,-0.824946,0.000000,0.565211
0.020646,-0.031600,0.025509,0.000000,-1.000000,0.000000
0.330353,0.031600,0.183098,0.000000,1.000000,0.000000
0.031600,0.014427,0.409664,1.000000,0.000000,0.000000
0.314394,-0.023255,0.217916,-0.769488,0.000000,-0.638661
0.031600,0.404932,0.124546,1.000000,0.000000,0.000000
0.031600,0.164984,0.297325,1.000000,0.000000,0.000000
0.031600,0.827689,0.438160,1.000000,0.000000,0.000000
0.367301,0.031600,0.259658,0.000000,1.000000,0.000000
-0.031600,0.467179,0.011177,-1.000000,0.000000,0.000000
0.346425,-0.005697,0.284814,0.621282,0.000000,-0.783587
0.408346,-0.031600,0.184237,0.000000,-1.000000,0.000000
0.357422,-0.031600,0.037371,0.000000,-1.000000,0.000000
-0.031600,0.444941,0.130052,-1.000000,0.000000,0.000000
-0.031600,0.166539,0.411938,-1.000000,0.000000,0.000000
0.031600,0.513608,0.471240,1.000000,0.000000,0.000000
0.031600,0.895147,0.014877,1.000000,0.000000,0.000000
-0.031600,0.269102,0.271207,-1.000000,0.000000,0.000000
0.219970,0.031600,0.256690,0.000000,1.000000,0.000000
-0.031600,0.134580,0.479315,-1.000000,0.000000,0.000000
0.099217,-0.028782,0.122198,-0.892925,0.000000,-0.450205
0.031600,0.459930,0.012420,1.000000,0.000000,0.000000
0.371685,0.031600,0.351612,0.000000,1.000000,0.000000
0.031600,0.360974,0.480827,1.000000,0.000000,0.000000
0.047056,-0.031600,0.256649,0.000000,-1.000000,0.000000
0.031600,0.736790,0.372415,1.000000,0.000000,0.000000
-0.031600,0.238083,0.383591,-1.000000,0.000000,0.000000
0.139161,-0.031600,0.323882,0.000000,-1.000000,0.000000
0.371796,-0.031600,0.297527,0.000000,-1.000000,0.000000
-0.031600,0.157480,0.235208,-1.000000,0.000000,0.000000
0.031600,0.175120,0.002785,1.000000,0.000000,0.000000
-0.031600,0.843383,0.321382,-1.000000,0.000000,0.000000
0.423997,-0.031600,0.113622,0.000000,-1.000000,0.000000
0.306411,-0.031600,0.275950,0.000000,-1.000000,0.000000
-0.031600,0.590900,0.034755,-1.000000,0.000000,0.000000
0.429201,0.031600,0.046711,0.000000,1.000000,0.000000
-0.031600,0.843183,0.461381,-1.000000,0.000000,0.000000
0.031600,0.624969,0.325164,1.000000,0.000000,0.000000
-0.031600,0.470417,0.155196,-1.000000,0.000000,0.000000
0.413621,0.031600,0.286191,0.000000,1.000000,0.000000
0.202605,-0.031600,0.059384,0.000000,-1.000000,0.000000
-0.031600,0.018396,0.231598,-1.000000,0.000000,0.000000
0.416686,-0.031600,0.251162,0.000000,-1.000000,0.000000
0.031600,0.681229,0.058757,1.000000,0.000000,0.000000
-0.031600,0.883294,0.214478,-1.000000,0.000000,0.000000
0.007511,0.031600,0.083413,0.000000,1.000000,0.000000
-0.031600,0.855377,0.052120,-1.000000,0.000000,0.000000
0.006174,-0.031600,0.320863,0.000000,-1.000000,0.000000
0.031600,0.039720,0.127203,1.000000,0.000000,0.000000
0.026297,-0.031600,0.307915,0.000000,-1.000000,0.000000
0.271315,-0.031600,0.074352,0.000000,-1.000000,0.000000
0.372776,0.031600,0.065333,0.000000,1.000000,0.000000
0.387817,-0.031600,0.126808,0.000000,-1.000000,0.000000
0.318229,0.031600,0.426079,0.000000,1.000000,0.000000
0.031600,0.216444,0.159149,1.000000,0.000000,0.000000
0.031600,0.628341,0.456922,1.000000,0.000000,0.000000
0.166599,0.023755,0.070148,-0.153923,0.000000,-0.988083
0.031600,0.098599,0.013217,1.000000,0.000000,0.000000
0.416689,0.031600,0.043382,0.000000,1.000000,0.000000
0.411741,-0.031600,0.053324,0.000000,-1.000000,0.000000
-0.031600,0.509634,0.088363,-1.000000,0.000000,0.000000
0.031600,0.364797,0.048471,1.000000,0.000000,0.000000
0.285213,-0.031600,0.462768,0.000000,-1.000000,0.000000
-0.031600,0.592698,0.012849,-1.000000,0.000000,0.000000
-0.031600,0.566154,0.046869,-1.000000,0.000000,0.000000
0.031600,0.165289,0.411007,1.000000,0.000000,0.000000
0.154828,0.031600,0.383410,0.000000,1.000000,0.000000
0.081294,-0.031600,0.131567,0.000000,-1.000000,0.000000
-0.031600,0.085885,0.357757,-1.000000,0.000000,0.000000
0.031600,0.275209,0.457220,1.000000,0.000000,0.000000
0.031600,0.722242,0.031759,1.000000,0.000000,0.000000
0.206368,0.031600,0.205189,0.000000,1.000000,0.000000
0.031600,0.539637,0.402129,1.000000,0.000000,0.000000
0.031600,0.285392,0.046027,1.000000,0.000000,0.000000
0.307672,0.031600,0.068520,0.000000,1.000000,0.000000
0.363854,0.027789,0.131416,0.044552,0.000000,-0.999007
0.415210,-0.031600,0.034614,0.000000,-1.000000,0.000000
-0.031600,0.678342,0.165757,-1.000000,0.000000,0.000000
0.102314,0.031600,0.458256,0.000000,1.000000,0.000000
0.307529,0.031600,0.193157,0.000000,1.000000,0.000000
0.236828,-0.029716,0.163276,0.466440,0.000000,0.884553
-0.031600,0.869749,0.314250,-1.000000,0.000000,0.000000
-0.031600,0.123910,0.451736,-1.000000,0.000000,0.000000
0.031600,0.806363,0.278808,1.000000,0.000000,0.000000
0.139106,-0.030680,0.355785,0.170546,0.000000,0.985350
0.205294,0.031600,0.154321,0.000000,1.000000,0.000000
0.039814,0.031600,0.402501,0.000000,1.000000,0.000000
0.031600,0.854584,0.199422,1.000000,0.000000,0.000000
0.304610,-0.030344,0.144588,-0.896109,0.000000,-0.443835
-0.031600,0.782546,0.240053,-1.000000,0.000000,0.000000
0.419783,0.031600,0.152836,0.000000,1.000000,0.000000
0.031600,0.492404,0.455352,1.000000,0.000000,0.000000
-0.031600,0.473869,0.427236,-1.000000,0.000000,0.000000
0.449466,-0.031600,0.394880,0.000000,-1.000000,0.000000
0.029826,-0.031600,0.058391,0.000000,-1.000000,0.000000
0.031600,0.615529,0.172566,1.000000,0.000000,0.000000
0.031600,0.040259,0.072448,1.000000,0.000000,0.000000
0.381994,0.031600,0.453906,0.000000,1.000000,0.000000
0.245496,0.031600,0.216439,0.000000,1.000000,0.000000
0.031600,0.439073,0.458945,1.000000,0.000000,0.000000
0.153235,0.023013,0.372259,0.980697,0.000000,-0.195531
-0.031600,0.146213,0.068095,-1.000000,0.000000,0.000000
0.157769,-0.031600,0.078254,0.000000,-1.000000,0.000000
0.006109,0.031600,0.444902,0.000000,1.000000,0.000000
0.210072,0.031600,0.069669,0.000000,1.000000,0.000000
0.031600,0.816080,0.196763,1.000000,0.000000,0.000000
0.261889,-0.031600,0.006480,0.000000,-1.000000,0.000000
0.022005,-0.031600,0.132442,0.000000,-1.000000,0.000000
-0.031600,0.415188,0.059980,-1.000000,0.000000,0.000000
0.315921,-0.031600,0.206659,0.000000,-1.000000,0.000000
0.031600,0.569474,0.231946,1.000000,0.000000,0.000000
0.020643,-0.031600,0.053915,0.000000,-1.000000,0.000000
0.399542,-0.031600,0.068840,0.000000,-1.000000,0.000000
0.031600,0.569750,0.317235,1.000000,0.000000,0.000000
0.031600,0.873672,0.159913,1.000000,0.000000,0.000000
0.471963,0.031600,0.108770,0.000000,1.000000,0.000000
0.031600,0.063422,0.441572,1.000000,0.000000,0.000000
0.031600,0.391016,0.444256,1.000000,0.000000,0.000000
0.246624,-0.013865,0.306523,-0.671308,0.000000,0.741179
-0.031600,0.060345,0.471925,-1.000000,0.000000,0.000000
-0.031600,0.445779,0.230144,-1.000000,0.000000,0.000000
0.180925,0.031600,0.461022,0.000000,1.000000,0.000000
0.450116,-0.031600,0.221813,0.000000,-1.000000,0.000000
0.031600,0.027794,0.405818,1.000000,0.000000,0.000000
-0.031600,0.731523,0.107302,-1.000000,0.000000,0.000000
0.031600,0.160373,0.161845,1.000000,0.000000,0.000000
0.336417,0.031600,0.483330,0.000000,1.000000,0.000000
-0.031600,0.830504,0.211814,-1.000000,0.000000,0.000000
0.031600,0.143736,0.354879,1.000000,0.000000,0.000000
0.464828,-0.031600,0.011613,0.000000,-1.000000,0.000000
0.224855,-0.031600,0.091010,0.000000,-1.000000,0.000000
0.031600,0.849477,0.151269,1.000000,0.000000,0.000000
0.220197,0.031600,0.135333,0.000000,1.000000,0.000000
0.031600,0.725670,0.451980,1.000000,0.000000,0.000000
0.158503,-0.008166,0.235804,-0.432350,0.000000,-0.901706
0.195120,0.009632,0.164805,0.937009,0.000000,0.349306
0.031600,0.166041,0.026003,1.000000,0.000000,0.000000
0.433941,-0.031600,0.473728,0.000000,-1.000000,0.000000
0.318604,-0.031561,0.256802,-0.314378,0.000000,0.949298
0.295980,0.031600,0.010839,0.000000,1.000000,0.000000
-0.031600,0.269376,0.453383,-1.000000,0.000000,0.000000
0.031600,0.621833,0.075112,1.000000,0.000000,0.000000
-0.031600,0.328183,0.148619,-1.000000,0.000000,0.000000
0.119090,-0.020561,0.198699,-0.999459,0.000000,-0.032888
0.031600,0.277329,0.025295,1.000000,0.000000,0.000000
0.450646,0.031600,0.480170,0.000000,1.000000,0.000000
0.031600,0.763957,0.226935,1.000000,0.000000,0.000000
0.390780,-0.031600,0.097655,0.000000,-1.000000,0.000000
0.104807,-0.031600,0.058090,0.000000,-1.000000,0.000000
0.310078,0.031600,0.108278,0.000000,1.000000,0.000000
0.139622,0.031600,0.271248,0.000000,1.000000,0.000000
0.031600,0.843265,0.343497,1.000000,0.000000,0.000000
0.466059,0.031600,0.070253,0.000000,1.000000,0.000000
0.211581,-0.031600,0.382984,0.000000,-1.000000,0.000000
0.031600,0.267295,0.268982,1.000000,0.000000,0.000000
-0.031600,0.868871,0.122822,-1.000000,0.000000,0.000000
-0.031600,0.421939,0.047225,-1.000000,0.000000,0.000000
-0.031600,0.643228,0.476043,-1.000000,0.000000,0.000000
0.185152,0.031600,0.238411,0.000000,1.000000,0.000000
-0.031600,0.553045,0.111831,-1.000000,0.000000,0.000000
0.277400,-0.024405,0.195807,-0.733846,0.000000,-0.679316
0.179443,0.006522,0.197965,-0.365797,0.000000,-0.930695
0.129887,0.025029,0.346607,-0.472193,0.000000,0.881495
0.241942,-0.010212,0.192100,-0.415307,0.000000,-0.909682
0.184036,0.031600,0.263996,0.000000,1.000000,0.000000
-0.031600,0.084147,0.060055,-1.000000,0.000000,0.000000
0.223170,-0.031600,0.083257,0.000000,-1.000000,0.000000
0.376660,-0.009714,0.364475,0.357343,0.000000,0.933973
0.473581,-0.031600,0.070627,0.000000,-1.000000,0.000000
-0.031600,0.502648,0.345992,-1.000000,0.000000,0.000000
0.305687,0.031600,0.388265,0.000000,1.000000,0.000000
-0.031600,0.339684,0.057437,-1.000000,0.000000,0.000000
0.302605,-0.031600,0.311005,0.000000,-1.000000,0.000000
0.031600,0.129826,0.291334,1.000000,0.000000,0.000000
0.381864,-0.031600,0.475880,0.000000,-1.000000,0.000000
0.051750,0.031600,0.260472,0.000000,1.000000,0.000000
-0.031600,0.234238,0.060383,-1.000000,0.000000,0.000000
0.481750,-0.031600,0.290742,0.000000,-1.000000,0.000000
-0.031600,0.482603,0.449791,-1.000000,0.000000,0.000000
0.303717,0.031600,0.473137,0.000000,1.000000,0.000000
0.089512,-0.031600,0.233372,0.000000,-1.000000,0.000000
0.031600,0.358328,0.144173,1.000000,0.000000,0.000000
0.031600,0.625970,0.474939,1.000000,0.000000,0.000000
0.253845,0.010030,0.271419,-0.328570,0.000000,-0.944479
0.100127,0.010243,0.166671,-0.827752,0.000000,-0.561094
0.270431,-0.031600,0.023574,0.000000,-1.000000,0.000000
0.121411,-0.025598,0.327102,-0.845366,0.000000,0.534188
0.031600,0.427873,0.105088,1.000000,0.000000,0.000000
0.169028,-0.031600,0.439170,0.000000,-1.000000,0.000000
0.031600,0.228093,0.320340,1.000000,0.000000,0.000000
-0.031600,0.468630,0.310147,-1.000000,0.000000,0.000000
0.031600,0.347494,0.307272,1.000000,0.000000,0.000000
-0.031600,0.571572,0.277561,-1.000000,0.000000,0.000000
0.031600,0.327646,0.043246,1.000000,0.000000,0.000000
0.111020,0.031600,0.121330,0.000000,1.000000,0.000000
-0.031600,0.504577,0.282798,-1.000000,0.000000,0.000000
-0.031600,0.338799,0.193593,-1.000000,0.000000,0.000000
-0.031600,0.558383,0.351485,-1.000000,0.000000,0.000000
0.076018,-0.031600,0.112414,0.000000,-1.000000,0.000000
0.087119,-0.031600,0.192772,0.000000,-1.000000,0.000000
0.107970,-0.031600,0.211686,0.000000,-1.000000,0.000000
0.318537,0.031600,0.262520,0.000000,1.000000,0.000000
0.201953,-0.031600,0.441617,0.000000,-1.000000,0.000000
-0.031600,0.377671,0.032615,-1.000000,0.000000,0.000000
0.070975,0.031600,0.267958,0.000000,1.000000,0.000000
0.399200,0.031600,0.261743,0.000000,1.000000,0.000000
0.031600,0.861843,0.296925,1.000000,0.000000,0.000000
0.031600,0.844971,0.082082,1.000000,0.000000,0.000000
0.031600,0.213448,0.077729,1.000000,0.000000,0.000000
0.473460,0.031600,0.374630,0.000000,1.000000,0.000000
0.031600,0.438044,0.002856,1.000000,0.000000,0.000000
-0.031600,0.515339,0.154446,-1.000000,0.000000,0.000000
0.031600,0.362931,0.155340,1.000000,0.000000,0.000000
0.031600,0.729119,0.374549,1.000000,0.000000,0.000000
0.031600,0.706208,0.045519,1.000000,0.000000,0.000000
0.031600,0.074730,0.480843,1.000000,0.000000,0.000000
0.399452,-0.031600,0.302149,0.000000,-1.000000,0.000000
-0.031600,0.442968,0.253342,-1.000000,0.000000,0.000000
0.108288,-0.031600,0.144812,0.000000,-1.000000,0.000000
0.031600,0.115109,0.438899,1.000000,0.000000,0.000000
0.031600,0.557119,0.442077,1.000000,0.000000,0.000000
0.031600,0.835700,0.138939,1.000000,0.000000,0.000000
0.031600,0.163490,0.030412,1.000000,0.000000,0.000000
0.031600,0.017654,0.297742,1.000000,0.000000,0.000000
-0.031600,0.528743,0.322646,-1.000000,0.000000,0.000000
0.031600,0.212822,0.146742,1.000000,0.000000,0.000000
0.298569,-0.031600,0.429495,0.000000,-1.000000,0.000000
-0.031600,0.502538,0.455135,-1.000000,0.000000,0.000000
0.031600,0.570419,0.343430,1.000000,0.000000,0.000000
-0.031600,0.741980,0.033552,-1.000000,0.000000,0.000000
0.373106,-0.031600,0.115729,0.000000,-1.000000,0.000000
0.450241,-0.031600,0.094212,0.000000,-1.000000,0.000000
0.200190,-0.031600,0.254320,0.000000,-1.000000,0.000000
0.108088,0.031600,0.198125,0.000000,1.000000,0.000000
0.401930,-0.030446,0.181140,0.688529,0.000000,0.725209
-0.031600,0.767367,0.266026,-1.000000,0.000000,0.000000
0.031600,0.393055,0.031997,1.000000,0.000000,0.000000
0.354336,0.031600,0.158832,0.000000,1.000000,0.000000
0.386639,0.031600,0.310358,0.000000,1.000000,0.000000
0.031600,0.129362,0.197437,1.000000,0.000000,0.000000
-0.031600,0.557584,0.241545,-1.000000,0.000000,0.000000
0.185687,0.011130,0.286778,-0.689807,0.000000,0.723994
0.075662,-0.031600,0.334137,0.000000,-1.000000,0.000000
0.484445,0.031600,0.290098,0.000000,1.000000,0.000000
-0.031600,0.730291,0.458672,-1.000000,0.000000,0.000000
0.399310,0.031600,0.356542,0.000000,1.000000,0.000000
0.383700,0.022653,0.138295,0.469434,0.000000,0.882968
0.341462,0.031600,0.139913,0.000000,1.000000,0.000000
0.253268,0.031600,0.160812,0.000000,1.000000,0.000000
0.031600,0.279240,0.249820,1.000000,0.000000,0.000000
0.459599,-0.031600,0.298770,0.000000,-1.000000,0.000000
0.188860,-0.031600,0.082853,0.000000,-1.000000,0.000000
-0.031600,0.073487,0.111280,-1.000000,0.000000,0.000000
0.307739,0.007361,0.132913,-0.924064,0.000000,0.382238
0.031600,0.092326,0.283730,1.000000,0.000000,0.000000
0.378285,0.031600,0.381719,0.000000,1.000000,0.000000
0.031600,0.867085,0.211138,1.000000,0.000000,0.000000
0.186746,0.031600,0.049225,0.000000,1.000000,0.000000
0.452282,0.031600,0.432824,0.000000,1.000000,0.000000
0.311256,0.005265,0.183307,0.619333,0.000000,0.785128
0.031600,0.757699,0.231006,1.000000,0.000000,0.000000
0.185103,-0.031600,0.364251,0.000000,-1.000000,0.000000
-0.031600,0.553293,0.058119,-1.000000,0.000000,0.000000
0.055073,-0.031600,0.212151,0.000000,-1.000000,0.000000
-0.031600,0.361455,0.022697,-1.000000,0.000000,0.000000
0.031600,0.021087,0.373287,1.000000,0.000000,0.000000
0.031600,0.765954,0.368869,1.000000,0.000000,0.000000
0.130052,0.031600,0.368794,0.000000,1.000000,0.000000
-0.031600,0.126998,0.316852,-1.000000,0.000000,0.000000
0.293870,0.031600,0.002967,0.000000,1.000000,0.000000
0.013221,-0.031600,0.189979,0.000000,-1.000000,0.000000
0.142247,-0.011491,0.148382,0.656765,0.000000,-0.754095
0.315357,-0.031600,0.122543,0.000000,-1.000000,0.000000
0.273266,0.031600,0.136585,0.000000,1.000000,0.000000
0.435956,-0.031600,0.203410,0.000000,-1.000000,0.000000
0.120546,-0.031600,0.092151,0.000000,-1.000000,0.000000
-0.031600,0.285930,0.181952,-1.000000,0.000000,0.000000
0.190464,0.011151,0.323531,0.987399,0.000000,-0.158248
0.101924,0.031600,0.157255,0.000000,1.000000,0.000000
0.096106,0.031600,0.103286,0.000000,1.000000,0.000000
0.031600,0.058840,0.039063,1.000000,0.000000,0.000000
0.050421,-0.031600,0.367642,0.000000,-1.000000,0.000000
-0.031600,0.581732,0.264390,-1.000000,0.000000,0.000000
0.396733,0.023338,0.337440,0.806843,0.000000,0.590767
0.278584,0.028757,0.188211,0.977785,0.000000,-0.209608
0.328897,0.031600,0.266550,0.000000,1.000000,0.000000
0.059780,0.031600,0.443895,0.000000,1.000000,0.000000
0.106550,0.031600,0.427539,0.000000,1.000000,0.000000
0.087225,-0.031600,0.077759,0.000000,-1.000000,0.000000
0.289114,0.003380,0.083896,0.895422,0.000000,-0.445218
-0.031600,0.596948,0.007844,-1.000000,0.000000,0.000000
0.065525,0.031600,0.461174,0.000000,1.000000,0.000000
0.031600,0.004134,0.007976,1.000000,0.000000,0.000000
0.334118,-0.031600,0.020180,0.000000,-1.000000,0.000000
0.011326,0.031600,0.422342,0.000000,1.000000,0.000000
0.347024,-0.031600,0.024311,0.000000,-1.000000,0.000000
0.031600,0.506681,0.154621,1.000000,0.000000,0.000000
0.295625,0.001932,0.334098,0.599972,0.000000,-0.800021
0.067531,-0.031600,0.407132,0.000000,-1.000000,0.000000
0.093388,0.031600,0.235254,0.000000,1.000000,0.000000
0.189172,0.031600,0.014543,0.000000,1.000000,0.000000
-0.031600,0.616164,0.483596,-1.000000,0.000000,0.000000
-0.031600,0.812018,0.459463,-1.000000,0.000000,0.000000
0.408373,-0.029896,0.185344,0.751501,0.000000,0.659732
0.031600,0.605028,0.411357,1.000000,0.000000,0.000000
0.108100,0.031600,0.189129,0.000000,1.000000,0.000000
0.031600,0.612154,0.186879,1.000000,0.000000,0.000000
0.181921,-0.031600,0.041975,0.000000,-1.000000,0.000000
0.288218,0.031600,0.305877,0.000000,1.000000,0.000000
-0.031600,0.713771,0.373706,-1.000000,0.000000,0.000000
0.028390,0.031600,0.469800,0.000000,1.000000,0.000000
0.031600,0.845567,0.436633,1.000000,0.000000,0.000000
0.031600,0.683186,0.235170,1.000000,0.000000,0.000000
0.031600,0.252070,0.057402,1.000000,0.000000,0.000000
0.031600,0.000461,0.138087,1.000000,0.000000,0.000000
0.034476,0.031600,0.138997,0.000000,1.000000,0.000000
0.031600,0.818590,0.266144,1.000000,0.000000,0.000000
-0.031600,0.881434,0.005618,-1.000000,0.000000,0.000000
0.083186,0.018967,0.356742,-0.799945,0.000000,-0.600074
0.305008,-0.031600,0.069748,0.000000,-1.000000,0.000000
0.274775,-0.031600,0.036078,0.000000,-1.000000,0.000000
0.340022,-0.010608,0.206249,-0.267494,0.000000,0.963559
0.255279,-0.031600,0.135744,0.000000,-1.000000,0.000000
-0.031600,0.637096,0.400081,-1.000000,0.000000,0.000000
-0.031600,0.158588,0.296563,-1.000000,0.000000,0.000000
0.443907,-0.031600,0.321445,0.000000,-1.000000,0.000000
0.252054,-0.011207,0.377208,0.957937,0.000000,0.286977
0.014432,0.031600,0.364210,0.000000,1.000000,0.000000
0.059528,-0.031600,0.445774,0.000000,-1.000000,0.000000
-0.031600,0.025399,0.462047,-1.000000,0.000000,0.000000
0.137797,0.031600,0.143004,0.000000,1.000000,0.000000
-0.031600,0.008239,0.132077,-1.000000,0.000000,0.000000
0.478928,0.031600,0.235713,0.000000,1.000000,0.000000
0.087728,0.001275,0.398010,-0.258249,0.000000,0.966079
0.031600,0.629625,0.132536,1.000000,0.000000,0.000000
-0.031600,0.866431,0.183599,-1.000000,0.000000,0.000000
0.287664,0.020563,0.369217,-0.962028,0.000000,0.272951
0.031600,0.574719,0.035402,1.000000,0.000000,0.000000
0.239588,-0.031600,0.282779,0.000000,-1.000000,0.000000
-0.031600,0.442646,0.173079,-1.000000,0.000000,0.000000
0.369473,-0.007764,0.193245,0.643088,0.000000,0.765792
0.120341,0.015603,0.199298,-0.960677,0.000000,0.277667
0.410181,-0.031600,0.168124,0.000000,-1.000000,0.000000
-0.031600,0.730525,0.055476,-1.000000,0.000000,0.000000
-0.031600,0.609593,0.181286,-1.000000,0.000000,0.000000
-0.031600,0.683497,0.458123,-1.000000,0.000000,0.000000
0.047461,0.031600,0.380874,0.000000,1.000000,0.000000
0.181495,0.031600,0.236897,0.000000,1.000000,0.000000
0.016630,-0.031600,0.377614,0.000000,-1.000000,0.000000
0.031600,0.327935,0.205502,1.000000,0.000000,0.000000
0.046666,-0.031600,0.180662,0.000000,-1.000000,0.000000
-0.031600,0.539846,0.478267,-1.000000,0.000000,0.000000
0.080254,0.031600,0.074436,0.000000,1.000000,0.000000
0.031600,0.371782,0.403288,1.000000,0.000000,0.000000
0.031600,0.689489,0.032571,1.000000,0.000000,0.000000
0.014855,0.031600,0.020188,0.000000,1.000000,0.000000
0.031600,0.122297,0.045758,1.000000,0.000000,0.000000
-0.031600,0.419328,0.287810,-1.000000,0.000000,0.000000
0.070075,-0.031600,0.247454,0.000000,-1.000000,0.000000
-0.031600,0.102018,0.146600,-1.000000,0.000000,0.000000
0.072280,0.031600,0.412085,0.000000,1.000000,0.000000
0.066817,0.017784,0.313415,-0.895034,0.000000,0.445998
-0.031600,0.183559,0.464683,-1.000000,0.000000,0.000000
-0.031600,0.178115,0.400614,-1.000000,0.000000,0.000000
0.181057,0.031600,0.193685,0.000000,1.000000,0.000000
-0.031600,0.819211,0.207963,-1.000000,0.000000,0.000000
0.031600,0.595575,0.071484,1.000000,0.000000,0.000000
0.031600,0.145776,0.222760,1.000000,0.000000,0.000000
0.178315,0.017851,0.399862,0.868965,0.000000,0.494873
0.391504,-0.031600,0.222168,0.000000,-1.000000,0.000000
0.479752,0.031600,0.078478,0.000000,1.000000,0.000000
0.225596,0.007396,0.058241,-0.095239,0.000000,-0.995454
0.006809,0.031600,0.268484,0.000000,1.000000,0.000000
0.132444,-0.031600,0.147635,0.000000,-1.000000,0.000000
0.055145,0.031600,0.402694,0.000000,1.000000,0.000000
0.003844,-0.031600,0.343625,0.000000,-1.000000,0.000000
-0.031600,0.119747,0.183752,-1.000000,0.000000,0.000000
-0.031600,0.314591,0.253254,-1.000000,0.000000,0.000000
-0.031600,0.205785,0.243479,-1.000000,0.000000,0.000000
-0.031600,0.006035,0.278645,-1.000000,0.000000,0.000000
0.077767,-0.031600,0.107380,0.000000,-1.000000,0.000000
0.010296,-0.031600,0.264058,0.000000,-1.000000,0.000000
0.217774,-0.031600,0.184099,0.000000,-1.000000,0.000000
0.057117,0.031600,0.065540,0.000000,1.000000,0.000000
0.031600,0.643164,0.444168,1.000000,0.000000,0.000000
0.297353,0.031600,0.096431,0.000000,1.000000,0.000000
0.031600,0.068394,0.002340,1.000000,0.000000,0.000000
0.293840,0.031600,0.204139,0.000000,1.000000,0.000000
0.031600,0.217106,0.225406,1.000000,0.000000,0.000000
0.031600,0.162264,0.387087,1.000000,0.000000,0.000000
0.456511,0.031600,0.393483,0.000000,1.000000,0.000000
0.035973,0.031600,0.457881,0.000000,1.000000,0.000000
-0.031600,0.278037,0.181195,-1.000000,0.000000,0.000000
0.392751,0.012386,0.295152,0.221050,0.000000,-0.975262
0.216967,0.021809,0.290995,-0.752585,0.000000,-0.658495
-0.031600,0.824179,0.200722,-1.000000,0.000000,0.000000
0.344942,0.031600,0.098615,0.000000,1.000000,0.000000
0.031600,0.668915,0.007005,1.000000,0.000000,0.000000
0.030272,-0.031600,0.167841,0.000000,-1.000000,0.000000
0.031600,0.824952,0.061694,1.000000,0.000000,0.000000
-0.031600,0.539622,0.296379,-1.000000,0.000000,0.000000
0.172127,0.031600,0.234120,0.000000,1.000000,0.000000
0.076620,-0.031600,0.280145,0.000000,-1.000000,0.000000
0.031600,0.193582,0.442371,1.000000,0.000000,0.000000
0.031600,0.114768,0.226591,1.000000,0.000000,0.000000
0.418101,0.031600,0.415303,0.000000,1.000000,0.000000
0.031600,0.238588,0.324478,1.000000,0.000000,0.000000
-0.031600,0.538727,0.388580,-1.000000,0.000000,0.000000
0.031600,0.272786,0.133051,1.000000,0.000000,0.000000
0.031600,0.051501,0.444739,1.000000,0.000000,0.000000
0.128129,-0.031600,0.156175,0.000000,-1.000000,0.000000
0.271338,0.031600,0.245235,0.000000,1.000000,0.000000
-0.031600,0.101441,0.305844,-1.000000,0.000000,0.000000
-0.031600,0.266762,0.428021,-1.000000,0.000000,0.000000
0.288369,-0.008448,0.247372,0.629524,0.000000,-0.776981
0.413730,0.031600,0.317062,0.000000,1.000000,0.000000
-0.031600,0.375720,0.388845,-1.000000,0.000000,0.000000
0.047629,-0.031600,0.402592,0.000000,-1.000000,0.000000
0.031600,0.288602,0.203207,1.000000,0.000000,0.000000
-0.031600,0.879155,0.449696,-1.000000,0.000000,0.000000
0.031600,0.501827,0.161892,1.000000,0.000000,0.000000
-0.031600,0.670898,0.454854,-1.000000,0.000000,0.000000
0.252368,0.031600,0.270411,0.000000,1.000000,0.000000
0.031600,0.607644,0.315153,1.000000,0.000000,0.000000
0.031600,0.054250,0.195610,1.000000,0.000000,0.000000
-0.031600,0.297405,0.473783,-1.000000,0.000000,0.000000
0.245109,0.031600,0.388529,0.000000,1.000000,0.000000
0.164297,0.025043,0.164218,0.255784,0.000000,0.966734
0.259178,0.031600,0.075261,0.000000,1.000000,0.000000
0.260550,-0.031600,0.036589,0.000000,-1.000000,0.000000
-0.031600,0.270092,0.264605,-1.000000,0.000000,0.000000
0.326406,0.031600,0.191126,0.000000,1.000000,0.000000
0.321393,-0.031600,0.119385,0.000000,-1.000000,0.000000
0.031600,0.060740,0.209062,1.000000,0.000000,0.000000
0.031600,0.399930,0.052946,1.000000,0.000000,0.000000
0.031600,0.401086,0.143147,1.000000,0.000000,0.000000
0.089136,0.031600,0.441567,0.000000,1.000000,0.000000
0.399125,0.031600,0.028331,0.000000,1.000000,0.000000
-0.031600,0.199995,0.228199,-1.000000,0.000000,0.000000
0.031600,0.137661,0.082801,1.000000,0.000000,0.000000
-0.031600,0.587294,0.164868,-1.000000,0.000000,0.000000
0.023294,-0.031600,0.152341,0.000000,-1.000000,0.000000
0.112043,-0.031600,0.188473,0.000000,-1.000000,0.000000
0.003469,-0.031600,0.124749,0.000000,-1.000000,0.000000
0.031600,0.867226,0.337136,1.000000,0.000000,0.000000
0.031600,0.499992,0.035907,1.000000,0.000000,0.000000
0.168732,0.031600,0.203544,0.000000,1.000000,0.000000
-0.031600,0.517164,0.175278,-1.000000,0.000000,0.000000
0.194697,0.001524,0.151036,-0.140862,0.000000,-0.990029
-0.031600,0.881895,0.079909,-1.000000,0.000000,0.000000
0.067066,0.031600,0.167804,0.000000,1.000000,0.000000
0.031600,0.682510,0.230633,1.000000,0.000000,0.000000
0.136333,-0.031600,0.213408,0.000000,-1.000000,0.000000
0.334837,-0.030122,0.187472,0.996479,0.000000,0.083841
-0.031600,0.764545,0.381434,-1.000000,0.000000,0.000000
0.024107,0.031600,0.339529,0.000000,1.000000,0.000000
-0.031600,0.025112,0.416310,-1.000000,0.000000,0.000000
-0.031600,0.160990,0.044230,-1.000000,0.000000,0.000000
-0.031600,0.365556,0.164682,-1.000000,0.000000,0.000000
0.277071,0.031600,0.208134,0.000000,1.000000,0.000000
0.148587,0.031600,0.085646,0.000000,1.000000,0.000000
0.377642,-0.031600,0.387773,0.000000,-1.000000,0.000000
0.290289,0.005946,0.263328,0.239545,0.000000,-0.970885
0.031600,0.453385,0.068904,1.000000,0.000000,0.000000
-0.031600,0.760098,0.247910,-1.000000,0.000000,0.000000
0.031600,0.471858,0.035664,1.000000,0.000000,0.000000
0.365534,-0.031600,0.404425,0.000000,-1.000000,0.000000
0.407802,0.031600,0.177215,0.000000,1.000000,0.000000
0.031600,0.871987,0.313593,1.000000,0.000000,0.000000
0.031600,0.817935,0.072589,1.000000,0.000000,0.000000
0.454932,-0.031600,0.480709,0.000000,-1.000000,0.000000
0.250482,0.031600,0.143469,0.000000,1.000000,0.000000
0.252952,-0.008042,0.247996,-0.982039,0.000000,0.188678
0.031600,0.771597,0.424998,1.000000,0.000000,0.000000
-0.031600,0.327068,0.202537,-1.000000,0.000000,0.000000
-0.031600,0.510192,0.361991,-1.000000,0.000000,0.000000
-0.031600,0.755147,0.118632,-1.000000,0.000000,0.000000
0.238198,-0.007868,0.087723,-0.399123,0.000000,-0.916898
0.424020,-0.031600,0.004641,0.000000,-1.000000,0.000000
-0.031600,0.221664,0.133685,-1.000000,0.000000,0.000000
0.031600,0.083714,0.034358,1.000000,0.000000,0.000000
-0.031600,0.414371,0.180044,-1.000000,0.000000,0.000000
0.031600,0.080760,0.251484,1.000000,0.000000,0.000000
0.031600,0.213776,0.112228,1.000000,0.000000,0.000000
0.415206,-0.031600,0.172308,0.000000,-1.000000,0.000000
0.402101,-0.031600,0.365480,0.000000,-1.000000,0.000000
0.310024,-0.031600,0.285680,0.000000,-1.000000,0.000000
0.380412,0.031600,0.137633,0.000000,1.000000,0.000000
0.031600,0.408354,0.384953,1.000000,0.000000,0.000000
0.361268,-0.031600,0.197744,0.000000,-1.000000,0.000000
0.125667,0.031600,0.374848,0.000000,1.000000,0.000000
0.422887,0.006220,0.089932,0.954485,0.000000,-0.298260
0.031600,0.533882,0.277540,1.000000,0.000000,0.000000
0.166644,-0.010162,0.064075,0.081559,0.000000,-0.996668
0.031600,0.084600,0.034341,1.000000,0.000000,0.000000
-0.031600,0.621785,0.019066,-1.000000,0.000000,0.000000
-0.031600,0.326510,0.458117,-1.000000,0.000000,0.000000
0.327228,0.026165,0.254289,-0.840806,0.000000,0.541336
0.482277,-0.031600,0.463662,0.000000,-1.000000,0.000000
0.417229,-0.031600,0.320231,0.000000,-1.000000,0.000000
-0.031600,0.884679,0.393435,-1.000000,0.000000,0.000000
0.031600,0.807196,0.250301,1.000000,0.000000,0.000000
0.225601,-0.031600,0.290611,0.000000,-1.000000,0.000000
-0.031600,0.739357,0.481001,-1.000000,0.000000,0.000000
0.278029,-0.031600,0.171012,0.000000,-1.000000,0.000000
0.031600,0.312713,0.264691,1.000000,0.000000,0.000000
0.405048,0.031600,0.291837,0.000000,1.000000,0.000000
0.186264,0.031600,0.359148,0.000000,1.000000,0.000000
0.232837,0.031600,0.451761,0.000000,1.000000,0.000000
-0.031600,0.089689,0.259365,-1.000000,0.000000,0.000000
0.471671,-0.031600,0.170752,0.000000,-1.000000,0.000000
0.244262,0.013115,0.185777,-0.917841,0.000000,-0.396948
0.057338,-0.031600,0.238033,0.000000,-1.000000,0.000000
-0.031600,0.697791,0.049042,-1.000000,0.000000,0.000000
-0.031600,0.014587,0.019328,-1.000000,0.000000,0.000000
-0.031600,0.253161,0.484001,-1.000000,0.000000,0.000000
0.446962,-0.031600,0.345660,0.000000,-1.000000,0.000000
0.208819,-0.031600,0.061709,0.000000,-1.000000,0.000000
0.089227,0.031600,0.164673,0.000000,1.000000,0.000000
-0.031600,0.115351,0.251643,-1.000000,0.000000,0.000000
0.267890,0.031600,0.279399,0.000000,1.000000,0.000000
-0.031600,0.844691,0.483035,-1.000000,0.000000,0.000000
-0.031600,0.136399,0.053476,-1.000000,0.000000,0.000000
0.031600,0.704070,0.072378,1.000000,0.000000,0.000000
0.031600,0.212534,0.163460,1.000000,0.000000,0.000000
0.169891,0.031600,0.011909,0.000000,1.000000,0.000000
-0.031600,0.240685,0.056055,-1.000000,0.000000,0.000000
0.337254,0.031600,0.372614,0.000000,1.000000,0.000000
-0.031600,0.001362,0.240263,-1.000000,0.000000,0.000000
0.207068,0.031600,0.205087,0.000000,1.000000,0.000000
0.233883,0.031600,0.329792,0.000000,1.000000,0.000000
0.282527,0.031600,0.310148,0.000000,1.000000,0.000000
0.282966,-0.018137,0.207402,0.820346,0.000000,0.571867
0.463123,0.031600,0.287931,0.000000,1.000000,0.000000
0.299990,-0.031600,0.385249,0.000000,-1.000000,0.000000
-0.031600,0.896219,0.168750,-1.000000,0.000000,0.000000
0.423281,-0.031600,0.389261,0.000000,-1.000000,0.000000
-0.031600,0.560829,0.131164,-1.000000,0.000000,0.000000
0.355196,0.031600,0.182915,0.000000,1.000000,0.000000
-0.031600,0.199182,0.262095,-1.000000,0.000000,0.000000
-0.031600,0.655610,0.258808,-1.000000,0.000000,0.000000
-0.031600,0.302768,0.211455,-1.000000,0.000000,0.000000
-0.031600,0.843054,0.450049,-1.000000,0.000000,0.000000
0.031600,0.504323,0.291255,1.000000,0.000000,0.000000
-0.031600,0.871607,0.472775,-1.000000,0.000000,0.000000
0.154809,-0.031600,0.392741,0.000000,-1.000000,0.000000
-0.031600,0.844105,0.166352,-1.000000,0.000000,0.000000
0.031600,0.414947,0.236816,1.000000,0.000000,0.000000
-0.031600,0.388476,0.190854,-1.000000,0.000000,0.000000
-0.031600,0.405238,0.338170,-1.000000,0.000000,0.000000
0.372348,-0.031600,0.005296,0.000000,-1.000000,0.000000
0.353692,-0.031600,0.115271,0.000000,-1.000000,0.000000
0.256589,-0.030923,0.362153,-0.765046,0.000000,0.643975
0.137407,0.020490,0.340261,0.080141,0.000000,-0.996784
0.424357,0.031600,0.399498,0.000000,1.000000,0.000000
0.088447,0.031600,0.447953,0.000000,1.000000,0.000000
0.467930,-0.031600,0.242545,0.000000,-1.000000,0.000000
0.469545,0.031600,0.448607,0.000000,1.000000,0.000000
0.031600,0.484609,0.476157,1.000000,0.000000,0.000000
0.031600,0.559377,0.187693,1.000000,0.000000,0.000000
0.351877,0.031600,0.203294,0.000000,1.000000,0.000000
0.359487,0.031600,0.455902,0.000000,1.000000,0.000000
0.031600,0.613327,0.138450,1.000000,0.000000,0.000000
-0.031600,0.083970,0.338808,-1.000000,0.000000,0.000000
-0.031600,0.715013,0.189548,-1.000000,0.000000,0.000000
0.159139,-0.012626,0.223580,-0.632856,0.000000,0.774270
0.031600,0.842001,0.392954,1.000000,0.000000,0.000000
0.084811,0.031600,0.360895,0.000000,1.000000,0.000000
0.310144,-0.009607,0.399557,-0.106545,0.000000,0.994308
0.384137,-0.031600,0.317572,0.000000,-1.000000,0.000000
-0.031600,0.348544,0.188865,-1.000000,0.000000,0.000000
-0.031600,0.196089,0.351603,-1.000000,0.000000,0.000000
0.018987,0.031600,0.464001,0.000000,1.000000,0.000000
0.452492,0.031600,0.251530,0.000000,1.000000,0.000000
0.031600,0.893134,0.093325,1.000000,0.000000,0.000000
0.101480,-0.004311,0.131792,-0.825936,0.000000,0.563764
-0.031600,0.283887,0.376777,-1.000000,0.000000,0.000000
0.031600,0.564244,0.288704,1.000000,0.000000,0.000000
0.056286,-0.031600,0.058844,0.000000,-1.000000,0.000000
-0.031600,0.705572,0.175395,-1.000000,0.000000,0.000000
0.256201,-0.031600,0.053874,0.000000,-1.000000,0.000000
0.031600,0.018750,0.335488,1.000000,0.000000,0.000000
0.247607,-0.031600,0.458510,0.000000,-1.000000,0.000000
0.377600,0.031600,0.338720,0.000000,1.000000,0.000000
-0.031600,0.644165,0.252500,-1.000000,0.000000,0.000000
0.070315,-0.031600,0.080872,0.000000,-1.000000,0.000000
0.392904,-0.018217,0.362090,0.355240,0.000000,0.934775
0.175585,0.031600,0.240892,0.000000,1.000000,0.000000
0.031600,0.437638,0.283424,1.000000,0.000000,0.000000
0.429122,0.031600,0.370091,0.000000,1.000000,0.000000
0.112723,-0.031600,0.426249,0.000000,-1.000000,0.000000
0.424251,0.031600,0.419959,0.000000,1.000000,0.000000
0.031600,0.611227,0.079592,1.000000,0.000000,0.000000
-0.031600,0.472846,0.410544,-1.000000,0.000000,0.000000
0.092563,-0.031600,0.157750,0.000000,-1.000000,0.000000
-0.031600,0.671049,0.277963,-1.000000,0.000000,0.000000
0.239974,0.031600,0.308560,0.000000,1.000000,0.000000
0.243848,-0.031600,0.104548,0.000000,-1.000000,0.000000
-0.031600,0.213062,0.112259,-1.000000,0.000000,0.000000
0.031600,0.402444,0.356756,1.000000,0.000000,0.000000
0.031600,0.542339,0.011506,1.000000,0.000000,0.000000
0.084032,-0.031600,0.464672,0.000000,-1.000000,0.000000
0.031600,0.181828,0.106937,1.000000,0.000000,0.000000
0.031600,0.480670,0.328411,1.000000,0.000000,0.000000
0.355239,0.029057,0.320685,0.997150,0.000000,-0.075449
0.083550,0.031600,0.274400,0.000000,1.000000,0.000000
0.031600,0.776980,0.410605,1.000000,0.000000,0.000000
0.217300,-0.005026,0.218572,0.164942,0.000000,-0.986303
0.279242,-0.021278,0.275825,0.881032,0.000000,-0.473056
0.374125,-0.031600,0.445379,0.000000,-1.000000,0.000000
0.031600,0.278787,0.418422,1.000000,0.000000,0.000000
-0.031600,0.833738,0.457590,-1.000000,0.000000,0.000000
0.132125,0.031600,0.280893,0.000000,1.000000,0.000000
0.389265,-0.031600,0.323665,0.000000,-1.000000,0.000000
0.031600,0.411061,0.004452,1.000000,0.000000,0.000000
0.330472,0.031600,0.024773,0.000000,1.000000,0.000000
0.259915,0.031600,0.019188,0.000000,1.000000,0.000000
0.421507,0.031600,0.289801,0.000000,1.000000,0.000000
0.412078,-0.031600,0.062703,0.000000,-1.000000,0.000000
0.427348,0.031600,0.177080,0.000000,1.000000,0.000000
0.464871,0.031600,0.024452,0.000000,1.000000,0.000000
0.031600,0.738893,0.387700,1.000000,0.000000,0.000000
0.031600,0.584497,0.067146,1.000000,0.000000,0.000000
0.031600,0.275182,0.210635,1.000000,0.000000,0.000000
0.031600,0.886955,0.303558,1.000000,0.000000,0.000000
0.420256,0.031600,0.061629,0.000000,1.000000,0.000000
0.131923,-0.031600,0.319419,0.000000,-1.000000,0.000000
0.336594,0.031600,0.126234,0.000000,1.000000,0.000000
0.322564,0.031600,0.037128,0.000000,1.000000,0.000000
0.190853,-0.020501,0.261505,-0.332262,0.000000,-0.943187
0.472747,-0.031600,0.116138,0.000000,-1.000000,0.000000
0.031600,0.664638,0.118293,1.000000,0.000000,0.000000
0.031600,0.678486,0.275367,1.000000,0.000000,0.000000
0.074117,0.031600,0.176847,0.000000,1.000000,0.000000
-0.031600,0.686227,0.184950,-1.000000,0.000000,0.000000
0.001843,0.031600,0.378748,0.000000,1.000000,0.000000
0.408220,-0.029092,0.159717,0.992904,0.000000,0.118917
0.031600,0.054093,0.292091,1.000000,0.000000,0.000000
0.343508,0.031600,0.386041,0.000000,1.000000,0.000000
0.368666,-0.029619,0.171439,0.980904,0.000000,-0.194494
0.165295,-0.031600,0.398344,0.000000,-1.000000,0.000000
0.388336,0.031600,0.035381,0.000000,1.000000,0.000000
-0.031600,0.670784,0.167845,-1.000000,0.000000,0.000000
-0.031600,0.327628,0.386198,-1.000000,0.000000,0.000000
0.031600,0.422580,0.474335,1.000000,0.000000,0.000000
-0.031600,0.295815,0.138793,-1.000000,0.000000,0.000000
-0.031600,0.581317,0.038058,-1.000000,0.000000,0.000000
0.196947,0.031600,0.173645,0.000000,1.000000,0.000000
0.466309,-0.031600,0.461383,0.000000,-1.000000,0.000000
0.143693,0.031600,0.172863,0.000000,1.000000,0.000000
0.269314,0.031600,0.218860,0.000000,1.000000,0.000000
0.031600,0.830898,0.439638,1.000000,0.000000,0.000000
0.320296,0.031600,0.006736,0.000000,1.000000,0.000000
0.227816,-0.031600,0.118337,0.000000,-1.000000,0.000000
0.002243,0.031600,0.181194,0.000000,1.000000,0.000000
-0.031600,0.379102,0.465608,-1.000000,0.000000,0.000000
0.456874,0.031600,0.000003,0.000000,1.000000,0.000000
0.031600,0.008827,0.151314,1.000000,0.000000,0.000000
0.031600,0.393878,0.271527,1.000000,0.000000,0.000000
-0.031600,0.721593,0.389881,-1.000000,0.000000,0.000000
0.239954,0.031600,0.093634,0.000000,1.000000,0.000000
0.031600,0.646719,0.026212,1.000000,0.000000,0.000000
0.336046,-0.031600,0.301721,0.000000,-1.000000,0.000000
0.232181,0.031600,0.458031,0.000000,1.000000,0.000000
0.156870,-0.031600,0.333606,0.000000,-1.000000,0.000000
0.357834,0.031600,0.252644,0.000000,1.000000,0.000000
0.053740,-0.031600,0.245089,0.000000,-1.000000,0.000000
0.174638,0.031600,0.126392,0.000000,1.000000,0.000000
0.102058,-0.031600,0.262126,0.000000,-1.000000,0.000000
0.238553,0.031600,0.418441,0.000000,1.000000,0.000000
0.313911,-0.031600,0.454017,0.000000,-1.000000,0.000000
0.231261,-0.031600,0.011141,0.000000,-1.000000,0.000000
0.301695,0.031600,0.445011,0.000000,1.000000,0.000000
0.031600,0.401802,0.208940,1.000000,0.000000,0.000000
0.031600,0.866233,0.337742,1.000000,0.000000,0.000000
0.417619,0.031600,0.079821,0.000000,1.000000,0.000000
0.012307,-0.031600,0.382790,0.000000,-1.000000,0.000000
-0.031600,0.497210,0.131503,-1.000000,0.000000,0.000000
-0.031600,0.554960,0.115501,-1.000000,0.000000,0.000000
0.251603,0.018314,0.323819,-0.842883,0.000000,-0.538097
0.126808,-0.031600,0.286687,0.000000,-1.000000,0.000000
0.030245,-0.031600,0.439705,0.000000,-1.000000,0.000000
0.481454,-0.031600,0.395204,0.000000,-1.000000,0.000000
-0.031600,0.656854,0.223464,-1.000000,0.000000,0.000000
0.228800,0.009227,0.265583,-0.387491,0.000000,0.921873
0.031600,0.842740,0.323071,1.000000,0.000000,0.000000
-0.031600,0.510298,0.403942,-1.000000,0.000000,0.000000
0.298443,0.031600,0.314239,0.000000,1.000000,0.000000
0.281186,0.031600,0.000719,0.000000,1.000000,0.000000
-0.031600,0.112283,0.031409,-1.000000,0.000000,0.000000
0.150443,0.031600,0.050438,0.000000,1.000000,0.000000
0.065254,-0.031600,0.470768,0.000000,-1.000000,0.000000
0.031600,0.653952,0.115952,1.000000,0.000000,0.000000
0.031600,0.237394,0.163167,1.000000,0.000000,0.000000
0.233031,0.031600,0.477029,0.000000,1.000000,0.000000
0.086450,0.031600,0.205693,0.000000,1.000000,0.000000
-0.031600,0.587166,0.172938,-1.000000,0.000000,0.000000
0.170292,0.031600,0.291154,0.000000,1.000000,0.000000
0.218017,-0.020646,0.221034,0.991432,0.000000,0.130624
0.282848,0.031600,0.229011,0.000000,1.000000,0.000000
0.023789,-0.031600,0.074478,0.000000,-1.000000,0.000000
0.024774,0.031600,0.365603,0.000000,1.000000,0.000000
0.419737,-0.020613,0.332959,0.993304,0.000000,-0.115526
0.031600,0.471552,0.388755,1.000000,0.000000,0.000000
0.281913,-0.018577,0.326400,-0.389569,0.000000,-0.920997
0.031600,0.898108,0.398380,1.000000,0.000000,0.000000
0.263604,-0.010508,0.284741,0.681962,0.000000,-0.731388
-0.031600,0.575089,0.385213,-1.000000,0.000000,0.000000
0.218573,0.031600,0.340502,0.000000,1.000000,0.000000
0.031600,0.678398,0.241928,1.000000,0.000000,0.000000
0.268538,-0.031600,0.344039,0.000000,-1.000000,0.000000
0.098088,-0.031600,0.262089,0.000000,-1.000000,0.000000
-0.031600,0.485528,0.471196,-1.000000,0.000000,0.000000
-0.031600,0.503124,0.224269,-1.000000,0.000000,0.000000
0.135891,0.031600,0.158450,0.000000,1.000000,0.000000
0.431301,-0.031600,0.394397,0.000000,-1.000000,0.000000
0.306407,-0.026496,0.368355,-0.769779,0.000000,0.638310
0.096782,-0.011765,0.122994,-0.335288,0.000000,-0.942116
0.253792,0.031600,0.032521,0.000000,1.000000,0.000000
0.031600,0.614481,0.319722,1.000000,0.000000,0.000000
0.419739,-0.000046,0.229975,0.786704,0.000000,0.617330
0.218008,-0.031600,0.061115,0.000000,-1.000000,0.000000
