x,y,z,nx,ny,nz
0.033021,0.647761,0.398176,1.000000,0.000000,0.000000
0.476169,-0.033021,0.455558,0.000000,-1.000000,0.000000
-0.033021,0.584815,0.460912,-1.000000,0.000000,0.000000
0.232347,0.033021,0.314603,0.000000,1.000000,0.000000
-0.033021,0.716822,0.363598,-1.000000,0.000000,0.000000
-0.033021,0.055765,0.089718,-1.000000,0.000000,0.000000
-0.033021,0.685601,0.064677,-1.000000,0.000000,0.000000
-0.033021,0.676589,0.050244,-1.000000,0.000000,0.000000
0.175364,-0.033021,0.182484,0.000000,-1.000000,0.000000
-0.033021,0.147312,0.038078,-1.000000,0.000000,0.000000
-0.033021,0.539840,0.228705,-1.000000,0.000000,0.000000
0.033021,0.275777,0.102794,1.000000,0.000000,0.000000
0.033021,0.381690,0.382685,1.000000,0.000000,0.000000
0.439294,0.033021,0.461678,0.000000,1.000000,0.000000
0.033021,0.522312,0.314692,1.000000,0.000000,0.000000
0.124197,0.033021,0.425854,0.000000,1.000000,0.000000
0.269387,0.033021,0.070292,0.000000,1.000000,0.000000
0.048699,-0.033021,0.053355,0.000000,-1.000000,0.000000
0.033021,0.270665,0.213970,1.000000,0.000000,0.000000
0.287213,-0.013684,0.213949,0.048973,0.000000,0.998800
-0.033021,0.001017,0.198657,-1.000000,0.000000,0.000000
0.033021,0.597418,0.454050,1.000000,0.000000,0.000000
0.033021,0.320353,0.161707,1.000000,0.000000,0.000000
0.372569,0.033021,0.375868,0.000000,1.000000,0.000000
0.257739,-0.031479,0.162440,-0.920909,0.000000,0.389779
0.033021,0.233896,0.195622,1.000000,0.000000,0.000000
0.033021,0.764826,0.273267,1.000000,0.000000,0.000000
0.471554,0.033021,0.376925,0.000000,1.000000,0.000000
-0.033021,0.765189,0.058989,-1.000000,0.000000,0.000000
0.207345,-0.013999,0.262263,-0.037412,0.000000,0.999300
0.400274,0.033021,0.290569,0.000000,1.000000,0.000000
0.041273,0.033021,0.124787,0.000000,1.000000,0.000000
-0.033021,0.230741,0.331247,-1.000000,0.000000,0.000000
0.156024,-0.033021,0.262487,0.000000,-1.000000,0.000000
0.378900,0.033021,0.472337,0.000000,1.000000,0.000000
-0.033021,0.262809,0.331419,-1.000000,0.000000,0.000000
0.323290,0.033021,0.291799,0.000000,1.000000,0.000000
-0.033021,0.004206,0.429641,-1.000000,0.000000,0.000000
0.257683,-0.033021,0.020744,0.000000,-1.000000,0.000000
0.022967,0.033021,0.279472,0.000000,1.000000,0.000000
0.033021,0.127463,0.269756,1.000000,0.000000,0.000000
0.033021,0.515068,0.161626,1.000000,0.000000,0.000000
0.169280,-0.011135,0.287019,0.324785,0.000000,-0.945788
0.033021,0.565425,0.284312,1.000000,0.000000,0.000000
0.033021,0.044481,0.433957,1.000000,0.000000,0.000000
0.464032,0.033021,0.436847,0.000000,1.000000,0.000000
0.118780,-0.033021,0.269641,0.000000,-1.000000,0.000000
0.392406,0.033021,0.407094,0.000000,1.000000,0.000000
0.169405,0.033021,0.371190,0.000000,1.000000,0.000000
0.373214,-0.033021,0.253950,0.000000,-1.000000,0.000000
-0.033021,0.727913,0.133639,-1.000000,0.000000,0.000000
0.148543,0.026113,0.322720,0.894471,0.000000,-0.447125
0.110003,-0.033021,0.412377,0.000000,-1.000000,0.000000
0.129846,-0.033021,0.366208,0.000000,-1.000000,0.000000
0.146308,-0.033021,0.066281,0.000000,-1.000000,0.000000
0.139339,-0.006323,0.397430,-0.204198,0.000000,0.978930
0.122683,-0.033021,0.127592,0.000000,-1.000000,0.000000
-0.033021,0.456570,0.267466,-1.000000,0.000000,0.000000
0.339810,0.033021,0.141128,0.000000,1.000000,0.000000
0.033021,0.771048,0.466043,1.000000,0.000000,0.000000
0.033021,0.612016,0.307694,1.000000,0.000000,0.000000
0.303281,-0.018959,0.252193,-0.804057,0.000000,0.594552
0.072719,-0.033021,0.188330,0.000000,-1.000000,0.000000
0.209936,0.033021,0.201764,0.000000,1.000000,0.000000
-0.033021,0.704213,0.386922,-1.000000,0.000000,0.000000
0.208024,0.033021,0.017282,0.000000,1.000000,0.000000
-0.033021,0.653464,0.028846,-1.000000,0.000000,0.000000
0.033021,0.641714,0.335162,1.000000,0.000000,0.000000
0.008751,0.033021,0.365692,0.000000,1.000000,0.000000
0.179595,0.025698,0.316543,-0.850938,0.000000,0.525266
0.033021,0.024684,0.248887,1.000000,0.000000,0.000000
-0.033021,0.516886,0.340113,-1.000000,0.000000,0.000000
-0.033021,0.675143,0.134844,-1.000000,0.000000,0.000000
0.049735,-0.033021,0.458124,0.000000,-1.000000,0.000000
0.106210,-0.033021,0.445780,0.000000,-1.000000,0.000000
-0.033021,0.759609,0.353697,-1.000000,0.000000,0.000000
-0.033021,0.641146,0.151435,-1.000000,0.000000,0.000000
0.023582,0.033021,0.266881,0.000000,1.000000,0.000000
0.033021,0.082541,0.113133,1.000000,0.000000,0.000000
0.451209,0.033021,0.207881,0.000000,1.000000,0.000000
0.392881,-0.033021,0.177962,0.000000,-1.000000,0.000000
-0.033021,0.294885,0.166832,-1.000000,0.000000,0.000000
0.158154,-0.033021,0.351762,0.000000,-1.000000,0.000000
-0.033021,0.277993,0.050511,-1.000000,0.000000,0.000000
-0.033021,0.150814,0.240690,-1.000000,0.000000,0.000000
0.033021,0.614525,0.429369,1.000000,0.000000,0.000000
0.033021,0.339565,0.142233,1.000000,0.000000,0.000000
0.468942,0.033021,0.426999,0.000000,1.000000,0.000000
0.417232,0.033021,0.304919,0.000000,1.000000,0.000000
0.253545,-0.005341,0.357760,-0.982941,0.000000,-0.183921
0.315945,-0.033021,0.239364,0.000000,-1.000000,0.000000
0.107604,0.033021,0.459087,0.000000,1.000000,0.000000
-0.033021,0.526419,0.268340,-1.000000,0.000000,0.000000
0.033021,0.306990,0.325708,1.000000,0.000000,0.000000
-0.033021,0.046914,0.116013,-1.000000,0.000000,0.000000
0.218013,0.033021,0.194491,0.000000,1.000000,0.000000
0.291461,-0.033021,0.391085,0.000000,-1.000000,0.000000
0.109427,-0.033021,0.000810,0.000000,-1.000000,0.000000
-0.033021,0.639957,0.471295,-1.000000,0.000000,0.000000
0.120784,0.033021,0.226184,0.000000,1.000000,0.000000
0.033021,0.119751,0.285080,1.000000,0.000000,0.000000
0.240752,0.006754,0.121131,0.952305,0.000000,0.305148
0.130068,0.012039,0.287175,-0.999945,0.000000,0.010488
-0.033021,0.090326,0.142758,-1.000000,0.000000,0.000000
0.218579,0.033021,0.078970,0.000000,1.000000,0.000000
0.413972,0.033021,0.180429,0.000000,1.000000,0.000000
0.033021,0.070369,0.165210,1.000000,0.000000,0.000000
0.410760,-0.033021,0.378640,0.000000,-1.000000,0.000000
0.098295,-0.033021,0.286360,0.000000,-1.000000,0.000000
0.339847,-0.033021,0.009588,0.000000,-1.000000,0.000000
0.067939,0.006566,0.236300,-0.738681,0.000000,0.674056
0.160279,0.033021,0.385798,0.000000,1.000000,0.000000
0.405219,0.033021,0.384901,0.000000,1.000000,0.000000
-0.033021,0.109318,0.416488,-1.000000,0.000000,0.000000
0.448052,-0.033021,0.257877,0.000000,-1.000000,0.000000
0.033021,0.517532,0.122641,1.000000,0.000000,0.000000
0.247655,0.033021,0.263055,0.000000,1.000000,0.000000
0.033021,0.066896,0.270967,1.000000,0.000000,0.000000
-0.033021,0.381586,0.277491,-1.000000,0.000000,0.000000
0.033021,0.562423,0.286933,1.000000,0.000000,0.000000
0.033021,0.521325,0.233725,1.000000,0.000000,0.000000
0.033021,0.662867,0.067065,1.000000,0.000000,0.000000
0.415059,-0.033021,0.182115,0.000000,-1.000000,0.000000
0.033021,0.048558,0.320608,1.000000,0.000000,0.000000
0.470118,-0.033021,0.329053,0.000000,-1.000000,0.000000
0.234459,-0.033021,0.164019,0.000000,-1.000000,0.000000
0.033021,0.380982,0.453570,1.000000,0.000000,0.000000
0.290824,0.033021,0.100784,0.000000,1.000000,0.000000
0.102946,0.033021,0.320691,0.000000,1.000000,0.000000
0.181717,0.033021,0.283877,0.000000,1.000000,0.000000
0.169853,0.033021,0.013533,0.000000,1.000000,0.000000
0.222115,-0.010946,0.338304,0.895247,0.000000,-0.445571
0.306838,0.033021,0.141797,0.000000,1.000000,0.000000
0.033021,0.325684,0.002225,1.000000,0.000000,0.000000
0.053856,-0.033021,0.104016,0.000000,-1.000000,0.000000
0.223978,0.002745,0.231986,0.990857,0.000000,-0.134915
0.193532,-0.033021,0.274660,0.000000,-1.000000,0.000000
-0.033021,0.352710,0.103330,-1.000000,0.000000,0.000000
-0.033021,0.471520,0.175496,-1.000000,0.000000,0.000000
0.439893,0.033021,0.064424,0.000000,1.000000,0.000000
0.241115,0.004528,0.276726,-0.104919,0.000000,0.994481
0.407843,0.033021,0.296246,0.000000,1.000000,0.000000
-0.033021,0.690126,0.371971,-1.000000,0.000000,0.000000
0.172486,-0.009026,0.136095,0.869377,0.000000,-0.494149
0.033021,0.611654,0.076341,1.000000,0.000000,0.000000
0.033021,0.689513,0.202491,1.000000,0.000000,0.000000
-0.033021,0.497754,0.187274,-1.000000,0.000000,0.000000
-0.033021,0.327592,0.246365,-1.000000,0.000000,0.000000
0.120191,0.033021,0.334023,0.000000,1.000000,0.000000
0.358082,0.033021,0.321649,0.000000,1.000000,0.000000
0.316236,-0.033021,0.148101,0.000000,-1.000000,0.000000
0.220821,-0.033021,0.315570,0.000000,-1.000000,0.000000
0.049026,0.033021,0.171080,0.000000,1.000000,0.000000
0.033021,0.460911,0.016920,1.000000,0.000000,0.000000
0.086076,-0.033021,0.087244,0.000000,-1.000000,0.000000
0.334231,-0.033021,0.197725,0.000000,-1.000000,0.000000
0.132869,0.033021,0.075191,0.000000,1.000000,0.000000
0.144742,-0.012157,0.197079,-0.892158,0.000000,-0.451724
0.033021,0.555862,0.374584,1.000000,0.000000,0.000000
0.111801,-0.033021,0.238431,0.000000,-1.000000,0.000000
-0.033021,0.183435,0.144636,-1.000000,0.000000,0.000000
-0.033021,0.569590,0.381435,-1.000000,0.000000,0.000000
0.272567,-0.033021,0.154668,0.000000,-1.000000,0.000000
0.200544,0.033021,0.023769,0.000000,1.000000,0.000000
-0.033021,0.165493,0.035287,-1.000000,0.000000,0.000000
0.292780,-0.021566,0.056183,-0.131109,0.000000,-0.991368
0.227703,-0.014923,0.062843,0.693161,0.000000,-0.720782
-0.033021,0.716415,0.404600,-1.000000,0.000000,0.000000
0.316649,0.008645,0.261084,0.715319,0.000000,0.698798
-0.033021,0.799740,0.318756,-1.000000,0.000000,0.000000
0.033021,0.532087,0.066649,1.000000,0.000000,0.000000
0.033021,0.438698,0.246926,1.000000,0.000000,0.000000
0.240853,-0.033021,0.280155,0.000000,-1.000000,0.000000
0.308558,0.033021,0.406282,0.000000,1.000000,0.000000
0.011061,0.033021,0.471433,0.000000,1.000000,0.000000
0.118393,0.033021,0.432070,0.000000,1.000000,0.000000
0.052903,0.033021,0.119922,0.000000,1.000000,0.000000
0.106517,0.000032,0.228936,-0.432948,0.000000,-0.901419
0.033021,0.733694,0.176738,1.000000,0.000000,0.000000
-0.033021,0.023239,0.006814,-1.000000,0.000000,0.000000
0.158986,-0.033021,0.438351,0.000000,-1.000000,0.000000
0.033021,0.672460,0.162028,1.000000,0.000000,0.000000
0.233731,-0.033021,0.198006,0.000000,-1.000000,0.000000
0.222967,-0.032746,0.120081,0.675136,0.000000,-0.737693
0.310281,-0.013510,0.178705,-0.517043,0.000000,-0.855959
-0.033021,0.600444,0.094926,-1.000000,0.000000,0.000000
0.454193,-0.033021,0.149572,0.000000,-1.000000,0.000000
-0.033021,0.738314,0.041332,-1.000000,0.000000,0.000000
0.227229,-0.033021,0.420397,0.000000,-1.000000,0.000000
0.407974,0.033021,0.430729,0.000000,1.000000,0.000000
0.066267,0.033021,0.269005,0.000000,1.000000,0.000000
0.137953,-0.033021,0.319942,0.000000,-1.000000,0.000000
0.060604,0.020376,0.261001,-0.999669,0.000000,0.025733
0.086384,-0.014161,0.292616,-0.351356,0.000000,-0.936242
0.092157,-0.027151,0.301014,-0.999332,0.000000,0.036555
0.235275,0.033021,0.066044,0.000000,1.000000,0.000000
0.276807,0.033021,0.328131,0.000000,1.000000,0.000000
0.243406,0.033021,0.114142,0.000000,1.000000,0.000000
-0.033021,0.157140,0.064504,-1.000000,0.000000,0.000000
-0.033021,0.554581,0.335674,-1.000000,0.000000,0.000000
0.468283,-0.033021,0.476233,0.000000,-1.000000,0.000000
0.033021,0.553879,0.421884,1.000000,0.000000,0.000000
-0.033021,0.759840,0.355507,-1.000000,0.000000,0.000000
0.269870,0.033021,0.428463,0.000000,1.000000,0.000000
-0.033021,0.346608,0.456254,-1.000000,0.000000,0.000000
0.167552,-0.033021,0.158239,0.000000,-1.000000,0.000000
0.033021,0.306522,0.330192,1.000000,0.000000,0.000000
0.202393,0.033021,0.428344,0.000000,1.000000,0.000000
-0.033021,0.572219,0.050860,-1.000000,0.000000,0.000000
-0.033021,0.032359,0.260544,-1.000000,0.000000,0.000000
0.163459,0.033021,0.389400,0.000000,1.000000,0.000000
0.116458,-0.003054,0.198641,-0.981260,0.000000,-0.192688
0.064162,-0.033021,0.350314,0.000000,-1.000000,0.000000
-0.033021,0.741007,0.086647,-1.000000,0.000000,0.000000
0.033021,0.786631,0.338352,1.000000,0.000000,0.000000
-0.033021,0.516568,0.110560,-1.000000,0.000000,0.000000
0.247380,-0.033021,0.022784,0.000000,-1.000000,0.000000
0.180287,0.033021,0.090501,0.000000,1.000000,0.000000
0.352618,0.033021,0.024520,0.000000,1.000000,0.000000
0.081795,0.032251,0.330290,-0.614370,0.000000,0.789018
0.380090,0.008188,0.233790,0.921438,0.000000,-0.388525
0.336106,0.026539,0.208940,-0.506348,0.000000,0.862329
0.082128,-0.033021,0.421375,0.000000,-1.000000,0.000000
0.044664,-0.033021,0.345623,0.000000,-1.000000,0.000000
0.025075,0.033021,0.366204,0.000000,1.000000,0.000000
0.033021,0.277755,0.365088,1.000000,0.000000,0.000000
0.369338,0.033021,0.085532,0.000000,1.000000,0.000000
-0.033021,0.742820,0.163510,-1.000000,0.000000,0.000000
0.249325,-0.027766,0.194253,-0.447644,0.000000,-0.894212
0.249797,-0.013934,0.211213,0.753865,0.000000,0.657029
-0.033021,0.819856,0.031734,-1.000000,0.000000,0.000000
0.262604,-0.033021,0.028784,0.000000,-1.000000,0.000000
-0.033021,0.686096,0.215130,-1.000000,0.000000,0.000000
-0.033021,0.157349,0.236562,-1.000000,0.000000,0.000000
0.393498,-0.033021,0.186004,0.000000,-1.000000,0.000000
0.254073,-0.025677,0.322979,0.160828,0.000000,-0.986982
0.033021,0.640455,0.473677,1.000000,0.000000,0.000000
0.464066,-0.033021,0.309671,0.000000,-1.000000,0.000000
0.023281,-0.033021,0.399927,0.000000,-1.000000,0.000000
0.033021,0.449606,0.261128,1.000000,0.000000,0.000000
0.099376,-0.020773,0.243161,-0.101402,0.000000,0.994846
0.033021,0.456536,0.118975,1.000000,0.000000,0.000000
-0.033021,0.210455,0.277691,-1.000000,0.000000,0.000000
-0.033021,0.778251,0.044624,-1.000000,0.000000,0.000000
0.062909,0.033021,0.052513,0.000000,1.000000,0.000000
-0.033021,0.727498,0.296804,-1.000000,0.000000,0.000000
0.057887,-0.033021,0.093279,0.000000,-1.000000,0.000000
0.085151,0.033021,0.319979,0.000000,1.000000,0.000000
-0.033021,0.502632,0.081350,-1.000000,0.000000,0.000000
0.033021,0.177960,0.435454,1.000000,0.000000,0.000000
0.033021,0.740657,0.212856,1.000000,0.000000,0.000000
0.162718,0.028446,0.273354,-0.742958,0.000000,-0.669338
0.033021,0.598946,0.449987,1.000000,0.000000,0.000000
0.106994,0.031619,0.160550,-0.112383,0.000000,0.993665
0.246893,-0.033021,0.063653,0.000000,-1.000000,0.000000
0.266802,-0.033021,0.188522,0.000000,-1.000000,0.000000
-0.033021,0.187096,0.469923,-1.000000,0.000000,0.000000
0.076552,0.033021,0.091061,0.000000,1.000000,0.000000
0.311174,-0.033021,0.359422,0.000000,-1.000000,0.000000
0.160040,-0.017342,0.243092,0.989875,0.000000,-0.141940
0.033021,0.699688,0.311010,1.000000,0.000000,0.000000
0.033021,0.085021,0.325223,1.000000,0.000000,0.000000
-0.033021,0.430629,0.128323,-1.000000,0.000000,0.000000
0.033021,0.329832,0.405350,1.000000,0.000000,0.000000
-0.033021,0.783678,0.149660,-1.000000,0.000000,0.000000
0.272426,-0.033021,0.100784,0.000000,-1.000000,0.000000
-0.033021,0.309022,0.233951,-1.000000,0.000000,0.000000
-0.033021,0.119959,0.224504,-1.000000,0.000000,0.000000
0.185822,-0.022926,0.288130,0.449269,0.000000,0.893397
0.069598,0.004068,0.330432,-0.747184,0.000000,-0.664617
0.286314,-0.033021,0.251265,0.000000,-1.000000,0.000000
0.135823,0.033021,0.462878,0.000000,1.000000,0.000000
0.033021,0.054890,0.106669,1.000000,0.000000,0.000000
0.033021,0.824922,0.379768,1.000000,0.000000,0.000000
0.287165,0.033021,0.038742,0.000000,1.000000,0.000000
0.155403,-0.033021,0.053223,0.000000,-1.000000,0.000000
0.033021,0.616684,0.156341,1.000000,0.000000,0.000000
-0.033021,0.214540,0.390639,-1.000000,0.000000,0.000000
-0.033021,0.769180,0.277804,-1.000000,0.000000,0.000000
0.044974,0.033021,0.464479,0.000000,1.000000,0.000000
0.328668,-0.033021,0.145531,0.000000,-1.000000,0.000000
0.033021,0.769361,0.153823,1.000000,0.000000,0.000000
0.275159,0.019580,0.170642,-0.998840,0.000000,0.048157
0.200525,-0.032746,0.363221,0.968385,0.000000,0.249460
0.343825,0.033021,0.438798,0.000000,1.000000,0.000000
0.202249,-0.005187,0.185105,0.533638,0.000000,-0.845713
-0.033021,0.623421,0.330059,-1.000000,0.000000,0.000000
0.429741,0.033021,0.250675,0.000000,1.000000,0.000000
0.033021,0.714411,0.380083,1.000000,0.000000,0.000000
0.029647,0.033021,0.369945,0.000000,1.000000,0.000000
0.144600,0.022833,0.129308,0.804956,0.000000,-0.593335
0.033021,0.211467,0.301070,1.000000,0.000000,0.000000
0.174472,0.033021,0.005360,0.000000,1.000000,0.000000
0.169122,-0.033021,0.399943,0.000000,-1.000000,0.000000
0.033021,0.247011,0.424460,1.000000,0.000000,0.000000
0.379950,-0.033021,0.334263,0.000000,-1.000000,0.000000
0.239564,0.033021,0.062760,0.000000,1.000000,0.000000
-0.033021,0.514681,0.141305,-1.000000,0.000000,0.000000
0.254610,0.007228,0.404169,0.175728,0.000000,0.984439
0.033021,0.164545,0.255899,1.000000,0.000000,0.000000
0.289820,0.033021,0.415144,0.000000,1.000000,0.000000
0.175937,0.033021,0.001886,0.000000,1.000000,0.000000
0.286176,0.033021,0.316410,0.000000,1.000000,0.000000
-0.033021,0.345649,0.083000,-1.000000,0.000000,0.000000
0.330188,0.021649,0.237868,0.746082,0.000000,-0.665854
0.033021,0.077419,0.160889,1.000000,0.000000,0.000000
0.072505,-0.033021,0.210663,0.000000,-1.000000,0.000000
0.238975,0.033021,0.264595,0.000000,1.000000,0.000000
0.444137,-0.033021,0.220561,0.000000,-1.000000,0.000000
0.454794,-0.033021,0.078664,0.000000,-1.000000,0.000000
0.053726,0.033021,0.370881,0.000000,1.000000,0.000000
-0.033021,0.807297,0.332595,-1.000000,0.000000,0.000000
0.033021,0.798475,0.371458,1.000000,0.000000,0.000000
0.033021,0.193882,0.414101,1.000000,0.000000,0.000000
0.240367,0.033021,0.368481,0.000000,1.000000,0.000000
0.033021,0.318370,0.041638,1.000000,0.000000,0.000000
0.368162,0.033021,0.179911,0.000000,1.000000,0.000000
0.331819,-0.033021,0.024525,0.000000,-1.000000,0.000000
0.240932,0.033021,0.182293,0.000000,1.000000,0.000000
0.291786,0.002441,0.080070,-0.001260,0.000000,-0.999999
0.269908,-0.033021,0.320900,0.000000,-1.000000,0.000000
0.083692,-0.033021,0.386822,0.000000,-1.000000,0.000000
0.018310,0.033021,0.083544,0.000000,1.000000,0.000000
0.033021,0.156447,0.115346,1.000000,0.000000,0.000000
0.152736,-0.033021,0.014984,0.000000,-1.000000,0.000000
0.295556,-0.033021,0.385701,0.000000,-1.000000,0.000000
0.159587,-0.027649,0.217557,-0.561006,0.000000,0.827812
0.036376,-0.033021,0.300881,0.000000,-1.000000,0.000000
-0.033021,0.278191,0.068807,-1.000000,0.000000,0.000000
0.033021,0.503203,0.063579,1.000000,0.000000,0.000000
0.176569,0.017306,0.143424,-0.573267,0.000000,-0.819369
0.449871,-0.033021,0.182504,0.000000,-1.000000,0.000000
0.033021,0.665939,0.425626,1.000000,0.000000,0.000000
0.007481,0.033021,0.405995,0.000000,1.000000,0.000000
0.110698,-0.033021,0.395042,0.000000,-1.000000,0.000000
0.168869,-0.007177,0.254267,0.479881,0.000000,-0.877334
0.090688,-0.033021,0.274849,0.000000,-1.000000,0.000000
0.017477,0.033021,0.252038,0.000000,1.000000,0.000000
0.097002,-0.033021,0.275446,0.000000,-1.000000,0.000000
0.299653,0.033021,0.145419,0.000000,1.000000,0.000000
0.443398,-0.033021,0.013223,0.000000,-1.000000,0.000000
0.033021,0.612960,0.090449,1.000000,0.000000,0.000000
0.461667,-0.033021,0.105819,0.000000,-1.000000,0.000000
0.033021,0.399941,0.181809,1.000000,0.000000,0.000000
-0.033021,0.077219,0.220497,-1.000000,0.000000,0.000000
0.000598,-0.033021,0.258215,0.000000,-1.000000,0.000000
0.033021,0.626113,0.021586,1.000000,0.000000,0.000000
-0.033021,0.720503,0.274446,-1.000000,0.000000,0.000000
0.033021,0.688361,0.155623,1.000000,0.000000,0.000000
0.149293,0.019540,0.369709,-0.559470,0.000000,0.828851
0.300238,0.033021,0.260220,0.000000,1.000000,0.000000
0.106986,-0.033021,0.347428,0.000000,-1.000000,0.000000
0.112383,0.033021,0.289902,0.000000,1.000000,0.000000
0.342027,-0.007020,0.317073,-0.614894,0.000000,0.788610
0.419582,0.033021,0.431543,0.000000,1.000000,0.000000
0.043148,0.033021,0.321829,0.000000,1.000000,0.000000
-0.033021,0.721609,0.230448,-1.000000,0.000000,0.000000
0.472384,0.033021,0.138906,0.000000,1.000000,0.000000
0.033021,0.509303,0.288623,1.000000,0.000000,0.000000
0.033021,0.807390,0.033280,1.000000,0.000000,0.000000
0.329495,-0.033021,0.412756,0.000000,-1.000000,0.000000
-0.033021,0.573138,0.368445,-1.000000,0.000000,0.000000
0.033021,0.108603,0.462199,1.000000,0.000000,0.000000
0.269876,0.033021,0.034874,0.000000,1.000000,0.000000
0.097724,-0.029421,0.273307,-0.813784,0.000000,-0.581167
0.033021,0.681043,0.301399,1.000000,0.000000,0.000000
0.307359,0.002908,0.144248,0.878853,0.000000,-0.477093
0.033021,0.476477,0.054413,1.000000,0.000000,0.000000
0.033021,0.475431,0.364488,1.000000,0.000000,0.000000
0.033021,0.539676,0.250842,1.000000,0.000000,0.000000
-0.033021,0.178230,0.226862,-1.000000,0.000000,0.000000
0.093093,0.033021,0.256262,0.000000,1.000000,0.000000
0.358217,-0.027667,0.082917,0.456823,0.000000,-0.889558
0.246569,-0.033021,0.386269,0.000000,-1.000000,0.000000
0.371208,0.033021,0.276163,0.000000,1.000000,0.000000
0.033021,0.175428,0.172243,1.000000,0.000000,0.000000
0.118940,-0.021423,0.263571,-0.154211,0.000000,0.988038
0.033021,0.440497,0.283328,1.000000,0.000000,0.000000
0.178913,-0.033021,0.192495,0.000000,-1.000000,0.000000
0.146509,0.033021,0.179915,0.000000,1.000000,0.000000
0.294408,0.030269,0.316135,0.981248,0.000000,-0.192751
-0.033021,0.580568,0.150038,-1.000000,0.000000,0.000000
0.078286,0.033021,0.303191,0.000000,1.000000,0.000000
-0.033021,0.181357,0.089776,-1.000000,0.000000,0.000000
-0.033021,0.064588,0.163665,-1.000000,0.000000,0.000000
0.033021,0.163081,0.449733,1.000000,0.000000,0.000000
0.294969,0.033021,0.418310,0.000000,1.000000,0.000000
0.307203,0.007102,0.414834,-0.683010,0.000000,0.730409
0.216482,0.033021,0.170569,0.000000,1.000000,0.000000
0.000150,-0.033021,0.448905,0.000000,-1.000000,0.000000
0.038065,-0.033021,0.186481,0.000000,-1.000000,0.000000
0.033021,0.162333,0.111906,1.000000,0.000000,0.000000
0.076710,-0.033021,0.371670,0.000000,-1.000000,0.000000
0.393975,-0.033021,0.024520,0.000000,-1.000000,0.000000
0.113544,0.033021,0.151516,0.000000,1.000000,0.000000
0.367110,0.033021,0.193223,0.000000,1.000000,0.000000
-0.033021,0.587648,0.341474,-1.000000,0.000000,0.000000
-0.033021,0.519123,0.218994,-1.000000,0.000000,0.000000
0.125016,0.010195,0.092046,-0.854630,0.000000,-0.519237
0.421205,-0.033021,0.076586,0.000000,-1.000000,0.000000
0.126708,-0.033021,0.198056,0.000000,-1.000000,0.000000
0.033021,0.814885,0.024364,1.000000,0.000000,0.000000
0.033021,0.105827,0.273946,1.000000,0.000000,0.000000
0.252874,-0.022311,0.227678,0.322496,0.000000,0.946571
0.373098,0.033021,0.129699,0.000000,1.000000,0.000000
0.263751,0.005255,0.243627,0.589040,0.000000,-0.808104
0.139208,0.033021,0.179565,0.000000,1.000000,0.000000
-0.033021,0.327944,0.066782,-1.000000,0.000000,0.000000
0.333001,0.024258,0.073778,-0.801416,0.000000,-0.598108
0.000143,0.033021,0.143467,0.000000,1.000000,0.000000
0.195934,0.033021,0.341743,0.000000,1.000000,0.000000
0.033021,0.291092,0.027832,1.000000,0.000000,0.000000
0.312444,0.028507,0.311513,0.815658,0.000000,0.578534
0.102416,0.033021,0.227951,0.000000,1.000000,0.000000
0.033021,0.120621,0.243304,1.000000,0.000000,0.000000
0.033021,0.745330,0.165463,1.000000,0.000000,0.000000
-0.033021,0.296016,0.087201,-1.000000,0.000000,0.000000
0.033021,0.132914,0.331148,1.000000,0.000000,0.000000
-0.033021,0.031125,0.151994,-1.000000,0.000000,0.000000
0.021250,-0.033021,0.029369,0.000000,-1.000000,0.000000
0.033021,0.689188,0.257961,1.000000,0.000000,0.000000
-0.033021,0.459968,0.390940,-1.000000,0.000000,0.000000
0.033021,0.780706,0.081088,1.000000,0.000000,0.000000
0.309388,-0.026001,0.113700,-0.989790,0.000000,0.142535
-0.033021,0.673867,0.186543,-1.000000,0.000000,0.000000
0.200919,0.016822,0.381637,-0.917864,0.000000,0.396896
-0.033021,0.428174,0.191817,-1.000000,0.000000,0.000000
0.033021,0.252034,0.442694,1.000000,0.000000,0.000000
0.098710,0.033021,0.240491,0.000000,1.000000,0.000000
0.388751,-0.033021,0.417848,0.000000,-1.000000,0.000000
0.327151,-0.033021,0.345732,0.000000,-1.000000,0.000000
-0.033021,0.178496,0.232762,-1.000000,0.000000,0.000000
0.251724,0.033021,0.436693,0.000000,1.000000,0.000000
0.220060,0.033021,0.311247,0.000000,1.000000,0.000000
0.033021,0.237910,0.273963,1.000000,0.000000,0.000000
-0.033021,0.022313,0.351142,-1.000000,0.000000,0.000000
0.307195,0.033021,0.285450,0.000000,1.000000,0.000000
0.033021,0.609581,0.407958,1.000000,0.000000,0.000000
-0.033021,0.378472,0.128021,-1.000000,0.000000,0.000000
0.033021,0.390551,0.252218,1.000000,0.000000,0.000000
-0.033021,0.667151,0.081204,-1.000000,0.000000,0.000000
0.033021,0.479197,0.246422,1.000000,0.000000,0.000000
0.351764,-0.033021,0.373146,0.000000,-1.000000,0.000000
-0.033021,0.470707,0.454658,-1.000000,0.000000,0.000000
0.326284,-0.012225,0.323808,0.529536,0.000000,0.848287
0.385056,-0.033021,0.337387,0.000000,-1.000000,0.000000
0.033021,0.463244,0.064134,1.000000,0.000000,0.000000
0.064082,-0.033021,0.287926,0.000000,-1.000000,0.000000
0.209964,0.024043,0.398187,0.840503,0.000000,0.541806
0.171402,0.020392,0.360430,0.863038,0.000000,0.505139
0.033021,0.634528,0.119054,1.000000,0.000000,0.000000
-0.033021,0.729844,0.200856,-1.000000,0.000000,0.000000
0.033021,0.066996,0.106728,1.000000,0.000000,0.000000
0.292450,0.033021,0.201701,0.000000,1.000000,0.000000
0.238629,-0.033021,0.001953,0.000000,-1.000000,0.000000
0.044094,-0.033021,0.083498,0.000000,-1.000000,0.000000
-0.033021,0.798910,0.010881,-1.000000,0.000000,0.000000
0.391194,-0.033021,0.132626,0.000000,-1.000000,0.000000
-0.033021,0.212828,0.196418,-1.000000,0.000000,0.000000
0.061969,0.033021,0.227749,0.000000,1.000000,0.000000
0.397477,-0.033021,0.001319,0.000000,-1.000000,0.000000
0.433557,-0.033021,0.390863,0.000000,-1.000000,0.000000
-0.033021,0.010450,0.162998,-1.000000,0.000000,0.000000
0.033021,0.247776,0.469484,1.000000,0.000000,0.000000
0.033021,0.308018,0.469783,1.000000,0.000000,0.000000
-0.033021,0.398132,0.011203,-1.000000,0.000000,0.000000
-0.033021,0.366047,0.172269,-1.000000,0.000000,0.000000
-0.033021,0.353507,0.282343,-1.000000,0.000000,0.000000
-0.033021,0.386084,0.185038,-1.000000,0.000000,0.000000
-0.033021,0.826192,0.178117,-1.000000,0.000000,0.000000
-0.033021,0.631449,0.100508,-1.000000,0.000000,0.000000
0.191777,-0.033021,0.345670,0.000000,-1.000000,0.000000
0.033021,0.657788,0.060719,1.000000,0.000000,0.000000
0.033021,0.611196,0.160678,1.000000,0.000000,0.000000
0.033021,0.178868,0.040210,1.000000,0.000000,0.000000
0.000065,-0.033021,0.339611,0.000000,-1.000000,0.000000
0.414659,0.033021,0.418787,0.000000,1.000000,0.000000
0.297444,-0.033021,0.262450,0.000000,-1.000000,0.000000
0.166267,0.033021,0.302644,0.000000,1.000000,0.000000
0.047749,0.033021,0.411668,0.000000,1.000000,0.000000
0.033021,0.250660,0.089416,1.000000,0.000000,0.000000
0.033021,0.089533,0.047235,1.000000,0.000000,0.000000
0.033021,0.374566,0.383022,1.000000,0.000000,0.000000
-0.033021,0.589952,0.080388,-1.000000,0.000000,0.000000
0.051938,0.033021,0.399210,0.000000,1.000000,0.000000
0.172866,-0.029698,0.087758,0.854832,0.000000,-0.518905
0.091446,-0.033021,0.464881,0.000000,-1.000000,0.000000
0.033021,0.386552,0.437157,1.000000,0.000000,0.000000
0.165246,-0.028417,0.310671,0.557606,0.000000,0.830105
-0.033021,0.532740,0.387942,-1.000000,0.000000,0.000000
0.033828,0.033021,0.183874,0.000000,1.000000,0.000000
0.074376,-0.033021,0.104811,0.000000,-1.000000,0.000000
-0.033021,0.563485,0.133500,-1.000000,0.000000,0.000000
-0.033021,0.435741,0.459047,-1.000000,0.000000,0.000000
0.033021,0.139666,0.341227,1.000000,0.000000,0.000000
0.127247,-0.033021,0.339485,0.000000,-1.000000,0.000000
-0.033021,0.203725,0.157370,-1.000000,0.000000,0.000000
0.064642,-0.033021,0.180833,0.000000,-1.000000,0.000000
-0.033021,0.463883,0.178041,-1.000000,0.000000,0.000000
0.033021,0.384965,0.425967,1.000000,0.000000,0.000000
0.194699,-0.033021,0.294016,0.000000,-1.000000,0.000000
-0.033021,0.273831,0.110102,-1.000000,0.000000,0.000000
-0.033021,0.443438,0.046128,-1.000000,0.000000,0.000000
-0.033021,0.683482,0.016765,-1.000000,0.000000,0.000000
-0.033021,0.264171,0.037185,-1.000000,0.000000,0.000000
-0.033021,0.181325,0.456344,-1.000000,0.000000,0.000000
0.153344,0.015617,0.286699,-0.971735,0.000000,0.236073
-0.033021,0.027152,0.223981,-1.000000,0.000000,0.000000
0.176224,-0.027297,0.190893,-0.392529,0.000000,-0.919740
0.465393,0.033021,0.111680,0.000000,1.000000,0.000000
0.406731,0.033021,0.263230,0.000000,1.000000,0.000000
0.295498,0.013286,0.315472,0.710432,0.000000,0.703766
-0.033021,0.192403,0.385147,-1.000000,0.000000,0.000000
0.033021,0.302554,0.364524,1.000000,0.000000,0.000000
0.033021,0.387759,0.018071,1.000000,0.000000,0.000000
0.338557,0.033021,0.197819,0.000000,1.000000,0.000000
0.033021,0.645338,0.093335,1.000000,0.000000,0.000000
0.033021,0.016732,0.274970,1.000000,0.000000,0.000000
-0.033021,0.801926,0.362164,-1.000000,0.000000,0.000000
0.033021,0.699758,0.362316,1.000000,0.000000,0.000000
0.049404,0.033021,0.350009,0.000000,1.000000,0.000000
0.072809,0.029589,0.209801,-0.940082,0.000000,-0.340947
0.293585,0.033021,0.322600,0.000000,1.000000,0.000000
0.253859,0.005129,0.311124,0.235164,0.000000,-0.971956
0.041150,0.033021,0.164785,0.000000,1.000000,0.000000
0.337519,-0.033021,0.147151,0.000000,-1.000000,0.000000
-0.033021,0.548112,0.065390,-1.000000,0.000000,0.000000
0.451035,-0.033021,0.120612,0.000000,-1.000000,0.000000
0.033021,0.359536,0.311450,1.000000,0.000000,0.000000
0.324121,-0.033021,0.409678,0.000000,-1.000000,0.000000
0.133929,-0.026750,0.377153,-0.789722,0.000000,0.613465
0.014020,0.033021,0.063318,0.000000,1.000000,0.000000
0.321445,0.014745,0.074748,0.318260,0.000000,-0.948003
0.001304,-0.033021,0.444819,0.000000,-1.000000,0.000000
0.033021,0.362124,0.036890,1.000000,0.000000,0.000000
0.033021,0.349182,0.333728,1.000000,0.000000,0.000000
0.033355,-0.033021,0.350030,0.000000,-1.000000,0.000000
0.354268,0.007047,0.149351,0.482535,0.000000,-0.875877
0.455894,-0.033021,0.442437,0.000000,-1.000000,0.000000
0.136241,0.033021,0.067542,0.000000,1.000000,0.000000
0.210165,0.033021,0.087295,0.000000,1.000000,0.000000
0.318438,-0.033021,0.295183,0.000000,-1.000000,0.000000
0.061122,0.006261,0.349672,-0.945505,0.000000,0.325608
0.033021,0.071214,0.284704,1.000000,0.000000,0.000000
0.154541,-0.033021,0.453406,0.000000,-1.000000,0.000000
0.025852,-0.033021,0.057665,0.000000,-1.000000,0.000000
0.220222,-0.033021,0.163232,0.000000,-1.000000,0.000000
0.279536,0.033021,0.060484,0.000000,1.000000,0.000000
-0.033021,0.694924,0.095519,-1.000000,0.000000,0.000000
0.033021,0.004620,0.316796,1.000000,0.000000,0.000000
0.096045,-0.033021,0.459669,0.000000,-1.000000,0.000000
0.033021,0.405636,0.098018,1.000000,0.000000,0.000000
0.033021,0.732555,0.428315,1.000000,0.000000,0.000000
0.128112,0.033021,0.077464,0.000000,1.000000,0.000000
0.033021,0.614169,0.323837,1.000000,0.000000,0.000000
-0.033021,0.248701,0.032132,-1.000000,0.000000,0.000000
0.262822,-0.033021,0.189144,0.000000,-1.000000,0.000000
0.033021,0.407703,0.122325,1.000000,0.000000,0.000000
0.289168,-0.002935,0.217717,0.595995,0.000000,0.802988
0.033021,0.764419,0.207914,1.000000,0.000000,0.000000
0.193293,-0.033021,0.251650,0.000000,-1.000000,0.000000
-0.033021,0.769632,0.046348,-1.000000,0.000000,0.000000
0.033021,0.141452,0.197874,1.000000,0.000000,0.000000
0.033021,0.319970,0.307682,1.000000,0.000000,0.000000
0.033021,0.348517,0.010172,1.000000,0.000000,0.000000
-0.033021,0.251664,0.195873,-1.000000,0.000000,0.000000
0.033021,0.795727,0.259116,1.000000,0.000000,0.000000
-0.033021,0.023624,0.339209,-1.000000,0.000000,0.000000
0.235737,-0.004753,0.249005,-0.891900,0.000000,-0.452233
0.044404,0.033021,0.187836,0.000000,1.000000,0.000000
0.214859,0.033021,0.293669,0.000000,1.000000,0.000000
0.080312,0.033021,0.189814,0.000000,1.000000,0.000000
0.033021,0.360321,0.117846,1.000000,0.000000,0.000000
0.298113,-0.006562,0.185623,-0.356470,0.000000,0.934307
-0.033021,0.789964,0.462221,-1.000000,0.000000,0.000000
0.325146,0.033021,0.211854,0.000000,1.000000,0.000000
0.033021,0.230860,0.152992,1.000000,0.000000,0.000000
-0.033021,0.641214,0.164550,-1.000000,0.000000,0.000000
-0.033021,0.632801,0.431096,-1.000000,0.000000,0.000000
-0.033021,0.337576,0.113970,-1.000000,0.000000,0.000000
0.109734,0.033021,0.367676,0.000000,1.000000,0.000000
-0.033021,0.636932,0.030198,-1.000000,0.000000,0.000000
0.267228,-0.033021,0.277740,0.000000,-1.000000,0.000000
0.439902,-0.033021,0.431762,0.000000,-1.000000,0.000000
0.210550,0.033021,0.144170,0.000000,1.000000,0.000000
0.033021,0.473581,0.032907,1.000000,0.000000,0.000000
0.247350,0.033021,0.202430,0.000000,1.000000,0.000000
0.129826,-0.033021,0.463047,0.000000,-1.000000,0.000000
0.033021,0.391814,0.393535,1.000000,0.000000,0.000000
0.315655,-0.033021,0.427963,0.000000,-1.000000,0.000000
0.450741,0.033021,0.422328,0.000000,1.000000,0.000000
-0.033021,0.545509,0.474413,-1.000000,0.000000,0.000000
0.152311,0.033021,0.327181,0.000000,1.000000,0.000000
0.056200,-0.033021,0.438057,0.000000,-1.000000,0.000000
-0.033021,0.372751,0.272138,-1.000000,0.000000,0.000000
0.033021,0.344381,0.025352,1.000000,0.000000,0.000000
0.033021,0.409393,0.084641,1.000000,0.000000,0.000000
0.378735,-0.033021,0.384958,0.000000,-1.000000,0.000000
0.396378,-0.033021,0.000158,0.000000,-1.000000,0.000000
-0.033021,0.042994,0.055353,-1.000000,0.000000,0.000000
0.033021,0.515192,0.387236,1.000000,0.000000,0.000000
0.033021,0.227816,0.430041,1.000000,0.000000,0.000000
0.033021,0.304161,0.427018,1.000000,0.000000,0.000000
0.177370,-0.033021,0.312854,0.000000,-1.000000,0.000000
0.426426,-0.033021,0.123557,0.000000,-1.000000,0.000000
0.199473,0.033021,0.169942,0.000000,1.000000,0.000000
0.086222,0.033021,0.197871,0.000000,1.000000,0.000000
0.391252,0.033021,0.469999,0.000000,1.000000,0.000000
0.094153,0.033021,0.204795,0.000000,1.000000,0.000000
0.033021,0.281912,0.187411,1.000000,0.000000,0.000000
0.249468,0.033021,0.456864,0.000000,1.000000,0.000000
0.401909,-0.033021,0.310429,0.000000,-1.000000,0.000000
0.015662,-0.033021,0.048550,0.000000,-1.000000,0.000000
0.415068,-0.033021,0.474831,0.000000,-1.000000,0.000000
0.403757,0.033021,0.021373,0.000000,1.000000,0.000000
0.260103,-0.033021,0.031568,0.000000,-1.000000,0.000000
0.154441,0.024863,0.375508,-0.923386,0.000000,0.383872
0.025342,0.033021,0.319317,0.000000,1.000000,0.000000
0.264335,0.033021,0.041313,0.000000,1.000000,0.000000
0.033021,0.132614,0.109413,1.000000,0.000000,0.000000
-0.033021,0.160169,0.163294,-1.000000,0.000000,0.000000
0.229969,0.001797,0.147267,0.999862,0.000000,0.016625
0.368721,0.033021,0.158439,0.000000,1.000000,0.000000
-0.033021,0.149437,0.059847,-1.000000,0.000000,0.000000
-0.033021,0.277369,0.229385,-1.000000,0.000000,0.000000
0.319541,0.033021,0.100503,0.000000,1.000000,0.000000
0.383131,-0.032964,0.131977,0.971802,0.000000,-0.235797
-0.033021,0.688740,0.400163,-1.000000,0.000000,0.000000
-0.033021,0.542914,0.000210,-1.000000,0.000000,0.000000
0.033021,0.445139,0.129760,1.000000,0.000000,0.000000
0.438561,0.033021,0.064650,0.000000,1.000000,0.000000
0.227084,0.033021,0.463553,0.000000,1.000000,0.000000
0.278585,-0.031552,0.331076,-0.566026,0.000000,-0.824388
0.179383,-0.018736,0.298459,0.776853,0.000000,-0.629682
0.033021,0.276720,0.374558,1.000000,0.000000,0.000000
0.287951,-0.025001,0.170016,0.801018,0.000000,0.598641
0.033021,0.090821,0.048329,1.000000,0.000000,0.000000
0.101353,0.033021,0.061641,0.000000,1.000000,0.000000
0.061625,0.033021,0.158932,0.000000,1.000000,0.000000
-0.033021,0.035260,0.118153,-1.000000,0.000000,0.000000
0.160487,0.033021,0.124765,0.000000,1.000000,0.000000
0.130011,0.033021,0.149778,0.000000,1.000000,0.000000
0.183975,-0.033021,0.180659,0.000000,-1.000000,0.000000
0.025612,0.033021,0.221156,0.000000,1.000000,0.000000
-0.033021,0.006092,0.080718,-1.000000,0.000000,0.000000
0.010795,0.033021,0.131626,0.000000,1.000000,0.000000
0.224583,-0.033021,0.323424,0.000000,-1.000000,0.000000
0.103495,-0.033021,0.218001,0.000000,-1.000000,0.000000
0.235070,0.033021,0.316052,0.000000,1.000000,0.000000
0.258436,0.005172,0.269600,0.910786,0.000000,0.412879
0.033021,0.148927,0.301310,1.000000,0.000000,0.000000
-0.033021,0.421250,0.282868,-1.000000,0.000000,0.000000
0.269083,0.033021,0.086959,0.000000,1.000000,0.000000
0.078534,-0.033021,0.018174,0.000000,-1.000000,0.000000
0.033021,0.085667,0.358113,1.000000,0.000000,0.000000
0.234436,-0.031824,0.154145,0.698531,0.000000,-0.715579
0.287582,-0.033021,0.188323,0.000000,-1.000000,0.000000
-0.033021,0.264626,0.109815,-1.000000,0.000000,0.000000
0.191276,-0.033021,0.444828,0.000000,-1.000000,0.000000
0.087712,-0.033021,0.196366,0.000000,-1.000000,0.000000
0.033021,0.122165,0.419452,1.000000,0.000000,0.000000
0.033021,0.766310,0.213562,1.000000,0.000000,0.000000
0.293524,-0.033021,0.101482,0.000000,-1.000000,0.000000
0.124089,-0.033021,0.459755,0.000000,-1.000000,0.000000
0.315058,0.033021,0.131288,0.000000,1.000000,0.000000
0.033021,0.224561,0.409100,1.000000,0.000000,0.000000
-0.033021,0.736881,0.163925,-1.000000,0.000000,0.000000
-0.033021,0.638025,0.035012,-1.000000,0.000000,0.000000
-0.033021,0.417781,0.089679,-1.000000,0.000000,0.000000
0.244409,-0.033021,0.133662,0.000000,-1.000000,0.000000
-0.033021,0.531393,0.336626,-1.000000,0.000000,0.000000
0.104475,-0.033021,0.104881,0.000000,-1.000000,0.000000
0.004629,-0.033021,0.130983,0.000000,-1.000000,0.000000
-0.033021,0.101227,0.117103,-1.000000,0.000000,0.000000
-0.033021,0.717537,0.019251,-1.000000,0.000000,0.000000
0.233205,0.033021,0.084350,0.000000,1.000000,0.000000
0.218654,-0.033021,0.444059,0.000000,-1.000000,0.000000
-0.033021,0.687872,0.302330,-1.000000,0.000000,0.000000
-0.033021,0.455063,0.046781,-1.000000,0.000000,0.000000
-0.033021,0.135485,0.304719,-1.000000,0.000000,0.000000
0.033021,0.695287,0.136738,1.000000,0.000000,0.000000
0.270441,0.033021,0.192201,0.000000,1.000000,0.000000
0.033021,0.163000,0.123700,1.000000,0.000000,0.000000
-0.033021,0.541460,0.221450,-1.000000,0.000000,0.000000
0.280834,-0.006354,0.341782,0.556626,0.000000,0.830763
0.033021,0.302292,0.186937,1.000000,0.000000,0.000000
0.133027,0.033021,0.329008,0.000000,1.000000,0.000000
0.033021,0.615106,0.219491,1.000000,0.000000,0.000000
0.186488,-0.033021,0.208689,0.000000,-1.000000,0.000000
0.124421,-0.033021,0.395819,0.000000,-1.000000,0.000000
-0.033021,0.239666,0.280507,-1.000000,0.000000,0.000000
0.179272,0.033021,0.295487,0.000000,1.000000,0.000000
0.189379,0.033021,0.284381,0.000000,1.000000,0.000000
0.033021,0.436152,0.145061,1.000000,0.000000,0.000000
0.170134,-0.033021,0.258765,0.000000,-1.000000,0.000000
0.186984,-0.033021,0.436013,0.000000,-1.000000,0.000000
0.026032,-0.033021,0.216020,0.000000,-1.000000,0.000000
0.033021,0.207278,0.069482,1.000000,0.000000,0.000000
0.170671,0.033021,0.350506,0.000000,1.000000,0.000000
0.139703,0.033021,0.106311,0.000000,1.000000,0.000000
0.231201,-0.033021,0.060558,0.000000,-1.000000,0.000000
0.417260,-0.033021,0.070298,0.000000,-1.000000,0.000000
0.033021,0.794717,0.335920,1.000000,0.000000,0.000000
0.252724,0.033021,0.100615,0.000000,1.000000,0.000000
0.225388,0.033021,0.345731,0.000000,1.000000,0.000000
0.353297,0.033021,0.087700,0.000000,1.000000,0.000000
0.033021,0.801065,0.169569,1.000000,0.000000,0.000000
0.468548,-0.033021,0.446861,0.000000,-1.000000,0.000000
0.288216,0.011267,0.162480,0.997065,0.000000,0.076558
-0.033021,0.260333,0.470597,-1.000000,0.000000,0.000000
0.033021,0.165161,0.069971,1.000000,0.000000,0.000000
0.139668,-0.012133,0.278979,-0.761447,0.000000,0.648227
0.001590,0.033021,0.285093,0.000000,1.000000,0.000000
0.033021,0.139805,0.184976,1.000000,0.000000,0.000000
0.322954,-0.033021,0.272970,0.000000,-1.000000,0.000000
0.033021,0.335136,0.421852,1.000000,0.000000,0.000000
0.033021,0.736334,0.167332,1.000000,0.000000,0.000000
0.033021,0.779152,0.295230,1.000000,0.000000,0.000000
0.087315,-0.033021,0.423271,0.000000,-1.000000,0.000000
0.033021,0.791856,0.331742,1.000000,0.000000,0.000000
0.033021,0.408016,0.441160,1.000000,0.000000,0.000000
0.242016,0.009617,0.170758,-0.965366,0.000000,-0.260900
-0.033021,0.126486,0.291358,-1.000000,0.000000,0.000000
0.223440,-0.010828,0.357971,-0.972745,0.000000,0.231877
0.442787,-0.033021,0.045077,0.000000,-1.000000,0.000000
0.033021,0.658852,0.037053,1.000000,0.000000,0.000000
0.126021,0.033021,0.249930,0.000000,1.000000,0.000000
0.045096,0.033021,0.410543,0.000000,1.000000,0.000000
0.105938,-0.033021,0.114200,0.000000,-1.000000,0.000000
0.033021,0.486767,0.006276,1.000000,0.000000,0.000000
0.083169,0.033021,0.247266,0.000000,1.000000,0.000000
0.177300,-0.033021,0.122445,0.000000,-1.000000,0.000000
0.175284,0.029983,0.383945,-0.785428,0.000000,0.618953
0.328535,0.033021,0.163899,0.000000,1.000000,0.000000
0.246708,0.020249,0.261066,0.919908,0.000000,-0.392135
-0.033021,0.085779,0.326603,-1.000000,0.000000,0.000000
0.170626,0.033021,0.213304,0.000000,1.000000,0.000000
0.033021,0.148426,0.341737,1.000000,0.000000,0.000000
0.378451,0.033021,0.317468,0.000000,1.000000,0.000000
-0.033021,0.193871,0.036640,-1.000000,0.000000,0.000000
0.422313,-0.033021,0.271577,0.000000,-1.000000,0.000000
0.353418,-0.033021,0.329048,0.000000,-1.000000,0.000000
-0.033021,0.557428,0.156221,-1.000000,0.000000,0.000000
0.390035,0.033021,0.217140,0.000000,1.000000,0.000000
0.033021,0.778462,0.460449,1.000000,0.000000,0.000000
0.033021,0.487179,0.076057,1.000000,0.000000,0.000000
0.128074,-0.027230,0.129381,-0.995374,0.000000,-0.096071
0.033021,0.000775,0.080577,1.000000,0.000000,0.000000
0.149385,-0.033021,0.251156,0.000000,-1.000000,0.000000
0.260861,0.033021,0.128885,0.000000,1.000000,0.000000
-0.033021,0.223194,0.086667,-1.000000,0.000000,0.000000
-0.033021,0.553057,0.294120,-1.000000,0.000000,0.000000
0.204319,0.033021,0.439830,0.000000,1.000000,0.000000
0.223127,-0.014167,0.199290,0.313782,0.000000,0.949495
-0.033021,0.729253,0.072032,-1.000000,0.000000,0.000000
0.033021,0.685365,0.138501,1.000000,0.000000,0.000000
-0.033021,0.270835,0.133377,-1.000000,0.000000,0.000000
0.283541,-0.013313,0.239272,-0.559757,0.000000,-0.828657
0.056586,0.033021,0.426384,0.000000,1.000000,0.000000
0.120480,0.033021,0.293948,0.000000,1.000000,0.000000
-0.033021,0.110860,0.434934,-1.000000,0.000000,0.000000
0.033021,0.243050,0.338525,1.000000,0.000000,0.000000
0.270729,-0.033021,0.391722,0.000000,-1.000000,0.000000
0.313020,0.015001,0.325291,-0.997418,0.000000,-0.071808
0.052706,-0.033021,0.041682,0.000000,-1.000000,0.000000
0.258024,-0.019788,0.186366,0.665382,0.000000,0.746503
0.339654,-0.033021,0.291539,0.000000,-1.000000,0.000000
-0.033021,0.044553,0.230812,-1.000000,0.000000,0.000000
0.295860,-0.033021,0.084781,0.000000,-1.000000,0.000000
0.161858,0.022549,0.121445,0.964519,0.000000,-0.264015
0.033021,0.774484,0.402716,1.000000,0.000000,0.000000
0.033021,0.231326,0.257976,1.000000,0.000000,0.000000
-0.033021,0.500682,0.093372,-1.000000,0.000000,0.000000
0.269972,-0.033021,0.101048,0.000000,-1.000000,0.000000
0.163550,-0.033021,0.179678,0.000000,-1.000000,0.000000
0.033021,0.060659,0.318130,1.000000,0.000000,0.000000
-0.033021,0.526609,0.029113,-1.000000,0.000000,0.000000
0.184820,0.033021,0.381607,0.000000,1.000000,0.000000
0.202912,-0.013734,0.256074,0.318894,0.000000,-0.947790
0.446300,-0.033021,0.281072,0.000000,-1.000000,0.000000
-0.033021,0.660661,0.121045,-1.000000,0.000000,0.000000
-0.033021,0.694158,0.260400,-1.000000,0.000000,0.000000
0.033021,0.668955,0.033680,1.000000,0.000000,0.000000
0.419138,-0.033021,0.367479,0.000000,-1.000000,0.000000
0.242752,-0.031286,0.211143,-0.417447,0.000000,-0.908701
0.033021,0.804024,0.138065,1.000000,0.000000,0.000000
-0.033021,0.527152,0.135273,-1.000000,0.000000,0.000000
0.329232,-0.003270,0.235535,0.362296,0.000000,0.932063
0.033021,0.416821,0.076200,1.000000,0.000000,0.000000
0.033021,0.765741,0.067429,1.000000,0.000000,0.000000
0.304221,0.033021,0.113940,0.000000,1.000000,0.000000
0.033021,0.696480,0.378023,1.000000,0.000000,0.000000
0.181390,-0.033021,0.347068,0.000000,-1.000000,0.000000
0.040115,0.033021,0.076975,0.000000,1.000000,0.000000
0.431090,-0.033021,0.266517,0.000000,-1.000000,0.000000
0.304731,-0.025242,0.247248,-0.047278,0.000000,-0.998882
0.227175,-0.033021,0.083292,0.000000,-1.000000,0.000000
-0.033021,0.441631,0.180151,-1.000000,0.000000,0.000000
0.033021,0.114602,0.326811,1.000000,0.000000,0.000000
-0.033021,0.135478,0.208002,-1.000000,0.000000,0.000000
-0.033021,0.429833,0.338319,-1.000000,0.000000,0.000000
0.253796,0.033021,0.474920,0.000000,1.000000,0.000000
0.148916,0.033021,0.201364,0.000000,1.000000,0.000000
-0.033021,0.738827,0.254644,-1.000000,0.000000,0.000000
0.370903,-0.033021,0.193379,0.000000,-1.000000,0.000000
0.224144,0.017715,0.313830,0.987938,0.000000,-0.154851
-0.033021,0.165078,0.424023,-1.000000,0.000000,0.000000
0.175978,-0.033021,0.346721,0.000000,-1.000000,0.000000
0.033021,0.069586,0.431587,1.000000,0.000000,0.000000
-0.033021,0.301395,0.274132,-1.000000,0.000000,0.000000
0.285406,-0.012144,0.178424,0.866325,0.000000,-0.499480
0.033021,0.266708,0.109791,1.000000,0.000000,0.000000
0.275335,0.033021,0.189901,0.000000,1.000000,0.000000
0.033021,0.616051,0.219317,1.000000,0.000000,0.000000
0.033021,0.471569,0.025368,1.000000,0.000000,0.000000
0.428179,-0.033021,0.291628,0.000000,-1.000000,0.000000
-0.033021,0.782374,0.301856,-1.000000,0.000000,0.000000
-0.033021,0.377336,0.236377,-1.000000,0.000000,0.000000
0.033021,0.411588,0.322597,1.000000,0.000000,0.000000
0.338096,-0.033021,0.226474,0.000000,-1.000000,0.000000
0.212267,0.023584,0.354855,-0.338570,0.000000,0.940941
0.231971,-0.033021,0.393233,0.000000,-1.000000,0.000000
0.147794,0.033021,0.009335,0.000000,1.000000,0.000000
0.282935,0.017831,0.066857,0.237470,0.000000,-0.971395
0.367763,-0.033021,0.413247,0.000000,-1.000000,0.000000
0.033021,0.330805,0.210363,1.000000,0.000000,0.000000
0.260297,-0.033021,0.452015,0.000000,-1.000000,0.000000
0.397150,0.033021,0.176477,0.000000,1.000000,0.000000
0.191235,0.002609,0.070808,0.707733,0.000000,-0.706480
0.127695,-0.014462,0.412962,-0.421704,0.000000,0.906734
0.262092,0.033021,0.269844,0.000000,1.000000,0.000000
-0.033021,0.336534,0.189388,-1.000000,0.000000,0.000000
-0.033021,0.648811,0.161504,-1.000000,0.000000,0.000000
0.313761,0.033021,0.365388,0.000000,1.000000,0.000000
-0.033021,0.549827,0.289009,-1.000000,0.000000,0.000000
0.419245,-0.033021,0.402848,0.000000,-1.000000,0.000000
-0.033021,0.396368,0.028161,-1.000000,0.000000,0.000000
0.033021,0.504255,0.082171,1.000000,0.000000,0.000000
-0.033021,0.148194,0.197778,-1.000000,0.000000,0.000000
0.362922,-0.033021,0.170564,0.000000,-1.000000,0.000000
0.310335,-0.033021,0.345553,0.000000,-1.000000,0.000000
-0.033021,0.621924,0.103284,-1.000000,0.000000,0.000000
0.033021,0.024514,0.098600,1.000000,0.000000,0.000000
0.370789,-0.033021,0.474475,0.000000,-1.000000,0.000000
0.230061,0.033021,0.448566,0.000000,1.000000,0.000000
0.199558,0.033021,0.098945,0.000000,1.000000,0.000000
0.080767,0.033021,0.067250,0.000000,1.000000,0.000000
0.033021,0.055291,0.196413,1.000000,0.000000,0.000000
-0.033021,0.586457,0.229775,-1.000000,0.000000,0.000000
0.099763,0.033021,0.350491,0.000000,1.000000,0.000000
-0.033021,0.658703,0.260540,-1.000000,0.000000,0.000000
0.415127,0.033021,0.021458,0.000000,1.000000,0.000000
0.261102,0.033021,0.102755,0.000000,1.000000,0.000000
0.208654,-0.033021,0.052723,0.000000,-1.000000,0.000000
-0.033021,0.609775,0.424049,-1.000000,0.000000,0.000000
0.193166,0.033021,0.094858,0.000000,1.000000,0.000000
-0.033021,0.743931,0.367448,-1.000000,0.000000,0.000000
0.033021,0.778134,0.112925,1.000000,0.000000,0.000000
0.447255,0.033021,0.423269,0.000000,1.000000,0.000000
0.083717,-0.033021,0.422628,0.000000,-1.000000,0.000000
0.033021,0.025899,0.254744,1.000000,0.000000,0.000000
0.277914,-0.004907,0.158919,0.989338,0.000000,0.145640
-0.033021,0.139663,0.360300,-1.000000,0.000000,0.000000
0.153914,0.033021,0.281133,0.000000,1.000000,0.000000
-0.033021,0.397884,0.195312,-1.000000,0.000000,0.000000
0.276215,-0.033021,0.196546,0.000000,-1.000000,0.000000
-0.033021,0.382652,0.285643,-1.000000,0.000000,0.000000
0.033021,0.109325,0.090842,1.000000,0.000000,0.000000
0.412200,0.033021,0.036179,0.000000,1.000000,0.000000
0.033021,0.408571,0.339743,1.000000,0.000000,0.000000
0.284313,0.033021,0.451899,0.000000,1.000000,0.000000
