x,y,z,nx,ny,nz
-11.963083,12.808449,-20.031663,-0.420208,0.522219,-0.742100
8.142343,-1.049815,-16.028795,-0.995185,0.098017,0.000000
14.279394,4.827071,-21.941613,0.538762,0.233320,-0.809504
-18.274717,-19.286985,-1.214511,-0.680461,-0.728344,-0.080542
-19.683033,12.203254,-13.105531,-0.699011,0.488895,-0.521886
2.419373,-7.841376,22.073787,-0.290284,0.956940,0.000000
5.461870,15.990694,-6.133245,-0.634394,0.000000,0.773010
-9.728203,-9.948728,-22.713596,-0.306798,-0.364801,-0.879088
-17.851614,-11.595263,15.997858,-0.620644,-0.440461,0.648688
-9.242570,21.807793,12.109455,-0.382478,0.802678,0.457622
21.446302,1.445549,15.703761,0.802672,0.000000,0.596421
-8.469223,-0.225116,25.193362,-0.356820,-0.000002,0.934173
-3.701389,20.012986,7.326293,0.471397,0.000000,-0.881921
25.043481,-4.141520,7.903813,0.940327,-0.181151,0.288046
-10.991754,17.170366,17.054427,-0.440461,0.648688,0.620644
13.173768,3.246914,-22.872582,0.482337,0.078367,-0.872474
-23.855016,10.636995,4.998789,-0.884358,0.437842,0.161879
1.171268,-9.916056,8.130381,-0.098017,-0.000000,-0.995185
-8.022901,-23.151733,1.820964,0.956940,0.000000,-0.290284
4.314320,6.998674,-8.136763,-0.471397,-0.881921,0.000000
1.594775,9.539644,24.766576,0.050000,0.338698,0.939566
8.684739,1.292813,25.083719,0.311335,0.081407,0.946807
-0.363812,8.209909,17.997513,0.098017,-0.995185,0.000000
7.622482,3.140968,-16.907755,-0.956940,-0.290284,0.000000
-10.455545,10.585441,-22.079825,-0.395175,0.448482,-0.801686
-7.173004,7.143075,-3.988171,0.881921,0.000000,0.471397
-19.245381,-15.841154,-9.366045,-0.759999,-0.569358,-0.313422
-26.465382,2.295428,-1.160077,-0.995747,0.092126,0.000000
-5.086365,-12.875455,-6.441414,0.634394,0.000000,0.773010
-5.350991,-7.774522,-6.224241,0.634394,0.000000,0.773010
7.303508,-6.799195,3.744016,-0.881921,0.000000,-0.471397
-5.286177,-6.488181,-25.230058,-0.216204,-0.235738,-0.947462
-1.082900,-8.139085,-23.474078,0.098017,0.995185,-0.000000
2.132536,-7.928387,-24.109876,-0.290284,0.956940,0.000000
-2.810985,7.722582,24.265256,0.290284,-0.956940,0.000000
8.188889,21.726098,-13.091758,0.302377,0.852184,-0.427026
-13.444186,-3.215063,-22.725946,-0.482337,-0.078367,-0.872474
-10.071469,-1.764246,-24.581358,-0.356820,-0.000002,-0.934173
4.871983,-14.920535,21.494507,0.132793,-0.557284,0.819635
-8.024420,1.815955,11.072054,0.956940,-0.290284,0.000000
-1.130346,8.134411,-12.534650,0.098017,-0.995185,0.000000
-7.181011,3.973192,15.416415,0.881921,-0.471397,0.000000
-5.099151,9.163744,6.430920,0.634394,0.000000,-0.773010
11.334113,10.129966,-21.826983,0.457622,0.382478,-0.802678
-1.545063,8.093565,21.766728,0.098017,-0.995185,0.000000
21.302595,-6.564723,-14.524510,0.818634,-0.267099,-0.508425
24.728927,-9.406507,2.658877,0.946807,-0.311335,0.081408
-12.184250,-12.324334,20.247103,-0.420208,-0.522219,0.742100
-24.200223,-10.490218,3.471545,-0.922798,-0.350587,0.159793
16.713306,1.136620,-20.672561,0.647218,0.000000,-0.762305
12.149088,-15.560215,-17.834371,0.503751,-0.585159,-0.635471
4.547370,6.874107,15.926896,-0.471397,-0.881921,0.000000
-5.782195,18.809630,-5.870360,0.634394,0.000000,0.773010
-14.755607,6.268231,-21.209292,-0.538762,0.233320,-0.809504
6.705250,17.301458,19.060944,0.217328,0.638727,0.738104
-17.237164,-15.348621,13.296988,-0.648688,-0.620644,0.440461
-10.143155,-22.614969,-9.779620,-0.364801,-0.879088,-0.306798
-12.168745,-20.421900,-12.022067,-0.448482,-0.801686,-0.395175
-25.697944,-5.237466,-4.367949,-0.971850,-0.181286,-0.150475
5.200819,-17.232401,19.563670,0.217328,-0.638727,0.738104
-11.622522,-22.257123,8.731451,-0.445068,-0.829480,0.337457
15.497873,21.583518,1.489952,0.546249,0.833680,0.081179
4.864568,-6.623438,-18.554354,-0.634393,0.773010,0.000000
1.236564,8.123950,-16.108542,-0.098017,-0.995185,-0.000000
-0.831779,8.163818,-18.312081,0.098017,-0.995185,-0.000000
5.986749,-11.969428,5.640375,-0.773010,0.000000,-0.634393
-23.231765,7.236608,-10.795492,-0.879088,0.306798,-0.364801
-4.956007,-21.837490,-14.380004,-0.233320,-0.809504,-0.538762
-19.469545,-15.044620,-10.094074,-0.759514,-0.526342,-0.382234
-8.136468,1.109462,13.044172,0.995185,-0.098017,-0.000000
21.363835,13.843367,-7.838501,0.809504,0.538762,-0.233320
-2.657279,16.786146,7.769208,0.290284,0.000000,-0.956940
6.466931,-5.055271,18.051426,-0.773010,0.634394,-0.000000
23.949888,10.657182,4.425896,0.884358,0.437842,0.161879
-21.247515,5.108057,15.227548,-0.819635,0.132793,0.557284
15.114790,-8.528282,-20.135033,0.569358,-0.313422,-0.759999
0.198486,8.226192,9.961204,-0.098017,-0.995185,0.000000
-3.310130,7.535424,22.866093,0.471397,-0.881921,0.000000
-11.813113,22.149276,-8.745174,-0.445068,0.829480,-0.337457
22.956179,-11.744760,-6.436740,0.851639,-0.469405,-0.233171
20.938585,-0.882211,-16.387055,0.802672,0.000000,-0.596421
3.219995,8.296180,-7.583603,-0.471397,0.000000,0.881921
22.759750,-12.964013,-4.688324,0.884358,-0.437842,-0.161879
-16.189765,11.848320,17.416036,-0.620644,0.440461,0.648688
10.747705,-24.375746,-0.457453,0.424492,-0.901705,-0.082071
6.807363,-4.640454,-10.892054,-0.773011,0.634393,0.000000
1.522120,17.720446,-8.095825,-0.098017,0.000000,0.995185
-3.837806,18.458783,18.824932,-0.080542,0.680461,0.728344
-10.141425,21.465665,11.958295,-0.382478,0.802678,0.457622
-12.761884,-5.978532,22.521015,-0.469405,-0.233171,0.851639
20.739834,14.416007,8.331132,0.759999,0.569358,0.313422
-25.978440,5.625361,0.510216,-0.984405,0.175916,0.000000
14.452631,-16.855798,-14.670109,0.585159,-0.635471,-0.503751
-24.549291,9.718080,-3.149762,-0.922798,0.350587,-0.159793
-18.665105,-4.428567,-18.520642,-0.670528,-0.239219,-0.702258
2.496177,7.818077,10.214099,-0.290284,-0.956940,0.000000
7.712145,8.259014,-2.845389,-0.956940,0.000000,0.290284
-7.112425,9.733465,-23.715821,-0.306798,0.364801,-0.879088
1.887413,-24.417969,10.499228,0.000000,-0.934172,0.356822
3.046825,-7.651040,18.427091,-0.290284,0.956940,0.000000
-9.707359,-12.529078,21.361311,-0.395175,-0.448482,0.801686
8.223210,0.228758,-19.529316,-0.995185,-0.098017,0.000000
12.106649,1.317066,-23.635869,0.482337,0.078367,-0.872474
-8.157586,18.872326,-16.850051,-0.296210,0.707576,-0.641557
-15.208840,-19.369720,10.024769,-0.585563,-0.731258,0.349825
5.217471,15.935174,6.333817,-0.634394,-0.000000,-0.773010
17.001174,-13.901623,-14.956329,0.635471,-0.503751,-0.585159
-4.225242,20.531164,7.046288,0.471397,0.000000,-0.881921
-25.073129,-5.426604,6.990108,-0.947461,-0.216205,0.235738
4.720050,-6.742040,-12.086474,-0.634393,0.773010,0.000000
-6.149959,-14.197305,21.641137,-0.267099,-0.508425,0.818634
17.704162,13.183439,14.811168,0.635471,0.503751,0.585159
-3.149191,-15.770657,21.195611,-0.132793,-0.557284,0.819635
-8.140338,24.809583,-1.070177,0.995185,0.000000,0.098017
15.804954,13.332300,-16.745519,0.635471,0.503751,-0.585159
22.701018,-3.695673,-13.426336,0.819635,-0.132793,-0.557284
24.889284,6.153402,-7.062429,0.947461,0.216205,-0.235738
1.589672,16.384220,-20.940691,0.000000,0.596421,-0.802672
-16.030508,-19.314845,8.764110,-0.585563,-0.731258,0.349825
-10.673937,8.729449,22.745854,-0.427026,0.302377,0.852184
1.003695,-24.904531,9.225391,0.000002,-0.934173,0.356820
7.886373,-20.080793,-2.271037,-0.956940,0.000000,0.290284
18.931131,16.431627,-8.923373,0.707576,0.641557,-0.296210
1.009412,14.380295,-22.362577,0.081179,0.546249,-0.833680
-14.996012,8.073809,-20.411440,-0.569358,0.313422,-0.759999
8.030568,7.938066,24.096393,0.343196,0.312401,0.885789
20.666388,14.509835,8.338781,0.759999,0.569358,0.313422
15.754230,-19.458726,-8.925803,0.585563,-0.731258,-0.349825
0.608925,16.010760,21.218189,0.000000,0.596421,0.802672
5.537785,-12.576388,-6.070943,-0.634394,0.000000,0.773010
-1.728344,-20.900572,-8.050997,0.290284,-0.000000,0.956940
-8.801272,-13.254478,-21.353072,-0.337457,-0.445068,-0.829480
9.683152,15.769303,-19.084348,0.349825,0.585563,-0.731258
1.778791,-21.607718,15.406823,0.078417,-0.830386,0.551642
7.403981,24.952635,5.407857,0.288046,0.940326,0.181151
-4.916561,24.296120,-9.579184,-0.159793,0.922798,-0.350587
0.814988,-24.542562,8.165472,-0.098017,-0.000000,-0.995185
-21.458100,-14.407949,-6.207770,-0.809504,-0.538762,-0.233320
17.823521,-17.950897,8.278628,0.707576,-0.641557,0.296210
10.124857,2.612430,-24.487795,0.350587,0.159793,-0.922798
-13.592223,-8.561307,21.247438,-0.526342,-0.382234,0.759514
-5.617621,-6.005423,14.432847,0.634394,0.773010,-0.000000
17.497483,-17.267657,-10.123699,0.649101,-0.663683,-0.371743
18.879552,-17.754305,-5.927900,0.702258,-0.670528,-0.239219
-26.525352,0.186539,2.065201,-0.996384,0.049506,0.069056
-17.009354,5.764894,19.646369,-0.670528,0.239219,0.702258
-4.599587,18.305601,6.840902,0.634394,0.000000,-0.773010
-7.219911,21.393335,14.066935,-0.233320,0.809504,0.538762
16.657002,3.018514,20.539634,0.639868,0.158952,0.751866
-18.360422,14.336166,-12.810200,-0.708442,0.546564,-0.446517
-8.194738,-0.517836,8.097326,0.995185,0.098017,-0.000000
15.507914,12.464821,17.649803,0.620644,0.440461,0.648688
23.804360,-2.494498,11.567602,0.901705,-0.082071,0.424492
0.629852,-8.183706,21.690508,-0.098017,0.995185,0.000000
7.805938,-2.536195,12.745073,-0.956940,0.290284,0.000000
19.947730,-13.001621,-11.925345,0.708442,-0.546564,-0.446517
-5.407103,-19.839996,16.885740,-0.158952,-0.751866,0.639868
-19.272987,-1.173559,-18.294546,-0.728344,-0.080542,-0.680461
-7.680422,24.572818,6.866409,-0.235738,0.947461,0.216205
4.324889,-23.349924,-11.906340,0.161879,-0.884358,-0.437842
8.171431,11.352657,-0.754480,-0.995185,0.000000,0.098017
-26.058262,1.093542,-5.146927,-0.977326,0.049607,-0.205849
15.442653,11.321074,18.445333,0.546564,0.446517,0.708442
-8.197250,21.882007,0.492336,0.995185,0.000000,-0.098017
19.410239,-9.937513,-15.210368,0.731258,-0.349825,-0.585563
22.711415,-0.919240,13.861302,0.833680,-0.081179,0.546249
1.940066,-12.116621,23.587663,0.050171,-0.465071,0.883850
14.234248,20.884176,8.354941,0.581154,0.759176,0.293108
12.250033,-22.890468,5.826732,0.500142,-0.839788,0.211221
-17.919258,-11.469379,16.018614,-0.620644,-0.440461,0.648688
10.427432,15.131767,-19.238808,0.349825,0.585563,-0.731258
-1.424756,8.105415,-21.299175,0.098017,-0.995185,0.000000
20.589923,10.029579,13.570943,0.742100,0.420208,0.522219
8.083075,-1.622597,13.206460,-0.956940,0.290284,0.000000
9.344928,-13.280794,-21.117776,0.337457,-0.445068,-0.829480
-0.039250,-21.751320,15.289258,0.000000,-0.801767,0.597636
18.311857,14.037666,13.223626,0.699011,0.488895,0.521886
-14.359037,-21.554721,6.106958,-0.508425,-0.818634,0.267099
-5.912094,-13.126861,22.346796,-0.211221,-0.500142,0.839788
8.142257,12.278678,-1.050687,-0.995185,0.000000,0.098017
8.048471,-13.092918,-1.736670,-0.956940,0.000000,0.290284
0.111719,-17.128340,20.325465,0.000000,-0.639355,0.768912
22.411596,5.894067,13.025669,0.839788,0.211221,0.500142
-16.085256,10.783200,18.239247,-0.620644,0.440461,0.648688
16.963049,-6.381509,19.480536,0.670528,-0.239219,0.702258
-7.523478,10.571842,-3.332480,0.881921,0.000000,0.471397
4.075998,13.196685,22.767021,0.211221,0.500142,0.839788
-6.203933,14.809041,5.375736,0.773010,0.000000,-0.634393
8.168451,7.649526,24.144734,0.343196,0.312401,0.885789
-10.538970,-20.619692,13.061868,-0.382234,-0.759514,0.526342
-8.233629,0.122976,20.608260,0.995185,-0.098017,0.000000
26.109470,-2.658101,4.237717,0.984754,-0.084103,0.152272
-6.602147,4.890511,-10.112442,0.773010,-0.634394,0.000000
-20.361211,-10.436235,13.568735,-0.742100,-0.420208,0.522219
-15.291416,4.044403,-21.368658,-0.589579,0.160129,-0.791679
-20.664416,7.875344,14.763212,-0.759176,0.293108,0.581154
-8.053196,-1.721094,-19.852779,0.956940,0.290284,-0.000000
20.378331,16.073246,-6.061975,0.791679,0.589579,-0.160129
4.421259,6.941514,13.763693,-0.471397,-0.881921,0.000000
-19.297625,-5.981099,-17.274347,-0.738104,-0.217328,-0.638727
11.359485,-22.201035,-9.216235,0.445068,-0.829480,-0.337457
12.093167,-21.301488,-10.323434,0.448482,-0.801686,-0.395175
-11.121468,-23.866342,-3.782578,-0.419240,-0.889788,-0.180319
-13.866976,21.989489,-5.580214,-0.500142,0.839788,-0.211221
-2.505892,-22.179010,-14.443498,-0.078417,-0.830386,-0.551642
25.312841,-3.275401,7.483030,0.952950,-0.084545,0.291097
4.988037,-9.264362,-24.427621,0.214847,-0.371628,-0.903180
19.088350,-4.801541,17.917530,0.738104,-0.217328,0.638727
0.527020,8.193834,20.483377,-0.098017,-0.995185,-0.000000
-13.872632,-1.942555,22.603384,-0.482337,-0.078367,0.872474
-16.870080,-7.491241,19.133115,-0.641557,-0.296210,0.707576
-7.400390,6.785894,24.634883,-0.308167,0.228893,0.923386
25.066127,8.795796,-1.072697,0.946807,0.311335,-0.081408
-8.781200,13.454319,-21.244075,-0.267099,0.508425,-0.818634
8.027894,1.804505,-20.406836,-0.956940,-0.290284,0.000000
-11.529587,12.421479,20.523273,-0.395175,0.448482,0.801686
20.283623,15.154202,-8.096378,0.759999,0.569358,-0.313422
-5.369630,-23.102598,-6.208944,0.634394,-0.000000,0.773010
17.371497,16.540908,11.419127,0.648688,0.620644,0.440461
-4.493449,-11.562696,-6.902928,0.471397,-0.000000,0.881921
-4.765921,18.796420,-18.255921,-0.239219,0.702258,-0.670528
-23.510023,12.373051,0.671919,-0.896494,0.443056,0.000000
25.322095,7.397897,-3.441792,0.946807,0.311335,-0.081408
7.906428,24.673383,2.204924,-0.956940,0.000000,-0.290284
19.192144,7.755982,-16.746680,0.759176,0.293108,-0.581154
-5.944563,9.164186,24.241303,-0.214847,0.371628,0.903180
-22.810574,12.721981,-5.001273,-0.851639,0.469405,-0.233171
12.000417,-23.439182,3.846855,0.419240,-0.889788,0.180319
-7.717964,24.924305,5.055655,-0.288046,0.940326,0.181151
-7.548965,-24.004633,-3.284798,0.881921,0.000000,0.471397
7.906153,-2.205831,21.088461,-0.956940,0.290284,0.000000
-8.383207,-23.751072,8.516643,-0.312401,-0.885789,0.343196
-8.039459,16.533599,1.766379,0.956940,0.000000,-0.290284
22.756539,8.680658,10.726232,0.879088,0.306798,0.364801
-8.140990,1.063551,3.729997,0.995185,-0.098017,-0.000000
21.276109,5.052870,15.198645,0.819635,0.132793,0.557284
-7.887159,-22.052980,-2.268444,0.956940,-0.000000,0.290284
-0.247912,-14.991051,21.975877,0.000000,-0.596421,0.802672
-8.466623,9.639505,-23.282202,-0.306798,0.364801,-0.879088
-3.687022,-22.164432,-7.333972,0.471397,-0.000000,0.881921
6.591903,23.220963,4.902993,-0.773010,-0.000000,-0.634393
7.790443,4.883839,-2.587276,-0.956940,0.000000,0.290284
21.301996,-15.892054,0.331130,0.801767,-0.597636,0.000000
7.981379,-22.654682,-11.385590,0.302377,-0.852184,-0.427026
-0.308076,8.215398,21.828799,0.098017,-0.995185,0.000000
-4.579500,24.298732,6.856932,0.471396,0.000000,-0.881922
8.962949,-6.577144,24.165146,0.308167,-0.228893,0.923386
-5.327437,-15.972857,20.612914,-0.161444,-0.630461,0.759246
-8.121239,5.700842,1.264088,0.995185,0.000000,-0.098017
24.555804,9.305520,4.017312,0.922798,0.350587,0.159793
8.217183,0.967048,0.289955,-0.995185,-0.000000,-0.098017
-12.445937,-17.220435,15.970084,-0.440461,-0.648688,0.620644
-5.426494,-6.162276,22.925051,0.634393,0.773010,-0.000000
13.852167,8.842787,-20.925639,0.526342,0.382234,-0.759514
-8.200790,0.456397,-4.127802,0.995185,-0.098017,0.000000
-5.588809,-13.574081,-22.161763,-0.211221,-0.500142,-0.839788
15.018976,0.433213,-21.952787,0.597636,0.000000,-0.801767
-17.317329,3.794845,19.813544,-0.639868,0.158952,0.751866
12.606222,-22.284698,-7.206143,0.508425,-0.818634,-0.267099
-5.792498,5.861905,15.251977,0.634393,-0.773010,0.000000
1.419197,-9.046595,24.953656,0.050000,-0.338698,0.939566
-1.232039,8.124396,-22.909362,0.098017,-0.995185,-0.000000
12.451479,19.749946,-12.805772,0.521886,0.699011,-0.488895
-12.075819,15.763178,17.705559,-0.503751,0.585159,0.635471
-20.292403,-9.190608,14.554926,-0.731258,-0.349825,0.585563
-17.304579,2.376699,-20.071729,-0.685851,0.080531,-0.723272
-17.033550,-16.365167,-12.164469,-0.648688,-0.620644,-0.440461
25.318585,-2.710372,7.628330,0.952950,-0.084545,0.291097
19.134309,-16.559772,-8.160481,0.707576,-0.641557,-0.296210
26.341000,-3.596516,-1.945688,0.984405,-0.175916,0.000000
-17.634130,-15.674634,12.252982,-0.648688,-0.620644,0.440461
-8.116369,-17.137472,1.313539,0.995185,0.000000,-0.098017
0.525764,-8.193958,22.733331,-0.098017,0.995185,0.000000
18.933653,7.974211,-16.974287,0.759176,0.293108,-0.581154
-5.680534,-23.236185,11.612382,-0.233171,-0.851639,0.469405
-4.482212,-25.179428,-7.452152,-0.159793,-0.922798,-0.350587
15.276139,21.656960,-2.227771,0.546249,0.833680,-0.081179
-1.308591,-15.741663,-8.116856,0.098017,0.000000,0.995185
-9.175608,10.917318,-22.454813,-0.337457,0.445068,-0.829480
11.675866,-23.497468,4.313819,0.419240,-0.889788,0.180319
-8.107080,-1.407843,-20.598253,0.995185,0.098017,0.000000
6.441130,-5.086711,-20.104940,-0.773010,0.634394,0.000000
23.991167,3.258625,-11.023051,0.901705,0.082071,-0.424492
-6.443198,-10.784926,5.084190,0.773010,0.000000,-0.634393
-17.460381,-1.296006,20.038273,-0.647218,0.000000,0.762305
20.623704,-2.566094,-16.666966,0.759246,-0.161444,-0.630461
-6.919064,15.496527,-4.463260,0.881921,0.000000,0.471397
-7.427866,16.414283,19.573277,-0.293108,0.581154,0.759176
2.241617,-17.712752,7.895297,-0.290284,0.000000,-0.956940
4.952470,-14.826577,21.545351,0.132793,-0.557284,0.819635
7.248487,17.644496,18.576670,0.239219,0.702258,0.670528
19.917465,13.742190,-10.997507,0.759514,0.526342,-0.382234
1.568626,-19.312476,18.200140,0.080531,-0.723272,0.685851
20.684528,-9.172256,-14.076199,0.731258,-0.349825,-0.585563
-12.532532,-3.549098,23.181905,-0.437842,-0.161879,0.884358
20.291090,16.860396,3.375391,0.751866,0.639868,0.158952
2.229197,7.899065,-9.627394,-0.290284,-0.956940,0.000000
8.170227,-0.766701,10.075047,-0.995185,0.098017,-0.000000
-9.901556,4.360761,-24.269888,-0.350587,0.159793,-0.922798
-21.155431,10.971464,11.783247,-0.801686,0.395175,0.448482
-7.179958,18.619880,-3.975162,0.881921,0.000000,0.471397
21.726644,-4.088138,-14.765894,0.819635,-0.132793,-0.557284
8.216679,6.290944,0.295069,-0.995185,-0.000000,-0.098017
-17.090462,-16.978007,-11.217113,-0.648688,-0.620644,-0.440461
8.094153,4.930159,-1.539098,-0.995185,0.000000,0.098017
-0.791779,8.167757,14.468042,0.098017,-0.995185,0.000000
-21.599495,8.639020,-12.918236,-0.829480,0.337457,-0.445068
-5.120347,-6.413525,14.480286,0.634394,0.773010,-0.000000
-0.839650,23.741199,11.905283,0.000000,0.896494,0.443056
12.246899,-9.450057,21.630566,0.457622,-0.382478,0.802678
11.645134,-0.504267,23.869766,0.443056,0.000000,0.896494
25.074675,-8.011186,3.860634,0.922798,-0.350587,0.159793
-2.104839,-7.936788,-15.209491,0.290284,0.956940,0.000000
-7.856449,-2.369681,15.949597,0.956940,0.290284,0.000000
-5.791040,15.750471,-5.863101,0.634394,0.000000,0.773010
16.639571,4.761944,-20.185889,0.639868,0.158952,-0.751866
5.349296,6.225632,17.896450,-0.634394,-0.773010,0.000000
-6.884765,-12.852173,-22.236803,-0.267099,-0.508425,-0.818634
8.727488,12.886682,21.580434,0.337457,0.445068,0.829480
-5.562069,9.289359,24.280786,-0.214847,0.371628,0.903180
-4.853540,-24.760174,-8.386447,-0.159793,-0.922798,-0.350587
-4.158101,22.340929,-13.954982,-0.160129,0.791679,-0.589579
5.849752,-5.807307,24.583192,-0.773010,0.634394,0.000000
-8.126618,-14.664175,1.209477,0.995185,0.000000,-0.098017
-7.140556,19.113153,17.054009,-0.296210,0.707576,0.641557
-15.594488,-21.527497,1.171304,-0.596421,-0.802672,0.000000
-8.186967,0.899655,-0.596741,0.995185,0.000000,0.098017
-3.843234,-19.837891,7.250475,0.471397,0.000000,-0.881921
-8.144540,11.692882,1.027515,0.995185,0.000000,-0.098017
24.815208,3.897929,8.802202,0.940327,0.181151,0.288046
7.742436,-9.130751,2.745535,-0.956940,0.000000,-0.290284
13.313980,-13.833619,18.362586,0.488895,-0.521886,0.699011
11.887896,-18.229281,-15.259627,0.446517,-0.708442,-0.546564
19.107115,18.191781,-3.484228,0.723272,0.685851,-0.080531
24.751599,-1.379080,9.613034,0.939566,-0.050000,0.338698
7.084355,4.154022,14.444214,-0.881921,-0.471397,0.000000
13.790575,22.175158,-5.022925,0.500142,0.839788,-0.211221
3.390697,-24.898183,8.689930,0.159793,-0.922798,0.350587
-3.609378,20.757757,-16.229878,-0.160129,0.791679,-0.589579
-25.180705,-1.532130,8.400078,-0.939566,-0.050000,0.338698
-17.572305,13.557150,14.632642,-0.635471,0.503751,0.585159
0.324823,13.587473,-22.905407,0.050171,0.465071,-0.883850
19.522834,1.477017,17.991200,0.728344,0.080542,0.680461
-15.103769,21.263067,-5.531532,-0.557284,0.819635,-0.132793
-7.168659,17.743212,18.501762,-0.239219,0.702258,0.670528
0.653356,8.554649,-8.181391,-0.098017,0.000000,0.995185
15.065022,-7.389532,-20.641934,0.569358,-0.313422,-0.759999
-19.896553,-12.035172,-12.942440,-0.742100,-0.420208,-0.522219
-12.179489,-22.960521,5.715246,-0.500142,-0.839788,0.211221
7.727738,-13.865138,2.793987,-0.956940,0.000000,-0.290284
6.641193,-18.250910,-4.842933,-0.773010,0.000000,0.634393
-5.995112,5.630184,11.736395,0.773010,-0.634394,0.000000
-2.406263,-7.845353,-18.460325,0.290284,0.956940,-0.000000
-7.254500,-3.835703,-24.398402,0.881921,0.471397,-0.000000
7.507083,3.363154,-5.162934,-0.881921,-0.471397,0.000000
-12.118612,1.161005,-23.635769,-0.443056,0.000000,-0.896494
-24.379071,-4.056371,9.915499,-0.889788,-0.180319,0.419240
24.799293,-3.478365,9.105257,0.952950,-0.084545,0.291097
-20.855741,16.490735,-0.236932,-0.801767,0.597636,0.000000
-7.943241,2.083569,24.308558,0.956940,-0.290284,0.000000
3.401265,-25.284435,7.523021,0.081408,-0.946807,0.311335
8.150374,10.775934,0.968277,-0.995185,0.000000,-0.098017
-7.902042,-2.219384,15.744731,0.956940,0.290284,-0.000000
-17.655312,4.063285,-19.469156,-0.639868,0.158952,-0.751866
4.204080,-7.057598,25.233292,-0.471397,0.881921,0.000000
-19.051884,11.315351,-14.721968,-0.742100,0.420208,-0.522219
-10.478744,-24.354915,2.077461,-0.424492,-0.901705,0.082071
-9.380420,11.381987,-22.122166,-0.337457,0.445068,-0.829480
-4.576278,-6.858655,-23.805595,0.471397,0.881921,-0.000000
8.773549,-24.614558,-4.985035,0.288046,-0.940326,-0.181151
22.507964,12.197436,-7.162510,0.851639,0.469405,-0.233171
6.174510,17.617719,-18.943536,0.217328,0.638727,-0.738104
17.702102,11.236894,-16.384240,0.620644,0.440461,-0.648688
26.399057,1.372557,3.037221,0.996384,0.049506,0.069056
-5.267429,-14.783342,-6.292818,0.634394,0.000000,0.773010
-25.185351,-0.369625,-8.558804,-0.939566,-0.050000,-0.338698
-6.839423,-10.612713,-23.432415,-0.214847,-0.371628,-0.903180
5.663569,-22.413411,-13.113562,0.233171,-0.851639,-0.469405
23.228684,10.540088,7.557724,0.852184,0.427026,0.302377
7.311558,-3.728956,-4.990855,-0.881921,0.471397,-0.000000
13.419410,22.088343,6.246958,0.500142,0.839788,0.211221
-4.307967,21.664994,-14.821917,-0.160129,0.791679,-0.589579
-6.887403,14.340263,21.311743,-0.267099,0.508425,0.818634
23.421601,-12.284208,-2.609703,0.872474,-0.482337,-0.078367
-6.502646,5.011753,-7.239832,0.773010,-0.634394,0.000000
-1.334572,-13.713519,-8.114297,0.098017,0.000000,0.995185
16.286515,21.013291,1.246779,0.596421,0.802672,0.000000
-11.456288,19.539317,13.914195,-0.446517,0.708442,0.546564
-20.262760,-13.557231,-10.566084,-0.759514,-0.526342,-0.382234
6.402186,19.670361,-16.756865,0.239219,0.702258,-0.670528
-26.069587,-5.115315,0.853575,-0.984405,-0.175916,0.000000
4.126099,14.222494,-22.089961,0.132793,0.557284,-0.819635
2.265548,-7.888038,-21.769949,-0.290284,0.956940,0.000000
-17.037428,-12.179821,-16.379928,-0.620644,-0.440461,-0.648688
7.790974,5.320196,-2.585524,-0.956940,0.000000,0.290284
11.984430,23.584733,2.751580,0.424492,0.901705,0.082071
9.418949,-24.519103,4.336071,0.371628,-0.903180,0.214847
-11.253975,-23.566995,4.951629,-0.419240,-0.889788,0.180319
7.628514,12.074734,3.121085,-0.956940,0.000000,-0.290284
8.135497,-21.853468,-1.119325,-0.995185,0.000000,0.098017
21.058264,4.218716,-15.717810,0.819635,0.132793,-0.557284
-7.650539,-5.269029,3.048477,0.956940,0.000000,-0.290284
13.624359,-20.860622,-9.480070,0.448482,-0.801686,-0.395175
7.696609,-2.896606,12.573232,-0.956940,0.290284,0.000000
6.208886,-5.369700,13.093800,-0.773010,0.634394,0.000000
15.635912,12.191785,17.712730,0.620644,0.440461,0.648688
-1.052015,22.135508,-8.142127,0.098017,0.000000,0.995185
7.285853,-17.496216,-3.777045,-0.881921,0.000000,0.471397
3.367564,-23.001081,-7.504725,-0.471397,0.000000,0.881921
-7.199318,24.773236,6.512699,-0.235738,0.947462,0.216204
-12.670919,-21.267878,-9.735930,-0.448482,-0.801686,-0.395175
7.632419,19.116672,-16.823033,0.296210,0.707576,-0.641557
0.496363,22.407896,14.384616,0.078417,0.830386,0.551642
-4.315986,-6.997784,-13.755616,0.471397,0.881921,-0.000000
-3.158893,7.616262,12.648253,0.471397,-0.881921,0.000000
-8.033243,-1.786871,15.652811,0.956940,0.290284,-0.000000
6.765911,-7.878981,24.545506,0.181153,-0.288043,0.940327
-18.632010,-17.689033,-6.837545,-0.702258,-0.670528,-0.239219
-7.023337,-20.832679,-4.268180,0.881921,-0.000000,0.471397
4.794263,-23.703799,-11.018042,0.161879,-0.884358,-0.437842
-3.003462,7.664194,23.856719,0.290284,-0.956940,0.000000
12.508550,-21.944329,8.331739,0.445068,-0.829480,0.337457
-13.514499,-22.222708,-5.487580,-0.500142,-0.839788,-0.211221
-4.980094,23.699846,6.528628,0.634394,0.000000,-0.773010
8.226674,12.711942,0.193589,-0.995185,-0.000000,-0.098017
19.199180,10.320627,-15.245061,0.731258,0.349825,-0.585563
-6.288203,23.985563,-5.273052,0.773010,0.000000,0.634393
-14.557581,2.272876,22.125227,-0.551642,0.078417,0.830386
-7.374498,-3.611202,-9.568970,0.881921,0.471397,-0.000000
-2.012228,17.468098,-7.964881,0.290284,-0.000000,0.956940
-7.179116,17.094681,3.976736,0.881921,0.000000,-0.471397
11.297984,-17.552331,-16.437876,0.440461,-0.648688,-0.620644
7.897251,14.879839,-2.235177,-0.956940,0.000000,0.290284
-3.466024,-16.809549,7.452098,0.471397,0.000000,-0.881921
7.733565,-24.678609,-2.774776,-0.956940,0.000000,0.290284
19.705712,-11.955479,-13.277761,0.742100,-0.420208,-0.522219
22.303611,12.808566,-6.678603,0.851639,0.469405,-0.233171
23.007635,-8.526896,-10.250460,0.879088,-0.306798,-0.364801
-5.257693,14.105334,6.300808,0.634394,0.000000,-0.773010
-8.028032,12.465307,1.804048,0.956940,0.000000,-0.290284
-5.525200,6.081270,-17.644550,0.634394,-0.773010,0.000000
24.904366,1.440079,9.180244,0.939566,0.050000,0.338698
-1.224668,23.299515,12.730074,-0.078367,0.872474,0.482337
2.581747,25.056990,-7.792120,-0.290284,0.000000,0.956940
-14.877487,-3.120042,-21.832705,-0.551642,-0.078417,-0.830386
13.036090,6.187753,22.312595,0.469405,0.233171,0.851639
-21.705963,15.005087,3.430996,-0.791679,0.589579,0.160129
-3.104621,18.184030,-19.162698,-0.080542,0.680461,-0.728344
-5.163954,-15.188924,-6.377738,0.634394,0.000000,0.773010
-11.212888,-11.487808,-21.201702,-0.395175,-0.448482,-0.801686
21.121230,-9.410107,-13.220155,0.801686,-0.395175,-0.448482
-8.268262,23.311885,9.754814,-0.312401,0.885789,0.343196
-24.492445,7.127992,7.727246,-0.923386,0.308167,0.228893
-10.824307,22.566576,-9.023562,-0.445068,0.829480,-0.337457
-4.459618,-8.593176,-6.921011,0.471397,-0.000000,0.881921
5.829802,19.130695,-17.526274,0.239219,0.702258,-0.670528
-6.191150,-10.954762,23.445884,-0.214847,-0.371628,0.903180
-5.418293,6.169007,-13.465084,0.634394,-0.773010,0.000000
-10.688614,22.808078,-8.577707,-0.364801,0.879088,-0.306798
15.699811,-0.570531,-21.445294,0.597636,0.000000,-0.801767
21.810184,-14.636705,4.272074,0.791679,-0.589579,0.160129
2.175838,15.029095,-7.915251,-0.290284,0.000000,0.956940
15.421938,-11.324821,-18.458954,0.546564,-0.446517,-0.708442
5.073740,-6.451774,-8.926669,-0.634394,0.773010,0.000000
-11.982595,3.865862,-23.396194,-0.437842,0.161879,-0.884358
18.519976,-13.974089,-13.000258,0.708442,-0.546564,-0.446517
12.037232,-21.835426,-9.221039,0.445068,-0.829480,-0.337457
-19.569080,-5.718462,-17.050020,-0.738104,-0.217328,-0.638727
-8.019931,-1.830754,-24.479638,0.956940,0.290284,-0.000000
-6.054620,-15.788364,5.557673,0.773010,0.000000,-0.634393
-12.749637,-19.388883,-13.003733,-0.521886,-0.699011,-0.488895
7.591480,-5.125748,-3.205258,-0.881921,0.000000,0.471397
-8.186957,-9.114522,-23.597661,-0.306798,-0.364801,-0.879088
-10.112591,19.861148,-14.466089,-0.382234,0.759514,-0.526342
1.368659,8.110940,20.102416,-0.098017,-0.995185,0.000000
6.975572,23.074261,-4.357542,-0.881921,0.000000,0.471397
19.578655,-10.439644,-14.678045,0.742100,-0.420208,-0.522219
14.692799,-21.919565,-3.204126,0.557284,-0.819635,-0.132793
10.892258,-14.394076,19.522196,0.420208,-0.522219,0.742100
1.975335,-14.803565,-21.991184,0.081179,-0.546249,-0.833680
-8.059052,-20.488778,-1.701790,0.956940,0.000000,0.290284
1.135126,-9.300767,24.877148,0.050000,-0.338698,0.939566
-20.060930,-12.678171,-12.141666,-0.708442,-0.546564,-0.446517
-20.945148,-2.128531,16.377246,-0.833680,-0.081179,0.546249
-3.581141,-19.768629,17.423193,-0.158952,-0.751866,0.639868
-8.088196,-3.148713,1.599578,0.995185,0.000000,-0.098017
15.336221,-20.361315,-7.524283,0.581154,-0.759176,-0.293108
6.881893,-14.319664,-21.326334,0.267099,-0.508425,-0.818634
-5.058784,-17.919447,19.010947,-0.217328,-0.638727,0.738104
-6.092352,-5.511697,5.791043,0.773010,0.634394,-0.000000
4.583592,-21.645119,6.854029,-0.634394,0.000000,-0.773010
10.068348,-24.461326,-3.031005,0.424492,-0.901705,-0.082071
13.684240,-22.008406,-5.937696,0.500142,-0.839788,-0.211221
8.119895,-1.277739,-20.040111,-0.995185,0.098017,0.000000
21.302406,12.932950,9.317907,0.802678,0.457622,0.382478
5.381497,6.199205,-20.008902,-0.634393,-0.773010,0.000000
-10.180418,-17.872978,-16.868642,-0.371743,-0.649101,-0.663683
22.408358,14.096059,2.521379,0.830386,0.551642,0.078417
-21.653078,6.596227,-13.943634,-0.818634,0.267099,-0.508425
22.588354,-13.288993,4.671442,0.851639,-0.469405,0.233171
-1.522946,-8.095744,-20.672730,0.098017,0.995185,-0.000000
-24.873600,7.238472,-6.040870,-0.923386,0.308167,-0.228893
1.782084,-8.034695,16.101677,-0.290284,0.956940,0.000000
5.797334,-25.162506,-6.335471,0.235738,-0.947461,-0.216205
11.665212,17.678271,-16.045629,0.440461,0.648688,-0.620644
24.426504,-10.063603,3.100776,0.922798,-0.350587,0.159793
5.170515,23.780865,-6.372353,-0.634394,0.000000,0.773010
-5.430090,-10.109183,23.974851,-0.214847,-0.371628,0.903180
-4.785528,6.688304,6.937622,0.634394,-0.773010,-0.000000
26.302378,-1.011085,3.899850,0.984754,-0.084103,0.152272
10.586529,24.290465,2.228080,0.424492,0.901705,0.082071
10.663825,10.917221,21.791551,0.395175,0.448482,0.801686
-7.163296,-23.577689,-4.006334,0.881921,-0.000000,0.471397
6.768891,14.709467,-21.121111,0.267099,0.508425,-0.818634
10.957169,4.151986,-23.851504,0.437842,0.161879,-0.884358
9.517607,23.959204,-6.519136,0.371628,0.903180,-0.214847
19.996527,14.395495,-9.940796,0.759514,0.526342,-0.382234
-23.954283,0.544681,-11.570406,-0.883850,0.050171,-0.465071
-17.454956,17.560534,9.675075,-0.649101,0.663683,0.371743
5.248613,-20.484568,6.308260,-0.634394,0.000000,-0.773010
-12.149919,-17.179404,-16.223049,-0.440461,-0.648688,-0.620644
-11.589363,6.871467,-22.922805,-0.469405,0.233171,-0.851639
1.004994,-14.119880,-22.533638,0.081179,-0.546249,-0.833680
-18.604321,9.429909,16.520058,-0.731258,0.349825,0.585563
7.069278,4.182229,16.420887,-0.881921,-0.471397,0.000000
5.748203,-5.898256,12.753151,-0.634393,0.773010,0.000000
6.172336,-5.414237,14.108783,-0.773010,0.634394,0.000000
12.445509,-19.134515,-13.630741,0.446517,-0.708442,-0.546564
-13.019909,7.252919,-22.029881,-0.469405,0.233171,-0.851639
0.964426,17.305023,-8.150753,-0.098017,0.000000,0.995185
17.958342,19.451791,-2.397075,0.680461,0.728344,-0.080542
22.242116,-8.839704,-11.568412,0.829480,-0.337457,-0.445068
-9.536150,-15.863151,19.079522,-0.349825,-0.585563,0.731258
-22.855907,-2.700184,-13.376114,-0.833680,-0.081179,-0.546249
-7.210900,7.673375,3.917273,0.881921,0.000000,-0.471397
-22.041722,-14.495718,3.592325,-0.830386,-0.551642,0.078417
-0.295697,-8.216617,20.353687,0.098017,0.995185,0.000000
25.046912,-2.183005,8.670858,0.952950,-0.084545,0.291097
11.303055,1.030571,-24.038825,0.443056,0.000000,-0.896494
7.395224,-11.520887,-3.572426,-0.881921,0.000000,0.471397
15.145675,10.068178,19.412547,0.526342,0.382234,0.759514
-7.452450,20.775068,-3.465365,0.881921,0.000000,0.471397
-7.747356,-20.675895,-2.729316,0.956940,-0.000000,0.290284
18.245542,-19.370190,0.708560,0.680461,-0.728344,0.080542
23.518941,-9.306943,8.173192,0.885789,-0.343196,0.312401
-19.312672,-17.567878,-5.155446,-0.751866,-0.639868,-0.158952
-19.296892,5.858196,17.317012,-0.738104,0.217328,0.638727
-19.974715,17.535242,-1.097067,-0.762305,0.647218,0.000000
-8.124930,1.226611,7.402008,0.995185,-0.098017,-0.000000
2.979490,-7.671466,-12.533768,-0.290284,0.956940,0.000000
-2.245982,-20.784896,-7.893973,0.290284,-0.000000,0.956940
7.784925,-24.698934,-2.605466,-0.956940,0.000000,0.290284
-8.112112,1.356757,19.345026,0.995185,-0.098017,-0.000000
-7.929097,2.130195,16.314756,0.956940,-0.290284,0.000000
8.563871,-4.980530,24.670777,0.350587,-0.159793,0.922798
-12.913080,22.203839,-6.869861,-0.508425,0.818634,-0.267099
-16.270494,3.623993,-20.724554,-0.589579,0.160129,-0.791679
21.090759,-9.917204,-12.827800,0.801686,-0.395175,-0.448482
14.387628,14.808913,-16.751652,0.503751,0.585159,-0.635471
-8.210939,-9.665152,0.353346,0.995185,-0.000000,-0.098017
-19.041109,-6.799234,17.292402,-0.738104,-0.217328,0.638727
-24.361123,-10.648052,0.045345,-0.934172,-0.356822,0.000000
8.230260,18.088431,-0.157178,-0.995185,0.000000,0.098017
20.819710,5.863414,15.555489,0.738104,0.217328,0.638727
-14.399213,-16.645334,14.953435,-0.577350,-0.577350,0.577350
-5.269487,-6.291129,-14.106995,0.634394,0.773010,0.000000
6.977522,18.435250,4.353893,-0.881921,0.000000,-0.471397
26.500259,0.895779,1.918815,0.996384,0.049506,0.069056
-10.249815,-21.014910,-12.658338,-0.382478,-0.802678,-0.457622
8.224435,8.225045,-0.216322,-0.995185,0.000000,0.098017
-8.174048,-24.839339,0.727914,0.995185,0.000000,-0.098017
-12.486053,23.328532,2.971915,-0.424492,0.901705,0.082071
-2.689118,-7.759549,21.308332,0.290284,0.956940,0.000000
26.229077,-3.974695,2.458938,0.971850,-0.181286,0.150475
-8.867116,15.032949,-20.064375,-0.349825,0.585563,-0.731258
6.055496,-6.623789,-5.556606,-0.773010,0.000000,0.634393
24.735050,6.917298,6.981720,0.947461,0.216205,0.235738
-21.465794,-13.214700,-8.637913,-0.802678,-0.457622,-0.382478
18.808604,-16.903878,-8.193218,0.707576,-0.641557,-0.296210
-1.406146,-22.841322,-13.529391,-0.078367,-0.872474,-0.482337
-8.190855,1.569519,0.557265,0.995185,-0.000000,-0.098017
16.574715,-20.569166,-3.182835,0.630461,-0.759246,-0.161444
11.664378,9.484939,21.946050,0.457622,0.382478,0.802678
7.402738,-21.622958,3.558369,-0.881921,0.000000,-0.471397
9.556197,-23.796941,7.090768,0.364801,-0.879088,0.306798
-5.865957,-8.286172,5.787560,0.773010,0.000000,-0.634393
-1.010989,15.096887,8.146167,0.098017,0.000000,-0.995185
-9.464238,-6.506637,-24.015326,-0.308167,-0.228893,-0.923386
23.521920,-10.246178,7.132925,0.885789,-0.343196,0.312401
8.169929,23.623231,-0.769730,-0.995185,0.000000,0.098017
-7.766486,-24.083266,8.220635,-0.312401,-0.885789,0.343196
17.125606,14.309189,-14.470333,0.635471,0.503751,-0.585159
-24.272864,-7.499732,-8.020861,-0.885789,-0.343196,-0.312401
11.568053,-9.077441,-22.174339,0.427026,-0.302377,-0.852184
-15.630859,20.064044,7.710054,-0.581154,0.759176,0.293108
8.088868,1.592755,21.441679,-0.995185,-0.098017,-0.000000
7.523133,-3.333127,-24.314243,-0.881921,0.471397,-0.000000
-22.616705,14.060008,-0.568725,-0.830386,0.551642,-0.078417
14.711160,-20.321634,8.866384,0.581154,-0.759176,0.293108
-10.301656,-13.630495,20.393955,-0.420208,-0.522219,0.742100
10.542976,7.215200,23.348774,0.427026,0.302377,0.852184
0.608080,10.158146,24.596125,0.050000,0.338698,0.939566
-23.906309,-10.252381,5.690704,-0.922798,-0.350587,0.159793
-13.578487,9.497146,20.785985,-0.526342,0.382234,0.759514
15.287312,-13.106814,17.424951,0.620644,-0.440461,0.648688
-23.734351,7.676783,9.214188,-0.879088,0.306798,0.364801
1.923773,-7.991714,8.100151,-0.290284,0.956940,0.000000
-8.812290,24.730694,-4.320593,-0.288046,0.940326,-0.181151
-1.185806,-8.128949,-16.461760,0.098017,0.995185,-0.000000
9.685167,23.020827,9.161263,0.364801,0.879088,0.306798
19.558790,-17.937311,-1.594822,0.723272,-0.685851,-0.080531
-6.399458,20.092294,5.137487,0.773010,0.000000,-0.634393
24.136217,-4.337189,-10.310145,0.889788,-0.180319,-0.419240
-8.678864,22.091932,-12.014739,-0.302377,0.852184,-0.427026
4.387048,-21.596021,-14.893053,0.160129,-0.791679,-0.589579
-21.855370,-5.637537,-14.067965,-0.839788,-0.211221,-0.500142
14.421716,22.215314,2.243040,0.546249,0.833680,0.081179
-18.406441,18.716523,4.619692,-0.702258,0.670528,0.239219
20.855107,12.898589,-10.296027,0.759514,0.526342,-0.382234
7.115505,13.207276,-4.095744,-0.881921,0.000000,0.471397
-8.171141,-24.139813,0.757427,0.995185,0.000000,-0.098017
-8.237851,-0.080105,-7.669571,0.995185,0.098017,-0.000000
14.657905,7.775968,20.787563,0.569358,0.313422,0.759999
-7.653183,19.685171,-3.039762,0.956940,0.000000,0.290284
-4.688632,7.199792,-6.767825,0.634394,0.000000,0.773010
19.391955,-12.348051,13.359755,0.699011,-0.488895,0.521886
4.109868,-12.929686,-7.107956,-0.471397,0.000000,0.881921
-7.902471,2.217968,-4.275571,0.956940,-0.290284,0.000000
18.623356,5.072852,-18.341034,0.670528,0.239219,-0.702258
1.904724,-20.512050,-7.997493,-0.290284,0.000000,0.956940
19.658533,-16.456411,7.132101,0.707576,-0.641557,0.296210
-7.058652,-24.954852,-5.870187,-0.235738,-0.947462,-0.216204
1.201649,23.162146,-8.127389,-0.098017,0.000000,0.995185
14.093884,-9.847456,20.252518,0.526342,-0.382234,0.759514
-22.380908,-8.418398,11.629183,-0.829480,-0.337457,0.445068
8.232599,2.641816,-0.133431,-0.995185,0.000000,0.098017
7.548955,23.909752,8.866485,0.312401,0.885789,0.343196
1.044889,8.142828,21.497617,-0.098017,-0.995185,0.000000
23.968292,2.386038,11.240348,0.901705,0.082071,0.424492
24.827897,8.360557,-4.519241,0.922798,0.350587,-0.159793
8.120625,-20.263392,1.270321,-0.995185,0.000000,-0.098017
-8.109933,-1.378885,-1.526493,0.995185,0.098017,0.000000
4.927572,12.479177,6.571732,-0.634394,0.000000,-0.773010
-11.725048,-18.950425,14.457937,-0.446517,-0.708442,0.546564
-25.141851,4.172565,-7.563157,-0.940327,0.181151,-0.288046
-5.623820,22.972624,-12.118731,-0.233171,0.851639,-0.469405
-24.326471,9.631955,-4.625504,-0.922798,0.350587,-0.159793
21.178629,7.253364,-14.362339,0.818634,0.267099,-0.508425
24.696869,-4.040995,9.098547,0.940327,-0.181151,0.288046
2.927705,-20.040435,-17.266135,0.158952,-0.751866,-0.639868
-12.015808,2.234715,23.603664,-0.482337,0.078367,0.872474
7.471273,10.581498,-3.430150,-0.881921,0.000000,0.471397
9.923163,22.036384,-11.139666,0.382478,0.802678,-0.457622
-4.234895,-7.041128,-18.189770,0.471397,0.881921,-0.000000
-12.340767,-3.284404,-23.325298,-0.437842,-0.161879,-0.884358
-17.016883,19.254969,6.882656,-0.638727,0.738104,0.217328
-14.328041,-21.946274,-4.570035,-0.557284,-0.819635,-0.132793
5.568258,-9.106088,-6.045934,-0.634394,0.000000,0.773010
20.354500,-2.905830,-16.904165,0.759246,-0.161444,-0.630461
20.575175,7.665779,14.985486,0.759176,0.293108,0.581154
-8.241197,-5.791896,24.600671,-0.308167,-0.228893,0.923386
-10.082172,-15.546829,-19.071611,-0.349825,-0.585563,-0.731258
-23.705902,11.976703,-1.225120,-0.896494,0.443056,0.000000
-16.105859,-14.552343,15.339779,-0.577350,-0.577350,0.577350
-7.344780,7.500637,-3.666801,0.881921,0.000000,0.471397
13.091057,1.701400,-23.057129,0.482337,0.078367,-0.872474
-8.362370,9.125151,-23.532032,-0.306798,0.364801,-0.879088
-13.466784,19.132471,-12.604805,-0.521886,0.699011,-0.488895
-4.717462,7.643534,6.744164,0.634394,0.000000,-0.773010
6.582469,24.125429,-9.078002,0.228893,0.923386,-0.308167
-12.046942,-2.779027,-23.537561,-0.482337,-0.078367,-0.872474
-14.271672,-19.228606,11.562866,-0.522219,-0.742100,0.420208
9.403443,9.980082,22.813924,0.306798,0.364801,0.879088
2.716117,-7.751359,-17.610124,-0.290284,0.956940,0.000000
-17.826507,6.300239,-18.683778,-0.670528,0.239219,-0.702258
-8.208051,-18.209187,-0.382672,0.995185,-0.000000,0.098017
7.925997,4.606844,2.140413,-0.956940,-0.000000,-0.290284
-12.900194,14.567264,18.104247,-0.488895,0.521886,0.699011
5.502443,6.986498,25.056721,0.216204,0.235738,0.947462
19.224244,-1.957835,-18.253891,0.728344,-0.080542,-0.680461
17.384224,14.360016,-14.145723,0.635471,0.503751,-0.585159
17.394579,0.483163,-20.094142,0.647218,0.000000,-0.762305
3.948924,9.120297,24.707944,0.181151,0.288046,0.940326
-20.673252,-12.129978,11.598990,-0.802678,-0.457622,0.382478
-5.448597,-14.271165,-21.781875,-0.211221,-0.500142,-0.839788
15.674575,19.952175,7.913128,0.581154,0.759176,0.293108
3.297878,-12.503183,-7.541973,-0.471397,0.000000,0.881921
-8.211111,-0.351600,1.120194,0.995185,0.098017,-0.000000
15.223755,-21.349008,4.497534,0.557284,-0.819635,0.132793
26.367277,-0.745116,-3.627045,0.984754,-0.084103,-0.152272
-6.737288,25.192155,4.725841,0.773010,0.000000,-0.634394
-23.621771,8.881756,8.348727,-0.885789,0.343196,0.312401
-8.868995,-0.284616,-25.040663,-0.356822,0.000000,-0.934172
-22.116660,12.700193,-7.579598,-0.851639,0.469405,-0.233171
-23.322670,11.387298,5.817778,-0.851639,0.469405,0.233171
-9.856065,-24.674261,-1.186077,-0.338698,-0.939566,-0.050000
-17.750385,13.551171,-14.431400,-0.699011,0.488895,-0.521886
-8.073614,21.012444,14.193878,-0.313422,0.759999,0.569358
-7.069020,4.182712,-10.212500,0.881921,-0.471397,-0.000000
-11.663806,15.110990,18.563039,-0.488895,0.521886,0.699011
22.066922,14.079376,4.854175,0.809504,0.538762,0.233320
-20.948008,12.862400,10.146063,-0.802678,0.457622,0.382478
0.436178,8.202781,-12.836492,-0.098017,-0.995185,0.000000
-16.632518,8.032872,19.121771,-0.641557,0.296210,0.707576
9.837556,-18.125800,16.813419,0.371743,-0.649101,0.663683
-11.604461,-4.019800,-23.555229,-0.437842,-0.161879,-0.884358
23.809319,-11.135083,3.901231,0.884358,-0.437842,0.161879
-15.141736,17.791665,-12.689067,-0.585159,0.635471,-0.503751
7.131031,-6.484838,-24.799404,0.308167,-0.228893,-0.923386
3.332626,23.466800,-12.037133,0.161879,0.884358,-0.437842
2.780845,8.136265,-7.731724,-0.290284,0.000000,0.956940
-10.614849,5.629511,-23.750528,-0.437842,0.161879,-0.884358
-22.550313,-13.521315,-4.325130,-0.884358,-0.437842,-0.161879
21.506731,7.009551,-13.962136,0.818634,0.267099,-0.508425
-26.236018,3.215544,3.111433,-0.984754,0.084103,0.152272
8.191757,0.548112,3.605313,-0.995185,-0.098017,0.000000
22.534698,9.289329,-10.682209,0.829480,0.337457,-0.445068
-19.992065,-9.050079,-15.013946,-0.731258,-0.349825,-0.585563
-7.901327,-20.101946,15.504083,-0.313422,-0.759999,0.569358
8.439381,22.784798,10.801617,0.302377,0.852184,0.427026
4.902413,-6.592379,-13.247906,-0.634393,0.773010,0.000000
1.003191,11.462912,23.984818,0.050171,0.465071,0.883850
8.580579,-13.779049,21.107855,0.267099,-0.508425,0.818634
3.293191,12.990733,7.544479,-0.471397,0.000000,-0.881921
8.103238,-1.446859,12.412318,-0.995185,0.098017,0.000000
-20.240731,-11.140562,-13.173200,-0.742100,-0.420208,-0.522219
-7.415345,13.321336,-21.772308,-0.267099,0.508425,-0.818634
19.983341,12.021411,-12.830184,0.742100,0.420208,-0.522219
-8.229471,-0.165194,8.988553,0.995185,0.098017,-0.000000
-19.976167,5.725833,16.577088,-0.738104,0.217328,0.638727
-5.941119,-16.700851,5.695975,0.773010,0.000000,-0.634393
-3.577016,-24.174584,-7.392771,0.471397,-0.000000,0.881921
-6.613796,21.270031,14.514691,-0.233320,0.809504,0.538762
-18.782771,-9.783165,-16.086166,-0.731258,-0.349825,-0.585563
-9.335747,-5.724413,24.248717,-0.350587,-0.159793,0.922798
-4.136494,22.982339,12.718446,-0.161879,0.884358,0.437842
-1.104617,-21.759977,-8.136946,0.098017,0.000000,0.995185
-9.502564,23.602078,-7.712895,-0.364801,0.879088,-0.306798
-23.717721,6.612682,10.050410,-0.903180,0.214847,0.371628
-8.234993,19.241227,-0.109124,0.995185,0.000000,0.098017
4.456016,-20.119997,16.792994,0.158952,-0.751866,0.639868
-8.155226,3.122146,-0.919014,0.995185,0.000000,0.098017
18.747637,18.748289,1.973237,0.723272,0.685851,0.080531
-14.683018,-3.038893,-21.969558,-0.551642,-0.078417,-0.830386
-18.013224,18.997441,4.829044,-0.638727,0.738104,0.217328
-7.910321,-23.369641,9.931569,-0.312401,-0.885789,0.343196
18.165258,-4.456454,18.952052,0.639868,-0.158952,0.751866
6.375703,-12.520040,-5.166433,-0.773010,0.000000,0.634393
-2.957268,-7.711120,-25.271391,-0.084546,-0.291097,-0.952950
-15.715296,-19.746647,8.364722,-0.581154,-0.759176,0.293108
10.552236,-16.725996,-17.782161,0.371743,-0.649101,-0.663683
-20.897099,10.826957,-12.372359,-0.801686,0.395175,-0.448482
18.507792,-15.663142,-10.952086,0.708442,-0.546564,-0.446517
-23.332441,12.732376,-0.028081,-0.896494,0.443056,0.000000
23.532178,-9.283414,-8.161509,0.885789,-0.343196,-0.312401
-5.893241,-5.754315,10.698875,0.773010,0.634394,0.000000
23.490275,12.358765,1.386255,0.872474,0.482337,0.078367
23.671626,8.183774,-8.938961,0.879088,0.306798,-0.364801
19.820437,-11.605531,13.396318,0.742100,-0.420208,0.522219
-14.972471,-18.061519,12.528734,-0.521886,-0.699011,0.488895
-21.969953,-12.263070,-8.671933,-0.852184,-0.427026,-0.302377
-1.070473,12.542961,23.412690,-0.050171,0.465071,0.883850
-0.557196,-8.190862,-8.312192,0.098017,0.995185,0.000000
-15.701071,15.589423,14.707486,-0.577350,0.577350,0.577350
7.050340,-23.095701,-4.217659,-0.881921,0.000000,0.471397
-21.335566,-15.562465,-3.210035,-0.791679,-0.589579,-0.160129
1.275831,-13.871612,-22.669938,0.081179,-0.546249,-0.833680
3.595109,15.343416,-7.383100,-0.471397,0.000000,0.881921
20.171747,-17.171569,-2.611206,0.723272,-0.685851,-0.080531
-5.690594,19.121478,17.585592,-0.239219,0.702258,0.670528
-18.897115,-9.536505,-16.090731,-0.731258,-0.349825,-0.585563
4.889992,6.602573,-12.596637,-0.634394,-0.773010,0.000000
-2.498533,24.475647,10.208746,-0.159793,0.922798,0.350587
24.413719,10.510356,0.862180,0.934172,0.356822,-0.000000
20.754479,-16.049249,4.290645,0.791679,-0.589579,0.160129
6.195418,-16.015407,20.323959,0.217328,-0.638727,0.738104
11.574970,11.367509,-21.090519,0.395175,0.448482,-0.801686
13.933390,15.255880,16.700157,0.503751,0.585159,0.635471
-2.426671,12.314524,23.455907,-0.050171,0.465071,0.883850
11.865158,8.467277,-22.241963,0.427026,0.302377,-0.852184
-8.102353,-1.455839,16.260584,0.995185,0.098017,0.000000
6.856781,24.311636,8.316309,0.228893,0.923386,0.308167
7.043717,-15.649270,20.307214,0.293108,-0.581154,0.759176
-8.190292,16.650914,0.562977,0.995185,0.000000,-0.098017
-0.897410,-15.765975,-21.400074,0.000000,-0.596421,-0.802672
6.503160,-12.326382,5.011127,-0.773010,0.000000,-0.634393
8.087531,-1.606334,12.073092,-0.995185,0.098017,0.000000
21.843726,15.165289,0.792383,0.801767,0.597636,-0.000000
9.696686,23.429426,-7.976784,0.364801,0.879088,-0.306798
-13.049535,-10.646794,-20.573974,-0.526342,-0.382234,-0.759514
-3.258241,24.086822,-7.563160,0.471397,-0.000000,0.881921
-1.120763,20.694984,8.135355,0.098017,0.000000,-0.995185
-19.909587,15.168920,-8.976621,-0.759999,0.569358,-0.313422
4.926823,23.249744,11.886137,0.161879,0.884358,0.437842
9.565208,-12.772939,-21.294959,0.395175,-0.448482,-0.801686
-2.719995,-13.740709,22.615085,-0.081179,-0.546249,0.833680
3.766968,16.834328,7.291240,-0.471403,0.000001,-0.881918
-20.251694,-16.426744,-5.307421,-0.751866,-0.639868,-0.158952
3.779065,-12.539284,23.199023,0.180319,-0.419240,0.889788
22.170031,6.328341,-13.247878,0.839788,0.211221,-0.500142
22.135464,-14.612433,-1.778610,0.830386,-0.551642,-0.078417
23.172372,-9.533922,8.906506,0.885789,-0.343196,0.312401
21.626838,10.145970,11.667957,0.801686,0.395175,0.448482
7.674209,22.908899,-2.970448,-0.956940,0.000000,0.290284
6.087756,5.517298,-24.996501,-0.773010,-0.634394,0.000000
-24.255455,-8.003668,7.504340,-0.923386,-0.308167,0.228893
-5.492019,6.108502,7.386267,0.634394,-0.773010,-0.000000
5.232271,-14.968908,-6.321672,-0.634394,0.000000,0.773010
-10.918705,7.667458,23.000024,-0.427026,0.302377,0.852184
-17.329508,12.022216,-16.207490,-0.620644,0.440461,-0.648688
-7.814017,-5.743746,2.509562,0.956940,0.000000,-0.290284
-12.469131,-8.419181,-21.956380,-0.427026,-0.302377,-0.852184
8.786380,-11.323676,-22.395126,0.337457,-0.445068,-0.829480
-16.224337,6.657352,20.067696,-0.641557,0.296210,0.707576
22.496679,-5.709517,-12.960746,0.839788,-0.211221,-0.500142
-8.102660,1.452722,-21.253844,0.995185,-0.098017,0.000000
-14.335598,3.958069,-22.097936,-0.589579,0.160129,-0.791679
12.086000,3.015086,23.494765,0.482337,0.078367,0.872474
-5.073106,-15.990793,-20.652100,-0.161444,-0.630461,-0.759246
8.198882,-13.606552,0.475771,-0.995185,0.000000,-0.098017
