x,y,z,nx,ny,nz
-30.524129,-22.014734,9.319966,0.000000,-1.000000,0.000000
-23.408121,-22.014734,-5.491635,0.000000,-1.000000,0.000000
5.960581,-16.258322,-1.125003,-0.000000,1.000000,0.000000
-49.340547,-22.014734,-4.131399,0.000000,-1.000000,0.000000
-25.803735,-16.258322,12.299512,-0.000000,1.000000,0.000000
-11.356404,16.258322,2.488916,0.000000,-1.000000,0.000000
-40.340939,-16.258322,13.581298,-0.000000,1.000000,0.000000
-4.735245,-16.258322,7.415354,0.000000,1.000000,0.000000
56.457794,16.258322,14.515001,-0.000000,-1.000000,0.000000
-38.595761,7.992225,-10.682947,0.000000,-0.000000,1.000000
-6.403682,-18.370297,12.653719,0.956940,-0.000000,0.290285
38.238254,16.258322,-4.182142,-0.000000,-1.000000,-0.000000
-34.156213,-22.014734,-6.413442,0.000000,-1.000000,0.000000
41.313790,-22.014734,-8.420584,-0.000000,-1.000000,0.000000
37.376859,-22.014734,1.805962,-0.000000,-1.000000,0.000000
33.871016,21.541229,16.439360,-0.000000,0.000000,1.000000
0.448937,-20.753556,-16.439360,0.000000,0.000000,-1.000000
7.071696,-22.014734,13.213024,-0.000000,-1.000000,0.000000
8.303389,16.258322,6.858104,0.000000,-1.000000,0.000000
11.428933,22.014734,-0.010470,-0.000000,1.000000,0.000000
5.539373,-9.582544,-10.682947,0.000000,-0.000000,1.000000
38.669836,-5.519026,-16.439360,0.000000,0.000000,-1.000000
7.552356,-12.435379,-16.439360,0.000000,0.000000,-1.000000
-40.591173,-4.786621,-10.682947,0.000000,-0.000000,1.000000
-12.912219,-10.702573,-16.439360,0.000000,0.000000,-1.000000
55.500905,21.865304,-16.439360,0.000000,0.000000,-1.000000
43.616132,15.764416,-10.682947,-0.000000,0.000000,1.000000
-31.542042,22.014734,11.118492,-0.000000,1.000000,0.000000
-19.473720,13.637307,-16.439360,0.000000,0.000000,-1.000000
13.304783,-22.014734,-7.605053,0.000000,-1.000000,0.000000
40.336900,-22.014734,-8.398692,-0.000000,-1.000000,0.000000
3.359570,16.258322,4.328476,0.000000,-1.000000,0.000000
-47.849885,-20.517005,-16.439360,0.000000,0.000000,-1.000000
52.031966,5.287787,-16.439360,0.000000,0.000000,-1.000000
38.330305,22.014734,-7.479164,-0.000000,1.000000,0.000000
-56.577271,-20.856925,6.088963,-1.000000,0.000000,0.000000
53.247165,16.258322,12.179740,-0.000000,-1.000000,0.000000
4.159175,-2.754582,-16.439360,0.000000,0.000000,-1.000000
-21.925204,-16.258322,1.459060,0.000000,1.000000,0.000000
-34.463983,7.154501,-10.682947,0.000000,-0.000000,1.000000
36.222227,22.014734,7.060354,-0.000000,1.000000,0.000000
53.518765,-16.258322,8.851535,-0.000000,1.000000,0.000000
-16.477742,-22.014734,14.505570,0.000000,-1.000000,0.000000
-28.009682,13.604015,-10.682947,-0.000000,0.000000,1.000000
-44.453984,1.679647,-16.439360,0.000000,0.000000,-1.000000
-37.124760,22.014734,-0.505368,-0.000000,1.000000,0.000000
18.131777,-16.258322,8.997050,0.000000,1.000000,0.000000
-6.921617,22.014734,7.828625,-0.000000,1.000000,0.000000
30.566957,-1.718781,-10.682947,-0.000000,0.000000,1.000000
3.070563,-7.776091,-16.439360,0.000000,0.000000,-1.000000
-48.114868,22.014734,11.549366,-0.000000,1.000000,0.000000
1.832344,16.258322,7.324434,0.000000,-1.000000,0.000000
-51.878489,-22.014734,0.641429,0.000000,-1.000000,0.000000
-46.082321,-22.014734,8.990779,0.000000,-1.000000,0.000000
45.180225,16.258322,12.658128,-0.000000,-1.000000,0.000000
-49.178046,-7.710450,-10.682947,0.000000,-0.000000,1.000000
-25.045719,-22.014734,-12.442394,0.000000,-1.000000,0.000000
16.502477,-10.266149,-16.439360,0.000000,0.000000,-1.000000
14.643273,20.824739,16.439360,-0.000000,0.000000,1.000000
44.507952,-19.944898,16.439360,-0.000000,0.000000,1.000000
12.317901,16.258322,-4.235079,0.000000,-1.000000,0.000000
14.404194,-12.336647,-10.682947,0.000000,-0.000000,1.000000
-28.608495,9.902914,-10.682947,-0.000000,0.000000,1.000000
52.115416,21.927066,-16.439360,0.000000,0.000000,-1.000000
-8.016387,-16.258322,-6.958728,-0.000000,1.000000,0.000000
20.511080,22.014734,7.573866,0.000000,1.000000,0.000000
-50.466124,22.014734,-15.058682,-0.000000,1.000000,0.000000
12.237445,-22.014734,-10.109632,0.000000,-1.000000,0.000000
34.832547,-17.754725,-16.439360,0.000000,0.000000,-1.000000
-43.197534,-22.014734,5.589767,0.000000,-1.000000,0.000000
53.216132,-16.130786,-16.439360,0.000000,0.000000,-1.000000
-15.806830,18.866040,-16.439360,0.000000,0.000000,-1.000000
37.656681,-16.258322,9.016419,-0.000000,1.000000,0.000000
-21.249812,-22.014734,-3.363648,0.000000,-1.000000,0.000000
43.375746,-16.258322,-10.639434,-0.000000,1.000000,0.000000
56.371420,-12.141752,-10.682947,-0.000000,0.000000,1.000000
0.691482,-3.328632,-16.439360,0.000000,0.000000,-1.000000
-56.577271,18.527249,-5.948493,-1.000000,0.000000,0.000000
29.422624,-7.536687,-10.682947,-0.000000,0.000000,1.000000
-1.675207,-22.014734,9.690565,-0.000000,-1.000000,-0.000000
-23.431596,-22.014734,-9.363326,0.000000,-1.000000,0.000000
46.152649,-8.617238,-16.439360,0.000000,0.000000,-1.000000
11.875454,-8.985054,-10.682947,0.000000,-0.000000,1.000000
32.829912,22.014734,-5.227719,-0.000000,1.000000,0.000000
12.786411,-16.258322,13.297872,-0.000000,1.000000,0.000000
-54.020177,22.014734,-6.481044,-0.000000,1.000000,0.000000
-24.777812,22.014734,14.644816,0.000000,1.000000,0.000000
50.255499,22.014734,-12.635622,-0.000000,1.000000,0.000000
38.431010,20.704127,-16.439360,0.000000,0.000000,-1.000000
-51.730510,-22.014734,-7.060463,0.000000,-1.000000,0.000000
-23.401437,-0.417097,-16.439360,0.000000,0.000000,-1.000000
-33.446108,-22.014734,14.702914,0.000000,-1.000000,0.000000
-46.777499,-22.014734,6.243945,0.000000,-1.000000,0.000000
54.485839,16.258322,-8.885064,-0.000000,-1.000000,0.000000
-48.500401,-22.014734,1.840350,0.000000,-1.000000,0.000000
-56.577271,-12.384412,-14.283497,-1.000000,0.000000,0.000000
28.515047,8.250800,-10.682947,-0.000000,0.000000,1.000000
12.843690,-16.258322,13.046971,0.000000,1.000000,0.000000
-23.967486,3.915873,-10.682947,0.000000,-0.000000,1.000000
-25.302323,-1.552036,-10.682947,0.000000,-0.000000,1.000000
-46.439935,-11.072321,-10.682947,0.000000,-0.000000,1.000000
40.207741,-16.258322,1.397724,-0.000000,1.000000,0.000000
-8.312875,16.258322,-4.032332,0.000000,-1.000000,0.000000
-37.615446,-22.014734,-2.052126,0.000000,-1.000000,0.000000
5.565973,-16.258322,12.679901,0.000000,1.000000,0.000000
-19.968449,-16.258322,-7.570478,-0.000000,1.000000,0.000000
-38.125243,22.014734,4.879362,-0.000000,1.000000,0.000000
39.549592,22.014734,-3.371142,-0.000000,1.000000,0.000000
16.162506,-22.014734,1.117963,0.000000,-1.000000,0.000000
-25.748293,-17.174264,-16.439360,0.000000,0.000000,-1.000000
-47.754290,22.014734,-11.596128,-0.000000,1.000000,0.000000
-19.791339,-10.971548,-10.682947,0.000000,-0.000000,1.000000
-3.211454,3.677687,-16.439360,0.000000,0.000000,-1.000000
1.702148,-22.014734,8.425232,0.000000,-1.000000,0.000000
51.320239,-16.258322,7.604041,-0.000000,1.000000,0.000000
-51.375639,-19.501286,-16.439360,0.000000,0.000000,-1.000000
-56.174989,-16.258322,-5.846112,-0.000000,1.000000,0.000000
-56.577271,14.777224,-14.795898,-1.000000,0.000000,0.000000
-29.240205,-12.538553,-10.682947,0.000000,-0.000000,1.000000
-28.575037,16.258322,2.638228,0.000000,-1.000000,0.000000
-11.007271,-16.258322,12.194725,-0.000000,1.000000,0.000000
19.674170,-12.884188,-10.682947,0.000000,-0.000000,1.000000
-47.331518,16.258322,-8.465593,0.000000,-1.000000,0.000000
-45.644581,17.080211,-16.439360,0.000000,0.000000,-1.000000
40.595348,10.166074,-16.439360,0.000000,0.000000,-1.000000
38.662600,22.014734,-1.267428,-0.000000,1.000000,0.000000
-20.241720,-22.014734,7.108470,0.000000,-1.000000,0.000000
-53.850771,-8.427795,-10.682947,0.000000,-0.000000,1.000000
53.277075,16.258322,-10.251201,0.000000,-1.000000,0.000000
44.086873,-22.014734,8.296282,-0.000000,-1.000000,0.000000
-17.348403,16.258322,1.953870,0.000000,-1.000000,0.000000
-29.650140,-17.854844,16.439360,0.000000,-0.000000,1.000000
-9.528837,22.014734,2.638637,0.000000,1.000000,0.000000
-48.548242,-16.258322,-10.551892,-0.000000,1.000000,0.000000
-13.980282,16.759613,16.439360,0.000000,-0.000000,1.000000
-56.076071,-12.241836,-16.439360,0.000000,0.000000,-1.000000
-32.631094,21.319742,-16.439360,0.000000,0.000000,-1.000000
-29.215172,16.258322,7.568776,0.000000,-1.000000,0.000000
8.145505,-17.231426,-16.439360,0.000000,0.000000,-1.000000
-38.260366,-16.258322,-2.118345,-0.000000,1.000000,0.000000
-28.029214,-22.014734,-15.604213,0.000000,-1.000000,0.000000
-51.263091,14.085759,-16.439360,0.000000,0.000000,-1.000000
-18.136587,-14.209406,-10.682947,0.000000,-0.000000,1.000000
38.423642,-22.014734,-8.455622,0.000000,-1.000000,0.000000
7.171603,10.308746,-10.682947,-0.000000,0.000000,1.000000
30.000860,3.995342,-16.439360,0.000000,0.000000,-1.000000
3.571582,-21.982581,-16.439360,0.000000,0.000000,-1.000000
18.507064,-16.729456,-16.439360,0.000000,0.000000,-1.000000
-14.310834,-16.258322,-6.681097,-0.000000,1.000000,0.000000
27.858761,-22.014734,-8.315823,0.000000,-1.000000,0.000000
-53.542046,0.244958,-10.682947,0.000000,-0.000000,1.000000
42.038560,-7.059664,-10.682947,-0.000000,0.000000,1.000000
24.884867,-16.258322,4.950628,-0.000000,1.000000,0.000000
30.937755,-9.625056,-16.439360,0.000000,0.000000,-1.000000
4.273382,16.258322,15.453461,-0.000000,-1.000000,0.000000
18.988016,-16.258322,13.779513,-0.000000,1.000000,0.000000
30.863955,-22.014734,5.149303,0.000000,-1.000000,0.000000
-44.507086,16.258322,-1.085075,0.000000,-1.000000,0.000000
-52.741220,15.974941,-10.682947,-0.000000,0.000000,1.000000
37.361806,16.839420,16.439360,0.000000,-0.000000,1.000000
-26.001414,-22.014734,4.631000,0.000000,-1.000000,0.000000
17.588280,-16.258322,7.398336,0.000000,1.000000,0.000000
0.642483,16.258322,-6.217474,0.000000,-1.000000,0.000000
36.359084,17.516027,16.439360,-0.000000,0.000000,1.000000
30.129803,-16.258322,-2.994701,-0.000000,1.000000,0.000000
23.133191,16.258322,-9.481646,0.000000,-1.000000,0.000000
25.700875,22.014734,-1.274585,-0.000000,1.000000,0.000000
36.194801,9.031668,-16.439360,0.000000,0.000000,-1.000000
-31.723174,22.014734,14.033733,-0.000000,1.000000,0.000000
-12.552049,16.258322,2.524115,0.000000,-1.000000,0.000000
47.972809,0.819498,-10.682947,-0.000000,0.000000,1.000000
-23.519712,-9.743040,-10.682947,0.000000,-0.000000,1.000000
2.136914,-16.370350,11.510206,-0.634393,0.000000,0.773011
-17.123295,-21.092984,16.439360,0.000000,-0.000000,1.000000
-43.718374,-8.681686,-16.439360,0.000000,0.000000,-1.000000
54.710942,-22.014734,-14.333642,-0.000000,-1.000000,0.000000
-8.217760,22.014734,-7.485838,-0.000000,1.000000,0.000000
-19.430777,-22.014734,-4.185577,0.000000,-1.000000,0.000000
35.555606,16.258322,-1.961418,-0.000000,-1.000000,0.000000
8.885347,7.598891,-10.682947,-0.000000,0.000000,1.000000
-18.087312,16.258322,-7.177656,0.000000,-1.000000,0.000000
44.634735,-22.014734,-12.872140,0.000000,-1.000000,0.000000
39.917667,-22.014734,15.379540,0.000000,-1.000000,-0.000000
-28.022131,16.258322,6.336628,0.000000,-1.000000,0.000000
-19.332995,-16.258322,1.645762,0.000000,1.000000,0.000000
-3.986447,10.936052,-16.439360,0.000000,0.000000,-1.000000
56.577271,19.368270,-1.709392,1.000000,-0.000000,0.000000
-3.829503,-19.000981,-16.439360,0.000000,0.000000,-1.000000
-55.152378,-16.258322,-7.043115,-0.000000,1.000000,0.000000
-33.350522,-16.258322,-0.993834,-0.000000,1.000000,0.000000
-5.365809,22.014734,5.272725,0.000000,1.000000,0.000000
-9.695326,-22.014734,14.168525,0.000000,-1.000000,0.000000
-8.612759,16.258322,-3.787725,0.000000,-1.000000,0.000000
-46.894226,-22.014734,14.275340,0.000000,-1.000000,0.000000
21.751179,14.435792,-16.439360,0.000000,0.000000,-1.000000
23.098812,22.014734,-8.527898,-0.000000,1.000000,0.000000
34.097658,-22.014734,-10.063827,0.000000,-1.000000,0.000000
39.875094,-16.258322,4.020273,-0.000000,1.000000,0.000000
-15.108581,-19.358474,16.439360,0.000000,-0.000000,1.000000
20.434220,-13.968062,-10.682947,0.000000,-0.000000,1.000000
-38.508469,22.014734,-9.529964,0.000000,1.000000,0.000000
-12.927441,-2.091868,-16.439360,0.000000,0.000000,-1.000000
-56.577271,-7.284325,-14.984144,-1.000000,0.000000,0.000000
13.526510,-1.635078,-16.439360,0.000000,0.000000,-1.000000
25.854350,6.138352,-16.439360,0.000000,0.000000,-1.000000
-30.157293,22.014734,11.351394,-0.000000,1.000000,0.000000
51.440939,-22.014734,10.544045,-0.000000,-1.000000,0.000000
-39.147019,12.860321,-10.682947,-0.000000,0.000000,1.000000
-56.577271,-17.726275,-1.842341,-1.000000,0.000000,0.000000
32.106633,-21.720017,-16.439360,0.000000,0.000000,-1.000000
13.802016,-16.258322,-4.373190,-0.000000,1.000000,0.000000
5.872495,16.258322,2.337829,0.000000,-1.000000,0.000000
-23.218275,16.258322,5.867265,0.000000,-1.000000,0.000000
43.818179,-16.918182,-16.439360,0.000000,0.000000,-1.000000
32.034536,-22.014734,12.474362,-0.000000,-1.000000,0.000000
49.987584,22.014734,-2.829153,-0.000000,1.000000,0.000000
-30.771930,22.014734,6.296626,-0.000000,1.000000,0.000000
-19.774212,-13.650596,-16.439360,0.000000,0.000000,-1.000000
33.296988,-16.378081,16.439360,-0.000000,0.000000,1.000000
-32.431512,14.936007,-10.682947,-0.000000,0.000000,1.000000
37.932603,22.014734,-4.601898,-0.000000,1.000000,0.000000
-47.304096,-1.353254,-10.682947,0.000000,-0.000000,1.000000
15.661983,16.258322,-9.947762,0.000000,-1.000000,0.000000
48.159114,-22.014734,0.201427,-0.000000,-1.000000,0.000000
54.331087,22.014734,4.689574,-0.000000,1.000000,0.000000
12.669743,8.617097,-10.682947,-0.000000,0.000000,1.000000
-20.384887,16.258322,11.290908,0.000000,-1.000000,0.000000
-10.156000,-22.014734,-6.362677,0.000000,-1.000000,0.000000
-8.957768,-16.258322,8.277661,0.000000,1.000000,0.000000
33.900001,22.014734,-5.071696,-0.000000,1.000000,0.000000
21.380919,22.014734,-4.363480,-0.000000,1.000000,0.000000
-10.614830,-22.014734,-3.326544,0.000000,-1.000000,0.000000
55.671881,6.106211,-10.682947,-0.000000,0.000000,1.000000
30.374603,21.474800,16.439360,-0.000000,0.000000,1.000000
22.620337,16.258322,3.847655,-0.000000,-1.000000,0.000000
30.329670,16.258322,14.876470,0.000000,-1.000000,-0.000000
-43.899613,-16.258322,14.040550,-0.000000,1.000000,0.000000
-39.256994,11.454390,-16.439360,0.000000,0.000000,-1.000000
52.398898,-11.464697,-16.439360,0.000000,0.000000,-1.000000
-32.462331,-16.258322,-9.907491,-0.000000,1.000000,0.000000
55.957782,22.014734,0.499872,-0.000000,1.000000,0.000000
-8.980345,-16.258322,0.298115,-0.000000,1.000000,0.000000
50.101519,16.258322,-9.247932,0.000000,-1.000000,0.000000
-20.188899,-22.014734,-7.225730,0.000000,-1.000000,0.000000
19.194085,-19.898334,16.439360,-0.000000,0.000000,1.000000
26.345085,20.706272,16.160920,0.471398,0.000000,-0.881921
-11.930882,-9.728712,-16.439360,0.000000,0.000000,-1.000000
-56.000281,-1.796531,-10.682947,0.000000,-0.000000,1.000000
56.577271,-20.251839,4.083606,1.000000,0.000000,-0.000000
10.581300,-22.014734,11.479260,0.000000,-1.000000,0.000000
25.761183,22.014734,3.802928,-0.000000,1.000000,0.000000
-38.241851,-4.986310,-10.682947,0.000000,-0.000000,1.000000
50.373957,-22.014734,-1.053854,-0.000000,-1.000000,0.000000
-37.946782,5.178584,-10.682947,0.000000,-0.000000,1.000000
-27.623166,-22.014734,-0.151646,0.000000,-1.000000,0.000000
-41.333512,-16.258322,11.586680,-0.000000,1.000000,0.000000
34.010050,-11.155001,-10.682947,0.000000,-0.000000,1.000000
17.595177,-8.990733,-16.439360,0.000000,0.000000,-1.000000
-27.564161,-16.258322,11.621542,-0.000000,1.000000,0.000000
48.829467,16.258322,-4.907856,-0.000000,-1.000000,0.000000
42.802995,-4.925514,-10.682947,-0.000000,0.000000,1.000000
-40.659522,-22.014734,-14.015941,0.000000,-1.000000,0.000000
22.539597,22.014734,-12.379609,-0.000000,1.000000,0.000000
38.553343,-16.258322,-7.479925,-0.000000,1.000000,0.000000
-55.232953,-21.724234,16.439360,0.000000,-0.000000,1.000000
-15.168549,-22.014734,0.097324,0.000000,-1.000000,0.000000
41.504740,22.014734,13.621186,0.000000,1.000000,-0.000000
54.037863,4.110254,-10.682947,-0.000000,0.000000,1.000000
35.420710,22.014734,-6.832785,-0.000000,1.000000,0.000000
30.994540,16.258322,3.133776,0.000000,-1.000000,0.000000
-8.718175,-16.258322,-7.313364,-0.000000,1.000000,0.000000
24.205454,-16.258322,10.789731,0.000000,1.000000,0.000000
-5.030248,-16.258322,-6.750787,-0.000000,1.000000,0.000000
-6.519888,19.781665,13.092034,0.995185,-0.000000,0.098016
45.403423,-14.638502,-16.439360,0.000000,0.000000,-1.000000
-28.194133,22.014734,13.582235,-0.000000,1.000000,0.000000
56.577271,-17.488914,-11.195580,1.000000,0.000000,-0.000000
24.439016,-22.014734,2.154496,0.000000,-1.000000,0.000000
-56.302821,-22.014734,-8.950800,0.000000,-1.000000,0.000000
-15.002542,-17.592725,16.439360,-0.000000,0.000000,1.000000
4.867311,22.014734,-2.011108,-0.000000,1.000000,0.000000
-19.425550,16.258322,2.731696,0.000000,-1.000000,0.000000
43.787788,18.830708,-16.439360,0.000000,0.000000,-1.000000
-53.569245,13.099195,-16.439360,0.000000,0.000000,-1.000000
56.577271,-7.396069,-13.335686,1.000000,0.000000,-0.000000
13.027979,-7.110790,-10.682947,0.000000,-0.000000,1.000000
24.369907,-16.258322,3.822418,-0.000000,1.000000,0.000000
-31.916690,-3.803172,-10.682947,0.000000,-0.000000,1.000000
13.671949,16.258322,-2.064380,0.000000,-1.000000,0.000000
8.649101,-19.448981,-16.439360,0.000000,0.000000,-1.000000
-39.021369,-22.014734,5.030237,0.000000,-1.000000,0.000000
-28.212498,22.014734,-8.947702,-0.000000,1.000000,0.000000
-10.722880,20.375719,-16.439360,0.000000,0.000000,-1.000000
-56.577271,-20.596146,2.362493,-1.000000,0.000000,0.000000
29.681812,9.667777,-10.682947,-0.000000,0.000000,1.000000
51.942511,16.258322,4.524428,-0.000000,-1.000000,0.000000
-36.883430,-22.014734,-16.059229,0.000000,-1.000000,0.000000
3.075224,-8.796207,-16.439360,0.000000,0.000000,-1.000000
-33.404913,16.258322,9.381183,0.000000,-1.000000,0.000000
-44.183041,-13.065672,-16.439360,0.000000,0.000000,-1.000000
-47.808294,16.258322,14.926755,0.000000,-1.000000,0.000000
53.948510,-1.817758,-10.682947,-0.000000,0.000000,1.000000
-22.917854,-16.258322,14.532361,0.000000,1.000000,0.000000
-28.912670,-16.258322,-7.691194,-0.000000,1.000000,0.000000
18.274869,-22.014734,1.801406,0.000000,-1.000000,0.000000
19.692773,16.258322,-8.113772,0.000000,-1.000000,0.000000
-49.783518,15.187720,-10.682947,-0.000000,0.000000,1.000000
-25.379514,22.014734,12.125643,-0.000000,1.000000,0.000000
38.468972,16.258322,5.626532,-0.000000,-1.000000,0.000000
-56.577271,-13.445071,-15.553098,-1.000000,0.000000,0.000000
-20.044874,-22.014734,-2.045255,0.000000,-1.000000,0.000000
-8.053931,22.014734,-7.010010,-0.000000,1.000000,0.000000
-56.577271,-18.811369,8.931208,-1.000000,0.000000,0.000000
20.413794,22.014734,14.072381,-0.000000,1.000000,0.000000
-19.271531,-16.258322,-5.711455,-0.000000,1.000000,0.000000
-56.577271,-21.868680,-12.127770,-1.000000,0.000000,0.000000
36.271995,16.584033,-16.439360,0.000000,0.000000,-1.000000
47.942634,1.729802,-16.439360,0.000000,0.000000,-1.000000
56.577271,-20.326496,14.685557,1.000000,0.000000,-0.000000
-52.381561,-22.014734,-10.414700,0.000000,-1.000000,0.000000
56.577271,-19.742663,-12.264750,1.000000,0.000000,-0.000000
10.580202,16.258322,13.554648,0.000000,-1.000000,0.000000
35.963202,-22.014734,-2.778091,0.000000,-1.000000,0.000000
-54.883820,-22.014734,7.997415,0.000000,-1.000000,0.000000
-11.001328,-7.236188,-10.682947,0.000000,-0.000000,1.000000
-34.979595,-22.014734,3.956467,0.000000,-1.000000,0.000000
28.608662,22.014734,-13.092845,-0.000000,1.000000,0.000000
30.570204,-18.473635,16.439360,-0.000000,0.000000,1.000000
50.820084,-19.950988,-16.439360,0.000000,0.000000,-1.000000
10.100229,-6.618350,-16.439360,0.000000,0.000000,-1.000000
41.058440,-22.014734,1.487370,-0.000000,-1.000000,0.000000
-19.404149,0.973252,-16.439360,0.000000,0.000000,-1.000000
-0.738986,16.258322,6.342588,0.000000,-1.000000,0.000000
-55.635007,16.258322,15.265066,0.000000,-1.000000,0.000000
-13.926679,17.019793,-16.439360,0.000000,0.000000,-1.000000
-53.300405,-17.939967,16.439360,0.000000,-0.000000,1.000000
37.805842,-16.258322,-7.356132,-0.000000,1.000000,0.000000
-18.524832,22.014734,2.700838,0.000000,1.000000,0.000000
18.842915,22.014734,1.353431,-0.000000,1.000000,0.000000
24.651505,-21.406866,13.891479,0.995185,0.000000,-0.098018
4.823147,3.925899,-10.682947,-0.000000,0.000000,1.000000
17.113572,-22.014734,1.922487,0.000000,-1.000000,0.000000
19.243221,22.014734,4.020392,-0.000000,1.000000,0.000000
14.806699,-22.014734,10.953675,0.000000,-1.000000,0.000000
15.468518,-2.346781,-10.682947,-0.000000,0.000000,1.000000
-2.164150,16.258322,6.522514,0.000000,-1.000000,0.000000
-35.770239,22.014734,11.605294,-0.000000,1.000000,0.000000
-56.577271,-18.415626,6.343450,-1.000000,0.000000,0.000000
9.690775,22.014734,-7.683682,-0.000000,1.000000,0.000000
13.095752,20.827329,16.439360,-0.000000,0.000000,1.000000
-11.011581,16.258322,4.759228,0.000000,-1.000000,0.000000
0.285706,22.014734,-16.330933,-0.000000,1.000000,0.000000
6.158268,-18.003199,16.439360,-0.000000,0.000000,1.000000
51.595705,-4.288201,-16.439360,0.000000,0.000000,-1.000000
5.725801,-22.014734,16.092247,0.000000,-1.000000,0.000000
-48.335829,-22.014734,13.061815,0.000000,-1.000000,0.000000
15.014990,16.258322,-1.978855,0.000000,-1.000000,0.000000
49.493665,-20.579739,-16.439360,0.000000,0.000000,-1.000000
44.628058,1.971633,-16.439360,0.000000,0.000000,-1.000000
-7.739240,-14.776747,-10.682947,0.000000,-0.000000,1.000000
-1.331933,22.014734,-14.820761,-0.000000,1.000000,0.000000
-11.937301,-22.014734,-0.604260,0.000000,-1.000000,0.000000
-56.577271,-1.871670,-14.200533,-1.000000,0.000000,0.000000
0.531054,-22.014734,7.623362,0.000000,-1.000000,0.000000
50.221508,16.258322,-8.735295,0.000000,-1.000000,0.000000
-12.210329,16.258322,-8.314963,0.000000,-1.000000,0.000000
-16.242101,22.014734,-6.265889,-0.000000,1.000000,0.000000
16.883475,-10.409442,-16.439360,0.000000,0.000000,-1.000000
39.239028,10.924113,-16.439360,0.000000,0.000000,-1.000000
-31.257004,-17.794155,16.439360,0.000000,-0.000000,1.000000
-56.577271,14.428985,-16.055656,-1.000000,0.000000,0.000000
-4.013886,-20.007066,16.358259,0.098015,0.000000,-0.995185
42.331610,-16.258322,3.302384,-0.000000,1.000000,0.000000
-44.725557,22.014734,0.542908,-0.000000,1.000000,0.000000
38.763361,-14.217314,-10.682947,0.000000,-0.000000,1.000000
-4.751239,-17.490375,-16.439360,0.000000,0.000000,-1.000000
-5.542994,-5.137404,-10.682947,0.000000,-0.000000,1.000000
-17.165883,22.014734,-12.320874,-0.000000,1.000000,0.000000
-34.975023,-16.258322,-2.715329,0.000000,1.000000,0.000000
-21.703182,22.014734,16.401809,0.000000,1.000000,0.000000
19.312093,16.258322,1.130207,0.000000,-1.000000,0.000000
-0.799043,-1.733276,-10.682947,0.000000,-0.000000,1.000000
-50.661787,22.014734,13.335518,-0.000000,1.000000,0.000000
-10.940960,-22.014734,-13.723276,0.000000,-1.000000,0.000000
-54.687855,-22.014734,-7.001001,0.000000,-1.000000,0.000000
-56.577271,19.999766,12.440536,-1.000000,0.000000,0.000000
56.577271,-21.835144,9.086303,1.000000,0.000000,-0.000000
15.870768,-22.014734,15.562827,0.000000,-1.000000,0.000000
10.931263,16.258322,7.345860,-0.000000,-1.000000,0.000000
42.747341,-3.231041,-10.682947,-0.000000,0.000000,1.000000
-43.207713,-18.166520,-16.439360,0.000000,0.000000,-1.000000
56.577271,17.599765,10.694927,1.000000,0.000000,-0.000000
-19.843795,17.468568,16.439360,0.000000,-0.000000,1.000000
12.164594,16.258322,0.190267,0.000000,-1.000000,0.000000
-7.434695,-17.771788,16.439360,-0.000000,0.000000,1.000000
-42.768807,-9.523632,-16.439360,0.000000,0.000000,-1.000000
-56.577271,-2.696975,-14.749689,-1.000000,0.000000,0.000000
43.622623,-22.014734,-12.553982,0.000000,-1.000000,0.000000
-32.937580,-2.780887,-10.682947,0.000000,-0.000000,1.000000
26.554559,-18.783406,10.893890,0.290285,0.000000,0.956940
48.938554,1.569694,-16.439360,0.000000,0.000000,-1.000000
6.414106,-22.014734,13.993912,-0.000000,-1.000000,0.000000
-50.906403,16.258322,1.664339,0.000000,-1.000000,0.000000
-10.740158,-22.014734,-10.883896,0.000000,-1.000000,0.000000
-54.735941,-7.146626,-16.439360,0.000000,0.000000,-1.000000
42.083751,16.258322,10.461992,-0.000000,-1.000000,0.000000
21.254771,-8.305148,-16.439360,0.000000,0.000000,-1.000000
-32.422135,-16.258322,15.111100,0.000000,1.000000,0.000000
25.188479,-16.258322,-7.754060,-0.000000,1.000000,0.000000
-10.489645,-14.977772,-10.682947,0.000000,-0.000000,1.000000
29.914620,22.014734,16.057385,0.000000,1.000000,0.000000
50.304225,5.732144,-16.439360,0.000000,0.000000,-1.000000
-24.488039,22.014734,-4.818299,0.000000,1.000000,0.000000
-17.406402,22.014734,15.266979,0.000000,1.000000,0.000000
6.068944,22.014734,-15.882579,-0.000000,1.000000,0.000000
6.495081,17.680451,16.439360,0.000000,-0.000000,1.000000
10.703755,-22.014734,4.419765,0.000000,-1.000000,0.000000
53.307208,21.240645,-16.439360,0.000000,0.000000,-1.000000
23.255249,18.513903,-16.439360,0.000000,0.000000,-1.000000
-15.492040,-16.175972,-10.682947,0.000000,-0.000000,1.000000
-48.173890,14.885762,-16.439360,0.000000,0.000000,-1.000000
11.730025,22.014734,-2.101924,-0.000000,1.000000,0.000000
-45.965350,1.438298,-10.682947,0.000000,-0.000000,1.000000
7.154014,-1.752148,-10.682947,-0.000000,0.000000,1.000000
-51.727707,16.397518,16.439360,0.000000,-0.000000,1.000000
48.419554,-22.014734,-7.284411,-0.000000,-1.000000,0.000000
4.752355,11.645991,-16.439360,0.000000,0.000000,-1.000000
-38.177086,16.258322,8.590250,0.000000,-1.000000,0.000000
-17.471677,-17.666202,-16.439360,0.000000,0.000000,-1.000000
6.140966,22.014734,4.879608,0.000000,1.000000,0.000000
34.268486,4.863005,-10.682947,-0.000000,0.000000,1.000000
-20.618111,7.571441,-10.682947,-0.000000,0.000000,1.000000
29.350559,-22.014734,3.835809,0.000000,-1.000000,0.000000
-21.740065,-20.477280,16.439360,0.000000,-0.000000,1.000000
-56.577271,21.674477,-3.405711,-1.000000,0.000000,0.000000
-34.260961,21.886462,-16.439360,0.000000,0.000000,-1.000000
49.373217,-22.014734,-8.023642,-0.000000,-1.000000,0.000000
23.952931,10.931941,-10.682947,-0.000000,0.000000,1.000000
-1.545687,-21.376231,-16.439360,0.000000,0.000000,-1.000000
47.030781,-3.345413,-10.682947,-0.000000,0.000000,1.000000
35.983137,-3.356411,-10.682947,-0.000000,0.000000,1.000000
9.144036,14.037392,-16.439360,0.000000,0.000000,-1.000000
44.634408,-16.258322,-8.551827,-0.000000,1.000000,0.000000
51.532155,22.014734,12.937703,-0.000000,1.000000,0.000000
-16.786394,2.973896,-16.439360,0.000000,0.000000,-1.000000
-12.644547,-20.255038,16.439360,0.000000,-0.000000,1.000000
55.798823,22.014734,-4.196909,-0.000000,1.000000,0.000000
5.350804,-22.014734,-15.482504,0.000000,-1.000000,0.000000
0.989984,1.930407,-16.439360,0.000000,0.000000,-1.000000
25.323949,-20.371907,-16.439360,0.000000,0.000000,-1.000000
41.266642,-11.104684,-10.682947,-0.000000,0.000000,1.000000
-4.502044,16.258322,9.548014,0.000000,-1.000000,0.000000
-56.577271,17.330371,-10.447631,-1.000000,0.000000,0.000000
17.313276,-22.014734,3.254858,-0.000000,-1.000000,0.000000
-46.210851,9.712332,-16.439360,0.000000,0.000000,-1.000000
-37.973807,9.402421,-16.439360,0.000000,0.000000,-1.000000
40.119274,-16.258322,10.433842,-0.000000,1.000000,0.000000
11.944702,22.014734,-6.107019,-0.000000,1.000000,0.000000
25.190947,16.258322,16.086063,0.000000,-1.000000,0.000000
-46.488858,-22.014734,1.398881,0.000000,-1.000000,0.000000
-0.578225,-22.014734,-5.758212,0.000000,-1.000000,0.000000
39.334215,2.578385,-10.682947,-0.000000,0.000000,1.000000
44.407571,22.014734,6.528747,-0.000000,1.000000,0.000000
56.577271,-21.510790,-6.224506,1.000000,0.000000,-0.000000
-32.732710,22.014734,-6.716724,0.000000,1.000000,0.000000
-45.202847,17.685941,16.439360,0.000000,-0.000000,1.000000
56.577271,-17.072879,7.192345,1.000000,0.000000,-0.000000
11.933701,-16.258322,2.042249,-0.000000,1.000000,0.000000
-14.904889,-19.879719,16.439360,0.000000,-0.000000,1.000000
-37.223632,18.289835,16.439360,0.000000,-0.000000,1.000000
16.927038,22.014734,-0.875923,-0.000000,1.000000,0.000000
53.577590,22.014734,-11.050456,-0.000000,1.000000,0.000000
-46.420051,22.014734,-6.027135,-0.000000,1.000000,0.000000
-16.974119,-12.770774,-10.682947,0.000000,-0.000000,1.000000
-38.500189,16.007264,-10.682947,-0.000000,0.000000,1.000000
-40.980786,-22.014734,-14.554903,0.000000,-1.000000,0.000000
43.197069,-15.546212,-16.439360,0.000000,0.000000,-1.000000
7.999136,-16.258322,9.246918,0.000000,1.000000,0.000000
22.479305,8.834855,-10.682947,-0.000000,0.000000,1.000000
45.241607,12.881750,-16.439360,0.000000,0.000000,-1.000000
22.917106,-22.014734,1.294566,-0.000000,-1.000000,0.000000
24.842662,13.046531,-16.439360,0.000000,0.000000,-1.000000
-55.388903,-16.258322,-7.464110,-0.000000,1.000000,0.000000
56.577271,-17.413471,2.987812,1.000000,0.000000,-0.000000
-51.213613,-22.014734,-3.871190,0.000000,-1.000000,0.000000
42.598210,-8.377725,-16.439360,0.000000,0.000000,-1.000000
-9.567870,22.014734,7.202093,0.000000,1.000000,0.000000
-16.652947,16.917532,16.439360,0.000000,-0.000000,1.000000
-41.130725,22.014734,2.820715,-0.000000,1.000000,0.000000
-52.870634,16.258322,15.210259,0.000000,-1.000000,0.000000
25.162602,-16.258322,4.062905,-0.000000,1.000000,0.000000
30.239307,14.238695,-10.682947,-0.000000,0.000000,1.000000
34.777630,-1.735638,-10.682947,-0.000000,0.000000,1.000000
-30.753535,16.258322,3.424081,0.000000,-1.000000,0.000000
-30.219953,-16.258322,13.881439,-0.000000,1.000000,0.000000
54.457296,-16.258322,12.645517,-0.000000,1.000000,0.000000
15.472141,4.885387,-10.682947,-0.000000,0.000000,1.000000
-55.591596,-14.109830,-16.439360,0.000000,0.000000,-1.000000
-7.887266,3.286907,-16.439360,0.000000,0.000000,-1.000000
56.577271,-21.995699,-11.659681,1.000000,0.000000,-0.000000
8.818174,-11.185533,-10.682947,0.000000,-0.000000,1.000000
-15.166224,0.068568,-10.682947,0.000000,-0.000000,1.000000
-47.030570,22.014734,5.921766,-0.000000,1.000000,0.000000
29.897888,-10.165720,-16.439360,0.000000,0.000000,-1.000000
-16.365378,16.258322,-10.447114,0.000000,-1.000000,0.000000
-15.247901,13.404344,-16.439360,0.000000,0.000000,-1.000000
-28.080464,22.014734,-9.770511,-0.000000,1.000000,0.000000
2.068806,-4.678489,-10.682947,0.000000,-0.000000,1.000000
-54.837146,16.258322,7.377434,0.000000,-1.000000,0.000000
-56.302945,16.258322,10.359705,0.000000,-1.000000,0.000000
36.751747,16.258322,15.334505,0.000000,-1.000000,-0.000000
-34.920402,9.031183,-10.682947,0.000000,-0.000000,1.000000
45.462333,-9.198621,-16.439360,0.000000,0.000000,-1.000000
1.992796,20.111743,11.391931,-0.634393,0.000000,0.773011
48.404410,22.014734,6.539949,-0.000000,1.000000,0.000000
-13.670964,22.014734,-8.577682,-0.000000,1.000000,0.000000
30.174769,-0.961173,-10.682947,-0.000000,0.000000,1.000000
-8.029608,3.653319,-16.439360,0.000000,0.000000,-1.000000
-7.579460,-22.014734,-5.470502,0.000000,-1.000000,0.000000
-1.602660,16.258322,5.608574,0.000000,-1.000000,0.000000
12.725631,16.258322,0.324886,0.000000,-1.000000,0.000000
-40.181810,-0.280248,-10.682947,0.000000,-0.000000,1.000000
40.495320,16.258322,-4.346897,-0.000000,-1.000000,0.000000
-12.847541,16.258322,-10.485925,0.000000,-1.000000,0.000000
38.413737,-16.258322,15.155368,0.000000,1.000000,0.000000
45.978953,22.014734,-8.462072,-0.000000,1.000000,0.000000
56.577271,-21.847216,-2.213564,1.000000,0.000000,-0.000000
-17.695246,22.014734,-12.824577,-0.000000,1.000000,0.000000
37.856026,-16.258322,6.983480,-0.000000,1.000000,0.000000
40.330824,22.014734,1.698676,-0.000000,1.000000,0.000000
22.857448,-22.014734,1.126231,-0.000000,-1.000000,0.000000
6.315539,16.258322,2.186311,0.000000,-1.000000,0.000000
-2.081000,-21.571879,-16.439360,0.000000,0.000000,-1.000000
2.223510,-22.014734,-10.935728,0.000000,-1.000000,0.000000
9.300854,-22.014734,2.253212,0.000000,-1.000000,0.000000
-41.715405,19.006758,-16.439360,0.000000,0.000000,-1.000000
8.890054,16.258322,-8.664404,0.000000,-1.000000,0.000000
4.645483,1.867058,-16.439360,0.000000,0.000000,-1.000000
38.475224,-16.258322,9.479842,-0.000000,1.000000,0.000000
0.843021,-14.531066,-16.439360,0.000000,0.000000,-1.000000
-2.163157,-18.157011,11.221587,-0.634393,0.000000,0.773011
32.316720,-5.279832,-16.439360,0.000000,0.000000,-1.000000
-20.244419,-13.979672,-10.682947,0.000000,-0.000000,1.000000
48.127719,-22.014734,6.996498,-0.000000,-1.000000,0.000000
-17.607128,16.258322,-1.809375,0.000000,-1.000000,0.000000
-53.404564,-14.076210,-16.439360,0.000000,0.000000,-1.000000
48.730465,16.258322,8.106631,-0.000000,-1.000000,0.000000
-35.543065,-22.014734,-2.238471,0.000000,-1.000000,0.000000
-9.619592,11.015209,-10.682947,-0.000000,0.000000,1.000000
-49.013792,22.014734,-14.866120,-0.000000,1.000000,0.000000
41.930019,-12.535613,-10.682947,0.000000,-0.000000,1.000000
38.882552,16.258322,13.238164,-0.000000,-1.000000,0.000000
16.198703,22.014734,-11.314406,-0.000000,1.000000,0.000000
33.836181,12.656025,-16.439360,0.000000,0.000000,-1.000000
37.518391,-6.203939,-10.682947,-0.000000,0.000000,1.000000
-48.736877,1.488255,-10.682947,0.000000,-0.000000,1.000000
-10.650218,-16.258322,6.944531,-0.000000,1.000000,0.000000
17.308792,18.302147,-16.439360,0.000000,0.000000,-1.000000
29.474198,22.014734,-5.811774,-0.000000,1.000000,0.000000
41.952589,-18.419066,16.439360,-0.000000,0.000000,1.000000
-10.667519,-16.258322,-9.381097,-0.000000,1.000000,0.000000
17.251125,16.258322,4.641857,-0.000000,-1.000000,0.000000
-50.612207,16.258322,14.731510,0.000000,-1.000000,0.000000
14.663252,16.258322,-10.019667,0.000000,-1.000000,0.000000
16.391948,22.014734,-9.036287,-0.000000,1.000000,0.000000
10.294334,22.014734,2.091988,-0.000000,1.000000,0.000000
27.339349,-18.833522,10.747484,0.098016,0.000000,0.995185
35.298529,16.258322,7.913933,-0.000000,-1.000000,0.000000
-51.878240,22.014734,3.727005,-0.000000,1.000000,0.000000
30.793668,-16.258322,-5.037440,-0.000000,1.000000,0.000000
13.296630,22.014734,-2.624250,-0.000000,1.000000,0.000000
56.249281,0.102571,-10.682947,-0.000000,0.000000,1.000000
53.659889,2.143102,-10.682947,-0.000000,0.000000,1.000000
30.013676,-22.014734,4.669983,0.000000,-1.000000,0.000000
34.943148,22.014734,14.611400,0.000000,1.000000,0.000000
50.729492,-16.258322,2.640321,-0.000000,1.000000,0.000000
42.597918,-22.014734,-3.903588,0.000000,-1.000000,0.000000
-27.264386,10.530984,-16.439360,0.000000,0.000000,-1.000000
10.451711,-22.014734,-13.927544,0.000000,-1.000000,0.000000
-23.942122,-16.258322,-4.685763,-0.000000,1.000000,0.000000
-40.017404,3.435568,-16.439360,0.000000,0.000000,-1.000000
-35.647031,16.258322,13.090518,0.000000,-1.000000,0.000000
18.800337,-10.434527,-10.682947,0.000000,-0.000000,1.000000
-47.886394,-16.258322,13.709569,-0.000000,1.000000,0.000000
-53.512805,16.258322,9.843754,0.000000,-1.000000,0.000000
35.554023,16.258322,13.486105,-0.000000,-1.000000,0.000000
-47.574278,16.258322,-1.787357,0.000000,-1.000000,0.000000
-56.577271,-17.750908,10.772007,-1.000000,0.000000,0.000000
-47.717087,-22.014734,4.681870,0.000000,-1.000000,0.000000
37.516326,-16.258322,-1.779402,-0.000000,1.000000,0.000000
-51.670838,-5.335314,-10.682947,0.000000,-0.000000,1.000000
-7.079833,-22.014734,5.125086,0.000000,-1.000000,0.000000
31.430128,-16.018011,-10.682947,0.000000,-0.000000,1.000000
29.885059,-4.356509,-10.682947,-0.000000,0.000000,1.000000
-45.114789,-22.014734,6.140411,0.000000,-1.000000,0.000000
39.248171,16.258322,5.292294,-0.000000,-1.000000,0.000000
-6.096692,8.759178,-10.682947,-0.000000,0.000000,1.000000
-43.820099,16.258322,-10.359778,0.000000,-1.000000,0.000000
35.202457,-22.014734,-14.134422,0.000000,-1.000000,0.000000
-29.606790,-22.014734,1.811667,0.000000,-1.000000,0.000000
-7.717529,22.014734,9.774831,-0.000000,1.000000,0.000000
-18.657881,-22.014734,12.465479,0.000000,-1.000000,0.000000
-22.032148,16.258322,9.279585,0.000000,-1.000000,0.000000
3.477512,22.014734,2.223294,0.000000,1.000000,0.000000
-18.982473,-16.258322,-3.527091,-0.000000,1.000000,0.000000
-7.588694,-15.165883,-10.682947,0.000000,-0.000000,1.000000
9.700011,-22.014734,14.977935,-0.000000,-1.000000,0.000000
-56.077281,22.014734,7.724252,-0.000000,1.000000,0.000000
47.713324,-10.141478,-10.682947,-0.000000,0.000000,1.000000
31.835248,-22.014734,-0.123408,0.000000,-1.000000,0.000000
18.432560,-22.014734,-0.811751,0.000000,-1.000000,0.000000
-43.650488,22.014734,-11.564725,0.000000,1.000000,0.000000
27.468032,-3.322041,-10.682947,-0.000000,0.000000,1.000000
18.840224,-16.208456,-10.682947,0.000000,-0.000000,1.000000
15.110748,-22.014734,-13.293305,0.000000,-1.000000,0.000000
-20.628776,-16.258322,-3.389753,-0.000000,1.000000,0.000000
-54.620335,11.296842,-10.682947,0.000000,-0.000000,1.000000
-12.113933,22.014734,-7.379660,-0.000000,1.000000,0.000000
-6.629575,4.369820,-10.682947,-0.000000,0.000000,1.000000
43.332775,-6.577064,-16.439360,0.000000,0.000000,-1.000000
38.679332,-22.014734,11.614829,-0.000000,-1.000000,0.000000
22.244409,22.014734,0.863393,-0.000000,1.000000,0.000000
-5.969982,-16.845134,11.845832,0.773011,0.000000,0.634393
40.824713,22.014734,-8.895162,-0.000000,1.000000,0.000000
-3.814301,-14.513920,-10.682947,0.000000,-0.000000,1.000000
4.605305,20.259331,16.439360,-0.000000,0.000000,1.000000
-31.155086,10.208161,-16.439360,0.000000,0.000000,-1.000000
56.531121,-22.014734,5.974415,-0.000000,-1.000000,0.000000
-15.639908,19.452971,-16.439360,0.000000,0.000000,-1.000000
-48.271800,22.014734,-7.724657,-0.000000,1.000000,0.000000
53.582591,-5.722045,-16.439360,0.000000,0.000000,-1.000000
38.245218,-4.168032,-16.439360,0.000000,0.000000,-1.000000
-13.364700,15.112083,-16.439360,0.000000,0.000000,-1.000000
-38.744696,16.258322,5.201608,0.000000,-1.000000,0.000000
-4.598803,6.501784,-16.439360,0.000000,0.000000,-1.000000
-32.945601,2.222682,-16.439360,0.000000,0.000000,-1.000000
-39.304771,-20.035711,16.439360,0.000000,-0.000000,1.000000
-21.326054,-5.560578,-16.439360,0.000000,0.000000,-1.000000
-46.620953,-16.258322,1.738741,-0.000000,1.000000,0.000000
-45.163120,16.258322,8.555447,0.000000,-1.000000,0.000000
-38.548538,22.014734,-12.473429,-0.000000,1.000000,0.000000
-19.419914,20.145871,-16.439360,0.000000,0.000000,-1.000000
-18.444172,1.477924,-16.439360,0.000000,0.000000,-1.000000
-11.007853,-22.014734,9.647555,0.000000,-1.000000,0.000000
-7.987357,18.012408,16.439360,0.000000,-0.000000,1.000000
-32.702665,-16.546136,16.439360,-0.000000,0.000000,1.000000
-6.842954,-16.258322,9.477826,0.000000,1.000000,0.000000
3.433010,-22.014734,-11.605634,0.000000,-1.000000,0.000000
9.382824,-2.390282,-16.439360,0.000000,0.000000,-1.000000
41.887077,-3.926188,-16.439360,0.000000,0.000000,-1.000000
48.418917,-8.428267,-16.439360,0.000000,0.000000,-1.000000
30.401809,-5.859147,-16.439360,0.000000,0.000000,-1.000000
32.724252,3.281391,-16.439360,0.000000,0.000000,-1.000000
19.250432,-11.542801,-16.439360,0.000000,0.000000,-1.000000
-32.570060,-19.949785,16.439360,0.000000,-0.000000,1.000000
42.429720,6.735007,-10.682947,-0.000000,0.000000,1.000000
-17.077003,16.258322,5.209326,0.000000,-1.000000,0.000000
-18.148157,22.014734,-12.651265,-0.000000,1.000000,0.000000
-39.017119,16.258322,2.112939,0.000000,-1.000000,0.000000
-14.777073,-16.258322,10.286003,-0.000000,1.000000,0.000000
-46.005553,-11.435169,-16.439360,0.000000,0.000000,-1.000000
46.714992,-22.014734,7.864411,-0.000000,-1.000000,0.000000
24.693706,11.044455,-10.682947,-0.000000,0.000000,1.000000
10.330321,-20.081256,-16.439360,0.000000,0.000000,-1.000000
-28.636344,7.516849,-16.439360,0.000000,0.000000,-1.000000
1.166236,22.014734,6.838941,0.000000,1.000000,0.000000
-0.025106,-22.014734,3.627366,0.000000,-1.000000,0.000000
-26.102684,6.833600,-16.439360,0.000000,0.000000,-1.000000
24.625540,-19.453671,-16.439360,0.000000,0.000000,-1.000000
-39.988415,-10.858067,-16.439360,0.000000,0.000000,-1.000000
32.416974,14.268400,-16.439360,0.000000,0.000000,-1.000000
45.015937,15.641732,-16.439360,0.000000,0.000000,-1.000000
-37.833691,15.057154,-16.439360,0.000000,0.000000,-1.000000
-42.204245,22.014734,-0.871876,-0.000000,1.000000,0.000000
15.032997,16.258322,15.483266,0.000000,-1.000000,0.000000
0.852619,22.014734,-2.554445,-0.000000,1.000000,0.000000
-8.489927,-9.786639,-10.682947,0.000000,-0.000000,1.000000
-17.382974,10.720035,-16.439360,0.000000,0.000000,-1.000000
20.117566,-11.689382,-10.682947,0.000000,-0.000000,1.000000
53.534144,16.258322,4.873952,-0.000000,-1.000000,0.000000
-45.117220,9.981201,-16.439360,0.000000,0.000000,-1.000000
55.943034,-16.258322,1.966466,-0.000000,1.000000,0.000000
40.854898,22.014734,9.807931,-0.000000,1.000000,0.000000
-28.665528,16.258322,16.368287,0.000000,-1.000000,0.000000
11.821682,22.014734,-11.079151,-0.000000,1.000000,0.000000
24.133609,16.258322,1.715387,-0.000000,-1.000000,0.000000
-36.918650,1.501378,-16.439360,0.000000,0.000000,-1.000000
52.516007,-17.183629,16.439360,-0.000000,0.000000,1.000000
47.308664,16.258322,9.747351,-0.000000,-1.000000,0.000000
8.614516,-16.258322,-0.284912,-0.000000,1.000000,0.000000
40.506013,16.258322,14.594580,-0.000000,-1.000000,0.000000
36.083253,-21.901809,-16.439360,0.000000,0.000000,-1.000000
-47.670847,16.258322,-8.065055,0.000000,-1.000000,0.000000
8.098701,22.014734,-7.358014,-0.000000,1.000000,0.000000
-8.790615,22.014734,-7.625281,-0.000000,1.000000,0.000000
14.196655,22.014734,7.316230,0.000000,1.000000,0.000000
52.895507,-22.014734,-3.635287,-0.000000,-1.000000,0.000000
-43.419729,-22.014734,-12.320077,0.000000,-1.000000,0.000000
-27.697444,16.192742,-10.682947,-0.000000,0.000000,1.000000
-51.162098,14.160709,-10.682947,0.000000,-0.000000,1.000000
19.442523,-16.258322,6.208825,-0.000000,1.000000,0.000000
36.460608,4.099669,-16.439360,0.000000,0.000000,-1.000000
22.174842,-0.417435,-16.439360,0.000000,0.000000,-1.000000
37.795848,-22.014734,12.562107,-0.000000,-1.000000,0.000000
18.932448,11.487998,-16.439360,0.000000,0.000000,-1.000000
-38.286539,20.187682,16.439360,0.000000,-0.000000,1.000000
37.221061,-19.176592,-16.439360,0.000000,0.000000,-1.000000
12.381394,-22.014734,5.874702,-0.000000,-1.000000,0.000000
12.015077,22.014734,-0.427898,-0.000000,1.000000,0.000000
12.953802,-22.014734,-14.268965,0.000000,-1.000000,0.000000
-19.631672,-16.549118,16.439360,-0.000000,0.000000,1.000000
38.966662,22.014734,15.269120,0.000000,1.000000,0.000000
-13.093197,-1.321717,-16.439360,0.000000,0.000000,-1.000000
52.251730,17.586792,-16.439360,0.000000,0.000000,-1.000000
29.723186,22.014734,-9.078428,-0.000000,1.000000,0.000000
20.462706,-16.258322,10.530936,0.000000,1.000000,0.000000
27.868127,-20.940833,16.439360,0.000000,-0.000000,1.000000
12.475160,-22.014734,-13.458503,0.000000,-1.000000,0.000000
-17.620775,22.014734,-13.532248,-0.000000,1.000000,0.000000
-3.489271,3.336157,-16.439360,0.000000,0.000000,-1.000000
47.242875,-16.258322,2.558082,-0.000000,1.000000,0.000000
-47.909302,-22.014734,-10.487238,0.000000,-1.000000,0.000000
-30.838132,16.258322,15.386456,0.000000,-1.000000,0.000000
-45.001647,20.005465,-16.439360,0.000000,0.000000,-1.000000
16.570048,17.982584,-16.439360,0.000000,0.000000,-1.000000
-39.013180,16.258322,0.937295,0.000000,-1.000000,0.000000
-7.559272,22.014734,-2.211018,-0.000000,1.000000,0.000000
-8.678317,-22.014734,0.542785,0.000000,-1.000000,0.000000
28.712893,19.293446,16.439360,-0.000000,0.000000,1.000000
21.623603,-16.258322,5.258337,-0.000000,1.000000,0.000000
-34.593460,-10.504543,-10.682947,0.000000,-0.000000,1.000000
-5.388820,-12.189891,-16.439360,0.000000,0.000000,-1.000000
-22.914116,22.014734,14.585607,0.000000,1.000000,0.000000
-29.519518,-16.258322,-7.613248,-0.000000,1.000000,0.000000
-56.577271,-19.381164,13.287731,-1.000000,0.000000,0.000000
34.527034,-11.948074,-10.682947,0.000000,-0.000000,1.000000
-35.358760,-22.014734,-11.353854,0.000000,-1.000000,0.000000
56.577271,-16.254399,-14.876964,1.000000,0.000000,-0.000000
-38.480247,8.029738,-16.439360,0.000000,0.000000,-1.000000
21.223824,-16.258322,-0.542347,-0.000000,1.000000,0.000000
2.888007,18.314105,12.720969,-0.956940,0.000000,0.290284
18.128043,12.410776,-10.682947,-0.000000,0.000000,1.000000
-17.771960,11.902220,-16.439360,0.000000,0.000000,-1.000000
47.947876,-16.258322,3.009775,-0.000000,1.000000,0.000000
-24.912626,-16.258322,15.575197,0.000000,1.000000,0.000000
50.107249,-16.258322,11.727034,-0.000000,1.000000,0.000000
-21.896227,-12.522552,-16.439360,0.000000,0.000000,-1.000000
-6.570343,-16.258322,-5.244122,-0.000000,1.000000,0.000000
-39.422096,16.258322,11.177024,0.000000,-1.000000,0.000000
-43.410679,16.258322,9.588037,0.000000,-1.000000,0.000000
7.975177,22.014734,7.996069,0.000000,1.000000,0.000000
48.004383,14.843245,-16.439360,0.000000,0.000000,-1.000000
-48.251390,2.539454,-10.682947,0.000000,-0.000000,1.000000
12.377125,16.258322,3.673236,0.000000,-1.000000,0.000000
-45.354352,-3.893793,-16.439360,0.000000,0.000000,-1.000000
55.600103,22.014734,-5.247641,-0.000000,1.000000,0.000000
27.180619,22.014734,-3.797641,-0.000000,1.000000,0.000000
37.762096,10.169508,-10.682947,-0.000000,0.000000,1.000000
-25.751091,-11.620481,-16.439360,0.000000,0.000000,-1.000000
-28.861672,-22.014734,0.715678,0.000000,-1.000000,0.000000
48.158852,-20.960425,16.439360,-0.000000,0.000000,1.000000
-17.378639,-22.014734,-9.650169,0.000000,-1.000000,0.000000
-10.474962,-9.554457,-10.682947,0.000000,-0.000000,1.000000
-38.465171,-16.258322,0.015518,-0.000000,1.000000,0.000000
-4.151614,8.193734,-10.682947,-0.000000,0.000000,1.000000
-19.286655,-6.933322,-10.682947,0.000000,-0.000000,1.000000
30.759789,-19.345520,16.439360,-0.000000,0.000000,1.000000
-16.661466,-9.464357,-10.682947,0.000000,-0.000000,1.000000
0.222053,16.913641,16.439360,0.000000,-0.000000,1.000000
24.290797,-10.365045,-10.682947,0.000000,-0.000000,1.000000
38.309640,22.014734,-1.209490,-0.000000,1.000000,0.000000
-9.791679,-22.014734,5.043621,0.000000,-1.000000,0.000000
39.591546,22.014734,-10.712582,-0.000000,1.000000,0.000000
48.268886,-9.760995,-16.439360,0.000000,0.000000,-1.000000
56.577271,19.414896,-1.457448,1.000000,-0.000000,0.000000
-14.632809,-22.014734,5.301835,0.000000,-1.000000,0.000000
42.358443,16.796789,16.439360,0.000000,-0.000000,1.000000
39.390113,22.014734,-9.329412,-0.000000,1.000000,0.000000
28.527552,10.954572,-10.682947,-0.000000,0.000000,1.000000
-46.958523,16.258322,13.492976,0.000000,-1.000000,0.000000
-4.873427,-16.258322,3.293430,0.000000,1.000000,0.000000
-0.327630,-22.014734,3.561648,0.000000,-1.000000,0.000000
1.986414,-22.014734,-8.207664,0.000000,-1.000000,0.000000
-50.146722,-17.758633,16.439360,0.000000,-0.000000,1.000000
-31.133544,-16.258322,10.362244,-0.000000,1.000000,0.000000
4.783763,-3.991474,-16.439360,0.000000,0.000000,-1.000000
13.084706,-22.014734,-0.996798,0.000000,-1.000000,0.000000
-19.726497,-16.258322,2.605976,0.000000,1.000000,0.000000
-56.399785,15.194681,-16.439360,0.000000,0.000000,-1.000000
30.580092,-19.962815,16.439360,-0.000000,0.000000,1.000000
48.283285,22.014734,2.425538,-0.000000,1.000000,0.000000
25.737020,-11.223842,-10.682947,0.000000,-0.000000,1.000000
41.051064,16.258322,7.186886,-0.000000,-1.000000,0.000000
51.138438,-2.928677,-10.682947,-0.000000,0.000000,1.000000
-29.477841,14.299117,-16.439360,0.000000,0.000000,-1.000000
-52.691842,16.258322,12.223156,0.000000,-1.000000,0.000000
45.734865,16.258322,-6.133879,-0.000000,-1.000000,0.000000
-48.106510,16.258322,-8.869088,0.000000,-1.000000,0.000000
-27.527066,1.386358,-16.439360,0.000000,0.000000,-1.000000
32.554358,16.258322,2.031004,0.000000,-1.000000,0.000000
44.376411,-22.014734,10.469608,-0.000000,-1.000000,0.000000
3.807640,-4.377019,-16.439360,0.000000,0.000000,-1.000000
-18.217342,-16.258322,5.057826,-0.000000,1.000000,0.000000
53.791648,-15.221044,-16.439360,0.000000,0.000000,-1.000000
41.222743,-16.258322,7.348994,-0.000000,1.000000,0.000000
-47.101714,-7.945281,-16.439360,0.000000,0.000000,-1.000000
-9.543200,22.014734,6.828639,-0.000000,1.000000,0.000000
46.454480,-16.258322,8.288931,-0.000000,1.000000,0.000000
17.789481,14.544227,-16.439360,0.000000,0.000000,-1.000000
-21.954105,16.258322,16.349512,0.000000,-1.000000,0.000000
-35.996497,-16.258322,-2.074584,-0.000000,1.000000,0.000000
-12.567592,-22.014734,-12.744771,0.000000,-1.000000,0.000000
-30.213725,-18.799294,-16.439360,0.000000,0.000000,-1.000000
43.333222,13.101879,-10.682947,-0.000000,0.000000,1.000000
