x,y,z,nx,ny,nz
-6.494340,-1.331817,15.083768,-0.972370,-0.233445,-0.000000
-16.258557,0.535149,-34.114685,-0.996917,0.078459,0.000000
-8.506087,11.188389,-18.100596,-0.649448,0.760406,0.000000
-0.855873,1.115357,22.815487,0.634393,-0.773010,0.000000
13.969782,1.341607,-21.513756,0.996917,0.078459,0.000000
-6.906057,14.728750,-26.957346,-0.382683,0.923880,0.000000
-4.382092,13.372983,-7.024245,-0.382683,0.923880,0.000000
4.688715,0.958492,38.605528,0.000000,-1.000000,0.000000
13.693170,8.756153,-29.114332,0.852640,0.522499,-0.000000
16.147253,-1.949400,-41.992220,0.996917,-0.078459,0.000000
-5.522723,-8.546887,5.799213,-0.000000,0.000000,1.000000
12.878489,-5.575906,-10.740730,0.923880,-0.382683,0.000000
13.568017,3.593336,1.473577,0.972370,0.233446,-0.000000
16.139581,2.046878,-23.324236,0.996917,0.078459,-0.000000
-1.884821,-5.399684,27.271770,0.000000,-0.000000,1.000000
-12.252171,6.861810,-9.777246,-0.852640,0.522498,0.000000
5.749871,-1.615032,-42.907772,0.000000,0.000000,-1.000000
11.639767,7.861163,-18.629705,0.852640,0.522498,0.000000
-3.039333,5.908424,7.508712,-0.522499,0.852640,0.000000
12.868293,-5.600520,0.055346,0.923880,-0.382683,0.000000
-11.677822,7.799063,-17.983891,-0.852640,0.522498,0.000000
-13.624535,-2.374278,-42.907772,0.000000,0.000000,-1.000000
13.991275,2.252131,-23.011896,0.000000,-0.000000,1.000000
-4.785577,2.640849,31.440329,-0.852640,0.522499,0.000000
-16.227230,-0.933194,-24.658289,-0.996917,-0.078459,0.000000
-7.825277,-11.661758,-11.012077,-0.522498,-0.852640,0.000000
1.388013,0.242954,-34.187196,-0.995185,-0.098017,0.000000
5.658621,-12.844227,-18.613317,0.382683,-0.923880,0.000000
1.213221,0.711032,34.397799,-0.881921,-0.471397,0.000000
-15.893165,3.411457,-41.063058,-0.972370,0.233445,0.000000
-12.941256,5.424372,2.690635,-0.923880,0.382683,0.000000
-13.620598,-3.374318,5.745980,-0.972370,-0.233446,0.000000
-3.371915,-5.704618,7.201441,-0.522499,-0.852640,0.000000
8.692513,-1.779715,-42.907772,0.000000,0.000000,-1.000000
-8.270191,11.222921,-42.907772,0.000000,0.000000,-1.000000
-3.762935,-2.951899,42.907772,-0.000000,0.000000,1.000000
13.947923,-1.619359,5.471160,0.996917,-0.078459,0.000000
-15.904830,-3.362868,-36.021757,-0.972370,-0.233445,-0.000000
15.536934,4.895266,-30.691073,0.972370,0.233445,-0.000000
6.386563,1.780742,18.699326,0.972370,0.233445,-0.000000
12.897369,-5.530325,-10.871012,0.923880,-0.382683,0.000000
7.610886,-12.060754,-23.011896,0.000000,-0.000000,1.000000
-10.640641,12.282756,-31.943242,-0.649448,0.760406,0.000000
-14.282876,7.793841,-41.730760,-0.852640,0.522499,0.000000
-1.043755,0.943122,1.143314,0.773010,-0.634393,0.000000
3.431136,13.606957,-17.243379,0.233446,0.972370,0.000000
10.789925,8.972628,-9.147626,0.760406,0.649448,0.000000
4.689371,-13.057966,5.799213,0.000000,-0.000000,1.000000
1.779018,16.160662,-27.628679,0.078459,0.996917,-0.000000
12.125496,8.724300,-42.907772,0.000000,0.000000,-1.000000
-8.864273,-10.882469,-6.800063,-0.649448,-0.760406,0.000000
-4.350436,-4.997890,11.044458,-0.649448,-0.760406,0.000000
13.944971,-1.656867,-7.793459,0.996917,-0.078459,0.000000
13.873144,-8.462463,-33.459287,0.852640,-0.522499,0.000000
-12.511683,-6.438325,-16.281083,-0.852640,-0.522498,-0.000000
-16.162550,1.755031,-42.785448,-0.996917,0.078459,0.000000
13.182375,9.587323,-33.497831,0.760406,0.649448,0.000000
8.468237,2.318984,5.799213,0.000000,-0.000000,1.000000
4.957983,-13.134441,-14.597867,0.382683,-0.923880,0.000000
0.894650,1.083534,32.317394,-0.634393,-0.773010,0.000000
7.129295,-14.636282,-28.080959,0.382683,-0.923880,0.000000
5.477099,0.168364,24.383166,-1.000000,0.000000,0.000000
-10.339989,-1.382507,5.799213,0.000000,-0.000000,1.000000
-6.510719,-1.263594,7.995612,-0.972370,-0.233445,-0.000000
-10.972170,11.999602,-33.862838,-0.649448,0.760406,0.000000
1.351316,-0.385877,-25.066141,-0.956940,0.290285,0.000000
-15.548591,-4.846711,-37.230034,-0.972370,-0.233445,0.000000
6.245305,12.601215,-19.633250,0.382683,0.923880,0.000000
-6.480876,1.387899,20.616448,-0.972370,0.233445,0.000000
-2.141629,-16.132124,-33.556723,-0.078459,-0.996917,0.000000
-15.553024,4.828246,-24.060768,-0.972370,0.233445,0.000000
4.776950,8.557336,-42.907772,0.000000,0.000000,-1.000000
-4.793219,-4.590074,13.763056,-0.760406,-0.649448,0.000000
11.379932,11.651341,-32.261753,0.649448,0.760406,0.000000
16.234296,-0.843420,-39.583932,0.996917,-0.078459,0.000000
1.462182,-6.463042,8.319849,0.233445,-0.972370,0.000000
15.776531,-3.897272,-32.932752,0.972370,-0.233445,0.000000
5.477099,0.783338,20.472248,-1.000000,0.000000,0.000000
7.641432,14.376272,-41.270021,0.522499,0.852640,0.000000
3.560114,-0.473841,24.442637,1.000000,0.000000,0.000000
-1.054111,4.887243,42.907772,0.000000,0.000000,1.000000
3.560114,0.084429,-18.382828,1.000000,0.000000,0.000000
-13.489357,9.088745,-37.448753,-0.852640,0.522499,0.000000
0.356915,5.449010,37.095848,0.078459,0.996917,-0.000000
-14.653083,-7.088733,-39.454243,-0.923880,-0.382683,0.000000
0.445214,-1.333317,34.703203,-0.290285,0.956940,0.000000
4.876777,-13.168077,-7.320026,0.382683,-0.923880,0.000000
3.800814,-0.958492,-32.070651,0.000000,1.000000,-0.000000
5.477099,-0.028792,-38.453545,-1.000000,0.000000,0.000000
10.609261,-9.184158,-13.343834,0.760406,-0.649448,0.000000
-8.694254,-10.115926,-42.907772,0.000000,0.000000,-1.000000
-7.854932,-11.643586,-9.612066,-0.522498,-0.852640,0.000000
-0.035657,-16.297868,-38.201472,-0.078459,-0.996917,0.000000
0.281692,16.278505,-31.059202,0.078459,0.996917,-0.000000
7.653635,11.766941,-21.993572,0.522498,0.852640,0.000000
12.047215,-7.196269,-21.985247,0.852640,-0.522498,0.000000
12.881661,5.568247,1.326576,0.923880,0.382683,-0.000000
14.401175,-5.057193,-23.011896,0.000000,-0.000000,1.000000
-3.672123,4.044368,34.883349,-0.649448,0.760406,0.000000
-5.344785,12.607855,-42.907772,0.000000,0.000000,-1.000000
3.680653,5.515423,10.640854,0.522499,0.852640,0.000000
-16.074686,-2.655364,-27.544254,-0.972370,-0.233445,-0.000000
-1.754883,6.392771,8.538105,-0.233445,0.972370,0.000000
-6.477697,1.401141,26.991612,-0.972370,0.233445,0.000000
-10.835075,-8.919764,-12.784231,-0.760406,-0.649448,0.000000
1.138765,0.827351,38.601757,-0.773010,-0.634393,0.000000
14.845600,6.623957,-31.157027,0.923880,0.382683,-0.000000
3.484122,-5.635857,22.242673,0.522499,-0.852640,0.000000
-6.456997,1.487361,24.847453,-0.972370,0.233445,0.000000
12.534146,-6.401668,2.168328,0.852640,-0.522498,0.000000
6.404805,-12.532224,-6.526847,0.522498,-0.852640,0.000000
8.353188,-11.318977,-9.338826,0.649448,-0.760406,0.000000
-15.978109,-0.895767,-23.011896,0.000000,-0.000000,1.000000
-3.094618,-13.687748,2.692837,-0.233446,-0.972370,0.000000
3.242893,-4.410966,42.003458,0.649448,-0.760406,0.000000
-2.953988,4.593686,28.684964,-0.522499,0.852640,0.000000
13.813345,2.571473,-18.175448,0.972370,0.233446,0.000000
5.926213,-15.134615,-31.200581,0.382683,-0.923880,0.000000
-6.287744,-2.134113,19.845981,-0.923879,-0.382684,0.000000
7.363856,7.419799,5.799213,0.000000,-0.000000,1.000000
0.695996,-6.591520,21.977586,0.078459,-0.996917,0.000000
-8.656506,13.754234,-38.793512,-0.522499,0.852640,0.000000
6.639727,12.388264,-16.033941,0.522498,0.852640,-0.000000
-1.181691,-0.770020,-6.374165,0.881921,0.471397,0.000000
-6.503142,-2.597677,5.799213,0.000000,-0.000000,1.000000
3.560114,-0.289175,-38.335102,1.000000,0.000000,0.000000
14.035353,-0.508446,-7.331905,0.996917,-0.078459,0.000000
13.930860,1.836164,-15.544603,0.996917,0.078459,-0.000000
2.079901,9.663205,-42.907772,0.000000,0.000000,-1.000000
-14.999500,-6.252410,-30.419533,-0.923880,-0.382683,0.000000
14.021605,-0.683139,-11.000686,0.996917,-0.078459,0.000000
-13.212291,4.770036,-20.863454,-0.923880,0.382683,0.000000
-8.046216,11.526367,-7.163468,-0.522498,0.852640,0.000000
-12.707694,5.988241,-17.592869,-0.923880,0.382683,0.000000
1.206574,-0.723467,42.139174,-0.881921,0.471397,0.000000
-3.827526,5.425419,17.176772,-0.522499,0.852640,0.000000
5.439843,0.958492,-4.057260,0.000000,-1.000000,0.000000
3.420027,15.891107,-38.799978,0.233445,0.972370,0.000000
-13.022947,-5.227154,-3.020854,-0.923880,-0.382683,0.000000
-12.770425,5.836794,-0.910554,-0.923880,0.382683,0.000000
-13.075617,-5.099995,-0.667033,-0.923880,-0.382683,0.000000
-7.342041,-11.957885,-12.446005,-0.522498,-0.852640,0.000000
7.699313,-11.738949,-6.849276,0.522498,-0.852640,0.000000
13.300235,4.557721,4.370390,0.923880,0.382683,-0.000000
-2.221323,4.989993,40.553466,-0.382683,0.923880,0.000000
9.528729,10.314969,4.674755,0.649448,0.760406,-0.000000
11.543870,-1.290734,-42.907772,0.000000,0.000000,-1.000000
-9.130181,-13.463965,-35.154416,-0.522499,-0.852640,0.000000
-1.382313,-0.283696,-11.702402,0.956940,0.290285,-0.000000
-6.966758,14.703607,-41.489558,-0.382683,0.923880,0.000000
1.841667,13.930427,-5.307934,0.078459,0.996917,0.000000
-4.131110,-3.570563,39.458570,-0.760406,-0.649448,0.000000
14.068634,-0.085572,-2.003805,0.996917,-0.078459,0.000000
-2.779686,11.556658,-42.907772,0.000000,0.000000,-1.000000
-14.946247,-6.380972,-38.526405,-0.923880,-0.382683,-0.000000
13.459592,4.044958,-4.634615,0.972370,0.233446,-0.000000
-12.535111,-10.345171,-29.085472,-0.760406,-0.649448,0.000000
-0.492804,-14.036584,-9.461953,-0.078459,-0.996917,0.000000
5.861196,5.551278,5.799213,0.000000,-0.000000,1.000000
-14.507026,-7.428061,-39.693271,-0.852640,-0.522499,-0.000000
4.439425,-2.088130,42.907772,-0.000000,0.000000,1.000000
15.669626,4.342564,-41.173095,0.972370,0.233445,0.000000
10.068502,9.817306,2.652497,0.760406,0.649448,-0.000000
4.301289,5.039866,22.053337,0.649448,0.760406,-0.000000
-5.216588,13.027323,-12.106419,-0.382683,0.923880,0.000000
3.340649,5.723778,21.879449,0.522499,0.852640,-0.000000
1.392580,0.196589,21.898935,-0.995185,-0.098017,0.000000
-2.663259,-13.791308,4.859272,-0.233446,-0.972370,0.000000
3.313039,-4.351056,36.782546,0.649448,-0.760406,0.000000
-13.959147,-1.476736,3.557226,-0.996917,-0.078459,0.000000
-6.378408,-1.814707,23.437965,-0.972370,-0.233445,0.000000
-3.131761,-10.515308,5.799213,-0.000000,0.000000,1.000000
-3.947292,-3.785785,29.264239,-0.760406,-0.649448,0.000000
-2.144757,-16.131878,-34.839131,-0.078459,-0.996917,0.000000
-10.460426,-9.358422,-8.096363,-0.760406,-0.649448,0.000000
12.674975,10.181411,-26.723805,0.760406,0.649448,-0.000000
12.306332,-9.895622,-23.011896,-0.000000,0.000000,1.000000
13.785914,8.604808,-24.096757,0.852640,0.522499,-0.000000
-15.273618,5.590630,-23.878828,-0.923880,0.382683,0.000000
1.103885,9.241562,-42.907772,0.000000,0.000000,-1.000000
0.535886,5.434924,39.408641,0.078459,0.996917,-0.000000
6.356977,-8.918446,-42.907772,0.000000,0.000000,-1.000000
7.087164,14.653733,-40.424335,0.382683,0.923880,0.000000
4.394298,-4.960428,10.158683,0.649448,-0.760406,0.000000
3.560114,0.801130,-25.370283,1.000000,0.000000,0.000000
4.952077,2.312859,30.876931,0.923880,0.382683,-0.000000
12.576952,2.980039,5.799213,0.000000,-0.000000,1.000000
8.374172,11.301055,-17.094945,0.649448,0.760406,-0.000000
15.247055,5.654758,-39.862464,0.923880,0.382683,0.000000
-2.769082,4.240291,42.907772,0.000000,0.000000,1.000000
-14.116872,-8.064735,-32.071153,-0.852640,-0.522499,-0.000000
6.637057,0.117384,26.872987,0.996917,0.078459,-0.000000
6.537299,-1.152879,13.446086,0.972370,-0.233445,0.000000
-0.627612,-1.257810,42.748524,0.471397,0.881921,0.000000
-8.789408,10.946410,-3.446440,-0.649448,0.760406,0.000000
-12.706784,5.990438,-15.497002,-0.923880,0.382683,0.000000
3.560114,-0.799907,41.615271,1.000000,0.000000,0.000000
3.560114,0.867391,-7.564991,1.000000,0.000000,0.000000
0.482162,1.322108,4.434040,-0.290285,-0.956940,0.000000
2.465009,-13.838904,4.976489,0.233446,-0.972370,0.000000
-13.942613,-0.469536,-42.907772,0.000000,0.000000,-1.000000
11.676946,9.991437,-23.011896,0.000000,-0.000000,1.000000
-3.729988,-3.994947,41.230745,-0.649448,-0.760406,0.000000
0.727266,-1.204543,-40.211024,-0.471397,0.881921,0.000000
-2.317501,4.950154,39.647131,-0.382683,0.923880,0.000000
-8.769909,10.963064,-18.661607,-0.649448,0.760406,0.000000
11.797803,-11.208447,-36.771342,0.760406,-0.649448,0.000000
-6.359782,14.955024,-34.493051,-0.382683,0.923880,0.000000
-16.151027,-1.901443,-41.490132,-0.996917,-0.078459,-0.000000
11.328177,10.839719,-23.011896,-0.000000,0.000000,1.000000
2.069621,12.523524,5.799213,-0.000000,0.000000,1.000000
11.480240,-7.547910,-42.907772,0.000000,-0.000000,-1.000000
11.137706,-11.858221,-38.321824,0.649448,-0.760406,0.000000
-11.173068,11.828020,-24.578459,-0.649448,0.760406,0.000000
4.861001,0.958492,23.825046,0.000000,-1.000000,0.000000
6.238543,-2.252894,12.958567,0.923879,-0.382684,0.000000
-10.343615,-9.495189,-7.222573,-0.760406,-0.649448,0.000000
3.891095,-0.958492,22.321720,0.000000,1.000000,-0.000000
-6.014050,-2.794869,11.285489,-0.923879,-0.382684,0.000000
2.459086,13.840326,-9.292551,0.233446,0.972370,-0.000000
4.318043,-13.394030,-0.428648,0.233446,-0.972370,0.000000
-16.096643,-2.563908,-34.300165,-0.972370,-0.233445,-0.000000
-0.792459,14.013001,-11.957257,-0.078459,0.996917,0.000000
4.890564,-15.538063,-37.035393,0.233445,-0.972370,0.000000
0.508391,-16.260663,-33.826915,0.078459,-0.996917,0.000000
10.872077,-12.085091,-23.916102,0.649448,-0.760406,0.000000
11.149944,-8.551100,-14.560258,0.760406,-0.649448,0.000000
5.125058,-0.958492,-11.833164,0.000000,1.000000,0.000000
-4.773195,-15.566240,-38.335363,-0.233445,-0.972370,0.000000
-10.025008,-11.033046,-42.907772,0.000000,0.000000,-1.000000
12.745224,10.099160,-33.835906,0.760406,0.649448,0.000000
12.642270,6.146188,-5.885493,0.923880,0.382683,-0.000000
-10.406675,12.482581,-40.891606,-0.649448,0.760406,0.000000
-0.865267,6.578198,8.802681,-0.078459,0.996917,0.000000
10.750347,9.018968,-3.577442,0.760406,0.649448,-0.000000
15.310228,-5.502244,-39.962766,0.923880,-0.382683,0.000000
-12.442219,6.551680,-0.892227,-0.852640,0.522498,0.000000
-9.001840,-2.164967,5.799213,0.000000,-0.000000,1.000000
-3.245003,15.933127,-40.061010,-0.233445,0.972370,0.000000
-15.413533,-5.252845,-38.580396,-0.923880,-0.382683,-0.000000
-13.286590,4.590662,-1.669471,-0.923880,0.382683,0.000000
3.560114,-0.624315,29.914786,1.000000,0.000000,0.000000
5.722687,3.342429,10.362019,0.852640,0.522499,0.000000
5.170995,-0.958492,-33.975346,0.000000,1.000000,0.000000
-6.585757,0.769213,16.425171,-0.996917,0.078459,0.000000
13.646751,3.948954,-42.907772,-0.000000,0.000000,-1.000000
-5.302697,1.302370,34.117336,-0.972370,0.233445,0.000000
-4.802556,-3.794080,27.271770,0.000000,-0.000000,1.000000
4.329590,0.958492,-19.350959,0.000000,-1.000000,-0.000000
13.413065,4.238756,4.066727,0.972370,0.233446,-0.000000
-0.712005,1.212701,17.931063,0.471397,-0.881921,0.000000
9.027050,1.474348,5.799213,0.000000,-0.000000,1.000000
-13.944018,8.346806,-31.282443,-0.852640,0.522499,0.000000
15.034932,6.166868,-29.397517,0.923880,0.382683,-0.000000
-3.653929,-5.531799,26.785758,-0.522499,-0.852640,0.000000
-14.037826,-0.477025,-8.771517,-0.996917,-0.078459,-0.000000
-12.085401,10.871713,-37.167778,-0.760406,0.649448,0.000000
-9.135332,-10.650963,-19.145898,-0.649448,-0.760406,-0.000000
13.984182,1.158641,-9.846813,0.996917,0.078459,0.000000
8.475332,11.214657,-5.574010,0.649448,0.760406,-0.000000
-6.643739,-0.032490,26.689379,-0.996917,-0.078459,0.000000
-1.178560,-0.775877,11.951080,0.881921,0.471397,0.000000
2.860880,4.650742,38.542634,0.522499,0.852640,-0.000000
4.788149,-2.636653,27.273780,0.852640,-0.522499,0.000000
-11.771746,-7.645793,-2.559070,-0.852640,-0.522498,0.000000
-11.695281,-9.992178,-23.011896,-0.000000,0.000000,1.000000
-7.927395,-14.201034,-37.802782,-0.522499,-0.852640,0.000000
-2.180470,-6.268542,13.200172,-0.382684,-0.923879,0.000000
-13.966936,1.377776,-17.971296,-0.996917,0.078459,0.000000
-1.442928,-5.268952,36.668098,-0.233445,-0.972370,0.000000
4.167857,5.153827,25.343061,0.649448,0.760406,-0.000000
-3.660065,4.054667,41.315057,-0.649448,0.760406,0.000000
-10.856764,-12.098169,-42.015936,-0.649448,-0.760406,-0.000000
-14.073263,-8.135897,-42.905649,-0.852640,-0.522499,-0.000000
15.765624,-3.942702,-37.571905,0.972370,-0.233445,0.000000
7.881711,11.627175,-10.438810,0.522498,0.852640,0.000000
-5.328553,0.231531,-42.907772,0.000000,0.000000,-1.000000
-5.197720,-6.681749,-42.907772,0.000000,0.000000,-1.000000
6.409883,-1.683606,14.990396,0.972370,-0.233445,0.000000
-7.499617,11.861323,-19.851340,-0.522498,0.852640,0.000000
0.351798,-14.323247,-23.011896,-0.000000,-0.000000,1.000000
0.830562,1.136130,-37.683273,-0.634393,-0.773010,0.000000
-13.637363,3.304488,-18.830172,-0.972370,0.233446,0.000000
3.644855,-0.958492,-14.204406,0.000000,1.000000,-0.000000
10.303194,9.542516,3.979089,0.760406,0.649448,-0.000000
-3.322529,11.516196,5.799213,0.000000,0.000000,1.000000
-13.959139,8.322132,-28.525444,-0.852640,0.522499,0.000000
-6.599557,0.593875,21.409947,-0.996917,0.078459,0.000000
10.277809,9.572238,5.765434,0.760406,0.649448,-0.000000
1.177811,-0.777279,41.244837,-0.881921,0.471397,0.000000
-5.105830,13.073200,-1.665420,-0.382683,0.923880,0.000000
15.424794,-5.225659,-36.128893,0.923880,-0.382683,0.000000
0.465607,16.264030,-23.602571,0.078459,0.996917,-0.000000
1.058748,13.992044,-18.736360,0.078459,0.996917,0.000000
6.548084,-1.107959,21.418755,0.972370,-0.233445,0.000000
-15.306778,5.510573,-27.470871,-0.923880,0.382683,0.000000
6.805798,12.286496,-7.247717,0.522498,0.852640,-0.000000
-5.281601,-1.390243,31.685921,-0.972370,-0.233445,-0.000000
3.503548,-13.589573,-22.866753,0.233446,-0.972370,0.000000
3.930466,-0.958492,-1.917548,0.000000,1.000000,-0.000000
-4.785587,4.599010,20.655746,-0.760406,0.649448,0.000000
0.624687,2.519702,42.907772,0.000000,-0.000000,1.000000
-4.190302,-5.134657,26.777312,-0.649448,-0.760406,0.000000
13.366144,4.398602,-9.061681,0.923880,0.382683,0.000000
15.809966,3.758002,-36.225488,0.972370,0.233445,0.000000
-9.720562,-2.036225,5.799213,0.000000,-0.000000,1.000000
10.494943,12.407194,-23.942831,0.649448,0.760406,-0.000000
6.028992,2.758795,10.844323,0.923879,0.382684,0.000000
3.459551,-10.083802,5.799213,0.000000,-0.000000,1.000000
0.881746,-1.094125,33.646742,-0.634393,0.773010,0.000000
7.083702,-14.655167,-29.233849,0.382683,-0.923880,0.000000
-5.843488,3.145300,25.950506,-0.852640,0.522499,0.000000
15.321077,-5.476054,-36.993257,0.923880,-0.382683,0.000000
-10.909477,-12.053148,-34.292909,-0.649448,-0.760406,-0.000000
15.782811,-3.871111,-23.625461,0.972370,-0.233445,0.000000
12.219776,-6.914675,-2.260958,0.852640,-0.522498,0.000000
-0.251458,-6.626505,26.318344,-0.078459,-0.996917,0.000000
-2.580157,6.102986,18.390905,-0.382684,0.923879,0.000000
-0.674013,-1.233008,32.041963,0.471397,0.881921,0.000000
0.637809,16.250478,-26.642866,0.078459,0.996917,-0.000000
1.490562,13.958059,-12.645826,0.078459,0.996917,0.000000
-6.035075,-2.744109,26.426406,-0.923879,-0.382684,0.000000
0.865156,1.107739,31.521164,-0.634393,-0.773010,0.000000
0.437335,14.040950,-13.914747,0.078459,0.996917,-0.000000
5.139064,-9.509694,-42.907772,0.000000,0.000000,-1.000000
13.595209,-3.480073,-2.434401,0.972370,-0.233446,0.000000
3.738009,13.533284,-15.297052,0.233446,0.972370,0.000000
12.546019,-7.094253,-42.907772,0.000000,-0.000000,-1.000000
5.477099,-0.494535,-21.446593,-1.000000,0.000000,0.000000
-6.090481,-2.610347,8.116123,-0.923879,-0.382684,0.000000
-9.405909,13.294999,-41.904735,-0.522499,0.852640,0.000000
-1.115083,-0.856208,28.639263,0.773010,0.634393,0.000000
-14.985053,-6.287287,-41.774840,-0.923880,-0.382683,-0.000000
0.566172,-1.290650,26.846363,-0.471397,0.881921,0.000000
0.601446,16.253339,-31.741660,0.078459,0.996917,-0.000000
1.011649,-0.982243,23.208465,-0.773010,0.634393,0.000000
-14.058855,-0.209830,-12.991387,-0.996917,-0.078459,-0.000000
5.239214,8.837083,5.799213,0.000000,-0.000000,1.000000
-8.301670,-13.971678,-25.219287,-0.522499,-0.852640,0.000000
-2.330262,4.944868,32.325703,-0.382683,0.923880,0.000000
8.129215,11.475504,-11.317611,0.522498,0.852640,0.000000
7.222530,-14.597663,-35.568311,0.382683,-0.923880,0.000000
2.994450,13.711796,-2.748155,0.233446,0.972370,-0.000000
-4.941332,7.215086,-42.907772,0.000000,0.000000,-1.000000
1.264190,0.615675,15.369268,-0.881921,-0.471397,0.000000
6.575590,-0.898405,6.454163,0.996917,-0.078459,0.000000
10.720561,-9.053842,-8.216541,0.760406,-0.649448,0.000000
6.112641,-2.556848,23.782136,0.923879,-0.382684,0.000000
-7.886208,9.378731,5.799213,-0.000000,-0.000000,1.000000
-15.109407,5.987069,-36.042432,-0.923880,0.382683,0.000000
6.513033,1.253954,24.109165,0.972370,0.233445,-0.000000
-9.706997,13.080163,-32.784349,-0.649448,0.760406,0.000000
0.075559,1.404500,-27.430653,-0.098017,-0.995185,0.000000
-3.567303,2.351167,-42.907772,0.000000,0.000000,-1.000000
12.816581,-5.725364,-10.485405,0.923880,-0.382683,0.000000
0.251258,-6.626521,22.172191,0.078459,-0.996917,0.000000
-9.317997,2.189153,-42.907772,0.000000,0.000000,-1.000000
-6.245205,15.002484,-30.522821,-0.382683,0.923880,0.000000
-1.275152,0.595167,1.691559,0.881921,-0.471397,0.000000
1.156199,6.536502,11.452562,0.233445,0.972370,-0.000000
-14.962356,6.342083,-27.027630,-0.923880,0.382683,0.000000
3.560114,0.361562,-13.913443,1.000000,0.000000,0.000000
-15.951884,3.166875,-34.274597,-0.972370,0.233445,0.000000
5.486656,-8.973433,-42.907772,0.000000,0.000000,-1.000000
-4.956640,4.398733,27.220517,-0.760406,0.649448,0.000000
-12.542087,10.337003,-30.916454,-0.760406,0.649448,0.000000
-11.223128,-7.253328,5.799213,0.000000,-0.000000,1.000000
-3.354466,5.715311,27.026040,-0.522499,0.852640,0.000000
-8.215688,11.422514,5.400363,-0.522498,0.852640,0.000000
-12.128800,-7.063134,-18.132158,-0.852640,-0.522498,-0.000000
-1.581308,-5.235730,28.784935,-0.233445,-0.972370,0.000000
0.695301,1.221629,15.026563,-0.471397,-0.881921,0.000000
-5.050098,-13.096286,1.723135,-0.382683,-0.923880,0.000000
10.193204,-9.671298,-10.446969,0.760406,-0.649448,0.000000
6.063830,-2.674689,17.623436,0.923879,-0.382684,0.000000
1.294439,16.198799,-25.369757,0.078459,0.996917,-0.000000
-0.122903,-16.291002,-27.446462,-0.078459,-0.996917,0.000000
9.641946,11.739492,-23.011896,0.000000,0.000000,1.000000
0.189395,-14.060463,-18.728517,0.078459,-0.996917,0.000000
1.192057,0.750626,-28.514892,-0.881921,-0.471397,0.000000
-16.167140,1.696701,-27.649067,-0.996917,0.078459,0.000000
13.978390,1.232238,-10.883372,0.996917,0.078459,0.000000
10.826928,8.929303,-4.751904,0.760406,0.649448,-0.000000
-0.384390,-15.070258,-42.907772,0.000000,-0.000000,-1.000000
12.527625,10.353936,-29.588691,0.760406,0.649448,-0.000000
-10.397903,-9.431627,-18.241639,-0.760406,-0.649448,0.000000
4.429032,13.353539,-9.413950,0.382683,0.923880,-0.000000
0.505492,-1.315032,-41.336611,-0.290285,0.956940,0.000000
1.918250,-16.149704,-26.942960,0.078459,-0.996917,0.000000
-6.457305,-9.385391,5.799213,0.000000,-0.000000,1.000000
12.937841,5.432617,-0.933813,0.923880,0.382683,-0.000000
10.685168,9.095283,-11.155876,0.760406,0.649448,0.000000
13.441369,9.167055,-30.992105,0.852640,0.522499,-0.000000
-15.314743,-5.491345,-40.212594,-0.923880,-0.382683,-0.000000
1.649138,13.945579,-22.654014,0.078459,0.996917,0.000000
5.528677,3.659025,16.306817,0.852640,0.522499,-0.000000
-8.962757,-13.566563,-40.247231,-0.522499,-0.852640,0.000000
-5.468418,0.110311,39.982767,-0.996917,0.078459,0.000000
-13.884740,8.443540,-37.407533,-0.852640,0.522499,0.000000
-1.176857,0.779064,-14.558579,0.881921,-0.471397,0.000000
-5.038805,4.302530,20.592489,-0.760406,0.649448,0.000000
-9.232786,-13.401089,-37.578774,-0.522499,-0.852640,0.000000
5.387436,0.958492,20.224367,0.000000,-1.000000,-0.000000
-7.118523,-0.508532,-42.907772,0.000000,0.000000,-1.000000
11.595219,7.933859,-19.668676,0.852640,0.522498,0.000000
-0.927192,1.056828,-3.629128,0.634393,-0.773010,0.000000
4.138730,1.507703,-42.907772,0.000000,0.000000,-1.000000
-15.262643,5.617125,-24.886916,-0.923880,0.382683,0.000000
2.886853,16.019111,-26.698920,0.233445,0.972370,-0.000000
6.607034,-7.674043,-42.907772,0.000000,-0.000000,-1.000000
-9.790311,-0.620234,-42.907772,0.000000,0.000000,-1.000000
-4.753747,-2.692792,33.961313,-0.852640,-0.522499,-0.000000
-3.072490,4.521068,28.675158,-0.522499,0.852640,0.000000
13.306091,-9.387809,-26.600856,0.852640,-0.522499,0.000000
2.696835,14.465974,-42.907772,0.000000,0.000000,-1.000000
1.693781,-13.942065,-14.732629,0.078459,-0.996917,0.000000
0.828784,-1.137589,22.128927,-0.634393,0.773010,0.000000
-0.988010,13.997611,-18.565436,-0.078459,0.996917,0.000000
-1.394932,-0.172707,12.475382,0.995185,0.098017,0.000000
0.642228,-1.249997,-12.925324,-0.471397,0.881921,0.000000
10.696134,-12.235360,-42.442403,0.649448,-0.760406,0.000000
6.504407,1.289887,19.883928,0.972370,0.233445,0.000000
-4.438466,15.646602,-35.385689,-0.233445,0.972370,0.000000
-14.374729,7.643951,-26.850481,-0.852640,0.522499,0.000000
-5.959289,2.927072,18.390903,-0.923879,0.382684,0.000000
1.051972,0.933108,28.509108,-0.773010,-0.634393,0.000000
-15.045936,4.376883,-42.907772,0.000000,0.000000,-1.000000
-12.340074,-6.718365,-5.916898,-0.852640,-0.522498,-0.000000
-0.036820,-14.072471,-17.777088,-0.078459,-0.996917,0.000000
3.560114,0.624008,4.171319,1.000000,0.000000,0.000000
-4.025095,-13.464360,-6.184198,-0.233446,-0.972370,0.000000
6.507026,-1.278977,17.712873,0.972370,-0.233445,0.000000
10.540169,9.265054,-22.138310,0.760406,0.649448,0.000000
-11.156162,-4.797553,-42.907772,0.000000,0.000000,-1.000000
11.839303,-11.159857,-41.465360,0.760406,-0.649448,0.000000
13.592747,-3.490325,-2.704614,0.972370,-0.233446,0.000000
-0.678780,-1.230460,36.392594,0.471397,0.881921,0.000000
-4.734845,-8.019508,-42.907772,0.000000,-0.000000,-1.000000
1.541497,6.444000,22.087235,0.233445,0.972370,-0.000000
-0.147679,-1.397397,-34.490597,0.098017,0.995185,-0.000000
-2.743217,-13.772112,-15.188181,-0.233446,-0.972370,0.000000
-7.461388,-11.509563,5.799213,-0.000000,0.000000,1.000000
-8.158491,-11.457565,-0.049863,-0.522498,-0.852640,0.000000
6.766773,14.786443,-26.091200,0.382683,0.923880,-0.000000
-4.613756,15.604518,-29.444055,-0.233445,0.972370,0.000000
-6.077023,-12.670919,-19.059718,-0.382683,-0.923880,0.000000
-11.305959,-8.368430,-7.723961,-0.760406,-0.649448,0.000000
-8.264398,13.420123,-23.011896,0.000000,-0.000000,1.000000
-2.852537,-16.027349,-27.721941,-0.233445,-0.972370,0.000000
-9.999426,-12.830405,-42.095396,-0.649448,-0.760406,-0.000000
-1.386454,-1.793752,-42.907772,0.000000,0.000000,-1.000000
9.354722,10.463585,4.766566,0.649448,0.760406,-0.000000
4.608456,-13.279219,5.160733,0.382683,-0.923880,0.000000
-3.817292,-3.920383,40.765843,-0.649448,-0.760406,-0.000000
-13.068705,5.116682,-11.933643,-0.923880,0.382683,0.000000
-1.917501,7.861211,5.799213,0.000000,-0.000000,1.000000
3.939000,-0.958492,-30.376032,0.000000,1.000000,0.000000
-13.549623,-3.669950,3.443243,-0.972370,-0.233446,0.000000
-6.342800,-1.963026,24.583681,-0.972370,-0.233445,0.000000
13.374467,8.525906,-23.011896,0.000000,0.000000,1.000000
5.477099,-0.871284,-30.193700,-1.000000,0.000000,0.000000
9.423518,-13.284208,-28.136285,0.522499,-0.852640,0.000000
1.310204,-0.521407,-8.329265,-0.956940,0.290285,0.000000
7.093893,-12.109951,-19.784443,0.522498,-0.852640,0.000000
-1.314662,-5.299746,37.088123,-0.233445,-0.972370,0.000000
-12.375257,-6.660952,-11.023463,-0.852640,-0.522498,-0.000000
11.885716,-11.105514,-34.441714,0.760406,-0.649448,0.000000
13.677015,-3.139327,-18.834149,0.972370,-0.233446,0.000000
-15.633217,3.113485,-42.907772,0.000000,0.000000,-1.000000
3.914528,-0.958492,0.286582,0.000000,1.000000,-0.000000
-2.161422,-13.905261,-2.456178,-0.078459,-0.996917,0.000000
-0.964644,1.026091,-14.345362,0.634393,-0.773010,0.000000
-2.532739,16.101343,-24.337575,-0.078459,0.996917,0.000000
11.267601,-11.747281,-39.628653,0.649448,-0.760406,0.000000
-0.235836,14.056808,2.656169,-0.078459,0.996917,0.000000
-0.831885,-1.135044,35.504892,0.634393,0.773010,0.000000
-14.629089,7.146660,-38.336899,-0.923880,0.382683,0.000000
2.286470,-4.963007,32.341563,0.382683,-0.923880,0.000000
-6.796253,-12.292345,-4.794992,-0.522498,-0.852640,0.000000
4.095663,-15.728901,-41.394910,0.233445,-0.972370,0.000000
1.394924,0.172783,-16.031226,-0.995185,-0.098017,0.000000
-5.490646,-3.721086,21.875577,-0.852640,-0.522499,0.000000
16.144062,1.989934,-27.835670,0.996917,0.078459,-0.000000
5.152676,-0.958492,-26.687794,0.000000,1.000000,0.000000
12.999532,0.968158,5.799213,-0.000000,-0.000000,1.000000
5.069009,13.088452,-1.894501,0.382683,0.923880,-0.000000
0.644932,-1.248552,13.140690,-0.471397,0.881921,0.000000
4.749708,0.958492,-36.931695,0.000000,-1.000000,-0.000000
-6.325433,-12.568025,-11.745139,-0.382683,-0.923880,0.000000
3.560114,-0.346188,34.737080,1.000000,0.000000,0.000000
-15.226827,5.703592,-39.453323,-0.923880,0.382683,0.000000
4.052131,-3.663035,36.106805,0.760406,-0.649448,0.000000
-13.430386,4.166608,-13.258146,-0.972370,0.233446,0.000000
5.777036,-15.196406,-32.305288,0.382683,-0.923880,0.000000
-1.822804,-13.931911,-21.633448,-0.078459,-0.996917,0.000000
-13.980909,-1.200221,-21.224249,-0.996917,-0.078459,-0.000000
-11.386250,11.645945,-27.122447,-0.649448,0.760406,0.000000
0.474106,1.324552,-2.552918,-0.290285,-0.956940,0.000000
-15.837032,3.645264,-26.140202,-0.972370,0.233445,0.000000
1.650926,14.565330,-42.907772,0.000000,0.000000,-1.000000
5.244595,-1.544381,31.706821,0.972370,-0.233445,0.000000
-15.263284,5.615577,-24.118845,-0.923880,0.382683,0.000000
-2.690302,15.384764,-42.907772,0.000000,0.000000,-1.000000
3.560114,-0.192126,12.404868,1.000000,0.000000,0.000000
8.091105,-11.498858,-16.279429,0.522498,-0.852640,0.000000
-0.824082,-1.141448,-38.840766,0.634393,0.773010,-0.000000
-13.925126,1.909019,3.825753,-0.996917,0.078459,0.000000
-10.825874,8.930537,-4.007332,-0.760406,0.649448,0.000000
3.300648,13.638285,2.999813,0.233446,0.972370,-0.000000
-5.009619,-13.113052,-14.450015,-0.382683,-0.923880,0.000000
6.173345,2.410296,20.967228,0.923879,0.382684,-0.000000
16.243693,-0.724012,-39.212309,0.996917,-0.078459,0.000000
-11.605262,11.433884,-30.340339,-0.760406,0.649448,0.000000
13.920951,1.962071,-5.285064,0.996917,0.078459,-0.000000
4.602396,4.782696,23.105034,0.649448,0.760406,0.000000
12.076247,-7.148893,-8.111131,0.852640,-0.522498,0.000000
4.963003,4.391284,19.976567,0.760406,0.649448,-0.000000
14.370412,-7.650994,-29.748440,0.852640,-0.522499,0.000000
13.788740,2.673959,-20.796240,0.972370,0.233446,0.000000
7.508726,-14.457595,-27.900000,0.522499,-0.852640,0.000000
-12.436660,-10.460442,-23.611175,-0.760406,-0.649448,0.000000
-13.872049,-2.326950,-0.921145,-0.972370,-0.233446,-0.000000
-11.617588,11.419452,-25.688223,-0.760406,0.649448,0.000000
-4.489252,-15.634409,-28.841445,-0.233445,-0.972370,0.000000
-3.858749,-12.753094,-42.907772,0.000000,-0.000000,-1.000000
-0.047509,-16.296935,-34.539693,-0.078459,-0.996917,0.000000
6.067796,12.674741,0.508651,0.382683,0.923880,0.000000
-6.641504,0.060882,22.858938,-0.996917,0.078459,0.000000
-16.290110,0.134232,-31.470309,-0.996917,0.078459,0.000000
-1.266746,-0.610892,-19.373808,0.881921,0.471397,-0.000000
15.784287,-3.864965,-42.608891,0.972370,-0.233445,0.000000
3.777580,-15.805266,-34.599968,0.233445,-0.972370,0.000000
5.477099,0.312479,-11.973656,-1.000000,0.000000,0.000000
-3.891725,3.850846,31.137830,-0.760406,0.649448,0.000000
-2.648063,-16.076439,-28.699004,-0.233445,-0.972370,0.000000
12.681051,6.052564,-13.748293,0.923880,0.382683,-0.000000
-1.742625,2.609853,42.907772,0.000000,0.000000,1.000000
13.498154,-3.884335,-13.204945,0.972370,-0.233446,0.000000
-4.682666,-2.814830,-42.907772,0.000000,0.000000,-1.000000
-12.451783,10.442735,-23.941152,-0.760406,0.649448,0.000000
-2.119918,16.133832,-24.141325,-0.078459,0.996917,0.000000
12.189971,10.749278,-39.219596,0.760406,0.649448,0.000000
5.272093,-1.429846,40.033889,0.972370,-0.233445,0.000000
-12.827879,-10.002383,-31.584395,-0.760406,-0.649448,0.000000
-13.319412,4.511424,-2.191791,-0.923880,0.382683,0.000000
14.056757,0.236486,-10.566884,0.996917,0.078459,0.000000
-9.189214,10.604943,-13.676502,-0.649448,0.760406,0.000000
-0.275753,-14.053667,-10.608569,-0.078459,-0.996917,0.000000
8.404455,11.275191,-16.987044,0.649448,0.760406,-0.000000
-3.996892,-15.752614,-35.993174,-0.233445,-0.972370,0.000000
-2.375000,-6.187965,11.347925,-0.382684,-0.923879,-0.000000
5.477099,-0.391026,9.592996,-1.000000,0.000000,0.000000
-1.287423,0.572208,-3.724640,0.881921,-0.471397,0.000000
13.279714,9.430853,-39.849981,0.852640,0.522499,-0.000000
-4.601996,-2.940427,32.865613,-0.852640,-0.522499,-0.000000
16.125591,0.646919,-42.907772,0.000000,0.000000,-1.000000
-6.799861,-12.290133,-11.103526,-0.522498,-0.852640,0.000000
10.815595,-0.089523,-42.907772,0.000000,0.000000,-1.000000
13.530499,3.749606,0.189535,0.972370,0.233446,-0.000000
5.149297,1.836727,31.819352,0.923880,0.382683,0.000000
4.159720,3.537065,36.309135,0.760406,0.649448,-0.000000
0.894161,-1.083936,-11.061482,-0.634393,0.773010,0.000000
-15.906350,-3.356538,-24.335137,-0.972370,-0.233445,0.000000
11.101569,11.889086,-28.963455,0.649448,0.760406,0.000000
3.560114,0.201196,-9.410085,1.000000,0.000000,0.000000
11.890906,-11.099437,-36.841359,0.760406,-0.649448,0.000000
11.284196,3.004498,-42.907772,-0.000000,0.000000,-1.000000
3.571765,15.854678,-32.258577,0.233445,0.972370,-0.000000
13.826440,-2.516928,-6.257945,0.972370,-0.233446,0.000000
4.749107,0.958492,-7.607658,0.000000,-1.000000,-0.000000
14.624324,-3.400332,-42.907772,0.000000,0.000000,-1.000000
14.187188,-7.949990,-29.008419,0.852640,-0.522499,0.000000
-13.629472,3.337357,-20.510973,-0.972370,0.233446,0.000000
-1.256282,-16.201802,-33.626454,-0.078459,-0.996917,0.000000
-4.419718,13.357397,5.765109,-0.382683,0.923880,0.000000
-0.749059,11.476444,5.799213,0.000000,-0.000000,1.000000
-5.647717,15.249971,-36.456363,-0.382683,0.923880,0.000000
-5.130822,15.464076,-33.244674,-0.382683,0.923880,0.000000
-13.256363,-4.663637,2.854598,-0.923880,-0.382683,0.000000
-5.066758,15.490612,-39.406843,-0.382683,0.923880,0.000000
5.262665,0.958492,15.190699,0.000000,-1.000000,-0.000000
-1.211078,6.523327,23.418958,-0.233445,0.972370,0.000000
-6.619717,-0.337712,8.239241,-0.996917,-0.078459,-0.000000
10.860702,-8.889758,-12.316640,0.760406,-0.649448,0.000000
-15.701343,4.210454,-42.570952,-0.972370,0.233445,0.000000
-0.135933,-8.506793,5.799213,0.000000,-0.000000,1.000000
-11.508317,-10.694661,-23.011896,-0.000000,0.000000,1.000000
-1.383892,-0.278489,-14.941041,0.956940,0.290285,-0.000000
-10.237487,9.619449,-10.985014,-0.760406,0.649448,0.000000
15.367686,3.747449,-42.907772,-0.000000,0.000000,-1.000000
0.563910,1.291859,-17.691922,-0.471397,-0.881921,0.000000
15.511295,5.002059,-26.673816,0.972370,0.233445,-0.000000
0.723306,-1.206660,-31.808425,-0.471397,0.881921,0.000000
10.955306,8.778992,-12.701645,0.760406,0.649448,0.000000
-14.869113,-1.159465,-23.011896,0.000000,-0.000000,1.000000
-5.341487,-1.140800,28.269670,-0.972370,-0.233445,-0.000000
-12.774387,1.069769,5.799213,0.000000,-0.000000,1.000000
-15.656004,-4.399303,-37.827247,-0.972370,-0.233445,-0.000000
4.740758,0.958492,-4.251124,0.000000,-1.000000,-0.000000
1.849729,16.155097,-27.238987,0.078459,0.996917,-0.000000
0.452565,-1.331087,19.861727,-0.290285,0.956940,0.000000
-3.395255,1.606335,-42.907772,0.000000,0.000000,-1.000000
9.220749,-10.578010,-0.522077,0.649448,-0.760406,0.000000
-3.757781,-13.607002,-42.907772,0.000000,-0.000000,-1.000000
13.957107,1.502656,-1.825774,0.996917,0.078459,-0.000000
-9.699071,10.169484,-6.225105,-0.649448,0.760406,0.000000
13.809101,2.589147,-9.733244,0.972370,0.233446,0.000000
16.205516,-1.209100,-29.362642,0.996917,-0.078459,0.000000
0.987863,1.007037,-14.596797,-0.634393,-0.773010,0.000000
-0.264077,13.877466,5.799213,0.000000,-0.000000,1.000000
5.477099,0.489167,18.865037,-1.000000,0.000000,0.000000
4.464906,15.640254,-26.950000,0.233445,0.972370,-0.000000
13.557434,-3.637417,-18.659127,0.972370,-0.233446,0.000000
-7.966386,2.315312,-42.907772,0.000000,0.000000,-1.000000
1.197428,0.740578,-12.791367,-0.881921,-0.471397,0.000000
6.052388,15.082351,-32.024888,0.382683,0.923880,-0.000000
1.255370,0.632177,31.642028,-0.881921,-0.471397,0.000000
1.231700,-11.171772,-42.907772,0.000000,0.000000,-1.000000
-4.518005,3.077487,33.515993,-0.852640,0.522499,0.000000
1.975006,6.339924,15.573151,0.233445,0.972370,0.000000
4.945907,2.327753,40.469055,0.923880,0.382683,-0.000000
6.852730,-12.257736,2.188669,0.522498,-0.852640,0.000000
0.828771,-1.137599,3.079386,-0.634393,0.773010,0.000000
-14.566785,-7.297076,-35.581640,-0.923880,-0.382683,0.000000
-1.245220,0.651165,12.974607,0.881921,-0.471397,0.000000
5.468475,-0.958492,-10.883502,-0.000000,1.000000,0.000000
-12.729486,10.117587,-23.724671,-0.760406,0.649448,0.000000
13.593781,-3.486020,-3.703674,0.972370,-0.233446,0.000000
14.059445,-0.202337,-19.671441,0.996917,-0.078459,0.000000
3.469137,-5.645041,26.603822,0.522499,-0.852640,0.000000
-9.433557,10.581484,-42.907772,0.000000,0.000000,-1.000000
3.560114,-0.582610,-8.002929,1.000000,0.000000,0.000000
1.379535,-16.192102,-24.336800,0.078459,-0.996917,0.000000
5.218765,-13.026421,-6.257971,0.382683,-0.923880,0.000000
3.574757,14.879759,-42.907772,0.000000,0.000000,-1.000000
15.046874,-6.138038,-27.289420,0.923880,-0.382683,0.000000
-9.296605,10.513222,-21.160408,-0.649448,0.760406,0.000000
-14.003923,2.623442,-42.907772,0.000000,0.000000,-1.000000
3.286424,-15.923182,-34.309385,0.233445,-0.972370,0.000000
10.870268,-8.878559,-13.860376,0.760406,-0.649448,0.000000
14.017308,0.737730,-20.963216,0.996917,0.078459,0.000000
-1.755450,13.937212,-7.696289,-0.078459,0.996917,0.000000
15.742101,-4.040683,-41.417004,0.972370,-0.233445,0.000000
9.073549,13.498670,-27.972739,0.522499,0.852640,0.000000
14.015221,-0.764255,-1.700047,0.996917,-0.078459,0.000000
3.837407,-3.903202,30.585217,0.649448,-0.760406,0.000000
6.635669,0.135029,19.220287,0.996917,0.078459,0.000000
-5.377313,0.991570,35.028973,-0.972370,0.233445,0.000000
9.927217,11.664689,-42.907772,0.000000,0.000000,-1.000000
-3.357177,4.313358,37.902243,-0.649448,0.760406,0.000000
4.077909,-3.775986,-42.907772,0.000000,-0.000000,-1.000000
-0.365399,1.357528,-40.122596,0.290285,-0.956940,0.000000
-1.315841,-0.502822,18.785432,0.956940,0.290285,0.000000
16.048615,2.763959,-34.987815,0.972370,0.233445,0.000000
5.015984,-13.110416,-13.828683,0.382683,-0.923880,0.000000
-7.111815,12.098968,-13.537932,-0.522498,0.852640,0.000000
5.477099,-0.207407,12.201457,-1.000000,0.000000,0.000000
9.101716,-13.481409,-26.450652,0.522499,-0.852640,0.000000
9.709473,10.160599,-8.110754,0.649448,0.760406,0.000000
-0.044767,-1.407533,-32.267613,0.098017,0.995185,-0.000000
0.687342,-1.225883,-23.731553,-0.471397,0.881921,0.000000
-2.202528,4.997778,30.214648,-0.382683,0.923880,0.000000
-0.455749,14.039501,-18.997218,-0.078459,0.996917,0.000000
-10.862867,-8.887224,-19.595433,-0.760406,-0.649448,0.000000
3.957256,0.958492,0.749255,0.000000,-1.000000,0.000000
0.497554,-1.317440,-9.347410,-0.290285,0.956940,0.000000
-4.176008,-15.709612,-36.912496,-0.233445,-0.972370,0.000000
-0.004202,-16.300344,-37.095333,-0.078459,-0.996917,0.000000
-16.048383,2.764927,-23.832061,-0.972370,0.233445,0.000000
-13.003705,5.273607,-22.695543,-0.923880,0.382683,0.000000
-5.369870,3.914903,12.659998,-0.760406,0.649448,0.000000
2.674742,-13.788552,-11.453192,0.233446,-0.972370,0.000000
2.608492,-16.085939,-38.561733,0.233445,-0.972370,0.000000
8.012799,0.481022,5.799213,0.000000,-0.000000,1.000000
13.972505,-1.307012,-16.239263,0.996917,-0.078459,0.000000
4.366380,3.295097,29.205604,0.760406,0.649448,0.000000
-5.356556,-1.078030,33.819586,-0.972370,-0.233445,-0.000000
16.117966,2.321521,-28.102985,0.996917,0.078459,-0.000000
-9.110093,-10.672519,0.864790,-0.649448,-0.760406,0.000000
-11.071920,11.914408,-41.587888,-0.649448,0.760406,0.000000
-4.868069,2.506235,32.060753,-0.852640,0.522499,0.000000
-4.018896,-15.747332,-40.522378,-0.233445,-0.972370,0.000000
5.994414,2.842272,11.390788,0.923879,0.382684,-0.000000
6.625324,6.124410,-42.907772,0.000000,0.000000,-1.000000
0.071108,1.404939,-6.446973,-0.098017,-0.995185,0.000000
8.587502,-11.118854,-18.608758,0.649448,-0.760406,0.000000
-15.695690,2.401033,-42.907772,0.000000,0.000000,-1.000000
-10.953657,10.212766,-42.907772,0.000000,0.000000,-1.000000
-2.416873,-7.694638,5.799213,-0.000000,0.000000,1.000000
-0.779783,1.176473,-8.212136,0.471397,-0.881921,0.000000
7.079090,2.100307,-42.907772,-0.000000,0.000000,-1.000000
-9.133767,-4.433273,5.799213,0.000000,-0.000000,1.000000
-10.974706,11.997437,-39.090795,-0.649448,0.760406,0.000000
2.777490,7.928963,-42.907772,0.000000,0.000000,-1.000000
6.047237,-12.683257,-19.593570,0.382683,-0.923880,0.000000
-6.645320,5.815385,5.799213,-0.000000,-0.000000,1.000000
14.224044,-7.889846,-41.144723,0.852640,-0.522499,0.000000
-13.373594,-4.380617,2.462473,-0.923880,-0.382683,-0.000000
6.421933,-14.929281,-32.227249,0.382683,-0.923880,0.000000
-3.456367,13.600900,4.395771,-0.233446,0.972370,0.000000
8.051518,11.523118,-18.867951,0.522498,0.852640,0.000000
0.165524,16.287647,-40.018401,0.078459,0.996917,-0.000000
-1.213650,8.970747,-42.907772,0.000000,-0.000000,-1.000000
-8.166894,-12.016165,-23.011896,-0.000000,-0.000000,1.000000
-4.900341,15.535715,-39.505796,-0.233445,0.972370,0.000000
0.617782,-1.263064,28.065845,-0.471397,0.881921,0.000000
-5.124870,1.895701,41.584868,-0.923880,0.382683,0.000000
-14.910198,-5.125345,-23.011896,0.000000,-0.000000,1.000000
11.457900,11.584750,-26.643768,0.649448,0.760406,0.000000
6.606079,-12.408883,5.682653,0.522498,-0.852640,0.000000
-0.508490,5.437080,30.737840,-0.078459,0.996917,0.000000
-8.037244,14.133718,-36.357313,-0.522499,0.852640,0.000000
5.827859,-15.175354,-26.950280,0.382683,-0.923880,0.000000
4.073449,-0.958492,29.998312,0.000000,1.000000,-0.000000
-13.917373,-2.007530,-7.792792,-0.996917,-0.078459,0.000000
4.097457,-15.728471,-24.405468,0.233445,-0.972370,0.000000
-3.062022,-5.894520,20.129518,-0.522499,-0.852640,0.000000
-12.332283,-6.731080,-17.480131,-0.852640,-0.522498,-0.000000
16.111235,-2.407048,-29.321395,0.996917,-0.078459,0.000000
5.294653,4.002970,15.889509,0.760406,0.649448,0.000000
5.477099,0.851709,-31.279431,-1.000000,0.000000,0.000000
7.118165,8.955421,-42.907772,0.000000,0.000000,-1.000000
-0.863711,-6.578320,20.529196,-0.078459,-0.996917,0.000000
3.735437,3.990294,30.541273,0.649448,0.760406,0.000000
14.490878,-7.454413,-23.350634,0.852640,-0.522499,0.000000
-2.033781,0.819741,42.907772,-0.000000,-0.000000,1.000000
-14.476347,-7.478125,-42.618568,-0.852640,-0.522499,-0.000000
1.157760,5.337415,28.536499,0.233445,0.972370,0.000000
-4.054718,-13.457249,-14.819641,-0.233446,-0.972370,0.000000
9.106343,-13.478573,-28.026071,0.522499,-0.852640,0.000000
1.405622,-0.064168,0.006430,-0.995185,0.098017,0.000000
0.696580,-1.220946,-19.817163,-0.471397,0.881921,0.000000
5.042279,2.095091,29.416570,0.923880,0.382683,0.000000
6.645353,13.122462,-23.011896,-0.000000,0.000000,1.000000
5.582382,-10.918552,-42.907772,0.000000,0.000000,-1.000000
13.935339,1.779250,-5.900308,0.996917,0.078459,-0.000000
-13.285144,9.421991,-36.099468,-0.852640,0.522499,0.000000
-11.341346,-7.243827,-42.907772,0.000000,0.000000,-1.000000
-2.812411,6.006783,17.016908,-0.382684,0.923879,0.000000
-12.813105,-5.733756,-19.551574,-0.923880,-0.382683,-0.000000
6.630907,0.195535,10.673317,0.996917,0.078459,0.000000
-1.041027,-0.946445,-9.672766,0.773010,0.634393,0.000000
-4.419252,7.744420,5.799213,-0.000000,-0.000000,1.000000
-2.730624,13.775136,-10.289407,-0.233446,0.972370,0.000000
-0.489351,5.438587,39.707621,-0.078459,0.996917,0.000000
-4.049545,-0.543937,-42.907772,0.000000,0.000000,-1.000000
4.710127,0.958492,31.685991,0.000000,-1.000000,0.000000
5.339180,-1.150405,29.912262,0.972370,-0.233445,0.000000
-4.364749,9.310176,5.799213,0.000000,-0.000000,1.000000
-5.393561,-15.355246,-25.070095,-0.382683,-0.923880,0.000000
-1.179209,-0.774663,13.989924,0.881921,0.471397,0.000000
-6.326373,-14.968863,-25.769530,-0.382683,-0.923880,0.000000
-8.205792,-4.204432,-42.907772,0.000000,0.000000,-1.000000
-13.936712,1.761797,-13.378786,-0.996917,0.078459,0.000000
-11.281220,-3.914285,-42.907772,0.000000,0.000000,-1.000000
1.500511,-8.459686,5.799213,0.000000,0.000000,1.000000
-4.551422,3.022956,32.579458,-0.852640,0.522499,0.000000
2.314049,9.501313,-42.907772,0.000000,0.000000,-1.000000
8.694987,11.027053,4.067344,0.649448,0.760406,-0.000000
-4.469863,3.156048,36.009918,-0.852640,0.522499,0.000000
5.477099,0.054251,15.608673,-1.000000,0.000000,0.000000
-4.172941,3.521585,33.566832,-0.760406,0.649448,0.000000
5.477099,0.467637,19.380151,-1.000000,0.000000,0.000000
-6.201968,2.341193,23.551788,-0.923879,0.382684,0.000000
-8.496124,13.852516,-37.556722,-0.522499,0.852640,0.000000
0.776373,1.178295,23.596633,-0.471397,-0.881921,0.000000
9.832673,8.060664,5.799213,0.000000,-0.000000,1.000000
-13.975021,-1.275045,-1.785519,-0.996917,-0.078459,0.000000
-4.632590,8.386479,-42.907772,0.000000,0.000000,-1.000000
-12.582046,6.291582,-15.574690,-0.923880,0.382683,0.000000
-11.732753,-10.812660,-23.011896,-0.000000,0.000000,1.000000
15.392404,-5.303853,-33.470764,0.923880,-0.382683,0.000000
7.084739,12.115560,-1.019240,0.522498,0.852640,-0.000000
5.166613,-0.958492,2.795748,0.000000,1.000000,0.000000
3.560114,0.853347,-35.767893,1.000000,0.000000,0.000000
5.477099,-0.028691,-15.340193,-1.000000,0.000000,0.000000
0.935892,6.572639,8.392970,0.078459,0.996917,0.000000
3.871479,0.958492,-4.213018,0.000000,-1.000000,0.000000
3.577164,-0.958492,-7.122900,0.000000,1.000000,-0.000000
6.844908,11.688587,5.799213,0.000000,-0.000000,1.000000
-7.895569,11.618683,-9.830810,-0.522498,0.852640,0.000000
0.068112,-14.070008,-4.904698,0.078459,-0.996917,0.000000
-14.611369,-7.189440,-39.573193,-0.923880,-0.382683,0.000000
-7.538232,-11.837659,-16.680840,-0.522498,-0.852640,0.000000
-4.184756,-13.426029,-7.036489,-0.233446,-0.972370,0.000000
6.624965,-0.271026,16.856569,0.996917,-0.078459,0.000000
-13.676484,-8.783382,-31.497173,-0.852640,-0.522499,0.000000
3.637690,-0.958492,-14.610689,0.000000,1.000000,-0.000000
-0.995390,1.000859,-20.064364,0.634393,-0.773010,0.000000
-4.490432,-9.867616,-42.907772,0.000000,-0.000000,-1.000000
14.750580,-6.853354,-39.860610,0.923880,-0.382683,0.000000
3.744293,-15.813258,-30.319792,0.233445,-0.972370,0.000000
-2.753731,-4.497184,-42.907772,0.000000,-0.000000,-1.000000
13.631949,-5.542331,-42.907772,0.000000,-0.000000,-1.000000
1.401760,0.103380,9.262336,-0.995185,-0.098017,0.000000
-8.354869,13.939078,-26.947077,-0.522499,0.852640,0.000000
13.981063,1.198266,0.633174,0.996917,0.078459,-0.000000
8.420774,-13.898691,-32.975531,0.522499,-0.852640,0.000000
-12.355714,-6.692844,-9.275214,-0.852640,-0.522498,-0.000000
-4.070262,-13.453517,-7.355242,-0.233446,-0.972370,0.000000
-15.441504,-5.185316,-24.114160,-0.923880,-0.382683,0.000000
6.009757,-4.476741,5.799213,-0.000000,-0.000000,1.000000
9.851155,-10.039591,-22.374924,0.649448,-0.760406,0.000000
-13.411288,9.216142,-26.244682,-0.852640,0.522499,0.000000
13.984750,1.151421,-19.809379,0.996917,0.078459,0.000000
-13.286570,-4.590711,-20.376679,-0.923880,-0.382683,-0.000000
12.540924,6.390608,4.099891,0.852640,0.522498,0.000000
-4.547244,3.029775,39.262096,-0.852640,0.522499,0.000000
-13.357499,-4.419473,-18.154190,-0.923880,-0.382683,-0.000000
6.017461,-12.695591,-20.571014,0.382683,-0.923880,0.000000
-13.118137,-4.508575,5.799213,0.000000,-0.000000,1.000000
-2.226907,4.590518,-42.907772,0.000000,0.000000,-1.000000
13.986741,1.126121,-22.724479,0.996917,0.078459,0.000000
-0.937812,7.784387,5.799213,0.000000,-0.000000,1.000000
6.565314,1.028975,26.254153,0.996917,0.078459,-0.000000
-11.608863,-11.429667,-34.254159,-0.760406,-0.649448,0.000000
7.102841,-14.463272,-23.011896,0.000000,-0.000000,1.000000
8.987325,13.551508,-39.449733,0.522499,0.852640,0.000000
-13.398312,-4.300205,0.482488,-0.972370,-0.233446,0.000000
6.440853,-1.554605,19.357179,0.972370,-0.233445,0.000000
4.924616,0.958492,8.411215,0.000000,-1.000000,-0.000000
-0.974706,16.223963,-24.113001,-0.078459,0.996917,0.000000
8.431564,13.892079,-38.087479,0.522499,0.852640,0.000000
-15.443187,-5.181253,-36.774243,-0.923880,-0.382683,-0.000000
