x,y,z,nx,ny,nz
-7.474633,21.349804,-33.772367,-0.321440,0.946930,0.000000
-12.462423,-4.825294,40.145653,0.000000,-0.000000,1.000000
-9.379249,-20.594983,37.756492,-0.442289,-0.896873,0.000000
-16.799100,2.085158,39.237455,0.290285,-0.956940,0.000000
11.519715,-19.506911,30.726203,0.555570,-0.831470,0.000000
1.025819,-3.993394,-25.592567,-0.290285,0.956940,0.000000
0.940852,8.364583,22.919365,0.065403,0.997859,-0.000000
-3.956697,1.146793,-16.039446,0.956940,-0.290285,0.000000
4.062005,0.783267,35.332948,-0.995185,-0.098017,0.000000
-2.187437,-8.136905,2.105751,-0.321440,-0.946930,0.000000
5.837019,-10.097338,-40.145653,0.000000,0.000000,-1.000000
-19.203728,5.992193,28.744402,0.000000,0.000000,-1.000000
-20.562834,-8.186361,-28.744402,0.000000,-0.000000,1.000000
10.946784,6.464221,40.145653,0.000000,0.000000,1.000000
4.100928,0.388072,-1.953646,-0.995185,-0.098017,0.000000
-13.311984,9.572911,-40.145653,0.000000,-0.000000,-1.000000
4.116721,-0.227727,35.141805,-0.995185,0.098017,0.000000
2.221370,3.483386,11.957022,-0.471397,-0.881921,0.000000
-9.499793,16.477286,-40.145653,0.000000,0.000000,-1.000000
-9.633417,20.469641,39.343096,-0.442289,0.896873,0.000000
19.735398,11.122315,-33.968789,0.896873,0.442289,-0.000000
9.007469,-19.362009,-40.145653,0.000000,0.000000,-1.000000
-6.700894,5.105778,-25.185790,-0.831469,0.555570,0.000000
-19.374055,11.718548,-32.505788,-0.831470,0.555570,0.000000
-8.803119,-20.879099,-39.865836,-0.442289,-0.896873,-0.000000
8.358048,-1.040559,-7.820441,0.997859,-0.065403,0.000000
4.075642,-0.644811,-8.705055,-0.995185,0.098017,0.000000
6.527192,21.214721,40.145653,0.000000,-0.000000,1.000000
5.940564,-7.907267,-40.145653,0.000000,0.000000,-1.000000
-21.930631,-5.690571,39.107775,-0.980785,-0.195090,0.000000
8.770616,-9.117321,-28.744402,-0.000000,0.000000,1.000000
-10.711256,-19.938110,34.009982,-0.442289,-0.896873,-0.000000
-2.672997,22.492752,-30.369264,-0.065403,0.997859,0.000000
21.047681,1.239007,-28.744402,0.000000,-0.000000,1.000000
-18.441491,0.243040,-35.487250,0.995185,-0.098013,0.000000
-3.861348,12.604767,-28.744402,0.000000,0.000000,1.000000
5.380795,13.533283,28.744402,0.000000,0.000000,-1.000000
-1.780748,17.515201,-36.546369,0.773010,-0.634394,0.000000
16.751197,-15.204764,-35.650462,0.751840,-0.659346,0.000000
4.090652,22.248875,33.128182,0.195090,0.980785,0.000000
-3.072192,-2.749687,-21.320831,0.773011,0.634393,-0.000000
11.650824,0.228698,40.145653,-0.000000,0.000000,1.000000
-13.017512,16.808881,28.744402,0.000000,0.000000,-1.000000
-4.310676,7.232165,-22.579382,-0.555570,0.831469,0.000000
14.845896,2.331031,28.744402,0.000000,-0.000000,-1.000000
-0.069820,-21.063973,-28.744402,0.000000,-0.000000,1.000000
-1.934909,3.636503,0.069559,0.471397,-0.881921,0.000000
-4.230839,-21.736404,-28.744402,-0.000000,0.000000,1.000000
9.736059,-9.218810,28.744402,0.000000,-0.000000,-1.000000
5.418535,-6.431583,12.107246,0.659345,-0.751840,0.000000
10.073567,-1.203788,40.145653,-0.000000,0.000000,1.000000
19.919598,-10.748795,-33.687518,0.896873,-0.442289,0.000000
0.972490,4.009571,-37.801845,-0.290285,-0.956940,0.000000
16.182829,2.130904,-36.192977,0.098017,-0.995185,0.000000
12.695675,12.333911,40.145653,-0.000000,-0.000000,1.000000
-3.932220,22.280389,-33.321724,-0.195090,0.980785,0.000000
-4.082400,0.576198,8.244310,0.995185,-0.098017,0.000000
-5.955079,-5.961047,-24.158485,-0.659345,-0.751840,0.000000
-8.087856,2.331930,-26.446809,-0.946930,0.321440,0.000000
2.360145,3.391880,-21.114585,-0.634393,-0.773011,0.000000
14.540660,13.926532,40.145653,-0.000000,-0.000000,1.000000
-7.054228,-4.576977,-21.193202,-0.831469,-0.555570,0.000000
-18.410632,-13.160412,38.192565,-0.831470,-0.555570,0.000000
8.355929,1.072893,-23.140097,0.997859,0.065403,-0.000000
14.725077,1.419582,39.913593,0.773011,-0.634392,0.000000
-8.944452,-20.809401,35.179219,-0.442289,-0.896873,0.000000
-0.703506,-8.380140,-9.093882,-0.065403,-0.997859,0.000000
-10.094837,-20.242094,-36.505661,-0.442289,-0.896873,-0.000000
1.870523,-17.348772,-32.197879,-0.881921,0.471397,0.000000
-6.078216,-5.821474,-6.510479,-0.751840,-0.659345,0.000000
-4.671446,10.599534,-28.744402,0.000000,-0.000000,1.000000
-14.215287,-0.394643,-35.243765,-0.995185,0.098018,0.000000
-4.864348,-6.862213,17.969224,-0.555570,-0.831469,0.000000
-0.796649,8.374035,-1.228077,-0.065403,0.997859,0.000000
-1.732225,-8.228374,-28.364197,-0.195090,-0.980785,0.000000
4.668345,2.468075,40.145653,-0.000000,0.000000,1.000000
-20.112150,-0.190404,-40.145653,0.000000,0.000000,-1.000000
0.693395,-22.622501,37.889183,0.065403,-0.997859,0.000000
5.638656,-6.238543,19.908123,0.659345,-0.751840,0.000000
-2.788727,-7.932794,9.957144,-0.321440,-0.946930,0.000000
1.346610,-8.305078,-14.735212,0.195090,-0.980785,0.000000
-0.902481,4.030808,35.012537,0.290285,-0.956940,0.000000
5.833162,6.067965,8.448550,0.659345,0.751840,0.000000
7.922014,2.820484,-27.285666,0.946930,0.321440,0.000000
2.135833,-16.408978,34.116391,-0.995185,0.098017,0.000000
-3.658420,-1.893905,-37.541236,0.881921,0.471397,-0.000000
7.982233,21.177497,-38.090051,0.321440,0.946930,0.000000
8.794347,7.529993,40.145653,-0.000000,0.000000,1.000000
-8.406482,0.301593,-3.456873,-0.997859,0.065403,0.000000
8.307954,15.902004,-28.744402,0.000000,-0.000000,1.000000
-2.793926,16.265272,-28.744402,0.000000,0.000000,1.000000
2.114191,-16.628708,-34.491153,-0.995185,0.098017,0.000000
0.556497,-8.389775,10.969508,0.065403,-0.997859,0.000000
5.844899,-6.057672,9.584065,0.659345,-0.751840,0.000000
7.302094,-4.203499,-28.321710,0.896873,-0.442289,0.000000
9.989965,-9.666997,-40.145653,0.000000,-0.000000,-1.000000
-4.540776,-7.078417,-1.760370,-0.555570,-0.831469,0.000000
-14.661426,-12.957964,28.744402,0.000000,-0.000000,-1.000000
10.715960,-14.788128,-40.145653,0.000000,-0.000000,-1.000000
-1.093764,14.485632,-35.193983,0.471398,0.881920,-0.000000
-21.416475,3.299092,-28.744402,-0.000000,-0.000000,1.000000
-21.265383,-7.723330,30.462626,-0.946930,-0.321440,-0.000000
19.841210,-0.788487,40.145653,0.000000,-0.000000,1.000000
3.069608,11.344333,-28.744402,0.000000,-0.000000,1.000000
13.890681,-17.903617,-39.245174,0.659346,-0.751840,0.000000
-6.586785,-1.547934,40.145653,-0.000000,-0.000000,1.000000
6.454565,9.407971,28.744402,0.000000,0.000000,-1.000000
-7.970958,-2.676298,-21.203781,-0.946930,-0.321440,-0.000000
12.080820,-18.847402,-28.744402,-0.000000,0.000000,1.000000
10.144313,-8.909813,28.744402,0.000000,-0.000000,-1.000000
-15.422102,10.344392,40.145653,0.000000,-0.000000,1.000000
8.381985,-4.948284,40.145653,0.000000,0.000000,1.000000
-0.014668,4.137705,26.055066,0.098017,-0.995185,0.000000
-11.276600,-19.659313,-34.418042,-0.442289,-0.896873,-0.000000
-21.824417,-1.470982,-28.744402,0.000000,-0.000000,1.000000
-5.787570,-7.502250,40.145653,-0.000000,-0.000000,1.000000
4.264555,7.262982,1.592771,0.555570,0.831469,-0.000000
-19.291527,-4.882518,28.744402,0.000000,0.000000,-1.000000
6.171172,5.715478,17.847494,0.751840,0.659345,-0.000000
-14.471643,-12.913279,-40.145653,0.000000,0.000000,-1.000000
-2.814700,7.923977,-27.961207,-0.321440,0.946930,0.000000
18.367420,0.605624,35.377039,-0.956939,-0.290288,0.000000
5.968510,21.861064,-29.355227,0.321440,0.946930,-0.000000
-4.320262,7.225760,24.704168,-0.555570,0.831469,0.000000
0.766902,-8.375984,-15.158822,0.065403,-0.997859,0.000000
21.506170,-1.953363,28.744402,0.000000,0.000000,-1.000000
-13.032160,-17.034284,-40.145653,0.000000,-0.000000,-1.000000
9.456988,-20.556646,36.175390,0.442289,-0.896873,0.000000
-5.612378,-18.752172,28.744402,0.000000,-0.000000,-1.000000
-8.042695,17.401753,-28.744402,0.000000,0.000000,1.000000
16.210333,-2.133613,35.935131,0.098017,0.995185,0.000000
-21.673351,6.521496,-31.481728,-0.946930,0.321440,0.000000
-17.795919,-11.801336,28.744402,0.000000,0.000000,-1.000000
6.655935,-5.162711,19.464342,0.751840,-0.659345,0.000000
-2.340675,-3.407859,-22.774267,0.634393,0.773011,0.000000
-12.528830,-4.179000,-40.145653,0.000000,0.000000,-1.000000
-1.515071,-3.844981,39.060052,0.290285,0.956940,0.000000
2.454665,3.314309,-27.001680,-0.634393,-0.773011,0.000000
-12.333927,18.962872,-32.119133,-0.555570,0.831470,0.000000
2.105513,16.716821,37.519430,-0.995185,-0.098017,0.000000
5.779761,-10.817426,40.145653,0.000000,-0.000000,1.000000
-16.881442,15.056248,-38.983595,-0.751840,0.659346,0.000000
-14.949957,-1.635745,-36.212629,-0.634393,0.773011,0.000000
4.101690,-0.380335,6.854887,-0.995185,0.098017,0.000000
2.615253,-3.182518,33.275217,-0.634393,0.773011,0.000000
1.123635,-18.140247,-38.508668,-0.471397,0.881921,0.000000
16.219762,-2.134542,32.791038,0.098017,0.995185,0.000000
16.785098,-2.089406,-40.023468,-0.290285,0.956940,0.000000
6.723632,-11.126070,28.744402,0.000000,-0.000000,-1.000000
-4.230242,22.091865,-40.145653,0.000000,0.000000,-1.000000
6.870087,4.852563,-8.491966,0.831469,0.555570,-0.000000
3.580513,2.039658,1.278760,-0.881921,-0.471397,0.000000
-4.921637,6.823934,-3.721890,-0.555570,0.831469,0.000000
13.217491,-4.273619,40.145653,-0.000000,0.000000,1.000000
-4.973380,-6.789360,21.388831,-0.555570,-0.831469,0.000000
-20.745679,9.073667,-36.355046,-0.896873,0.442289,0.000000
-8.144232,-4.750284,-40.145653,0.000000,0.000000,-1.000000
1.358519,-3.892470,-30.856930,-0.290285,0.956940,0.000000
-2.000625,-17.077767,-31.790026,0.956940,0.290285,0.000000
11.017447,-19.787113,30.653910,0.442289,-0.896873,0.000000
-4.393523,17.605941,40.145653,-0.000000,-0.000000,1.000000
17.739691,1.596514,-37.789098,-0.634394,-0.773010,0.000000
5.102229,6.703266,28.185178,0.555570,0.831469,-0.000000
-16.381375,2.138552,32.928842,0.098017,-0.995185,0.000000
5.839866,-6.062086,14.844427,0.659345,-0.751840,0.000000
3.950012,1.168829,34.491950,-0.956940,-0.290285,0.000000
19.142080,-12.065723,33.532659,0.831470,-0.555570,0.000000
3.836636,1.542581,29.812868,-0.956940,-0.290285,0.000000
-4.066631,-0.736297,-25.103710,0.995185,0.098017,0.000000
-14.830861,-15.706652,-28.744402,0.000000,-0.000000,1.000000
4.044391,-0.857703,-20.400943,-0.956940,0.290285,0.000000
-1.637862,8.247144,16.772342,-0.195090,0.980785,0.000000
-17.697495,14.125718,-32.847402,-0.751840,0.659346,0.000000
22.604526,-0.967635,30.887005,0.997859,-0.065403,0.000000
-6.112019,-17.167662,40.145653,-0.000000,-0.000000,1.000000
4.115687,0.238228,-29.679060,-0.995185,-0.098017,0.000000
-2.000012,-3.601705,38.695760,0.471397,0.881921,0.000000
1.936261,3.635780,-20.181058,-0.471397,-0.881921,0.000000
0.252871,8.409676,12.540882,0.065403,0.997859,-0.000000
-3.824702,-1.581921,10.953584,0.956940,0.290285,0.000000
-19.566439,-11.430626,34.577124,-0.831470,-0.555570,-0.000000
-0.824694,-8.372197,-22.326565,-0.065403,-0.997859,0.000000
-5.662107,1.166694,40.145653,0.000000,-0.000000,1.000000
-1.911591,-15.369906,37.099790,0.881921,-0.471396,0.000000
1.124383,-9.887843,40.145653,0.000000,0.000000,1.000000
1.547641,17.799242,-32.177859,-0.773010,-0.634394,0.000000
6.367545,-5.491556,8.277494,0.751840,-0.659345,0.000000
-22.394222,3.359942,-35.275881,-0.980785,0.195090,0.000000
-5.786160,6.109185,5.714476,-0.659345,0.751840,0.000000
7.456169,-3.891065,1.417572,0.896873,-0.442289,0.000000
-8.284410,1.450513,-25.090516,-0.980785,0.195090,0.000000
-7.963460,-8.683157,28.744402,0.000000,0.000000,-1.000000
-1.485703,-5.428305,-40.145653,0.000000,-0.000000,-1.000000
-7.783560,-0.712399,-40.145653,0.000000,0.000000,-1.000000
-13.551998,-7.298940,40.145653,0.000000,-0.000000,1.000000
-10.582269,2.787637,40.145653,-0.000000,0.000000,1.000000
1.831216,-17.422310,38.311232,-0.881921,0.471397,0.000000
8.363328,-0.960010,26.139469,0.997859,-0.065403,0.000000
4.231763,-22.220806,-34.473224,0.195090,-0.980785,0.000000
2.920007,2.932414,32.812952,-0.634393,-0.773011,0.000000
7.025290,-4.620286,13.196948,0.831469,-0.555570,0.000000
-21.057310,8.336292,38.966514,-0.946930,0.321440,0.000000
5.995304,2.074919,40.145653,-0.000000,0.000000,1.000000
-18.301892,0.821219,36.285467,0.881921,-0.471397,0.000000
-1.774328,10.429677,28.744402,0.000000,0.000000,-1.000000
14.337287,0.812851,-33.000972,0.956941,-0.290283,0.000000
-13.755193,18.013212,35.170279,-0.555570,0.831470,0.000000
3.462045,2.261297,8.297110,-0.881921,-0.471397,0.000000
8.867400,0.453591,40.145653,-0.000000,0.000000,1.000000
4.946114,6.807578,-20.479579,0.555570,0.831469,0.000000
-14.903295,-17.015579,-32.618852,-0.659346,-0.751840,0.000000
-4.903371,-3.674271,40.145653,0.000000,-0.000000,1.000000
18.777793,-0.810379,-28.744402,-0.000000,-0.000000,1.000000
22.515550,-2.325163,-33.142983,0.997859,-0.065403,0.000000
-15.870807,2.894712,-28.744402,0.000000,0.000000,1.000000
20.303152,9.971023,-36.423675,0.896873,0.442289,0.000000
13.266750,-16.579589,-28.744402,-0.000000,0.000000,1.000000
-3.645040,1.918938,15.529782,0.881921,-0.471397,0.000000
-3.767726,-1.689407,-5.052647,0.881921,0.471397,-0.000000
-8.242581,-1.660801,27.344050,-0.980785,-0.195090,0.000000
-8.361473,-0.988305,-6.702768,-0.997859,-0.065403,0.000000
-1.705266,-15.034669,-31.503289,0.773011,-0.634393,0.000000
11.097142,8.240516,-40.145653,0.000000,0.000000,-1.000000
18.476778,-2.414332,28.744402,0.000000,0.000000,-1.000000
16.131822,15.911026,-38.259747,0.751840,0.659346,-0.000000
-12.169743,-6.072501,-28.744402,-0.000000,0.000000,1.000000
-0.065872,-4.132662,15.617748,0.098017,0.995185,0.000000
-3.779532,22.310760,33.782738,-0.195090,0.980785,0.000000
-4.133820,-0.054122,-12.148082,0.995185,0.098017,-0.000000
-12.267771,-16.996491,-28.744402,-0.000000,0.000000,1.000000
5.247980,10.309132,40.145653,0.000000,0.000000,1.000000
-10.953651,3.490495,-28.744402,-0.000000,-0.000000,1.000000
2.129858,19.068951,40.145653,-0.000000,-0.000000,1.000000
8.231446,1.716782,26.916791,0.980785,0.195090,-0.000000
11.954005,10.043890,40.145653,-0.000000,-0.000000,1.000000
-6.470272,7.496041,-28.744402,-0.000000,0.000000,1.000000
-13.903733,-0.248373,-28.744402,0.000000,-0.000000,1.000000
6.996513,-4.663353,-23.067764,0.831469,-0.555570,0.000000
-3.322281,-2.444952,-27.169206,0.773011,0.634393,-0.000000
21.185553,7.958502,-38.708955,0.946930,0.321440,0.000000
-0.837503,8.972531,28.744402,0.000000,0.000000,-1.000000
-1.677240,-22.469425,40.145653,-0.000000,-0.000000,1.000000
3.315885,7.739816,-13.218545,0.442289,0.896873,-0.000000
0.667729,4.073385,3.180025,-0.098017,-0.995185,0.000000
22.288079,-3.893558,-38.516409,0.980785,-0.195090,0.000000
12.165667,-4.349533,40.145653,-0.000000,0.000000,1.000000
3.915258,7.444238,8.304504,0.442289,0.896873,0.000000
-13.936465,-14.819264,-40.145653,0.000000,0.000000,-1.000000
1.903480,-3.653302,-10.401664,-0.471397,0.881921,0.000000
-15.994725,-3.672380,28.744402,0.000000,0.000000,-1.000000
10.684214,12.191486,-28.744402,0.000000,-0.000000,1.000000
11.369544,7.114686,-40.145653,-0.000000,-0.000000,-1.000000
8.221985,-1.764344,-18.533631,0.980785,-0.195090,0.000000
-6.199800,-20.407415,40.145653,-0.000000,-0.000000,1.000000
-2.498158,22.504211,39.556073,-0.065403,0.997859,0.000000
-20.758356,-9.047961,36.059773,-0.896873,-0.442289,0.000000
-18.355821,-5.886676,-40.145653,0.000000,-0.000000,-1.000000
-4.135680,0.035228,28.499456,0.995185,-0.098017,0.000000
-21.694627,4.629303,-28.744402,-0.000000,-0.000000,1.000000
-19.520608,-11.499216,29.463851,-0.831470,-0.555570,-0.000000
-7.813966,-18.080544,-40.145653,0.000000,0.000000,-1.000000
7.754408,3.286295,-16.816196,0.896873,0.442289,0.000000
1.464637,-22.571951,-34.108183,0.065403,-0.997859,0.000000
22.454658,-3.056109,-38.507527,0.980785,-0.195090,0.000000
20.187656,0.358139,28.744402,0.000000,0.000000,-1.000000
7.638005,-3.522337,-16.619565,0.896873,-0.442289,0.000000
-3.334310,-2.430294,17.407294,0.773011,0.634393,-0.000000
6.799621,-4.958023,11.881585,0.831469,-0.555570,0.000000
-5.748414,8.342036,28.744402,0.000000,-0.000000,-1.000000
8.620241,-6.143145,-28.744402,-0.000000,-0.000000,1.000000
20.710743,9.144510,-36.527648,0.896873,0.442289,0.000000
-4.681422,6.984440,3.420880,-0.555570,0.831469,0.000000
7.738524,-3.318505,-1.441824,0.896873,-0.442289,0.000000
22.549684,1.804367,37.929883,0.997859,0.065403,-0.000000
5.424283,6.426543,-17.513786,0.659345,0.751840,0.000000
-6.797765,-16.630255,28.744402,0.000000,-0.000000,-1.000000
6.396364,-5.458694,-21.424696,0.751840,-0.659345,0.000000
-14.419838,14.824351,28.744402,0.000000,0.000000,-1.000000
6.531109,-5.305048,-26.080350,0.751840,-0.659345,0.000000
-2.485515,-3.288992,30.474850,0.634393,0.773011,0.000000
4.078134,-0.619505,38.002903,-0.995185,0.098017,0.000000
3.055865,5.075450,-40.145653,0.000000,-0.000000,-1.000000
-12.377082,7.037775,-28.744402,-0.000000,-0.000000,1.000000
6.064011,7.414581,-40.145653,0.000000,0.000000,-1.000000
20.666973,9.233267,36.678732,0.896873,0.442289,0.000000
5.241735,-6.586633,4.517530,0.659345,-0.751840,0.000000
-0.522767,-14.249291,35.625244,0.290283,-0.956941,0.000000
3.233178,-2.553524,-29.106363,-0.773011,0.634393,0.000000
-4.504832,7.102434,20.959205,-0.555570,0.831469,0.000000
13.728122,-10.178604,-40.145653,0.000000,-0.000000,-1.000000
1.928642,8.189305,-11.204449,0.195090,0.980785,0.000000
-0.838326,-19.184691,-40.145653,0.000000,0.000000,-1.000000
-8.249133,-1.627863,-27.632475,-0.980785,-0.195090,-0.000000
5.152540,-6.664854,27.082946,0.659345,-0.751840,0.000000
13.160873,-1.155185,40.145653,-0.000000,0.000000,1.000000
5.904307,-17.053125,-40.145653,0.000000,0.000000,-1.000000
-2.113998,-3.540778,-39.845282,0.471397,0.881921,-0.000000
11.734289,-16.842180,40.145653,-0.000000,0.000000,1.000000
-8.385463,-0.622291,-1.325781,-0.997859,-0.065403,0.000000
2.623186,-3.176008,4.813405,-0.634393,0.773011,0.000000
0.471137,8.395370,-11.797824,0.065403,0.997859,0.000000
-8.985809,2.860272,-28.744402,-0.000000,0.000000,1.000000
-14.266570,0.579726,-37.884202,-0.956941,-0.290283,0.000000
-14.085121,-1.174736,-40.145653,0.000000,0.000000,-1.000000
8.378357,-21.043031,40.095378,0.321440,-0.946930,0.000000
-3.084195,-6.242818,-40.145653,0.000000,-0.000000,-1.000000
-2.447203,8.048726,-11.894846,-0.321440,0.946930,0.000000
3.451652,-22.375980,-33.617428,0.195090,-0.980785,0.000000
-3.487280,14.469630,-28.744402,0.000000,0.000000,1.000000
15.541831,16.016119,28.744402,0.000000,0.000000,-1.000000
2.807376,19.165030,-28.744402,0.000000,-0.000000,1.000000
6.353036,5.508101,5.816282,0.751840,0.659345,-0.000000
-1.420621,-18.156066,-40.145653,0.000000,0.000000,-1.000000
-8.108756,-2.270361,27.180147,-0.946930,-0.321440,0.000000
-2.191466,8.135537,-14.672967,-0.321440,0.946930,0.000000
16.620589,8.813454,-28.744402,0.000000,-0.000000,1.000000
-0.883201,21.929633,-28.744402,-0.000000,0.000000,1.000000
14.319185,0.753177,32.531039,0.956941,-0.290283,0.000000
-6.872727,-4.848612,12.757577,-0.831469,-0.555570,0.000000
-14.995500,1.673121,-31.760079,-0.634393,-0.773011,0.000000
0.760411,-4.064256,-4.583160,-0.098017,0.995185,0.000000
21.601596,-0.957656,40.145653,0.000000,-0.000000,1.000000
9.337172,17.010057,-28.744402,0.000000,-0.000000,1.000000
-8.325601,21.060939,33.914573,-0.321440,0.946930,0.000000
2.880697,7.901575,3.700059,0.321440,0.946930,0.000000
-14.559696,2.737369,40.145653,-0.000000,0.000000,1.000000
-4.676496,6.987732,0.588181,-0.555570,0.831469,0.000000
21.935252,5.667336,34.501378,0.980785,0.195090,-0.000000
14.822020,4.919735,28.744402,0.000000,0.000000,-1.000000
3.575348,-2.049322,18.294397,-0.881921,0.471397,0.000000
-15.384057,-1.919155,-38.920334,-0.471396,0.881921,0.000000
10.220013,-6.200263,40.145653,-0.000000,0.000000,1.000000
-2.622716,-7.989147,-11.530291,-0.321440,-0.946930,0.000000
16.879845,12.844140,-28.744402,0.000000,-0.000000,1.000000
-15.988715,-2.111786,-32.753793,-0.098017,0.995185,0.000000
-4.640643,-21.539075,-40.145653,0.000000,0.000000,-1.000000
7.158388,16.723321,-28.744402,-0.000000,0.000000,1.000000
19.587623,-3.258360,40.145653,0.000000,-0.000000,1.000000
-7.604180,-18.330982,-40.145653,0.000000,0.000000,-1.000000
-8.877239,-17.183663,28.744402,0.000000,0.000000,-1.000000
-5.578384,6.291399,-23.921005,-0.659345,0.751840,0.000000
22.156816,-4.553464,-39.508401,0.980785,-0.195090,0.000000
6.898267,9.759182,40.145653,-0.000000,-0.000000,1.000000
-4.129610,-0.096865,34.136680,0.995185,0.098017,0.000000
-4.136668,0.025201,22.147312,0.995185,-0.098017,0.000000
17.647975,-13.195932,-28.744402,-0.000000,0.000000,1.000000
-5.788977,-6.106714,-27.473973,-0.659345,-0.751840,0.000000
3.476784,-8.659198,40.145653,0.000000,-0.000000,1.000000
6.049010,5.854777,-16.756095,0.751840,0.659345,-0.000000
-2.299365,3.441697,31.731641,0.471397,-0.881921,0.000000
8.422677,0.054499,5.623468,0.997859,0.065403,0.000000
-10.825017,-16.219840,40.145653,0.000000,-0.000000,1.000000
8.296358,15.370467,28.744402,0.000000,0.000000,-1.000000
-8.726095,2.966133,28.744402,0.000000,-0.000000,-1.000000
8.784806,20.888130,31.950633,0.442289,0.896873,-0.000000
-1.575963,22.564655,34.578300,-0.065403,0.997859,0.000000
-6.235806,-13.640832,-40.145653,0.000000,0.000000,-1.000000
9.439111,12.952310,40.145653,-0.000000,-0.000000,1.000000
-3.009300,22.463969,39.219518,-0.195090,0.980785,0.000000
13.781400,10.889097,-40.145653,0.000000,0.000000,-1.000000
7.062546,4.564529,11.119604,0.831469,0.555570,-0.000000
-16.573635,-15.407234,36.135457,-0.751840,-0.659346,0.000000
-14.220310,-0.427229,33.989700,-0.956941,0.290283,0.000000
-6.203675,-5.678415,27.642345,-0.751840,-0.659345,0.000000
-3.792919,14.530447,28.744402,0.000000,0.000000,-1.000000
9.171604,-17.352272,28.744402,0.000000,0.000000,-1.000000
4.149102,-11.699438,40.145653,0.000000,-0.000000,1.000000
-8.352647,-1.107465,21.418363,-0.980785,-0.195090,-0.000000
8.829753,-19.430486,-40.145653,0.000000,0.000000,-1.000000
9.402986,-19.474196,-28.744402,0.000000,-0.000000,1.000000
7.075557,4.545057,-8.991446,0.831469,0.555570,0.000000
-22.549128,-1.812860,38.445861,-0.997859,-0.065403,0.000000
-16.792626,2.087122,36.805872,0.290285,-0.956940,0.000000
1.586304,3.822836,37.203301,-0.471397,-0.881921,0.000000
17.834905,-1.518373,-34.264032,-0.634394,0.773010,0.000000
13.713369,-18.041158,-36.421904,0.555570,-0.831470,0.000000
8.371825,-0.830364,21.365606,0.997859,-0.065403,0.000000
-2.019753,15.627134,-32.272149,0.956940,0.290285,0.000000
12.551071,-1.054539,-40.145653,0.000000,-0.000000,-1.000000
2.093424,15.869997,32.422828,-0.956940,0.290285,0.000000
0.485339,14.237938,-31.194184,-0.290283,0.956941,0.000000
2.096921,16.760322,32.316924,-0.956940,-0.290285,0.000000
2.110788,15.978582,-34.087890,-0.995185,0.098017,0.000000
-8.126409,-2.218355,-6.203508,-0.946930,-0.321440,-0.000000
-4.533448,-22.160797,-37.997778,-0.195090,-0.980785,0.000000
-3.082446,-7.833090,-25.639847,-0.321440,-0.946930,0.000000
-1.592637,14.897430,-32.630306,0.773011,0.634393,0.000000
9.840651,-14.629390,40.145653,-0.000000,0.000000,1.000000
-16.792915,-9.387730,-28.744402,-0.000000,0.000000,1.000000
-1.389565,22.576872,-39.351673,-0.065403,0.997859,0.000000
1.955420,3.625540,28.070633,-0.471397,-0.881921,0.000000
3.478593,-2.230338,-18.115834,-0.881921,0.471397,0.000000
-10.567523,15.237382,-28.744402,-0.000000,-0.000000,1.000000
-6.035281,-5.870431,18.964670,-0.751840,-0.659345,0.000000
-14.653211,5.939377,-28.744402,-0.000000,0.000000,1.000000
-21.197855,7.922260,35.632395,-0.946930,0.321440,0.000000
-15.448462,16.537480,-33.825813,-0.659346,0.751840,0.000000
-14.219311,17.615416,29.265383,-0.659346,0.751840,0.000000
7.527887,-19.073886,28.744402,0.000000,0.000000,-1.000000
8.422459,-0.057826,-11.554468,0.997859,-0.065403,0.000000
6.573143,-21.655819,-30.154379,0.321440,-0.946930,0.000000
4.478167,9.009814,40.145653,-0.000000,0.000000,1.000000
-16.500025,-15.491170,-35.364414,-0.751840,-0.659346,0.000000
-13.186810,-6.975704,-28.744402,-0.000000,0.000000,1.000000
-6.005625,-18.414137,-28.744402,-0.000000,0.000000,1.000000
1.757423,-8.223362,-8.900913,0.195090,-0.980785,0.000000
14.630004,6.107680,-40.145653,0.000000,0.000000,-1.000000
-3.698921,-1.818134,29.379668,0.881921,0.471397,0.000000
-16.789151,-6.795445,40.145653,0.000000,-0.000000,1.000000
9.303241,-4.205284,-40.145653,0.000000,-0.000000,-1.000000
-6.695352,-4.110134,-40.145653,0.000000,0.000000,-1.000000
3.071563,-2.750452,-40.024046,-0.773011,0.634393,0.000000
-15.570264,-6.283595,40.145653,-0.000000,0.000000,1.000000
-18.895018,-10.038221,40.145653,0.000000,-0.000000,1.000000
-15.750264,-3.100456,-40.145653,0.000000,0.000000,-1.000000
14.361606,-17.490627,35.575547,0.659346,-0.751840,0.000000
6.024398,5.882841,0.247603,0.751840,0.659345,-0.000000
-18.278397,-0.865174,36.367687,0.881921,0.471397,-0.000000
14.314923,17.531566,29.160218,0.659346,0.751840,0.000000
7.347699,20.933119,-28.744402,0.000000,-0.000000,1.000000
22.646797,0.322702,30.055275,0.997859,0.065403,0.000000
-14.975191,15.121338,-40.145653,0.000000,0.000000,-1.000000
7.147347,9.852216,-40.145653,0.000000,0.000000,-1.000000
1.347696,22.579616,34.163785,0.065403,0.997859,-0.000000
-11.727612,-19.367999,40.070389,-0.555570,-0.831470,0.000000
3.651959,1.905993,18.923186,-0.881921,-0.471397,0.000000
-8.326763,-21.060544,28.933475,-0.321440,-0.946930,0.000000
1.819457,-17.444310,36.684260,-0.881921,0.471397,0.000000
-17.153871,-1.974700,33.008644,0.471397,0.881921,0.000000
16.487805,-8.331763,40.145653,-0.000000,0.000000,1.000000
7.881595,2.939554,-0.957094,0.946930,0.321440,-0.000000
-4.957648,18.161118,28.744402,0.000000,0.000000,-1.000000
4.040331,-0.871089,24.292663,-0.956940,0.290285,0.000000
-12.928377,-10.025872,40.145653,0.000000,-0.000000,1.000000
21.064009,8.316557,36.972945,0.946930,0.321440,-0.000000
12.206797,13.652844,28.744402,0.000000,0.000000,-1.000000
8.280677,1.469279,-28.720906,0.980785,0.195090,0.000000
-20.579224,-6.011409,40.145653,0.000000,-0.000000,1.000000
-0.336517,4.106006,-7.607685,0.098017,-0.995185,0.000000
-3.108940,-16.306605,-40.145653,0.000000,0.000000,-1.000000
9.410848,-14.574343,28.744402,0.000000,-0.000000,-1.000000
6.253483,-4.393970,40.145653,-0.000000,-0.000000,1.000000
-3.724913,1.769506,18.727456,0.881921,-0.471397,0.000000
-22.156218,-4.556470,-39.078688,-0.980785,-0.195090,-0.000000
8.390212,-0.549834,-9.066410,0.997859,-0.065403,0.000000
-5.496551,-6.363165,24.673944,-0.659345,-0.751840,0.000000
8.416646,0.146524,7.915703,0.997859,0.065403,0.000000
-8.368008,0.888594,0.769871,-0.997859,0.065403,0.000000
1.581084,-3.824956,4.344809,-0.290285,0.956940,0.000000
2.762606,-9.675110,-28.744402,0.000000,-0.000000,1.000000
9.252979,-7.338467,-40.145653,0.000000,0.000000,-1.000000
-0.544805,-14.255977,-34.853191,0.290283,-0.956941,0.000000
-2.467883,3.303462,-35.874193,0.634393,-0.773011,0.000000
10.350391,-4.142435,-28.744402,-0.000000,-0.000000,1.000000
-16.903732,11.526255,-28.744402,-0.000000,-0.000000,1.000000
5.664736,-6.215671,-1.007513,0.659345,-0.751840,0.000000
-0.230228,18.442753,-37.991955,0.098013,-0.995185,0.000000
-16.130464,15.912574,35.877281,-0.751840,0.659346,0.000000
-3.609954,1.984579,-4.593179,0.881921,-0.471397,0.000000
-4.422759,-22.182814,30.117444,-0.195090,-0.980785,0.000000
-16.551612,-3.497055,-28.744402,0.000000,-0.000000,1.000000
-16.236095,2.136151,-31.838133,-0.098017,-0.995185,0.000000
8.393967,-0.492532,18.534898,0.997859,-0.065403,0.000000
2.522595,-8.023134,18.043253,0.321440,-0.946930,0.000000
3.480308,-2.227129,-22.460886,-0.881921,0.471397,0.000000
1.605213,-6.726213,40.145653,0.000000,0.000000,1.000000
-13.330033,-13.060377,40.145653,0.000000,-0.000000,1.000000
-11.136532,-19.728387,-34.647980,-0.442289,-0.896873,-0.000000
-1.186580,18.106602,-31.604950,0.471397,-0.881921,0.000000
-2.056356,-3.571588,10.039726,0.471397,0.881921,-0.000000
-13.258627,18.345007,-36.532142,-0.555570,0.831470,0.000000
-18.014405,1.300612,30.050001,0.773010,-0.634394,0.000000
8.418562,-0.117291,4.630094,0.997859,-0.065403,0.000000
-1.569111,8.260820,-13.210152,-0.195090,0.980785,0.000000
-2.099469,16.751922,35.455560,0.956940,-0.290285,0.000000
-0.664722,4.073681,-24.883502,0.098017,-0.995185,0.000000
-21.817512,0.980784,-40.145653,0.000000,0.000000,-1.000000
-0.543483,-8.390628,3.415562,-0.065403,-0.997859,0.000000
-0.121461,9.142566,-40.145653,0.000000,-0.000000,-1.000000
-2.609780,3.187010,-12.415899,0.634393,-0.773011,0.000000
3.171197,2.629049,33.998234,-0.773011,-0.634393,0.000000
-1.366981,-8.301026,18.464060,-0.195090,-0.980785,0.000000
-7.940878,-2.764912,-16.002046,-0.946930,-0.321440,-0.000000
-4.282620,-19.351046,40.145653,-0.000000,-0.000000,1.000000
-8.340542,-6.692774,40.145653,-0.000000,-0.000000,1.000000
6.202836,-19.117118,-40.145653,0.000000,0.000000,-1.000000
0.138541,-4.125505,-34.859978,-0.098017,0.995185,0.000000
-14.287119,-0.647467,-35.670922,-0.956941,0.290283,0.000000
8.414480,-0.179565,-2.196569,0.997859,-0.065403,0.000000
-18.619014,-12.848547,34.250463,-0.831470,-0.555570,0.000000
-21.224180,-7.844709,30.883281,-0.946930,-0.321440,-0.000000
-1.133914,-8.347386,-12.632144,-0.195090,-0.980785,0.000000
3.567747,-2.063541,-18.353103,-0.881921,0.471397,0.000000
16.956057,-11.499522,28.744402,0.000000,-0.000000,-1.000000
-8.385321,0.624453,26.186593,-0.997859,0.065403,0.000000
-5.967622,-5.947582,-25.033993,-0.751840,-0.659345,0.000000
14.329165,-0.786076,29.744011,0.956941,0.290283,0.000000
1.837626,3.688502,-32.428798,-0.471397,-0.881921,0.000000
19.016977,-7.765657,-28.744402,-0.000000,-0.000000,1.000000
15.491619,16.499632,-34.833308,0.659346,0.751840,0.000000
-1.480060,-3.855601,-32.825370,0.290285,0.956940,-0.000000
-7.965571,21.183153,35.706530,-0.321440,0.946930,0.000000
-2.830542,-8.904560,-28.744402,0.000000,-0.000000,1.000000
-6.510647,3.507909,-40.145653,0.000000,0.000000,-1.000000
0.671360,-4.073027,17.029484,-0.098017,0.995185,0.000000
0.799786,6.545341,-40.145653,-0.000000,-0.000000,-1.000000
15.055670,10.493455,-28.744402,0.000000,-0.000000,1.000000
3.173930,16.471588,40.145653,-0.000000,-0.000000,1.000000
0.401746,8.399918,-3.292344,0.065403,0.997859,-0.000000
-7.931882,-2.791413,26.595274,-0.946930,-0.321440,0.000000
14.371544,-0.880321,32.423276,0.881920,0.471398,-0.000000
-1.986221,17.125253,35.553906,0.956940,-0.290285,0.000000
-1.925288,-17.246315,29.353042,0.881921,0.471397,-0.000000
-2.273526,-19.044902,-28.744402,0.000000,-0.000000,1.000000
10.012235,-7.282872,-40.145653,0.000000,0.000000,-1.000000
-2.269776,18.190331,28.744402,0.000000,0.000000,-1.000000
20.311635,-5.937324,28.744402,0.000000,-0.000000,-1.000000
15.613672,-9.522069,28.744402,0.000000,-0.000000,-1.000000
-13.435868,-14.281597,-28.744402,0.000000,-0.000000,1.000000
-2.139239,22.527736,-36.269307,-0.065403,0.997859,0.000000
0.877768,4.038305,-36.309523,-0.290285,-0.956940,0.000000
-21.074088,4.721692,-28.744402,-0.000000,-0.000000,1.000000
-0.729975,8.378405,10.441990,-0.065403,0.997859,0.000000
-18.171698,1.064794,28.856358,0.881921,-0.471397,0.000000
1.871399,15.294712,33.337378,-0.881921,0.471396,0.000000
3.738564,-9.959834,28.744402,0.000000,0.000000,-1.000000
-5.487412,21.971042,-28.826000,-0.195090,0.980785,0.000000
3.834404,17.454769,-40.145653,-0.000000,-0.000000,-1.000000
8.411737,-0.221412,-3.009138,0.997859,-0.065403,0.000000
-12.175049,-19.069031,37.939454,-0.555570,-0.831470,0.000000
4.282945,-6.960675,-40.145653,0.000000,0.000000,-1.000000
-15.544127,10.312188,40.145653,0.000000,-0.000000,1.000000
-12.281332,-8.188459,28.744402,0.000000,0.000000,-1.000000
18.940765,12.367012,-34.998857,0.831470,0.555570,0.000000
8.039758,8.964296,40.145653,0.000000,0.000000,1.000000
14.934055,-1.622694,29.996241,0.634393,0.773011,-0.000000
-16.700244,15.262865,-29.784975,-0.751840,0.659346,0.000000
-8.090116,-21.140876,34.318379,-0.321440,-0.946930,0.000000
-2.302291,3.439360,9.482959,0.634393,-0.773011,0.000000
-17.144639,-1.979635,37.483998,0.471397,0.881921,0.000000
0.276801,8.408107,-22.393954,0.065403,0.997859,0.000000
9.141118,20.712416,29.009832,0.442289,0.896873,0.000000
8.417443,-0.134364,21.364603,0.997859,-0.065403,0.000000
4.114975,0.245449,-10.181843,-0.995185,-0.098017,0.000000
4.204225,7.301735,25.244752,0.442289,0.896873,0.000000
3.263562,7.765619,12.863469,0.442289,0.896873,-0.000000
-3.022257,2.810533,9.492929,0.773011,-0.634393,0.000000
-17.013725,12.827726,28.744402,0.000000,0.000000,-1.000000
1.814899,-15.189009,-32.002044,-0.881921,-0.471396,-0.000000
2.350977,3.399404,-20.133398,-0.634393,-0.773011,0.000000
-0.673342,-8.382117,25.727380,-0.065403,-0.997859,0.000000
2.282465,8.104647,0.013927,0.321440,0.946930,-0.000000
-2.778375,3.048648,-22.981948,0.634393,-0.773011,0.000000
-0.601752,-8.386809,2.450684,-0.065403,-0.997859,0.000000
1.679251,-3.773155,1.416069,-0.471397,0.881921,0.000000
4.948998,21.427042,28.744402,0.000000,0.000000,-1.000000
-14.409917,17.448259,-37.627351,-0.659346,0.751840,0.000000
15.691417,-7.707737,28.744402,0.000000,-0.000000,-1.000000
-8.878196,-17.554051,28.744402,0.000000,0.000000,-1.000000
1.509325,18.266135,40.145653,-0.000000,-0.000000,1.000000
6.322036,5.543450,17.137565,0.751840,0.659345,-0.000000
3.613119,1.978658,31.750697,-0.881921,-0.471397,0.000000
6.906065,14.538495,40.145653,-0.000000,-0.000000,1.000000
14.280838,13.494816,-40.145653,0.000000,0.000000,-1.000000
6.108303,16.247182,-40.145653,0.000000,0.000000,-1.000000
-19.505723,0.458216,40.145653,0.000000,-0.000000,1.000000
13.827930,-9.188917,-28.744402,-0.000000,0.000000,1.000000
-6.125219,-6.524019,-28.744402,0.000000,-0.000000,1.000000
-16.196177,-7.364120,40.145653,-0.000000,0.000000,1.000000
12.563015,3.235449,40.145653,-0.000000,0.000000,1.000000
-5.906398,10.494255,40.145653,0.000000,-0.000000,1.000000
-18.493623,-6.255461,-28.744402,0.000000,-0.000000,1.000000
5.400289,6.447584,16.618727,0.659345,0.751840,-0.000000
-8.382173,0.672479,-6.596450,-0.997859,0.065403,0.000000
7.791144,-3.206013,-10.823456,0.946930,-0.321440,0.000000
19.696906,11.200369,-34.814410,0.896873,0.442289,-0.000000
17.951895,-6.408351,28.744402,0.000000,-0.000000,-1.000000
22.173174,4.471225,-31.318566,0.980785,0.195090,-0.000000
-0.491551,-4.090737,1.254431,0.098017,0.995185,-0.000000
-6.218776,-5.661195,0.517473,-0.751840,-0.659345,0.000000
-8.730006,-16.029501,-28.744402,0.000000,-0.000000,1.000000
5.822439,6.077369,-10.485586,0.659345,0.751840,0.000000
1.269947,-3.919338,-6.353678,-0.290285,0.956940,0.000000
-22.526018,-2.165448,34.388364,-0.997859,-0.065403,0.000000
-6.542025,10.534304,40.145653,0.000000,0.000000,1.000000
-18.251408,13.398707,36.346899,-0.831470,0.555570,0.000000
21.241989,-0.451105,-28.744402,-0.000000,0.000000,1.000000
2.667859,3.139346,-11.305274,-0.634393,-0.773011,0.000000
2.074021,3.562146,-22.446117,-0.471397,-0.881921,0.000000
18.342464,5.509001,-28.744402,0.000000,-0.000000,1.000000
-7.980293,-21.178155,-35.921142,-0.321440,-0.946930,0.000000
-0.100411,8.638299,40.145653,-0.000000,0.000000,1.000000
-4.990183,6.778132,9.229499,-0.555570,0.831469,0.000000
20.935327,8.689098,29.807760,0.896873,0.442289,0.000000
14.182056,-0.057245,33.364100,0.995185,0.098018,-0.000000
7.906551,2.866037,-14.058306,0.946930,0.321440,0.000000
4.957279,-6.800118,0.300962,0.555570,-0.831469,0.000000
22.192586,-4.373636,-35.030513,0.980785,-0.195090,0.000000
-0.406078,-7.867619,40.145653,-0.000000,-0.000000,1.000000
6.602636,-5.223486,15.248640,0.751840,-0.659345,0.000000
-4.135624,-0.035800,22.862806,0.995185,0.098017,-0.000000
-14.761183,17.140207,33.840638,-0.659346,0.751840,0.000000
-3.740528,7.530406,-17.217187,-0.442289,0.896873,0.000000
11.472238,12.598609,-40.145653,-0.000000,-0.000000,-1.000000
2.998101,2.839967,1.979545,-0.773011,-0.634393,0.000000
10.046575,-18.549376,-28.744402,0.000000,-0.000000,1.000000
0.076438,10.924294,40.145653,-0.000000,0.000000,1.000000
0.224465,8.411537,8.283040,0.065403,0.997859,-0.000000
-0.846038,-8.370798,-12.186371,-0.065403,-0.997859,0.000000
1.270757,18.038906,35.198280,-0.634394,-0.773010,0.000000
2.465548,-3.305378,34.761590,-0.634393,0.773011,0.000000
-2.878165,12.451540,-28.744402,0.000000,0.000000,1.000000
-6.373692,-5.484547,-21.510322,-0.751840,-0.659345,-0.000000
-0.004913,4.138666,36.507222,0.098017,-0.995185,0.000000
-9.177696,5.290574,28.744402,0.000000,0.000000,-1.000000
-17.911589,1.425894,-28.941244,0.773010,-0.634394,0.000000
-14.686762,-1.372895,-38.078001,-0.773011,0.634392,0.000000
-8.747633,20.906461,-39.329724,-0.442289,0.896873,0.000000
-6.554767,-5.278070,-15.511176,-0.751840,-0.659345,-0.000000
-7.533676,3.733896,-18.633339,-0.896873,0.442289,0.000000
7.981156,-2.646259,-8.941831,0.946930,-0.321440,0.000000
14.011778,5.792458,28.744402,0.000000,0.000000,-1.000000
-16.351660,15.660348,32.651235,-0.751840,0.659346,0.000000
2.488912,-14.018450,28.744402,0.000000,0.000000,-1.000000
-0.157714,8.415912,24.067808,-0.065403,0.997859,0.000000
8.553056,14.136077,40.145653,-0.000000,-0.000000,1.000000
-0.523604,-18.392301,-35.731881,0.290288,0.956939,0.000000
7.046942,-4.587881,-8.996148,0.831469,-0.555570,0.000000
-0.829555,-22.613576,-31.395856,-0.065403,-0.997859,0.000000
0.469081,8.395505,-4.389680,0.065403,0.997859,0.000000
13.856444,9.413383,-28.744402,0.000000,-0.000000,1.000000
-1.519881,3.843522,32.880863,0.290285,-0.956940,0.000000
20.082501,0.669862,40.145653,-0.000000,-0.000000,1.000000
-19.817658,9.105877,40.145653,0.000000,-0.000000,1.000000
-17.207233,-1.946178,33.080239,0.471397,0.881921,0.000000
0.479742,8.394806,26.332138,0.065403,0.997859,-0.000000
-3.110394,2.703137,-13.541730,0.773011,-0.634393,0.000000
-16.861244,14.235143,40.145653,0.000000,-0.000000,1.000000
7.370334,-21.385209,30.174500,0.321440,-0.946930,0.000000
-7.870570,-2.972033,-23.837001,-0.946930,-0.321440,-0.000000
-0.323208,6.466783,-40.145653,-0.000000,-0.000000,-1.000000
-6.393735,-2.984367,40.145653,-0.000000,-0.000000,1.000000
4.573911,-7.056277,10.051092,0.555570,-0.831469,0.000000
-1.476045,22.571203,35.694498,-0.065403,0.997859,0.000000
-9.899195,-8.108401,-40.145653,0.000000,0.000000,-1.000000
-16.153871,15.696535,40.145653,0.000000,-0.000000,1.000000
1.584354,-17.754507,35.242163,-0.773010,0.634394,0.000000
10.174127,20.202993,-29.596301,0.442289,0.896873,-0.000000
-2.067463,8.161691,-8.655074,-0.195090,0.980785,0.000000
-8.105672,-2.279444,3.272422,-0.946930,-0.321440,-0.000000
20.406574,3.557147,-28.744402,0.000000,-0.000000,1.000000
-16.599677,-2.117051,36.468486,0.098017,0.995185,0.000000
16.499729,-15.491509,-28.821284,0.751840,-0.659346,0.000000
-4.079753,0.603070,11.166059,0.995185,-0.098017,0.000000
22.517687,2.292562,39.235544,0.997859,0.065403,-0.000000
12.923584,-3.380274,-28.744402,-0.000000,-0.000000,1.000000
-9.423317,-6.332034,28.744402,0.000000,0.000000,-1.000000
18.396855,-0.508591,-37.386458,-0.956939,0.290288,0.000000
-17.768035,14.045282,-38.504396,-0.751840,0.659346,0.000000
-16.237318,-14.433307,40.145653,-0.000000,0.000000,1.000000
0.349992,-8.403310,13.845442,0.065403,-0.997859,0.000000
2.884771,-2.961331,-21.913770,-0.634393,0.773011,0.000000
3.880262,1.915455,40.145653,0.000000,0.000000,1.000000
-16.013273,15.693342,-28.744402,-0.000000,-0.000000,1.000000
-19.530493,-9.422421,-40.145653,0.000000,-0.000000,-1.000000
-3.907719,1.308251,-31.330366,0.956940,-0.290285,0.000000
-15.274529,-16.690015,-33.788007,-0.659346,-0.751840,-0.000000
-1.971981,-3.616688,-38.596955,0.471397,0.881921,-0.000000
19.428532,-11.242332,28.744402,0.000000,-0.000000,-1.000000
-6.514199,5.324329,14.814938,-0.751840,0.659345,0.000000
-15.011582,-8.884409,-28.744402,0.000000,-0.000000,1.000000
2.229462,8.122639,0.217299,0.321440,0.946930,-0.000000
-2.574051,-15.554110,-40.145653,0.000000,0.000000,-1.000000
10.311887,2.430302,40.145653,-0.000000,-0.000000,1.000000
3.192291,7.795802,25.003978,0.321440,0.946930,0.000000
-0.526315,8.391753,-14.700085,-0.065403,0.997859,0.000000
3.656132,-1.898185,-39.303912,-0.881921,0.471397,0.000000
16.545685,2.122368,-39.837349,-0.098017,-0.995185,0.000000
-4.744346,22.118847,-39.277565,-0.195090,0.980785,0.000000
18.988510,12.295557,39.447076,0.831470,0.555570,-0.000000
-3.612141,-7.593719,-17.429661,-0.442289,-0.896873,0.000000
-1.907592,17.279421,-33.406247,0.881921,-0.471397,0.000000
5.529252,11.361882,28.744402,0.000000,-0.000000,-1.000000
7.345904,5.706846,-28.744402,0.000000,-0.000000,1.000000
-5.189883,-10.008780,-28.744402,0.000000,-0.000000,1.000000
4.113575,-0.259673,32.174329,-0.995185,0.098017,0.000000
0.581684,8.388124,-28.618245,0.065403,0.997859,0.000000
10.266390,4.314259,-28.744402,0.000000,-0.000000,1.000000
-3.417179,7.689864,14.264463,-0.442289,0.896873,0.000000
1.535321,3.838838,18.238543,-0.290285,-0.956940,0.000000
-4.332952,-7.217281,6.577788,-0.555570,-0.831469,0.000000
-12.117494,-8.649067,28.744402,0.000000,0.000000,-1.000000
-22.071139,-4.984190,32.010582,-0.980785,-0.195090,-0.000000
-4.202482,10.483144,-40.145653,0.000000,0.000000,-1.000000
-7.918982,-10.033867,-40.145653,0.000000,0.000000,-1.000000
20.799816,8.963888,-35.551074,0.896873,0.442289,0.000000
-2.267298,3.458837,-28.225693,0.471397,-0.881921,0.000000
-21.913885,5.455188,28.744402,0.000000,0.000000,-1.000000
-2.983356,2.857934,11.629402,0.773011,-0.634393,0.000000
-16.953206,14.974417,-38.789292,-0.751840,0.659346,0.000000
3.128101,2.681561,9.664836,-0.773011,-0.634393,0.000000
11.092307,19.750196,29.482824,0.442289,0.896873,0.000000
-8.310896,-1.317360,-26.861818,-0.980785,-0.195090,-0.000000
-19.144075,-12.062738,38.109034,-0.831470,-0.555570,0.000000
-1.787427,-20.751198,-28.744402,-0.000000,-0.000000,1.000000
16.564423,-11.134718,28.744402,0.000000,-0.000000,-1.000000
9.738113,-13.453792,40.145653,-0.000000,0.000000,1.000000
11.410972,-2.754961,-28.744402,-0.000000,-0.000000,1.000000
5.145523,-6.671008,8.135566,0.659345,-0.751840,0.000000
-6.900852,-4.806520,10.197562,-0.831469,-0.555570,0.000000
-3.289847,2.484473,-27.428783,0.773011,-0.634393,0.000000
21.944049,5.623115,-36.233586,0.980785,0.195090,-0.000000
-7.992059,-2.614139,16.332089,-0.946930,-0.321440,0.000000
-1.704612,8.233867,7.618699,-0.195090,0.980785,0.000000
4.093245,0.466079,-6.419110,-0.995185,-0.098017,0.000000
-20.364677,9.846263,36.202611,-0.896873,0.442289,0.000000
19.863965,-10.743608,-40.145653,0.000000,-0.000000,-1.000000
6.730190,5.061934,19.224715,0.831469,0.555570,-0.000000
21.986940,-5.407488,-31.898121,0.980785,-0.195090,0.000000
-8.416186,0.153543,-23.075731,-0.997859,0.065403,0.000000
5.310260,-22.006279,32.446236,0.195090,-0.980785,0.000000
11.641225,3.699275,-28.744402,0.000000,-0.000000,1.000000
-18.402185,0.491022,31.613021,0.956939,-0.290288,0.000000
10.597381,16.149288,-40.145653,0.000000,0.000000,-1.000000
12.660335,-9.424074,40.145653,-0.000000,0.000000,1.000000
3.348202,7.723879,-25.525670,0.442289,0.896873,0.000000
8.263093,1.557683,9.189042,0.980785,0.195090,-0.000000
-2.700541,-7.962729,-3.546037,-0.321440,-0.946930,0.000000
-2.770740,3.054914,-16.424081,0.634393,-0.773011,0.000000
-2.092028,-16.776454,39.546327,0.956940,0.290285,0.000000
11.088522,-18.560457,28.744402,0.000000,-0.000000,-1.000000
1.508146,-17.844086,-34.460735,-0.634394,0.773010,0.000000
-1.192591,8.335714,6.496942,-0.195090,0.980785,0.000000
-5.505855,6.450602,-28.744402,-0.000000,0.000000,1.000000
12.044197,-10.812994,-40.145653,0.000000,0.000000,-1.000000
3.937106,-1.211374,-8.750713,-0.956940,0.290285,0.000000
-3.715655,-12.417615,-40.145653,0.000000,0.000000,-1.000000
-11.528313,-12.396882,28.744402,0.000000,0.000000,-1.000000
-8.366404,0.913074,-8.622487,-0.997859,0.065403,0.000000
-16.975494,-10.080446,-40.145653,0.000000,0.000000,-1.000000
-17.010358,-2.021074,-29.126906,0.290285,0.956940,0.000000
4.078896,0.611765,28.734772,-0.995185,-0.098017,0.000000
14.081797,7.485912,40.145653,-0.000000,-0.000000,1.000000
4.296656,-10.047335,28.744402,0.000000,0.000000,-1.000000
0.390599,8.400648,-20.893763,0.065403,0.997859,0.000000
15.114622,1.770882,-30.061610,0.634393,-0.773011,0.000000
2.941571,-2.908849,-4.957434,-0.773011,0.634393,0.000000
7.500406,-3.801360,-20.938295,0.896873,-0.442289,0.000000
2.095582,8.156098,27.842673,0.195090,0.980785,-0.000000
-12.913738,-11.648777,28.744402,0.000000,-0.000000,-1.000000
7.796774,-3.189429,-8.858745,0.946930,-0.321440,0.000000
19.399881,2.089231,-40.145653,-0.000000,-0.000000,-1.000000
-22.644317,-0.360532,-37.271544,-0.997859,-0.065403,-0.000000
4.740410,6.945025,21.732315,0.555570,0.831469,-0.000000
3.217565,2.572549,-17.835708,-0.773011,-0.634393,0.000000
7.535917,21.329001,34.293444,0.321440,0.946930,0.000000
0.594854,-18.370687,36.031771,-0.290288,0.956939,0.000000
3.980044,-1.069827,-12.794711,-0.956940,0.290285,0.000000
-11.151862,-19.720827,30.614710,-0.442289,-0.896873,-0.000000
-12.689284,8.943071,-40.145653,0.000000,-0.000000,-1.000000
8.065694,2.397218,4.993087,0.946930,0.321440,0.000000
-20.038581,10.507520,-39.757344,-0.896873,0.442289,0.000000
-14.275955,9.848628,-28.744402,-0.000000,-0.000000,1.000000
-14.924359,-8.444020,28.744402,0.000000,0.000000,-1.000000
12.835148,-10.439501,-40.145653,0.000000,-0.000000,-1.000000
6.197001,5.686025,16.868166,0.751840,0.659345,-0.000000
22.383517,-3.413762,29.067461,0.980785,-0.195090,0.000000
-3.620745,-1.964389,-33.555804,0.881921,0.471397,-0.000000
8.405810,-0.311842,-14.064026,0.997859,-0.065403,0.000000
1.017183,-22.601279,34.056511,0.065403,-0.997859,0.000000
21.877853,-5.919053,37.611880,0.946930,-0.321440,0.000000
-6.043837,5.860675,27.970716,-0.751840,0.659345,0.000000
-7.242615,9.760121,40.145653,-0.000000,-0.000000,1.000000
2.454700,3.314281,32.760144,-0.634393,-0.773011,0.000000
-3.881603,1.394345,18.184955,0.956940,-0.290285,0.000000
-21.790099,6.177567,34.587633,-0.946930,0.321440,0.000000
-17.764983,-14.048762,-36.632723,-0.751840,-0.659346,0.000000
-4.116017,-0.234876,-28.254282,0.995185,0.098017,-0.000000
1.233900,8.327497,2.008113,0.195090,0.980785,-0.000000
-3.845998,1.511719,-21.338518,0.956940,-0.290285,0.000000
-11.783857,3.032031,28.744402,0.000000,0.000000,-1.000000
20.073311,-7.370171,40.145653,-0.000000,-0.000000,1.000000
6.838366,-4.900038,-15.858871,0.831469,-0.555570,0.000000
14.544715,17.330045,-35.206297,0.659346,0.751840,-0.000000
-2.050449,-3.574745,35.561256,0.471397,0.881921,0.000000
16.844636,-15.098217,35.465726,0.751840,-0.659346,0.000000
1.467835,-3.859309,32.624525,-0.290285,0.956940,0.000000
-13.014992,-3.732535,-40.145653,0.000000,0.000000,-1.000000
22.490324,2.710036,-29.710185,0.997859,0.065403,-0.000000
-3.658847,-4.416656,40.145653,0.000000,-0.000000,1.000000
7.502480,3.797155,-17.629950,0.896873,0.442289,0.000000
-19.724110,10.863153,-28.744402,-0.000000,-0.000000,1.000000
22.288236,3.892768,-31.987220,0.980785,0.195090,-0.000000
-5.152677,6.664734,-14.977016,-0.659345,0.751840,0.000000
13.997609,-3.599852,28.744402,0.000000,-0.000000,-1.000000
21.105447,8.194485,-36.908395,0.946930,0.321440,-0.000000
6.210654,-2.607194,-40.145653,0.000000,0.000000,-1.000000
-22.618621,0.752586,-32.465425,-0.997859,0.065403,0.000000
-17.830877,-6.375478,28.744402,0.000000,0.000000,-1.000000
-7.200387,6.163331,28.744402,0.000000,-0.000000,-1.000000
22.091461,-4.882024,-32.945803,0.980785,-0.195090,0.000000
0.673813,-19.793577,28.744402,0.000000,0.000000,-1.000000
7.603710,3.591880,-1.653813,0.896873,0.442289,0.000000
-19.581084,11.408708,38.384297,-0.831470,0.555570,0.000000
7.932383,16.454334,28.744402,0.000000,0.000000,-1.000000
2.389612,8.068275,3.080059,0.321440,0.946930,-0.000000
-21.757608,-6.273283,29.522931,-0.946930,-0.321440,-0.000000
-3.508324,2.174714,-25.815448,0.881921,-0.471397,0.000000
-6.616591,5.207573,23.320635,-0.751840,0.659345,0.000000
21.551746,6.879733,-40.135663,0.946930,0.321440,0.000000
-8.319473,-21.063019,-36.748377,-0.321440,-0.946930,0.000000
0.532452,19.721738,28.744402,0.000000,0.000000,-1.000000
-2.547585,9.085149,-28.744402,0.000000,0.000000,1.000000
1.553903,17.791613,-31.544804,-0.773010,-0.634394,0.000000
18.253343,0.912048,-35.031287,-0.881921,-0.471397,0.000000
9.772462,4.152264,40.145653,-0.000000,0.000000,1.000000
-14.859914,-4.604444,28.744402,0.000000,0.000000,-1.000000
-1.648210,-3.789746,18.936854,0.471397,0.881921,0.000000
22.528610,-2.125896,39.668221,0.997859,-0.065403,0.000000
18.381435,0.559423,-34.352232,-0.956939,-0.290288,0.000000
21.560273,-6.854612,30.027331,0.946930,-0.321440,0.000000
-13.438795,-3.725932,40.145653,0.000000,-0.000000,1.000000
2.906959,2.943122,40.028962,-0.634393,-0.773011,0.000000
