x,y,z,nx,ny,nz
-8.996343,-3.669142,20.973275,-0.946930,-0.321440,0.000000
-51.040131,-8.336010,-1.081028,0.000000,0.997859,0.065403
-15.761794,-5.742394,-8.755405,0.000000,-0.555570,-0.831469
-7.416472,6.252131,19.292823,-0.751840,0.659346,0.000000
7.136427,8.110730,6.631097,0.000000,0.751840,0.659346
12.122412,9.852327,-3.548693,0.000000,0.946930,-0.321439
9.060685,3.479596,37.738914,0.946930,0.321440,0.000000
31.651673,-7.215391,-7.598318,0.000000,-0.659346,-0.751840
31.206752,6.944678,-4.706114,0.000000,-0.831470,0.555570
-18.219599,2.481423,-10.181692,0.000000,0.195090,-0.980785
5.736306,5.011394,14.621023,-0.751840,-0.659345,0.000000
4.724602,-6.264332,-5.579912,0.000000,0.751840,0.659346
13.385453,3.571509,-7.592189,0.000000,-0.442289,0.896873
4.201989,3.687983,-9.805045,0.000000,0.321439,-0.946930
-47.771920,8.074003,2.312562,0.000000,-0.946930,-0.321439
-7.323071,-8.163012,-6.571481,0.000000,-0.751840,-0.659346
-22.565929,6.593423,-5.204655,0.000000,-0.751840,0.659346
-1.852416,-9.519848,33.192379,-0.195090,-0.980785,0.000000
7.713972,-5.911731,36.606659,0.831470,-0.555570,0.000000
-9.399823,2.455823,14.321938,-0.980785,0.195090,0.000000
6.694298,3.647147,14.462969,-0.896873,-0.442289,0.000000
37.973896,-7.013471,4.603157,0.000000,0.831470,-0.555570
16.171399,5.912800,-8.641543,0.000000,0.555570,-0.831469
-46.177678,8.363987,0.654192,0.000000,-0.997859,-0.065403
-6.131104,7.522610,11.716439,-0.659346,0.751840,0.000000
-33.694328,2.544826,7.995160,0.000000,-0.321439,-0.946930
-52.695177,10.462998,0.451963,-0.000000,0.997859,0.065404
-4.486832,8.600819,23.147337,-0.442289,0.896873,0.000000
19.684720,-8.375275,0.481969,0.000000,0.997859,-0.065403
-11.497003,7.552889,3.651202,0.000000,-0.896873,-0.442289
0.845705,-7.577938,35.727468,-0.065403,0.997859,0.000000
-3.105172,-7.801639,-3.114920,0.000000,0.946930,0.321439
-36.709705,-0.573853,-8.369253,-0.000000,0.065403,0.997859
-7.502333,6.154225,9.069588,-0.751840,0.659346,-0.000000
48.717312,4.872965,6.833191,-0.000000,-0.555570,-0.831470
37.777399,-9.846110,3.567010,0.000000,-0.946930,0.321439
30.072822,0.054242,8.403310,-0.000000,-0.065403,-0.997859
-37.492871,7.704357,3.344055,0.000000,-0.896873,-0.442289
-47.786889,9.203834,5.009144,-0.000000,0.896873,0.442289
11.265827,-7.323637,4.116078,0.000000,0.896873,-0.442289
-35.604725,5.222566,-9.098587,0.000000,0.442289,-0.896873
36.238674,-3.003397,7.839496,-0.000000,0.321439,-0.946930
-22.767133,10.219228,-2.292719,0.000000,0.980785,-0.195090
-28.651955,-6.361495,5.469119,0.000000,0.751840,-0.659346
34.961284,-6.665378,8.080666,0.000000,-0.659346,0.751840
-3.021759,9.216100,30.364593,-0.321440,0.946930,0.000000
-31.147484,-7.792646,3.141414,0.000000,0.946930,-0.321439
5.743462,5.003234,8.008416,-0.751840,-0.659346,0.000000
31.752518,-5.594126,-8.854474,0.000000,-0.555570,-0.831469
-51.267943,7.911424,2.791504,0.000000,-0.946930,-0.321439
-36.802317,-10.465256,-0.417510,0.000000,-0.997859,-0.065404
16.490125,-1.334735,8.287717,-0.000000,0.195090,-0.980785
-23.765696,10.340106,1.685024,0.000000,0.980785,0.195090
-33.066754,-10.079272,2.880135,0.000000,-0.946930,0.321439
0.292259,-10.428245,0.982192,0.000000,-0.997859,0.065404
-9.657726,0.936764,29.597316,-0.997859,0.065404,0.000000
35.743210,1.633814,-10.350292,0.000000,0.195090,-0.980785
14.512919,2.006419,-8.154111,0.000000,-0.195090,0.980785
-16.105399,-4.395554,-7.152187,0.000000,0.555570,0.831470
25.563870,8.181923,-6.549917,0.000000,0.751840,-0.659346
-44.125193,-1.690465,10.339023,0.000000,-0.195090,0.980785
21.319907,-9.494759,4.419206,0.000000,-0.896873,0.442289
2.108226,9.468964,29.902883,0.195090,0.980785,0.000000
-3.375639,6.828190,6.064990,0.442289,-0.896873,0.000000
47.950758,-1.800325,8.195106,0.000000,0.195090,-0.980785
-23.580812,-7.156827,-4.388610,-0.000000,0.831470,0.555570
6.147110,-3.685429,-9.805912,0.000000,-0.321439,-0.946930
13.147697,0.200835,-10.479458,0.000000,0.065404,-0.997859
28.566228,-6.978615,-4.655322,0.000000,0.831470,0.555570
-6.216065,-4.407284,19.110187,0.831469,0.555570,0.000000
39.405874,-8.393604,0.202322,0.000000,0.997859,-0.065403
-23.584756,-7.228307,-4.281633,-0.000000,0.831470,0.555570
7.065137,-2.883385,18.249260,-0.946930,0.321439,0.000000
17.495207,8.216853,-6.510087,0.000000,0.751840,-0.659346
29.431479,-6.979291,-4.654311,0.000000,0.831470,0.555570
-49.041696,7.994105,6.764083,0.000000,0.751840,0.659346
40.445421,8.340341,1.014964,0.000000,-0.997859,-0.065403
-37.501696,8.620710,5.943978,0.000000,0.831469,0.555570
52.770956,2.129761,10.251642,-0.000000,0.195090,0.980785
50.332633,7.617545,-3.520091,0.000000,-0.896873,0.442289
23.022924,6.440585,8.277805,-0.000000,0.659346,0.751840
-37.527909,5.733935,-8.761057,0.000000,0.555570,-0.831469
5.023891,5.725346,17.165760,-0.659345,-0.751840,0.000000
25.106543,8.961939,5.433294,-0.000000,0.831470,0.555570
-50.676641,4.267112,9.569764,-0.000000,0.442289,0.896873
-45.106834,2.058128,8.143826,0.000000,-0.195090,-0.980785
2.432697,-7.307612,-7.517442,0.000000,-0.659346,-0.751840
-30.806691,-1.845606,-8.186099,-0.000000,0.195090,0.980785
-6.489495,-3.998067,20.025044,0.831469,0.555570,-0.000000
-7.264200,-3.270749,-9.946677,0.000000,-0.321439,-0.946930
-50.383602,5.188667,9.115303,-0.000000,0.442289,0.896873
44.827436,-10.214238,-2.317806,0.000000,-0.980785,-0.195090
46.333588,3.831384,9.756367,0.000000,0.321439,0.946930
30.786334,-0.686014,-8.361901,0.000000,0.065403,0.997859
23.409520,-5.168952,-6.624734,0.000000,0.659346,0.751840
0.627771,-9.677978,9.806201,0.065404,-0.997859,0.000000
0.473777,-9.688072,28.323851,0.065404,-0.997859,-0.000000
4.079235,8.801824,23.995746,0.442289,0.896873,-0.000000
48.971337,-10.434570,-0.885689,0.000000,-0.997859,-0.065404
-2.767155,-8.641826,-5.912376,0.000000,-0.831469,-0.555570
40.440912,-1.885977,-8.178069,0.000000,0.195090,0.980785
40.477971,4.621294,-7.001353,0.000000,-0.555570,0.831470
20.412872,8.398414,-0.128940,-0.000000,-0.997859,0.065403
4.966510,5.775668,8.298748,-0.659345,-0.751840,0.000000
-6.606352,7.105828,16.631105,-0.659346,0.751840,0.000000
31.492994,7.932128,2.730513,0.000000,-0.946930,-0.321439
47.871760,-10.446229,-0.707809,0.000000,-0.997859,-0.065404
-7.514114,-1.267582,12.788866,0.980785,0.195091,-0.000000
-36.987594,10.109153,2.792109,0.000000,0.946930,0.321439
-23.400862,3.136604,9.992213,-0.000000,0.321439,0.946930
26.372424,-10.012739,-3.076135,0.000000,-0.946930,-0.321439
30.855180,6.045146,-8.553112,0.000000,0.555570,-0.831469
22.006997,2.206746,10.236329,0.000000,0.195090,0.980785
52.810703,-0.531775,10.390039,1.000000,-0.000000,0.000000
-33.203152,-10.443392,-0.751092,0.000000,-0.997859,-0.065404
22.612055,-9.311728,-4.790357,0.000000,-0.896873,-0.442289
-12.747598,1.606821,-8.233596,0.000000,-0.195090,0.980785
-48.033403,10.113220,-2.780129,0.000000,0.946930,-0.321439
2.359204,-9.472085,-4.465185,-0.000000,-0.896873,-0.442289
9.239119,7.429372,7.408037,-0.000000,0.751840,0.659346
-8.110241,-5.318673,32.189280,-0.831470,-0.555570,-0.000000
-7.603484,-0.455952,33.109790,0.997859,0.065403,0.000000
26.550314,10.481724,-0.166266,0.000000,0.997859,-0.065404
47.273710,3.178956,-7.779902,0.000000,-0.321439,0.946930
7.732526,-8.364247,0.650221,0.000000,0.997859,-0.065403
39.431048,0.975369,8.342936,-0.000000,-0.065403,-0.997859
16.585696,10.161635,-2.582256,0.000000,0.980785,-0.195090
-20.885071,-8.164427,6.569867,0.000000,-0.751840,0.659346
26.387595,4.490182,7.088959,-0.000000,-0.555570,-0.831470
-8.439620,4.813712,19.216499,-0.896873,0.442289,0.000000
4.339653,-8.673399,35.672776,0.442289,-0.896873,0.000000
41.759604,-6.678174,8.069445,0.000000,-0.659346,0.751840
1.837463,-7.400757,7.408854,-0.195091,0.980785,0.000000
7.551289,6.098402,17.133208,0.751840,0.659346,0.000000
21.183358,5.440392,6.386688,0.000000,-0.659346,-0.751840
1.562211,-7.647918,3.458502,0.000000,0.896873,-0.442289
-46.400965,-10.490743,-0.028658,0.000000,-0.997859,-0.065404
-29.208161,-9.480381,4.448364,-0.000000,-0.896873,0.442289
19.519799,-6.792935,4.933213,0.000000,0.831470,-0.555570
8.700442,3.967862,38.048050,0.000000,0.000000,1.000000
22.828486,3.913057,9.728643,0.000000,0.321440,0.946930
51.345249,-10.352216,-1.624140,0.000000,-0.980785,-0.195090
-14.524645,-7.724294,-3.303627,-0.000000,0.896873,0.442289
-23.570800,6.390950,-5.435531,0.000000,-0.751840,0.659346
38.888832,4.398678,-9.504883,0.000000,0.442289,-0.896873
52.427989,-2.364234,8.056463,0.000000,0.321439,-0.946930
-4.412335,-0.602170,-10.453153,0.000000,-0.065404,-0.997859
-17.953703,1.233101,-8.307934,0.000000,-0.195090,0.980785
-7.602034,0.478071,12.527054,0.997859,-0.065403,0.000000
18.330594,10.255039,2.112683,-0.000000,0.980785,0.195090
-15.741401,0.066475,10.488264,-0.000000,0.065404,0.997859
52.810703,1.813097,-8.192642,1.000000,-0.000000,-0.000000
15.298819,6.888593,4.790051,0.000000,-0.831470,-0.555570
-47.428626,1.675022,-10.342095,0.000000,0.195090,-0.980785
4.292685,6.292637,7.275532,-0.555570,-0.831469,0.000000
-18.496100,0.408694,8.380078,0.000000,-0.065403,-0.997859
4.551369,6.119790,14.585743,-0.555570,-0.831469,0.000000
18.215083,-10.434651,-0.884451,0.000000,-0.997859,-0.065404
-47.511129,-10.120865,-2.757607,0.000000,-0.946930,-0.321439
-7.570859,-0.953716,15.922088,0.997859,0.065403,0.000000
-18.849395,6.338103,8.357364,0.000000,0.555570,0.831470
35.359903,3.154423,9.986164,-0.000000,0.321439,0.946930
36.465923,3.847741,9.750814,0.000000,0.321439,0.946930
42.129153,-5.411134,-8.976745,0.000000,-0.555570,-0.831469
-15.816153,-1.702124,8.214639,0.000000,0.195090,-0.980785
20.615736,10.482136,-0.159971,0.000000,0.997859,-0.065404
-5.369064,10.326367,-1.754092,0.000000,0.980785,-0.195090
-26.903312,-1.332147,-10.405307,0.000000,-0.065404,-0.997859
49.725866,-9.641570,4.121504,0.000000,-0.896873,0.442289
21.691754,0.645528,10.450311,0.000000,0.065404,0.997859
-4.991937,-7.354638,4.053215,-0.000000,0.896873,-0.442289
30.937172,-2.901333,-10.072076,0.000000,-0.321439,-0.946930
27.143377,10.209488,-2.341682,0.000000,0.980785,-0.195090
49.549857,-6.767283,4.971605,0.000000,0.831470,-0.555570
9.696869,-0.339558,34.341709,0.997859,-0.065404,0.000000
-5.599097,7.922868,28.840661,-0.555570,0.831470,0.000000
-27.291682,-8.087414,-2.273053,-0.000000,0.946930,0.321439
-9.284829,2.819292,26.911002,-0.946930,0.321440,0.000000
-21.433309,6.873198,-4.813090,0.000000,-0.831470,0.555570
35.857416,3.311484,-9.932849,0.000000,0.321439,-0.946930
-29.713920,9.210295,-4.996044,0.000000,0.896873,-0.442289
-2.418894,9.407169,8.085382,-0.195090,0.980785,0.000000
-50.829719,6.838334,4.865269,-0.000000,-0.831470,-0.555570
-34.564258,-0.026316,8.405140,0.000000,0.065403,-0.997859
-18.970300,-10.392424,-1.422003,-0.000000,-0.980785,-0.195090
15.851580,6.204384,8.446713,0.000000,0.555570,0.831470
-27.140185,10.276837,-2.003099,0.000000,0.980785,-0.195090
-37.863098,-6.846574,-7.921762,0.000000,-0.659346,-0.751840
-24.651944,10.169009,-2.545187,0.000000,0.980785,-0.195090
24.897001,-4.832010,-9.291187,0.000000,-0.442289,-0.896873
14.418248,8.090571,-2.263754,0.000000,-0.946930,0.321439
-9.660910,0.888184,35.099631,-0.997859,0.065404,0.000000
24.007546,5.290523,9.057335,-0.000000,0.555570,0.831469
43.333650,7.359016,7.472362,0.000000,0.659346,0.751840
23.875848,-7.360634,4.041056,0.000000,0.896873,-0.442289
37.092604,4.038482,-9.682512,0.000000,0.442289,-0.896873
44.741389,-7.333252,-4.096581,0.000000,0.896873,0.442289
-5.776131,4.965983,8.422316,0.751840,-0.659346,0.000000
52.810703,2.617789,-9.000530,1.000000,-0.000000,0.000000
-0.575803,9.681384,27.310569,-0.065404,0.997859,-0.000000
-26.176389,10.407090,-1.304953,0.000000,0.997859,-0.065404
-38.356225,0.975973,8.342896,0.000000,-0.065403,-0.997859
32.015591,-7.041051,4.561880,0.000000,0.831470,-0.555570
-14.792447,-1.047607,8.338201,0.000000,0.065405,-0.997859
-16.902196,-0.286534,-10.473841,0.000000,-0.065404,-0.997859
18.397798,4.539400,7.056072,0.000000,-0.555570,-0.831470
50.856066,2.530078,-10.172014,0.000000,0.195090,-0.980785
41.584164,-8.062350,-2.346890,0.000000,0.946930,0.321439
51.205582,-8.109342,-6.632679,0.000000,-0.751840,-0.659346
-41.518109,6.237449,5.610565,0.000000,-0.751840,-0.659346
14.700541,8.054715,6.694970,0.000000,0.751840,0.659346
-41.577504,-9.385488,-4.640786,-0.000000,-0.896873,-0.442289
-22.182641,-9.988281,3.148188,0.000000,-0.946930,0.321439
12.729286,1.836329,8.187944,-0.000000,-0.195090,-0.980785
-23.255050,-9.050598,-5.300606,0.000000,-0.831469,-0.555570
-38.515022,-3.019203,-10.032065,0.000000,-0.321439,-0.946930
-5.110481,-5.649409,14.632634,0.659345,0.751840,-0.000000
47.758910,-10.215180,2.313071,0.000000,-0.980785,0.195090
44.836282,3.076158,7.814797,-0.000000,-0.321439,-0.946930
7.628590,-0.072902,33.016408,-0.997859,0.065403,0.000000
7.570013,-0.966621,12.759027,-0.997859,0.065403,0.000000
-1.245554,-7.518495,12.596549,0.195091,0.980785,0.000000
7.360037,2.014637,28.621474,-0.946930,-0.321440,0.000000
0.559477,-7.596699,37.755814,-0.065403,0.997859,0.000000
7.558032,-1.046792,14.479734,-0.980785,0.195091,0.000000
3.694135,5.144440,-6.646231,0.000000,-0.659346,0.751840
43.453941,1.286982,10.408268,0.000000,0.065404,0.997859
7.207707,-6.490182,26.882655,0.751840,-0.659346,0.000000
39.880450,2.636939,10.150758,0.000000,0.195090,0.980785
51.402263,10.414433,-1.192908,0.000000,0.997859,-0.065404
-40.241644,10.322103,-1.775532,0.000000,0.980785,-0.195090
1.682861,9.553574,23.107133,0.195090,0.980785,-0.000000
-1.513627,9.587237,25.104199,-0.195090,0.980785,0.000000
-5.422620,-8.367827,0.595597,0.000000,0.997859,-0.065403
-6.894148,-3.241890,9.548978,0.896873,0.442289,0.000000
1.811115,-7.405998,22.222514,-0.195091,0.980785,0.000000
-50.459581,8.359080,-6.335535,0.000000,0.831469,-0.555570
-12.894220,8.312172,1.211795,0.000000,-0.980785,-0.195090
-24.397359,7.493763,3.771096,-0.000000,-0.896873,-0.442289
1.960596,-7.583558,-7.232221,0.000000,-0.751840,-0.659346
-46.350668,6.907338,-7.868473,0.000000,0.659346,-0.751840
-0.955599,-9.656491,36.919208,-0.065404,-0.997859,-0.000000
-33.290321,-1.041251,8.338618,0.000000,0.065403,-0.997859
-28.357184,6.891349,4.785926,-0.000000,-0.831470,-0.555570
-26.256069,-10.475067,-0.267834,0.000000,-0.997859,-0.065404
7.616031,0.264513,33.418761,-0.997859,-0.065403,0.000000
43.676377,9.628739,-4.147522,0.000000,0.896873,-0.442289
3.896810,8.891786,30.660381,0.442289,0.896873,-0.000000
-51.271097,-7.099807,4.473947,0.000000,0.831470,-0.555570
-38.301339,-7.559793,-3.637202,-0.000000,0.896873,0.442289
-2.707700,-8.013662,-2.490321,-0.000000,0.946930,0.321439
0.751478,-7.584114,9.180760,-0.065403,0.997859,0.000000
7.490544,1.386074,34.038162,-0.980785,-0.195091,-0.000000
21.119921,2.659018,7.956397,-0.000000,-0.321439,-0.946930
32.733426,-0.825392,8.352766,-0.000000,0.065403,-0.997859
-32.288667,-5.772857,6.095123,0.000000,0.659346,-0.751840
0.576421,-7.595588,21.302932,-0.065403,0.997859,0.000000
6.599327,6.412990,-5.410399,0.000000,-0.751840,0.659346
-48.712980,-10.340975,-1.680656,-0.000000,-0.980785,-0.195090
42.360240,-6.839930,7.927588,0.000000,-0.659346,0.751840
22.383460,2.594966,-10.159107,0.000000,0.195090,-0.980785
32.694256,-2.884086,-7.879997,0.000000,0.321439,0.946930
-48.311174,1.637444,8.227505,0.000000,-0.195090,-0.980785
-1.182349,9.641629,10.665624,-0.065404,0.997859,0.000000
6.933564,-6.802782,26.635003,0.751840,-0.659346,0.000000
51.897381,8.248528,1.531754,0.000000,-0.980785,-0.195090
24.327352,4.330041,-7.195961,0.000000,-0.555570,0.831470
-1.146582,-0.328378,-8.385342,0.000000,0.065403,0.997859
-37.432211,7.224376,-4.287516,0.000000,-0.831470,0.555570
51.716476,2.229024,8.102360,-0.000000,-0.321439,-0.946930
-7.234739,-2.383754,31.472325,0.946930,0.321439,0.000000
-9.114295,6.693676,5.081765,-0.000000,-0.831470,-0.555570
-12.447736,-7.933939,6.832689,0.000000,-0.751840,0.659346
22.076911,-6.194668,-5.659349,0.000000,0.751840,0.659346
49.166022,7.784551,3.165261,0.000000,-0.946930,-0.321439
40.401176,1.702921,10.336546,-0.000000,0.195090,0.980785
47.937499,1.105100,10.420189,-0.000000,0.065404,0.997859
-45.728999,-6.912960,7.863543,0.000000,-0.659346,0.751840
4.006558,-6.603693,-8.134762,0.000000,-0.659346,-0.751840
-45.397564,6.207800,5.644374,0.000000,-0.751840,-0.659346
-14.351477,-8.369986,0.562671,0.000000,0.997859,-0.065403
-3.004871,9.221833,19.210353,-0.321440,0.946930,0.000000
-48.744378,-2.522097,10.173602,0.000000,-0.195090,0.980785
-25.165080,-8.374130,-0.499433,-0.000000,0.997859,0.065403
-38.697243,9.824781,-3.629841,0.000000,0.946930,-0.321439
52.100044,4.753797,-6.912817,0.000000,-0.555570,0.831470
22.085298,0.395515,8.380942,-0.000000,-0.065403,-0.997859
-37.149020,-6.585852,5.213288,0.000000,0.751840,-0.659346
22.037240,-10.210969,-2.334241,0.000000,-0.980785,-0.195090
46.085706,7.672776,3.408095,-0.000000,-0.896873,-0.442289
4.140107,8.771805,30.329407,0.442289,0.896873,0.000000
14.388141,5.619552,-6.229568,0.000000,-0.659346,0.751840
-13.797404,6.130675,-8.495963,0.000000,0.555570,-0.831469
-34.107988,0.158961,10.482202,-0.000000,0.065404,0.997859
-2.530186,-8.373953,-0.502141,-0.000000,0.997859,0.065403
-5.579287,8.354137,0.804471,0.000000,-0.997859,-0.065403
6.225923,4.392530,36.087736,-0.831469,-0.555570,0.000000
-48.807956,7.003823,-4.617596,0.000000,-0.831470,0.555570
-1.473315,-9.595256,35.264757,-0.195090,-0.980785,0.000000
0.140031,7.624190,30.720426,-0.065403,-0.997859,0.000000
-13.819187,1.686623,10.339788,-0.000000,0.195090,0.980785
22.019703,-10.052701,2.958411,0.000000,-0.946930,0.321439
20.982567,-6.678646,8.069031,0.000000,-0.659346,0.751840
-28.841652,5.572837,8.868699,-0.000000,0.555570,0.831469
-7.395561,-1.863587,9.807744,0.980785,0.195091,-0.000000
-27.911320,-8.047800,-2.389753,-0.000000,0.946930,0.321439
4.368709,6.241840,32.454282,-0.555570,-0.831469,-0.000000
42.057473,5.935512,5.952479,0.000000,-0.659346,-0.751840
40.784486,3.664321,9.813077,0.000000,0.321439,0.946930
-51.268349,-6.186117,-5.669099,-0.000000,0.751840,0.659346
-47.225277,-5.616892,8.839262,0.000000,-0.555570,0.831469
-46.469829,3.104726,-7.805100,0.000000,-0.321439,0.946930
-32.317448,-2.411280,-10.195644,0.000000,-0.195090,-0.980785
0.039054,9.716565,35.709773,0.065404,0.997859,-0.000000
-37.818418,-7.491948,-7.336683,0.000000,-0.751840,-0.659346
27.661521,-0.544132,8.371201,-0.000000,0.065403,-0.997859
51.715653,8.802513,5.671891,-0.000000,0.831469,0.555570
-27.786799,9.745284,3.864034,-0.000000,0.946930,0.321439
-1.933020,-7.381750,27.157426,0.195091,0.980785,-0.000000
18.800997,7.175116,7.633638,0.000000,0.659346,0.751840
-43.501160,-5.556987,-8.879290,0.000000,-0.555570,-0.831469
-27.687680,-7.665145,3.423569,0.000000,0.896873,-0.442289
21.253066,-9.651947,-4.100460,-0.000000,-0.896873,-0.442289
7.244933,-6.447734,30.835800,0.751840,-0.659346,0.000000
-31.322206,7.071313,-7.724671,0.000000,0.659346,-0.751840
-9.630077,7.636261,7.172125,-0.000000,0.751840,0.659346
17.898443,-8.361099,-0.698249,0.000000,0.997859,0.065403
-36.430104,3.251476,9.953219,-0.000000,0.321439,0.946930
29.950551,-8.558485,6.037105,0.000000,-0.831470,0.555570
30.600847,10.310368,-1.834523,0.000000,0.980785,-0.195090
-44.241972,1.245183,8.305530,0.000000,-0.195090,-0.980785
19.364761,-9.051807,-5.298797,0.000000,-0.831469,-0.555570
-7.341599,6.414954,5.408160,0.000000,-0.751840,-0.659346
50.012730,-6.494672,-5.317258,0.000000,0.751840,0.659346
-0.655322,-7.590417,12.134937,0.065403,0.997859,0.000000
33.812103,0.306093,10.472559,-0.000000,0.065404,0.997859
34.655945,-10.139571,-2.693179,0.000000,-0.980785,-0.195090
-51.962086,-2.973912,10.047439,0.000000,-0.321439,0.946930
34.940294,10.481936,0.163022,-0.000000,0.997859,0.065404
39.214901,-3.467639,7.643412,0.000000,0.442289,-0.896873
-3.631662,-8.555019,38.048050,0.000000,-0.000000,1.000000
39.126090,-0.527006,8.372323,0.000000,0.065403,-0.997859
6.747328,-6.982196,26.756992,0.659346,-0.751840,0.000000
13.654170,5.141453,6.648850,-0.000000,-0.659346,-0.751840
38.995962,6.997104,7.789751,-0.000000,0.659346,0.751840
-1.452616,4.743352,-6.919796,0.000000,-0.555570,0.831470
22.292320,-8.264220,1.452865,0.000000,0.980785,-0.195090
47.774572,1.909995,10.295356,-0.000000,0.195090,0.980785
-27.066390,-7.729038,7.066333,0.000000,-0.751840,0.659346
-15.606189,-6.871617,-7.899800,0.000000,-0.659346,-0.751840
7.524933,1.213189,38.039908,-0.980785,-0.195091,-0.000000
-30.151434,-9.569307,-4.268039,-0.000000,-0.896873,-0.442289
19.915191,4.261969,-9.572300,0.000000,0.442289,-0.896873
29.944467,-0.112051,-10.485277,0.000000,-0.065404,-0.997859
48.710127,2.360215,-10.205802,0.000000,0.195090,-0.980785
-3.642890,-9.005255,17.990693,-0.321439,-0.946930,-0.000000
-46.044137,-3.143320,9.989933,0.000000,-0.321439,0.946930
2.373998,-9.416099,26.335574,0.195090,-0.980785,0.000000
25.052630,-5.385191,-8.994080,0.000000,-0.555570,-0.831469
-46.464571,2.973893,10.047446,-0.000000,0.321439,0.946930
-36.497289,5.301114,6.508831,-0.000000,-0.659346,-0.751840
46.966425,10.447489,0.688583,-0.000000,0.997859,0.065404
-24.468101,3.193415,-9.972928,0.000000,0.321439,-0.946930
-52.810703,9.842124,3.522357,-1.000000,0.000000,0.000000
-43.309701,9.605727,4.194186,-0.000000,0.896873,0.442289
-26.997767,-10.458829,0.515573,0.000000,-0.997859,0.065404
42.425245,-1.065599,8.337022,-0.000000,0.065403,-0.997859
18.212227,-7.110364,7.690424,0.000000,-0.659346,0.751840
40.590837,-7.929859,-2.737196,0.000000,0.946930,0.321439
-35.209389,-8.088384,2.270197,0.000000,0.946930,-0.321439
-48.470192,-3.997106,-7.382308,-0.000000,0.442289,0.896873
2.729043,7.117529,25.151541,-0.321439,-0.946930,0.000000
38.917841,4.695777,6.951585,-0.000000,-0.555570,-0.831470
-45.558258,-8.122330,6.617870,0.000000,-0.751840,0.659346
-39.641592,5.202547,-9.108459,0.000000,0.442289,-0.896873
45.548991,-8.085472,2.278774,0.000000,0.946930,-0.321439
-20.733407,-7.205466,4.315817,0.000000,0.831470,-0.555570
37.570646,-8.740373,-5.764890,0.000000,-0.831469,-0.555570
48.809630,-8.110450,2.205191,0.000000,0.946930,-0.321439
-0.685821,8.164486,-1.954260,0.000000,-0.980785,0.195090
-52.810703,6.154810,6.610195,-1.000000,0.000000,-0.000000
4.830558,8.372760,-0.520337,-0.000000,-0.997859,0.065403
-5.100995,0.288711,-10.473698,0.000000,0.065404,-0.997859
-1.849395,9.520449,5.434134,-0.195090,0.980785,0.000000
41.789629,7.337717,-7.491041,0.000000,0.659346,-0.751840
-34.609700,8.389620,-0.263111,0.000000,-0.997859,0.065403
-0.761175,9.669234,10.187986,-0.065404,0.997859,0.000000
2.901025,-10.001776,-3.108432,0.000000,-0.946930,-0.321439
32.654057,-7.245835,-4.255400,-0.000000,0.831470,0.555570
-35.600628,-0.939562,-8.345283,-0.000000,0.065403,0.997859
-15.125360,-10.310363,-1.834550,-0.000000,-0.980785,-0.195090
35.278596,-5.094567,-6.685122,-0.000000,0.555570,0.831470
-7.905438,-6.115832,-8.505881,0.000000,-0.555570,-0.831469
-46.581251,3.267795,9.947680,-0.000000,0.321439,0.946930
-23.849637,7.185038,7.624937,0.000000,0.659346,0.751840
52.500017,8.003527,-2.520176,0.000000,-0.946930,0.321439
25.128269,-4.917366,-9.249094,0.000000,-0.442289,-0.896873
-9.660902,-0.888305,24.564284,-0.997859,-0.065404,0.000000
-42.767438,-3.807520,9.764468,-0.000000,-0.321439,0.946930
42.074445,-7.606628,-3.542229,0.000000,0.896873,0.442289
-7.489052,-1.393577,25.476165,0.980785,0.195091,-0.000000
22.696779,2.436309,-8.031997,0.000000,-0.321439,0.946930
-3.866856,-7.903185,-6.867756,0.000000,-0.751840,-0.659346
-16.558204,10.394041,1.413874,0.000000,0.980785,0.195090
-8.965192,3.747956,16.206634,-0.896873,0.442289,0.000000
3.667431,-6.684294,37.370016,-0.442289,0.896873,0.000000
47.733074,9.983433,3.162467,-0.000000,0.946930,0.321439
-19.265452,-6.311416,-8.375196,0.000000,-0.555570,-0.831469
21.965921,9.959259,3.233684,-0.000000,0.946930,0.321439
-17.954265,9.575925,-4.254620,0.000000,0.896873,-0.442289
4.088347,8.206269,-6.522155,0.000000,0.751840,-0.659346
8.158912,-9.963233,3.221976,0.000000,-0.946930,0.321439
-4.867988,10.136099,2.710636,-0.000000,0.980785,0.195090
46.379651,1.604303,-10.356162,0.000000,0.195090,-0.980785
-7.145182,-6.561477,27.284001,-0.751840,-0.659346,-0.000000
-26.698611,-6.921587,7.855977,-0.000000,-0.659346,0.751840
29.196065,10.246038,-2.157933,0.000000,0.980785,-0.195090
-22.476953,-8.071884,-2.318805,-0.000000,0.946930,0.321439
44.085084,-9.714383,-3.955064,0.000000,-0.946930,-0.321439
52.810703,-3.698220,7.725260,1.000000,0.000000,-0.000000
-2.811846,7.089421,16.215700,0.321439,-0.946930,0.000000
-8.900693,-3.878748,36.070457,-0.896873,-0.442289,0.000000
-29.914668,7.509298,3.739595,-0.000000,-0.896873,-0.442289
36.881687,6.525665,5.281918,-0.000000,-0.751840,-0.659346
41.428487,6.649233,-5.141016,0.000000,-0.751840,0.659346
-18.672832,10.483143,-0.144610,0.000000,0.997859,-0.065404
35.083976,2.168062,-10.244024,0.000000,0.195090,-0.980785
45.708761,-3.487951,7.633395,0.000000,0.442289,-0.896873
39.567322,6.298273,5.541210,-0.000000,-0.751840,-0.659346
-23.237100,7.276696,-4.209214,0.000000,-0.831470,0.555570
-0.484474,-9.687370,33.868087,-0.065404,-0.997859,-0.000000
2.853856,9.273096,23.467808,0.321440,0.946930,-0.000000
37.937477,-8.810905,-5.659332,0.000000,-0.831469,-0.555570
-21.133379,-2.139428,-10.249719,0.000000,-0.195090,-0.980785
22.942278,4.717630,-6.936983,0.000000,-0.555570,0.831470
-47.604295,9.614454,4.176489,-0.000000,0.896873,0.442289
2.395081,-10.052089,2.960214,0.000000,-0.946930,0.321439
47.462275,-1.077832,8.336220,-0.000000,0.065403,-0.997859
-8.681488,9.086491,-5.246888,0.000000,0.831469,-0.555570
-45.648746,5.602647,6.244394,-0.000000,-0.659346,-0.751840
-38.636768,2.581182,-10.161849,0.000000,0.195090,-0.980785
3.468423,-6.782435,19.921216,-0.442289,0.896873,0.000000
-24.057957,1.981439,-10.281145,0.000000,0.195090,-0.980785
-33.651866,4.483240,9.463182,-0.000000,0.442289,0.896873
13.997939,3.017044,7.834864,0.000000,-0.321440,-0.946930
-16.115133,-10.168307,2.548716,0.000000,-0.980785,0.195090
-9.382912,2.530348,20.572687,-0.946930,0.321440,0.000000
-49.374580,2.817762,10.100445,-0.000000,0.321439,0.946930
-0.921068,-7.572999,16.502132,0.065403,0.997859,0.000000
-14.283577,5.632389,-6.218310,0.000000,-0.659346,0.751840
-42.676330,-4.805241,6.878443,0.000000,0.555570,-0.831470
46.456889,2.658582,-10.146453,0.000000,0.195090,-0.980785
30.256275,-2.305672,-10.216651,0.000000,-0.195090,-0.980785
4.405769,8.527585,-6.083349,0.000000,0.831469,-0.555570
10.165298,-1.355768,10.403759,0.000000,-0.065405,0.997859
-0.537461,-10.065497,2.920716,0.000000,-0.946930,0.321439
-52.810703,7.107287,5.264646,-1.000000,0.000000,0.000000
42.807508,-7.984437,-6.775106,0.000000,-0.751840,-0.659346
47.366279,7.799126,-3.122324,0.000000,-0.946930,0.321439
-47.486767,-8.259171,-1.478250,-0.000000,0.980785,0.195090
20.217526,5.055733,-9.180860,0.000000,0.442289,-0.896873
52.810703,7.624088,7.088380,1.000000,0.000000,-0.000000
30.253394,1.441124,8.266555,-0.000000,-0.195090,-0.980785
-6.231756,-7.434341,33.827189,-0.659346,-0.751840,0.000000
1.957713,7.376838,4.502021,-0.195091,-0.980785,0.000000
30.727997,0.449950,10.463130,-0.000000,0.065404,0.997859
-28.590422,-5.702948,6.156432,0.000000,0.659346,-0.751840
1.709063,-7.526702,3.704304,-0.000000,0.896873,-0.442289
25.133839,10.071650,-2.902591,0.000000,0.946930,-0.321439
50.603405,-5.757376,-6.108700,0.000000,0.659346,0.751840
16.281449,-9.280973,-4.852722,0.000000,-0.896873,-0.442289
-8.152950,-5.254754,30.157083,-0.831470,-0.555570,-0.000000
-4.178827,6.368715,31.976550,0.555570,-0.831469,0.000000
-47.022039,10.462819,0.454689,-0.000000,0.997859,0.065404
-0.462828,7.603033,20.139679,0.065403,-0.997859,0.000000
44.079516,-5.559823,-6.281950,0.000000,0.659346,0.751840
46.362602,9.527119,-4.353588,0.000000,0.896873,-0.442289
1.141604,-1.496936,-8.255454,0.000000,0.195090,0.980785
-5.703111,-5.049246,12.385229,0.751840,0.659345,0.000000
31.657832,3.025451,-7.832010,0.000000,-0.321439,0.946930
-49.401901,0.259740,-10.475597,0.000000,0.065404,-0.997859
-46.031346,7.989762,-2.560729,0.000000,-0.946930,0.321439
-28.039641,6.418655,5.403939,0.000000,-0.751840,-0.659346
2.903202,4.897835,-9.258726,0.000000,0.442289,-0.896873
-20.617553,-0.254404,-8.390191,0.000000,0.065403,0.997859
45.826988,2.737850,-10.127572,0.000000,0.321439,-0.946930
3.203049,-6.913303,26.291202,-0.442289,0.896873,-0.000000
29.681639,-5.300356,9.050765,0.000000,-0.555570,0.831469
-30.193134,5.842330,6.034197,0.000000,-0.659346,-0.751840
-8.962227,-3.753970,36.557431,-0.896873,-0.442289,0.000000
49.235821,-5.045944,6.717611,0.000000,0.555570,-0.831470
36.364499,-4.634844,-9.388419,0.000000,-0.442289,-0.896873
14.448155,-7.432891,-7.404025,0.000000,-0.751840,-0.659346
-9.195924,3.081196,24.400228,-0.946930,0.321440,0.000000
9.633702,-8.018993,2.474617,0.000000,0.946930,-0.321439
18.636739,7.324098,-7.502985,0.000000,0.659346,-0.751840
-40.288206,4.507186,7.077597,0.000000,-0.555570,-0.831470
3.383592,1.932072,-10.290965,0.000000,0.195090,-0.980785
-6.077227,5.504449,38.048050,-0.000000,0.000000,1.000000
-26.858153,2.936441,-10.060159,0.000000,0.321439,-0.946930
15.572544,6.210433,5.641371,-0.000000,-0.751840,-0.659346
1.720724,-7.423978,33.732447,-0.195091,0.980785,0.000000
-28.592359,5.053822,-6.712347,0.000000,-0.555570,0.831470
45.122484,9.582808,-4.240661,0.000000,0.896873,-0.442289
-37.232531,3.581365,7.587328,-0.000000,-0.442289,-0.896873
39.796978,8.392050,0.226040,0.000000,-0.997859,-0.065403
-18.581157,-1.972864,-10.282851,0.000000,-0.195090,-0.980785
1.974828,-9.495499,36.281832,0.195090,-0.980785,0.000000
-4.464250,-6.125277,-8.499570,0.000000,-0.555570,-0.831469
22.563198,-1.814996,-8.192188,0.000000,0.195090,0.980785
-50.369025,7.598874,7.214756,0.000000,0.751840,0.659346
-23.325593,4.238981,-9.583637,0.000000,0.442289,-0.896873
-0.357956,9.695663,31.386149,-0.065404,0.997859,-0.000000
-37.400070,0.542439,8.371312,-0.000000,-0.065403,-0.997859
41.595532,-6.230289,8.429403,-0.000000,-0.555570,0.831469
-42.514867,7.558483,-7.260814,0.000000,0.751840,-0.659346
-49.404767,7.127286,-7.675583,0.000000,0.659346,-0.751840
-25.821367,-3.588026,-9.838976,0.000000,-0.321439,-0.946930
15.640179,-6.118118,-5.746637,0.000000,0.751840,0.659346
50.309144,-5.128353,-9.145047,0.000000,-0.442289,-0.896873
44.995313,0.695894,-8.361254,0.000000,-0.065403,0.997859
-7.577516,0.852146,11.703113,0.997859,-0.065403,0.000000
-26.194372,-9.786749,3.741882,0.000000,-0.946930,0.321439
33.415746,-4.697837,-6.950208,0.000000,0.555570,0.831470
52.810703,10.182777,0.937232,1.000000,-0.000000,-0.000000
35.952180,5.733980,-6.129218,0.000000,-0.659346,0.751840
0.108939,9.711984,17.193891,0.065404,0.997859,-0.000000
34.834482,8.040694,-2.410687,0.000000,-0.946930,0.321439
-38.674788,0.344690,10.470029,-0.000000,0.065404,0.997859
11.969150,0.686065,-10.447654,0.000000,0.065404,-0.997859
-25.136985,3.658858,7.549113,0.000000,-0.442289,-0.896873
24.689879,9.191060,-5.035047,0.000000,0.896873,-0.442289
6.617669,-7.087871,-4.491810,-0.000000,0.831470,0.555570
-33.729638,0.684585,-8.361995,0.000000,-0.065403,0.997859
8.422735,-4.847949,25.270906,0.896873,-0.442289,0.000000
14.416966,9.948172,3.266345,-0.000000,0.946930,0.321439
-2.864599,-6.492390,-8.232373,0.000000,-0.659346,-0.751840
-2.027029,-2.098503,-10.257860,0.000000,-0.195090,-0.980785
-35.051831,-7.936909,2.716429,0.000000,0.946930,-0.321439
52.810703,0.078131,10.084548,1.000000,-0.000000,-0.000000
-14.661860,1.682652,-8.218513,0.000000,-0.195090,0.980785
39.190149,-7.554675,3.647579,0.000000,0.896873,-0.442289
-20.517546,7.994154,-6.764027,0.000000,0.751840,-0.659346
9.482501,0.131937,38.048050,0.000000,0.000000,1.000000
18.346207,1.147342,10.417420,0.000000,0.065404,0.997859
-34.453826,1.980768,-8.159214,0.000000,-0.195090,0.980785
1.968531,-8.224692,-1.651586,0.000000,0.980785,0.195090
24.931450,-10.451640,0.625256,-0.000000,-0.997859,0.065404
49.365931,-2.945759,-10.056996,0.000000,-0.321439,-0.946930
13.835959,-4.597276,-9.406945,0.000000,-0.442289,-0.896873
9.347843,-3.757346,-9.781499,0.000000,-0.321439,-0.946930
-7.335556,6.344398,8.867866,-0.751840,0.659346,-0.000000
-41.208841,10.054210,-2.953965,0.000000,0.946930,-0.321439
36.317459,9.673462,4.056833,-0.000000,0.896873,0.442289
34.121695,7.592703,-7.221793,0.000000,0.751840,-0.659346
-17.328074,4.498363,-7.083492,0.000000,-0.555570,0.831470
-10.191577,-1.070818,10.422436,-0.000000,-0.065404,0.997859
-8.006625,5.473744,23.390982,-0.831469,0.555570,-0.000000
-35.550487,-4.542037,-7.054310,-0.000000,0.555570,0.831470
52.139300,-6.870212,-7.901031,0.000000,-0.659346,-0.751840
-38.818688,8.841840,-5.613035,0.000000,0.831469,-0.555570
-25.440364,2.704927,-10.137235,0.000000,0.195090,-0.980785
24.154275,0.414143,-8.379721,0.000000,-0.065403,0.997859
14.080632,-8.186089,1.845658,0.000000,0.980785,-0.195090
29.383770,8.648544,5.902322,-0.000000,0.831469,0.555570
-6.561472,-9.136244,5.146204,-0.000000,-0.896873,0.442289
-18.768453,-6.678525,-8.069137,0.000000,-0.659346,-0.751840
52.810703,-6.466780,5.823610,1.000000,-0.000000,0.000000
33.362705,-8.355604,0.782089,0.000000,0.997859,-0.065403
-2.988368,7.019171,26.003639,0.442289,-0.896873,0.000000
12.505987,-1.150898,-10.417187,0.000000,-0.065404,-0.997859
37.205492,-5.650476,8.816822,-0.000000,-0.555570,0.831469
43.715423,5.307247,-6.503452,0.000000,-0.659346,0.751840
-9.144153,-3.233709,15.857597,-0.946930,-0.321440,0.000000
-2.224659,7.288744,36.100362,0.321439,-0.946930,0.000000
-1.142875,-5.426993,-6.398438,0.000000,0.659346,0.751840
22.966227,-8.363019,0.668956,0.000000,0.997859,-0.065403
39.213265,-6.162533,5.695991,-0.000000,0.751840,-0.659346
-27.896053,-5.051118,9.183135,0.000000,-0.442289,0.896873
-38.470925,-5.800737,6.070673,0.000000,0.659346,-0.751840
-33.748349,-8.249097,6.473319,0.000000,-0.751840,0.659346
52.810703,-8.753489,-3.102896,1.000000,0.000000,-0.000000
42.039429,5.201081,6.596557,-0.000000,-0.659346,-0.751840
3.551328,9.036336,19.295724,0.321439,0.946930,0.000000
52.494342,5.597126,-6.249236,0.000000,-0.659346,0.751840
-7.046489,-6.674016,32.994728,-0.751840,-0.659346,-0.000000
-14.060718,9.241824,4.932109,-0.000000,0.896873,0.442289
51.457106,-7.333754,4.095563,0.000000,0.896873,-0.442289
-36.321882,3.335982,7.708338,-0.000000,-0.442289,-0.896873
-3.844191,6.592312,18.018792,0.555570,-0.831469,0.000000
46.942265,10.348226,-1.644199,0.000000,0.980785,-0.195090
22.232185,6.288262,-5.552624,0.000000,-0.751840,0.659346
-31.127381,9.148855,5.120632,-0.000000,0.896873,0.442289
-3.577314,6.728736,14.350718,0.442289,-0.896873,0.000000
10.189761,-9.926540,3.330070,0.000000,-0.946930,0.321439
2.193078,9.452086,31.232842,0.195090,0.980785,0.000000
-32.333463,-10.425690,-1.021175,0.000000,-0.997859,-0.065404
1.075534,9.648630,11.211394,0.065404,0.997859,0.000000
31.848668,-2.322905,8.070492,0.000000,0.321439,-0.946930
1.733850,0.395179,-10.466720,0.000000,0.065404,-0.997859
-40.076317,7.902747,2.817067,0.000000,-0.946930,-0.321439
2.468823,8.119147,2.179571,0.000000,-0.946930,-0.321439
-51.416976,2.194397,10.238785,-0.000000,0.195090,0.980785
6.448524,7.244240,17.323991,0.659346,0.751840,0.000000
-1.972491,-8.392222,0.223409,0.000000,0.997859,-0.065403
-38.904262,-9.229979,4.956128,0.000000,-0.896873,0.442289
-22.225594,0.509479,-10.459228,0.000000,0.065404,-0.997859
-6.170686,-4.012338,-9.694941,0.000000,-0.321439,-0.946930
0.557798,-7.596809,25.268027,-0.065403,0.997859,0.000000
7.486668,-1.405562,15.911451,-0.980785,0.195091,0.000000
7.191204,2.512004,38.028950,-0.946930,-0.321439,-0.000000
-32.568961,8.097524,2.243271,0.000000,-0.946930,-0.321439
10.753592,-5.319515,-9.037963,0.000000,-0.555570,-0.831469
-38.174032,7.949118,6.815380,0.000000,0.751840,0.659346
9.114076,9.898097,3.413860,-0.000000,0.946930,0.321439
13.961009,-3.787805,7.485524,-0.000000,0.442289,-0.896873
-36.195404,-5.862647,6.016380,0.000000,0.659346,-0.751840
-17.300536,10.355931,1.605465,0.000000,0.980785,0.195090
-13.122903,-10.440344,0.797598,0.000000,-0.997859,0.065404
-52.810703,-1.409040,-10.381974,-1.000000,0.000000,-0.000000
39.220654,-8.153557,-2.009204,0.000000,0.980785,0.195090
46.226408,6.996125,4.629117,-0.000000,-0.831470,-0.555570
23.603012,-5.524511,-6.312917,0.000000,0.659346,0.751840
9.462046,1.827174,-10.311830,0.000000,0.195090,-0.980785
-37.620148,-0.056319,-8.403174,0.000000,0.065403,0.997859
6.753103,-3.527902,20.444304,-0.896873,0.442289,0.000000
-26.271043,-7.648524,-3.457273,0.000000,0.896873,0.442289
3.621627,-8.019982,-6.734575,0.000000,-0.751840,-0.659346
-17.087773,8.236898,1.590221,0.000000,-0.980785,-0.195090
40.024491,6.355531,-8.345719,0.000000,0.555570,-0.831469
-1.031188,-7.561135,33.708913,0.195091,0.980785,0.000000
-52.810703,2.319907,-9.525923,-1.000000,0.000000,0.000000
-7.433295,1.673886,22.684846,0.980785,-0.195091,0.000000
7.182160,6.519313,9.909455,0.751840,0.659346,-0.000000
-27.047238,7.774954,-3.193531,0.000000,-0.946930,0.321439
21.056873,-1.118973,8.330635,0.000000,0.195090,-0.980785
4.159504,-2.283599,-10.221042,0.000000,-0.195090,-0.980785
-9.704868,-0.217516,19.002686,-0.997859,-0.065404,-0.000000
3.610020,-6.712606,18.909057,-0.442289,0.896873,0.000000
12.844309,5.104428,-6.678533,0.000000,-0.555570,0.831470
-30.588198,-5.384940,6.435318,0.000000,0.659346,-0.751840
26.234282,3.033642,7.829229,-0.000000,-0.321439,-0.946930
43.952778,7.627962,3.498969,-0.000000,-0.896873,-0.442289
1.086745,-5.136734,-9.140914,0.000000,-0.442289,-0.896873
4.761191,-5.955728,26.624256,-0.659345,0.751840,0.000000
7.314497,9.308668,4.796563,0.000000,0.896873,0.442289
11.991484,8.041401,2.408604,0.000000,-0.946930,-0.321439
43.236652,-6.682916,-8.065286,0.000000,-0.659346,-0.751840
4.462176,-6.179387,12.885676,-0.555570,0.831469,0.000000
-7.577524,0.852021,20.397365,0.997859,-0.065403,0.000000
-40.342899,10.078199,2.883296,0.000000,0.946930,0.321439
20.643374,-8.404850,0.030746,0.000000,0.997859,-0.065403
23.602340,9.650707,-4.102977,0.000000,0.896873,-0.442289
48.980796,9.927863,3.326173,-0.000000,0.946930,0.321439
-2.774525,9.300025,36.988293,-0.321440,0.946930,0.000000
3.419101,6.806758,5.189618,-0.442289,-0.896873,-0.000000
-8.664501,5.771682,-6.096154,0.000000,-0.659346,0.751840
1.541999,-7.459529,8.326242,-0.195091,0.980785,0.000000
51.519063,8.263756,-1.455196,0.000000,-0.980785,0.195090
5.576130,-5.194040,37.722507,-0.751840,0.659345,0.000000
5.501138,-5.279552,18.708906,-0.751840,0.659345,0.000000
2.075406,-7.339409,29.921016,-0.321439,0.946930,0.000000
12.182035,4.041167,7.360579,0.000000,-0.442289,-0.896873
41.209811,-5.143408,-6.647135,0.000000,0.659346,0.751840
5.385607,9.098689,-5.222358,0.000000,0.896873,-0.442289
23.631941,-8.051338,-2.379331,-0.000000,0.946930,0.321439
9.107183,3.342619,19.313512,0.946930,0.321440,-0.000000
-23.200863,-10.473908,0.285509,-0.000000,-0.997859,0.065404
-0.911299,-10.417049,1.153002,0.000000,-0.997859,0.065404
-20.875916,1.662401,-8.222541,0.000000,-0.195090,0.980785
-1.326758,7.502343,23.655854,0.195091,-0.980785,0.000000
-2.325740,-10.459932,0.498748,-0.000000,-0.997859,0.065404
12.846654,-8.245568,1.546633,0.000000,0.980785,-0.195090
-37.642137,0.184094,-10.480555,0.000000,0.065404,-0.997859
-33.507719,-3.438644,7.657711,0.000000,0.442289,-0.896873
-7.402543,-1.828485,31.591927,0.980785,0.195091,0.000000
-22.263474,2.548699,-7.993845,0.000000,-0.321439,0.946930
8.168777,-3.091108,7.809722,0.000000,0.321440,-0.946930
33.953253,-6.420997,8.294983,0.000000,-0.659346,0.751840
8.953067,10.199725,-2.390768,0.000000,0.980785,-0.195090
8.227504,8.130343,2.125911,0.000000,-0.980785,-0.195090
-2.108555,7.328156,23.431274,0.321439,-0.946930,0.000000
44.290190,-7.128822,7.674237,0.000000,-0.659346,0.751840
41.556221,-6.955576,4.689803,0.000000,0.831470,-0.555570
-1.879443,-7.392407,27.735237,0.195091,0.980785,-0.000000
-41.996697,-8.369597,-0.568606,-0.000000,0.997859,0.065403
-1.695088,10.457844,-0.530602,0.000000,0.997859,-0.065404
-6.523613,-3.947006,7.680393,0.831469,0.555570,-0.000000
24.779737,-4.111607,7.325842,0.000000,0.442289,-0.896873
-33.122731,-8.577589,6.008513,0.000000,-0.831469,0.555570
-26.828634,8.348401,-0.891979,0.000000,-0.997859,0.065403
42.840570,-3.681548,-7.537923,0.000000,0.442289,0.896873
-3.355787,-6.837981,28.284622,0.442289,0.896873,0.000000
-0.152645,-9.355978,38.048050,0.000000,-0.000000,1.000000
39.088193,10.416891,-1.155407,0.000000,0.997859,-0.065404
-0.768414,-8.648645,-5.902171,0.000000,-0.831469,-0.555570
37.530774,6.293769,-8.386987,0.000000,0.555570,-0.831469
-8.382152,-4.911729,19.035913,-0.831469,-0.555570,-0.000000
-24.183842,-4.185095,7.289602,0.000000,0.442289,-0.896873
23.863175,-5.936162,5.951909,0.000000,0.659346,-0.751840
4.813834,-8.439559,20.793486,0.442289,-0.896873,0.000000
23.717490,-9.878170,-3.472565,0.000000,-0.946930,-0.321439
-32.138385,7.077959,7.718842,-0.000000,0.659346,0.751840
-10.753343,-7.838290,-3.006950,0.000000,0.946930,0.321439
-40.890748,-6.674842,8.072367,0.000000,-0.659346,0.751840
19.912483,-7.960878,6.801970,-0.000000,-0.751840,0.659346
3.209908,-9.152232,30.283353,0.321440,-0.946930,0.000000
38.681532,7.406207,3.948643,-0.000000,-0.896873,-0.442289
19.899312,4.170279,9.617517,-0.000000,0.442289,0.896873
39.349079,5.688382,-6.169206,0.000000,-0.659346,0.751840
-5.745302,-5.001136,25.698518,0.751840,0.659345,0.000000
-51.714824,-7.724563,-7.071436,0.000000,-0.751840,-0.659346
-12.294584,-6.242517,5.604787,0.000000,0.751840,-0.659346
-47.248106,-5.200553,-6.597020,-0.000000,0.659346,0.751840
25.365786,-7.427976,-3.904500,0.000000,0.896873,0.442289
-16.396278,-5.355148,9.014154,0.000000,-0.555570,0.831469
-4.394586,10.458528,-0.520164,0.000000,0.997859,-0.065404
-8.470924,8.319345,-1.175733,0.000000,-0.980785,0.195090
30.722388,7.913613,6.855865,-0.000000,0.751840,0.659346
25.857684,-10.472284,-0.310283,0.000000,-0.997859,-0.065404
-6.815711,-3.400944,9.267726,0.896873,0.442289,0.000000
-25.396793,3.103056,-10.003601,0.000000,0.321439,-0.946930
-2.819743,-9.284675,33.351446,-0.321440,-0.946930,-0.000000
41.081665,9.912941,3.370131,-0.000000,0.946930,0.321439
-5.042038,5.709432,31.772688,0.659345,-0.751840,0.000000
-2.047276,-9.481088,12.061676,-0.195090,-0.980785,0.000000
-46.224656,-6.761007,-7.996802,0.000000,-0.659346,-0.751840
-29.375935,6.959221,4.684348,-0.000000,-0.831470,-0.555570
10.765763,-9.900478,3.406845,0.000000,-0.946930,0.321439
16.475548,-6.752292,8.004445,0.000000,-0.659346,0.751840
-19.156160,10.407049,1.305570,-0.000000,0.997859,0.065404
51.822032,-0.367410,-10.468540,0.000000,-0.065404,-0.997859
-27.004630,5.230176,-6.571042,0.000000,-0.659346,0.751840
-9.691745,0.417738,37.438571,-0.997859,0.065404,0.000000
-29.877539,10.208465,-2.346828,0.000000,0.980785,-0.195090
9.259781,-2.893079,17.987429,0.946931,-0.321438,0.000000
-14.936535,-3.929392,9.723098,0.000000,-0.321440,0.946930
7.508446,1.296076,10.222196,-0.980785,-0.195091,-0.000000
39.686424,-3.406302,-9.900663,0.000000,-0.321439,-0.946930
7.290092,-2.220689,22.541657,-0.946930,0.321439,0.000000
27.738126,-8.247573,-1.536554,0.000000,0.980785,0.195090
2.219794,9.446772,10.790326,0.195090,0.980785,-0.000000
22.711369,7.765483,-3.220104,0.000000,-0.896873,0.442289
8.474853,-4.742264,36.517377,0.896873,-0.442289,0.000000
24.051568,10.032229,-3.018721,0.000000,0.946930,-0.321439
21.003527,-7.484444,-7.345239,0.000000,-0.751840,-0.659346
26.560112,5.313191,-9.042189,0.000000,0.555570,-0.831469
47.371816,-0.451972,-8.377241,0.000000,0.065403,0.997859
-12.836468,-2.150190,8.125514,0.000000,0.195091,-0.980785
-52.810703,9.280131,1.400532,-1.000000,0.000000,0.000000
-38.643380,10.121984,-2.754311,0.000000,0.946930,-0.321439
-46.174614,7.877330,-2.891942,0.000000,-0.946930,0.321439
6.969450,3.089193,11.585658,-0.896873,-0.442289,0.000000
40.363307,-8.148157,-6.588420,0.000000,-0.751840,-0.659346
19.080523,-10.128974,2.733717,0.000000,-0.946930,0.321439
14.252581,-6.535719,-8.194374,0.000000,-0.659346,-0.751840
-51.179270,-10.419435,1.116607,0.000000,-0.997859,0.065404
49.034963,-8.494758,-6.132479,0.000000,-0.831469,-0.555570
-44.289199,8.760773,5.734359,0.000000,0.831469,0.555570
-18.413604,10.311984,-1.826402,0.000000,0.980785,-0.195090
-9.666759,4.684112,9.364123,-0.000000,0.442288,0.896873
7.597935,0.540610,18.830651,-0.997859,-0.065403,-0.000000
33.945178,-0.059292,-8.402979,0.000000,0.065403,0.997859
4.834401,8.400336,-0.099617,-0.000000,-0.997859,0.065403
-26.789964,-7.348228,-4.066212,0.000000,0.896873,0.442289
-42.035120,5.052510,9.182449,-0.000000,0.442289,0.896873
10.625691,5.084458,6.691877,0.000000,-0.555570,-0.831470
-19.675886,-5.097771,6.682981,0.000000,0.555570,-0.831470
-30.092536,7.364375,-7.467663,0.000000,0.659346,-0.751840
-26.784866,-3.640526,9.821154,-0.000000,-0.321439,0.946930
7.737035,6.154326,5.705349,-0.000000,-0.751840,-0.659346
2.189170,-10.253669,-2.119573,0.000000,-0.980785,-0.195090
37.428719,6.114449,5.750821,-0.000000,-0.751840,-0.659346
30.065720,10.158446,2.598288,-0.000000,0.980785,0.195090
-7.914702,8.858288,5.588418,-0.000000,0.831470,0.555570
-7.480230,-1.437927,8.783394,0.980785,0.195091,-0.000000
24.096710,-0.259418,-10.475618,0.000000,-0.065404,-0.997859
23.856274,10.210633,-2.335926,0.000000,0.980785,-0.195090
-9.564263,7.223665,-4.288579,0.000000,-0.831470,0.555570
-23.890341,2.788054,-7.912595,0.000000,-0.321439,0.946930
26.005599,3.906153,9.730986,0.000000,0.321440,0.946930
-26.280020,7.422631,-3.915338,-0.000000,-0.896873,0.442289
-4.471796,-6.172959,36.195142,0.555570,0.831469,0.000000
-28.139745,7.913978,6.855450,0.000000,0.751840,0.659346
-9.030237,3.569295,31.759447,-0.946930,0.321440,0.000000
-49.092609,3.864491,7.447706,-0.000000,-0.442289,-0.896873
-14.701911,7.724823,-7.071139,0.000000,0.751840,-0.659346
-9.636864,1.255057,22.527524,-0.997859,0.065404,0.000000
-6.166424,-4.481577,19.029060,0.831469,0.555570,0.000000
-35.633536,10.018695,-3.058589,0.000000,0.946930,-0.321439
29.359838,3.365021,-9.914676,0.000000,0.321439,-0.946930
-46.544991,-10.061879,2.931375,0.000000,-0.946930,0.321439
48.941612,-10.323781,-1.767092,0.000000,-0.980785,-0.195090
47.604816,5.860488,8.676496,-0.000000,0.555570,0.831469
-31.813703,0.580137,-8.368841,0.000000,-0.065403,0.997859
-3.410713,-6.810894,34.199187,0.442289,0.896873,0.000000
-42.262513,-0.409392,10.465788,0.000000,-0.065404,0.997859
-50.497838,-5.025458,-9.195789,0.000000,-0.442289,-0.896873
-48.355208,6.888836,4.789687,-0.000000,-0.831470,-0.555570
-3.159298,-6.934878,7.696788,0.442289,0.896873,-0.000000
-11.324400,8.091130,2.262106,0.000000,-0.946930,-0.321439
28.126206,1.341249,8.286422,-0.000000,-0.195090,-0.980785
5.913336,-3.494673,-7.630080,0.000000,0.442289,0.896873
34.174064,-8.355482,-0.783955,0.000000,0.997859,0.065403
-11.062479,-5.158252,-9.130303,0.000000,-0.442289,-0.896873
5.770975,-7.808022,34.096517,0.555570,-0.831470,0.000000
-5.577261,7.937458,37.342377,-0.555570,0.831470,0.000000
-16.494891,8.161046,1.971555,0.000000,-0.980785,-0.195090
-10.218690,1.240449,-8.306472,0.000000,-0.195090,0.980785
42.463445,-7.260893,-7.558414,0.000000,-0.659346,-0.751840
-0.295298,-9.699770,32.780513,-0.065404,-0.997859,-0.000000
24.146270,8.255235,-1.498037,0.000000,-0.980785,0.195090
26.337693,7.284437,7.537766,0.000000,0.659346,0.751840
41.871732,6.550959,-5.253076,0.000000,-0.751840,0.659346
-45.141248,7.420002,-7.418721,0.000000,0.751840,-0.659346
10.067503,9.169189,5.079398,0.000000,0.896873,0.442289
4.740402,5.973959,25.976762,-0.659345,-0.751840,0.000000
41.265532,6.444207,-8.274629,0.000000,0.659346,-0.751840
-14.536977,-4.451556,-9.478807,0.000000,-0.442289,-0.896873
44.273678,-9.954844,3.246688,0.000000,-0.946930,0.321439
9.430006,1.675428,8.219950,-0.000000,-0.195090,-0.980785
-14.363810,-2.911609,-10.068588,0.000000,-0.321439,-0.946930
37.339283,-8.310143,-1.221994,-0.000000,0.980785,0.195090
-12.208462,-6.738816,-5.014208,0.000000,0.831470,0.555570
-47.015996,-5.189426,-6.606779,-0.000000,0.659346,0.751840
-51.812006,6.897901,-4.776120,0.000000,-0.831470,0.555570
-46.575543,-10.002345,-3.106755,0.000000,-0.946930,-0.321439
-7.440135,-9.836934,3.594040,0.000000,-0.946930,0.321439
24.361383,1.198851,8.314746,-0.000000,-0.195090,-0.980785
-47.661713,-1.689345,8.217181,0.000000,0.195090,-0.980785
47.444343,-2.939497,10.059122,0.000000,-0.321439,0.946930
