x,y,z,nx,ny,nz
-13.053846,12.496661,14.305410,-0.577350,0.577350,0.577350
22.263909,5.254613,-2.676573,0.971231,0.223787,-0.081426
8.443421,-11.205451,0.453846,-0.995185,0.000000,-0.098017
-7.547591,-3.799067,-15.646698,0.881921,0.471397,-0.000000
-8.365098,1.249081,-8.697542,0.995185,-0.098017,0.000000
22.165459,4.168237,4.776549,0.947462,0.216204,0.235738
16.037018,4.501370,15.950983,0.670527,0.239219,0.702259
-7.347373,-6.306037,4.173648,0.881921,0.000000,-0.471397
-16.838697,2.127104,-15.571271,-0.728345,0.080541,-0.680461
7.860023,-4.392347,3.188856,-0.956940,-0.000000,-0.290285
-14.823576,-2.700736,17.446410,-0.639868,-0.158953,0.751866
8.323200,-1.661964,10.861329,-0.956940,0.290285,0.000000
-21.612376,1.409668,-7.837681,-0.939566,0.050000,-0.338698
4.313808,16.893342,-7.272456,-0.471397,0.000000,0.881921
-20.685395,0.759871,10.127955,-0.883851,0.050171,0.465071
-5.069497,19.118936,11.827539,-0.233320,0.809504,0.538762
5.003721,-6.821281,12.816553,-0.634393,0.773010,0.000000
-5.870452,-12.881604,-18.204503,-0.293108,-0.581154,-0.759176
2.031897,-20.249548,-10.761825,0.078368,-0.872474,-0.482336
-15.310895,16.411376,5.224853,-0.638726,0.738104,0.217328
-22.365639,-5.005787,-2.147013,-0.971231,-0.223787,-0.081426
-10.171703,19.280004,7.444830,-0.445068,0.829480,0.337457
-0.921762,8.397336,17.397795,0.098017,-0.995185,0.000000
-9.230276,-1.573961,-21.106659,-0.356822,0.000000,-0.934172
-22.905648,2.268196,1.350048,-0.995747,0.092126,0.000000
-9.702043,4.519963,20.394828,-0.437842,0.161879,0.884358
11.977752,4.879335,19.073772,0.538762,0.233320,0.809504
-1.007981,-18.011570,-8.388844,0.098017,0.000000,0.995185
-8.414779,-12.893202,-0.744658,0.995185,-0.000000,0.098017
-16.999270,10.909496,-11.115401,-0.699011,0.488895,-0.521886
-1.713964,9.497292,-20.913994,-0.082070,0.424491,-0.901705
-12.392265,18.976922,-4.246056,-0.500142,0.839788,-0.211221
-8.456191,-0.778339,-0.324189,0.995185,0.000000,0.098017
-17.458562,14.445527,4.165099,-0.751866,0.639868,0.158953
21.169127,-1.352398,-9.025243,0.901705,-0.082070,-0.424491
-20.077385,-10.937721,-2.865996,-0.872474,-0.482336,-0.078368
8.386097,1.035874,-12.946268,-0.995185,-0.098017,0.000000
3.329500,-17.801956,14.249603,0.158953,-0.751866,0.639868
13.512943,-10.603266,-15.354392,0.620644,-0.440461,-0.648687
-21.277814,-7.304981,-4.950520,-0.923386,-0.308167,-0.228893
10.061590,18.557705,-9.213914,0.448482,0.801686,-0.395175
6.269562,19.039012,11.378102,0.233171,0.851639,0.469405
-17.973586,-9.608405,10.758132,-0.801686,-0.395175,0.448482
7.272268,-13.168091,4.314159,-0.881921,0.000000,-0.471397
7.177497,-4.491464,-18.277251,-0.881921,0.471397,-0.000000
8.723613,-17.836055,-11.657831,0.382234,-0.759514,-0.526342
-17.194606,14.909953,-3.544087,-0.751866,0.639868,-0.158953
20.363422,2.048212,-10.600870,0.883851,0.050171,-0.465071
-18.673840,11.615081,-7.104348,-0.809504,0.538762,-0.233320
8.330881,-9.747928,1.596484,-0.995185,0.000000,-0.098017
-2.099764,-21.159621,9.001129,-0.159792,-0.922797,0.350587
-3.872071,17.585406,-7.508569,0.471397,-0.000000,0.881921
17.786568,-13.435911,-5.948186,0.759999,-0.569358,-0.313422
3.734681,-7.582006,-13.493733,-0.471397,0.881921,0.000000
9.161489,-20.234223,6.199558,0.364801,-0.879088,0.306798
-17.098655,13.957675,6.668439,-0.759999,0.569358,0.313422
5.126262,6.720714,-21.293728,-0.634393,-0.773010,0.000000
-5.355969,15.077532,6.532198,0.634393,0.000000,-0.773010
-11.571866,19.181176,5.376563,-0.500142,0.839788,0.211221
-6.601066,-13.486324,5.272053,0.773011,0.000000,-0.634393
4.173876,20.573388,9.469342,0.161879,0.884358,0.437842
-4.642716,7.951314,7.096651,0.471397,0.000000,-0.881921
-3.463211,7.727110,-15.423578,0.471397,-0.881921,0.000000
8.459006,-0.295612,-13.027111,-0.995185,0.098017,0.000000
-4.404101,8.529099,20.939820,-0.214847,0.371627,0.903180
-8.083836,-2.451044,-10.265166,0.956940,0.290285,0.000000
8.827940,-21.268056,-1.171903,0.338697,-0.939566,-0.050000
7.409943,11.802499,4.056587,-0.881921,-0.000000,-0.471397
6.571787,9.446437,-5.307730,-0.773010,-0.000000,0.634394
-8.006894,11.634652,-2.704686,0.956940,-0.000000,0.290285
-7.834673,-16.681337,13.872734,-0.313422,-0.759999,0.569358
15.233447,6.859772,15.865351,0.641557,0.296210,0.707576
-12.720299,-10.325206,-16.166664,-0.546563,-0.446517,-0.708443
-6.446706,5.460142,-8.259640,0.773010,-0.634394,0.000000
-14.008952,-17.901205,-3.764886,-0.630461,-0.759247,-0.161444
-4.631640,-7.102571,-13.326059,0.471397,0.881921,-0.000000
0.753667,12.548841,-19.330163,0.081179,0.546250,-0.833679
-7.925687,-5.226648,21.002215,-0.308167,-0.228893,0.923386
21.192948,4.330874,7.956247,0.903180,0.214847,0.371627
19.342424,12.101418,-3.642528,0.791679,0.589578,-0.160129
7.636908,-14.696510,-16.051998,0.371744,-0.649101,-0.663683
-5.807174,15.778677,6.161904,0.634393,-0.000000,-0.773010
-10.736284,20.164696,3.260621,-0.419240,0.889788,0.180319
-14.387942,2.674713,17.822653,-0.639868,0.158953,0.751866
-12.544208,-6.768744,18.116197,-0.569358,-0.313422,0.759999
21.243359,-8.792960,-1.981313,0.946807,-0.311335,-0.081408
16.305522,10.898074,12.055302,0.699011,0.488895,0.521886
-18.894949,8.417580,-10.151782,-0.829480,0.337457,-0.445068
-7.364782,-4.141079,-4.635108,0.881921,0.471397,-0.000000
3.163406,-8.111147,-7.867743,-0.290285,0.000000,0.956940
-3.573199,-15.810352,16.446124,-0.161444,-0.630461,0.759247
-8.369778,-21.117736,-3.931753,-0.371627,-0.903180,-0.214847
-11.042755,-15.469877,13.037253,-0.446517,-0.708443,0.546563
-4.292027,-18.411649,-13.174849,-0.160129,-0.791679,-0.589578
13.130781,8.740276,16.806917,0.526342,0.382234,0.759514
-1.754365,9.397350,-8.295171,0.290284,-0.000000,0.956940
-22.368877,4.722948,-2.885737,-0.971231,0.223787,-0.081426
21.771550,-3.926458,-6.400511,0.940327,-0.181151,-0.288045
-1.263902,16.561791,-15.962368,-0.080531,0.723272,-0.685852
-21.617687,-6.853083,4.167290,-0.922797,-0.350587,0.159792
-10.828650,20.315541,0.780263,-0.465071,0.883851,0.050171
15.650053,-15.914865,5.727180,0.702259,-0.670527,0.239219
1.597892,-20.176044,10.965298,0.078368,-0.872474,0.482336
12.331558,-19.179193,3.300825,0.557284,-0.819634,0.132793
7.217248,8.448320,20.175001,0.306798,0.364801,0.879088
5.493109,-9.575446,-20.250232,0.214847,-0.371627,-0.903180
0.993204,8.390299,-14.773177,-0.098017,-0.995185,0.000000
3.531929,-19.199339,-7.690379,-0.471397,0.000000,0.881921
-22.873603,-2.406860,-1.764773,-0.996384,-0.049505,-0.069057
-4.836922,15.937780,6.958169,0.634393,0.000000,-0.773010
-13.439930,-11.038231,-15.128906,-0.620644,-0.440461,-0.648687
6.438572,-14.887188,-5.470053,-0.773011,0.000000,0.634393
8.410252,-0.790619,-7.869882,-0.995185,0.098017,0.000000
12.147551,-11.563056,-15.799141,0.488895,-0.521886,-0.699011
-7.940512,-2.923518,4.987799,0.956940,0.290285,-0.000000
-19.073120,-12.132944,-4.523243,-0.809504,-0.538762,-0.233320
-0.377191,13.307350,-8.450971,0.098017,0.000000,0.995185
14.225656,-15.925616,8.684699,0.649101,-0.663683,0.371744
-20.817044,1.802408,-9.686134,-0.901705,0.082070,-0.424491
-5.428154,-14.388766,-6.472957,0.634393,0.000000,0.773010
-1.956311,-10.674314,8.233911,0.290285,0.000000,-0.956940
-7.788864,20.214647,3.347677,0.881921,0.000000,-0.471397
-10.132500,-13.007104,-16.130349,-0.488895,-0.521886,-0.699011
-9.618102,-15.537422,-14.020798,-0.440461,-0.648687,-0.620644
-10.599508,20.280563,-2.972481,-0.424491,0.901705,-0.082070
1.462156,17.158527,15.309795,0.080531,0.723272,0.685852
0.726970,-11.044815,-20.204823,0.050171,-0.465071,-0.883851
13.486438,1.341584,18.650391,0.551642,0.078418,0.830387
-17.740725,3.585870,-14.248054,-0.759247,0.161444,-0.630461
-10.010139,-20.007266,-5.725741,-0.419240,-0.889788,-0.180319
-22.088453,-5.599785,3.655718,-0.971850,-0.181286,0.150476
8.480713,-0.075216,2.686775,-0.995185,0.098017,0.000000
-17.070890,9.047067,12.565540,-0.742100,0.420208,0.522219
-8.478424,0.098457,4.923853,0.995185,-0.098017,0.000000
-5.037923,-18.510103,12.756001,-0.233320,-0.809504,0.538762
3.824943,-18.515486,-13.162277,0.160129,-0.791679,-0.589578
7.832564,15.565758,-3.265920,-0.881921,0.000000,0.471397
-7.058565,-8.268451,20.305023,-0.306798,-0.364801,0.879088
6.837720,20.065254,-9.051102,0.302378,0.852184,-0.427026
5.656872,12.689170,18.403629,0.267098,0.508425,0.818634
7.177704,-4.491076,9.631314,-0.881921,0.471397,0.000000
2.585607,-17.329109,14.990007,0.158953,-0.751866,0.639868
-15.088000,13.724897,-10.696934,-0.648687,0.620644,-0.440461
4.814804,-19.120040,6.976321,-0.634393,0.000000,-0.773010
-8.901625,20.012723,7.143227,-0.364801,0.879088,0.306798
-11.902992,16.594211,10.647901,-0.521886,0.699011,0.488895
-7.144677,4.552866,11.741695,0.881921,-0.471397,0.000000
7.824469,19.524167,-3.281064,-0.881921,0.000000,0.471397
-4.605563,-7.116509,-15.255102,0.471397,0.881921,-0.000000
12.265076,-17.396402,8.845609,0.522219,-0.742100,0.420208
-15.661647,-9.654225,13.940302,-0.663683,-0.371744,0.649101
11.241690,17.769686,-9.458206,0.522219,0.742100,-0.420208
-13.164975,-0.692669,-18.908550,-0.597636,0.000000,-0.801768
13.530242,18.278317,3.830830,0.557284,0.819634,0.132793
16.873871,-14.605601,5.804352,0.702259,-0.670527,0.239219
16.612224,13.504797,8.612112,0.759514,0.526342,0.382234
7.400682,-9.942549,-19.420920,0.337457,-0.445068,-0.829480
10.213615,-8.395232,-18.870495,0.457621,-0.382479,-0.802678
-11.873965,-19.198507,-4.592326,-0.500142,-0.839788,-0.211221
8.454775,-0.338567,-15.146299,-0.995185,0.098017,0.000000
5.052033,-19.886877,6.781632,-0.634393,0.000000,-0.773010
5.767053,-8.697479,20.546320,0.214847,-0.371627,0.903180
4.146167,13.444327,-7.362062,-0.471397,0.000000,0.881921
5.209870,7.449166,-6.652099,-0.634393,-0.000000,0.773010
-22.643904,-4.122467,1.084491,-0.984405,-0.175916,0.000000
-12.701977,-1.306644,-19.174823,-0.551642,-0.078418,-0.830387
-6.253479,-5.695590,-6.727077,0.773010,0.634393,0.000000
-16.691831,-7.256526,-14.146341,-0.731257,-0.349826,-0.585564
19.551218,6.465498,10.408783,0.829480,0.337457,0.445068
7.500299,10.926087,-18.852663,0.337457,0.445068,-0.829480
-17.263491,13.255946,-7.543491,-0.759999,0.569358,-0.313422
-6.623243,15.938528,-5.245031,0.773010,0.000000,0.634393
3.219568,20.748350,9.468776,0.161879,0.884358,0.437842
2.514569,-13.158695,8.064565,-0.290285,0.000000,-0.956940
-16.821508,-9.245979,12.759869,-0.742100,-0.420208,0.522219
5.950516,-11.002528,19.355334,0.267098,-0.508425,0.818634
9.172289,-3.230661,-20.893109,0.437842,-0.161879,-0.884358
-5.380908,18.091811,13.235961,-0.233320,0.809504,0.538762
18.298738,-6.501425,12.414376,0.818634,-0.267098,0.508425
17.941884,-12.607570,-7.076323,0.759999,-0.569358,-0.313422
-17.745918,5.498361,-13.668332,-0.759176,0.293108,-0.581154
-6.094361,21.208032,-6.664482,-0.228893,0.923386,-0.308167
14.114955,9.036684,-15.842120,0.620644,0.440461,-0.648687
6.441438,10.124398,-5.466561,-0.773010,-0.000000,0.634393
4.409743,16.162316,-7.221178,-0.471397,0.000000,0.881921
-16.471496,3.358912,15.818512,-0.728345,0.080541,0.680461
0.072657,-8.480965,-15.111227,-0.098017,0.995185,-0.000000
-9.767601,8.827943,-18.918587,-0.457621,0.382479,-0.802678
4.033254,17.941519,-7.422415,-0.471397,0.000000,0.881921
-8.318668,9.865595,1.676904,0.956940,0.000000,-0.290284
5.587853,-21.426525,-6.386006,0.228893,-0.923386,-0.308167
17.382619,-15.075911,1.441426,0.723272,-0.685852,0.080531
-17.630976,10.852147,-10.232536,-0.802678,0.457621,-0.382479
8.328751,-1.618111,12.461180,-0.995185,0.098017,0.000000
-5.449921,15.558268,-16.109909,-0.239219,0.702259,-0.670527
0.148714,18.349097,-8.473474,-0.098017,-0.000000,0.995185
-0.191872,11.804781,-8.469223,0.098017,0.000000,0.995185
5.146947,-10.478119,19.890318,0.211221,-0.500142,0.839788
-14.209633,-9.690550,15.307558,-0.620644,-0.440461,0.648687
3.849996,11.667172,19.508373,0.211221,0.500142,0.839788
9.608637,-1.853563,-20.903092,0.482336,-0.078368,-0.872474
11.853216,-19.415122,-3.780225,0.500142,-0.839788,-0.211221
-15.273131,-17.110470,2.188302,-0.680461,-0.728345,0.080541
11.868614,-0.648227,19.761958,0.482336,-0.078368,0.872474
21.037447,-8.946035,-2.926196,0.922797,-0.350587,-0.159792
0.936106,-10.235157,-8.395923,-0.098017,0.000000,0.995185
19.180880,12.575358,-2.133229,0.830387,0.551642,-0.078418
7.696853,-20.049784,8.352724,0.312401,-0.885789,0.343196
8.349641,-1.406017,14.710967,-0.995185,0.098017,-0.000000
-19.716129,-7.705955,-9.143095,-0.879088,-0.306798,-0.364801
-14.350050,18.019827,-1.536185,-0.639354,0.768912,0.000000
19.727172,11.833156,-1.253732,0.872474,0.482336,-0.078368
-6.261186,5.686199,-18.595432,0.773010,-0.634393,0.000000
-6.053815,-5.938881,13.566968,0.773010,0.634393,-0.000000
21.362679,3.813990,-7.806006,0.940327,0.181151,-0.288045
5.766478,20.883197,-6.195302,-0.634393,0.000000,0.773010
-3.365754,-8.951296,-7.779201,0.471397,-0.000000,0.881921
-8.105756,-2.378782,-9.265237,0.956940,0.290285,0.000000
15.494905,11.910373,12.192732,0.699011,0.488895,0.521886
-0.552534,15.320530,8.433701,0.098017,0.000000,-0.995185
19.452675,2.354618,-12.123945,0.833679,0.081179,-0.546250
-9.184755,-12.992077,16.692769,-0.420208,-0.522219,0.742100
12.403551,-18.446163,6.070188,0.508425,-0.818634,0.267098
5.477908,-13.798780,6.432125,-0.634393,0.000000,-0.773010
-22.840724,-2.145053,-2.351789,-0.984754,-0.084103,-0.152272
-8.348268,-20.803060,5.291802,-0.371627,-0.903180,0.214847
-13.005669,18.775497,2.963540,-0.557284,0.819634,0.132793
7.270241,-18.652787,-4.317951,-0.881921,0.000000,0.471397
-21.890071,-1.261646,-7.081686,-0.952951,-0.084545,-0.291097
-9.851268,20.002626,-6.042979,-0.364801,0.879088,-0.306798
7.447907,15.376371,15.492938,0.371744,0.649101,0.663683
-14.240533,-5.833010,-17.195452,-0.641557,-0.296210,-0.707576
8.403098,0.863259,-12.860588,-0.995185,-0.098017,0.000000
7.653036,-7.327975,-3.601793,-0.881921,0.000000,0.471397
-12.568860,19.191198,2.046085,-0.546250,0.833679,0.081179
4.744745,13.098978,7.033817,-0.634393,0.000000,-0.773010
8.417086,-0.721230,-10.637375,-0.995185,0.098017,0.000000
15.354308,14.464696,9.262295,0.648687,0.620644,0.440461
-7.205338,19.231158,10.455335,-0.302378,0.852184,0.427026
8.377005,1.128186,-9.487554,-0.995185,-0.098017,0.000000
-19.337362,12.355330,2.024021,-0.830387,0.551642,0.078418
-6.837730,16.097263,14.987847,-0.296210,0.707576,0.641557
-19.900136,-3.606858,11.112047,-0.839788,-0.211221,0.500142
-3.798636,-8.416955,-21.129990,-0.214847,-0.371627,-0.903180
9.549420,3.291478,20.695261,0.437842,0.161879,0.884358
6.791869,11.624671,5.039560,-0.773010,0.000000,-0.634393
12.248306,-11.155193,16.007683,0.546563,-0.446517,0.708443
8.368295,-1.216622,-20.341136,-0.995185,0.098017,0.000000
9.828002,16.191964,-13.093698,0.446517,0.708443,-0.546563
17.864883,-14.535291,-1.714327,0.723272,-0.685852,-0.080531
15.288553,4.286863,16.715371,0.639868,0.158953,0.751866
-7.909831,-16.479094,14.071730,-0.296210,-0.707576,0.641557
-4.360580,16.498310,-15.514019,-0.239219,0.702259,-0.670527
5.034522,-15.385859,-6.796003,-0.634393,0.000000,0.773010
-2.547741,20.988748,-9.231605,-0.161879,0.884358,-0.437842
-2.424547,-9.495472,-20.850176,-0.082070,-0.424491,-0.901705
-1.354313,-15.698707,-16.805096,-0.080541,-0.680461,-0.728345
-12.339006,-2.893107,19.266134,-0.551642,-0.078418,0.830387
10.348498,8.515884,18.736104,0.457621,0.382479,0.802678
-8.437869,-0.510218,6.330160,0.995185,0.098017,-0.000000
-3.449283,9.999042,20.473828,-0.180319,0.419240,0.889788
-4.361584,-11.379758,-19.550871,-0.211221,-0.500142,-0.839788
7.558383,11.760880,-18.359744,0.267098,0.508425,-0.818634
-5.637307,-12.329996,6.301310,0.634393,0.000000,-0.773010
-0.399043,-17.313176,-8.448819,0.098017,-0.000000,0.995185
6.464397,-7.422367,-20.863490,0.306798,-0.364801,-0.879088
8.554689,-18.647044,-10.472279,0.382479,-0.802678,-0.457621
6.790719,-5.694118,-21.265116,0.308167,-0.228893,-0.923386
6.247006,5.703477,15.040771,-0.773010,-0.634393,-0.000000
-7.346749,-11.365310,-4.174815,0.881921,-0.000000,0.471397
-9.210381,20.721203,-4.062232,-0.419240,0.889788,-0.180319
-7.933631,17.662836,2.946201,0.956940,0.000000,-0.290285
11.479254,7.408827,-18.618956,0.457621,0.382479,-0.802678
-23.031356,-0.909475,0.312641,-0.995747,-0.092126,0.000000
-7.321525,7.948982,4.222007,0.881921,0.000000,-0.471397
-8.739719,-20.738055,-4.887969,-0.371627,-0.903180,-0.214847
-11.111464,-8.806642,18.162577,-0.457621,-0.382479,0.802678
-2.608310,11.699076,-8.036129,0.290285,0.000000,0.956940
16.047283,-3.288846,16.255807,0.685852,-0.080531,0.723272
-18.004180,1.901708,14.350452,-0.728345,0.080541,0.680461
-22.012941,6.708926,-1.000908,-0.946807,0.311335,-0.081408
-9.623501,-12.756861,-16.609855,-0.420208,-0.522219,-0.742100
-9.094318,-12.185486,17.311580,-0.420208,-0.522219,0.742100
8.202449,-12.910847,-17.228649,0.349826,-0.585564,-0.731257
6.751969,-11.775953,5.088178,-0.773010,0.000000,-0.634394
14.440476,16.652603,6.799190,0.581154,0.759176,0.293108
3.795238,-20.833954,7.549637,-0.471397,0.000000,-0.881921
17.757092,-14.404472,-2.918282,0.751866,-0.639868,-0.158953
-19.363638,-5.704763,-11.118263,-0.818634,-0.267098,-0.508425
4.964621,-20.875776,8.442492,0.159793,-0.922798,0.350587
-18.213319,-1.389666,14.103834,-0.802672,0.000000,0.596421
-3.266919,-20.288903,-7.832030,0.471397,-0.000000,0.881921
-21.856507,-6.300035,3.968989,-0.923386,-0.308167,0.228893
4.609586,-7.114359,14.944137,-0.471397,0.881921,0.000000
-6.784085,-11.261570,-5.049044,0.773010,0.000000,0.634394
-21.502426,-8.194145,1.023703,-0.934172,-0.356822,0.000000
17.112575,-11.449310,-10.380193,0.708443,-0.546563,-0.446517
-14.126546,8.913182,-15.914889,-0.620644,0.440461,-0.648687
-12.641201,18.260436,-6.187053,-0.508425,0.818634,-0.267098
-19.872687,-1.157910,11.629540,-0.883851,-0.050171,0.465071
-18.230721,6.390250,12.582299,-0.818634,0.267098,0.508425
-7.873438,3.144633,18.284947,0.956940,-0.290285,0.000000
-6.780162,8.284874,5.053825,0.773011,0.000000,-0.634392
1.742072,15.656652,8.298900,-0.290285,0.000000,-0.956940
-17.215438,-1.526620,-15.239094,-0.728345,-0.080541,-0.680461
3.308597,16.291028,16.007822,0.080531,0.723272,0.685852
20.410513,-10.106933,-3.339145,0.884358,-0.437842,-0.161879
-4.886693,16.555476,6.917323,0.634393,0.000000,-0.773010
-8.268730,1.841529,-20.341619,0.956940,-0.290285,0.000000
-15.392976,16.609738,4.309929,-0.638726,0.738104,0.217328
-8.123530,2.320189,-13.035336,0.956940,-0.290285,0.000000
4.025599,7.426507,17.357031,-0.471397,-0.881921,-0.000000
7.888492,3.095006,-19.932586,-0.956940,-0.290284,0.000000
19.545811,9.260571,-8.005834,0.852184,0.427026,-0.302378
-8.488026,-0.000968,11.327741,0.995185,0.098017,-0.000000
-10.654259,-19.869911,-4.811002,-0.500142,-0.839788,-0.211221
-4.078445,-7.398260,-19.835948,0.471397,0.881921,-0.000000
8.366492,7.911348,-1.234928,-0.995185,0.000000,0.098017
-4.277862,-7.291669,-11.480443,0.471397,0.881921,-0.000000
-2.770768,-10.699089,-20.252043,-0.082070,-0.424491,-0.901705
8.476360,8.235775,-0.119416,-0.995185,0.000000,0.098017
22.721038,3.690832,-0.487460,0.984405,0.175916,0.000000
-8.472866,-1.179591,-0.154885,0.995185,0.000000,0.098017
-5.480120,15.232268,-6.430310,0.634393,0.000000,0.773010
13.357819,-16.048596,-9.867854,0.522219,-0.742100,-0.420208
5.541214,-6.380172,-9.006051,-0.634393,0.773010,0.000000
-9.912589,17.745699,-10.918330,-0.382479,0.802678,-0.457621
0.697290,-15.111138,17.386979,0.000000,-0.639354,0.768912
-22.098184,-6.079980,2.384920,-0.971231,-0.223787,0.081426
-4.115594,7.378404,16.226226,0.471397,-0.881921,0.000000
6.944093,-17.392243,4.854074,-0.773010,0.000000,-0.634394
5.581139,-13.015387,6.347406,-0.634393,0.000000,-0.773010
-11.573726,-19.832666,-2.154650,-0.546250,-0.833679,-0.081179
7.170783,-14.456834,-16.484219,0.349826,-0.585564,-0.731257
1.082265,-18.852520,8.381528,-0.098017,0.000000,-0.995185
-4.665337,7.084560,-16.189398,0.471397,-0.881921,0.000000
15.659207,-15.722232,6.240254,0.702259,-0.670527,0.239219
-5.913746,-10.254184,19.830820,-0.211221,-0.500142,0.839788
-20.671655,-9.456885,-3.670724,-0.884358,-0.437842,-0.161879
-8.106931,9.683337,2.374908,0.956940,-0.000000,-0.290285
-22.918528,1.958142,1.438250,-0.996384,0.049505,0.069057
18.005852,13.088890,-6.018743,0.809504,0.538762,-0.233320
-13.921523,-6.917742,17.022926,-0.569358,-0.313422,0.759999
7.817477,3.294144,5.844264,-0.881921,-0.471397,0.000000
-2.757574,-7.990851,-8.813236,0.290285,0.956940,0.000000
3.566232,-7.672044,-8.007936,-0.471397,0.881921,0.000000
-17.890212,-8.808280,-11.593384,-0.742100,-0.420208,-0.522219
-11.351611,-19.453083,-4.817027,-0.500142,-0.839788,-0.211221
16.387853,12.212928,10.595320,0.708443,0.546563,0.446517
1.080446,-11.508731,8.381707,-0.098017,0.000000,-0.995185
16.853378,-5.636349,-14.660111,0.738104,-0.217328,-0.638726
18.230783,7.156796,-12.179498,0.818634,0.267098,-0.508425
-15.576331,13.913399,-9.712133,-0.648687,0.620644,-0.440461
-1.252962,-21.432667,-8.364715,0.098017,-0.000000,0.995185
2.348292,-8.115005,-14.764828,-0.290286,0.956940,-0.000000
-10.974777,-14.666614,13.968142,-0.440461,-0.648687,0.620644
15.715779,16.840921,-0.886110,0.680461,0.728345,-0.080541
-1.048601,15.334581,-17.179089,-0.080541,0.680461,-0.728345
-8.086338,2.442794,14.252688,0.956940,-0.290285,-0.000000
8.491430,14.138978,16.106962,0.349826,0.585564,0.731257
3.950718,18.110546,13.671866,0.160129,0.791679,0.589578
1.085474,10.122276,-20.669901,0.050171,0.465071,-0.883851
-15.844293,-1.589509,-16.637503,-0.685852,-0.080531,-0.723272
1.046493,8.385051,11.105523,-0.098017,-0.995185,0.000000
-5.168734,17.859227,13.677311,-0.233320,0.809504,0.538762
6.566194,5.314545,7.319662,-0.773011,-0.634393,0.000000
-8.260659,17.170934,-12.953804,-0.382234,0.759514,-0.526342
-7.057589,-4.715779,13.289394,0.773010,0.634394,-0.000000
-8.436158,-0.527588,5.131140,0.995185,0.098017,-0.000000
-8.450094,-0.386100,-18.053760,0.995185,0.098017,0.000000
-6.662163,-16.510447,-14.613205,-0.296210,-0.707576,-0.641557
-5.931878,-13.055141,-18.047944,-0.293108,-0.581154,-0.759176
-9.286147,-20.282293,5.858738,-0.371627,-0.903180,0.214847
-0.431486,-8.445624,16.537469,0.098017,0.995185,0.000000
8.338067,1.523529,-14.568453,-0.995185,-0.098017,-0.000000
-14.184254,-17.864038,-3.255096,-0.630461,-0.759247,-0.161444
8.325307,-1.653086,18.589098,-0.995185,0.098017,0.000000
11.806698,3.150885,-19.571393,0.482336,0.078368,-0.872474
10.077785,-20.689964,1.144448,0.465071,-0.883851,0.050171
15.425724,10.171047,-13.817781,0.620644,0.440461,-0.648687
7.683255,3.545258,-9.306044,-0.881921,-0.471397,0.000000
-20.951647,8.236378,4.978686,-0.922797,0.350587,0.159792
-8.271401,19.389865,9.383733,-0.302378,0.852184,0.427026
-15.670135,-16.199368,4.870771,-0.702259,-0.670527,0.239219
8.299732,18.749970,10.504837,0.382479,0.802678,0.457621
12.942422,-1.399587,19.006314,0.551642,-0.078418,0.830387
17.926531,-13.751668,-4.566666,0.791679,-0.589578,-0.160129
-15.498461,13.170025,10.834883,-0.708443,0.546563,0.446517
-19.759598,2.226525,11.674560,-0.833679,0.081179,0.546250
-10.278541,17.165462,11.463804,-0.446517,0.708443,0.546563
20.206309,11.053631,-0.621855,0.896494,0.443055,0.000000
15.536617,7.662702,-15.208696,0.663683,0.371744,-0.649101
7.230994,16.957706,13.836142,0.313422,0.759999,0.569358
-22.018958,-6.005749,-3.533919,-0.971231,-0.223787,-0.081426
22.129948,-5.482709,3.528769,0.971850,-0.181286,0.150476
-2.136192,8.179345,19.972131,0.290285,-0.956940,0.000000
-17.802409,-14.592585,1.787474,-0.723272,-0.685852,0.080531
-13.538380,17.063219,-7.497845,-0.585564,0.731257,-0.349826
-7.767915,-12.018804,-3.386869,0.881921,0.000000,0.471397
22.016575,-6.212334,-2.857811,0.946807,-0.311335,-0.081408
14.377879,-8.944381,15.653237,0.620644,-0.440461,0.648687
-16.903404,-15.562291,1.603084,-0.723272,-0.685852,0.080531
2.875912,9.933656,-20.602812,0.082070,0.424491,-0.901705
-3.578458,7.665509,10.941900,0.471397,-0.881921,0.000000
14.092730,-17.157123,-6.181926,0.581154,-0.759176,-0.293108
7.852908,3.212308,5.455952,-0.956940,-0.290284,-0.000000
-2.404197,-8.098046,-14.781880,0.290285,0.956940,0.000000
-20.990560,-4.304864,-8.463153,-0.903180,-0.214847,-0.371627
-3.121714,18.797236,12.974943,-0.160129,0.791679,0.589578
14.936533,-0.154164,17.525920,0.647218,0.000000,0.762305
20.773919,9.593639,2.742159,0.884358,0.437842,0.161879
-4.829910,-16.253456,15.603020,-0.239219,-0.702259,0.670527
-18.255259,1.069641,14.047390,-0.802672,0.000000,0.596421
-7.896730,-12.155617,3.067848,0.956941,0.000000,-0.290284
-20.600635,-1.399185,10.220072,-0.883851,-0.050171,0.465071
-4.432041,7.209259,-9.407671,0.471397,-0.881921,0.000000
-11.287823,-20.118063,0.002790,-0.465071,-0.883851,0.050171
-4.631192,16.678864,-7.102810,0.471397,0.000000,0.881921
-10.184979,11.478776,-17.191317,-0.420208,0.522219,-0.742100
-21.467588,-3.627054,-7.581093,-0.940327,-0.181151,-0.288045
21.535230,4.330865,-6.917650,0.940327,0.181151,-0.288045
-5.795825,6.171218,-11.307780,0.634393,-0.773010,0.000000
2.898842,-15.710364,-7.947997,-0.290285,0.000000,0.956940
-14.972156,-10.580815,13.958151,-0.635471,-0.503751,0.585159
-0.268077,20.677301,10.100608,0.000000,0.896494,0.443055
14.345100,17.435003,4.586816,0.638726,0.738104,0.217328
17.164719,-10.003669,11.662467,0.742100,-0.420208,0.522219
3.147376,14.512541,17.614341,0.161444,0.630461,0.759247
-8.180878,2.131139,18.200593,0.956940,-0.290285,-0.000000
20.642733,-4.526918,-9.177058,0.889788,-0.180319,-0.419240
-8.183667,-21.114555,-4.267048,-0.371627,-0.903180,-0.214847
2.626291,17.193903,8.030675,-0.290284,-0.000000,-0.956940
10.503962,-19.846118,5.261487,0.500142,-0.839788,0.211221
-22.452290,3.090120,-4.329392,-0.971850,0.181286,-0.150476
-11.192477,4.144435,-19.723165,-0.469405,0.233171,-0.851639
-8.452216,-0.364547,-7.539718,0.995185,0.098017,0.000000
4.470777,9.139612,7.188554,-0.471397,-0.000000,-0.881921
-5.865247,-12.460007,-6.114245,0.634393,0.000000,0.773010
-16.592647,1.757790,-15.878350,-0.728345,0.080541,-0.680461
10.371430,17.929279,-10.137156,0.448482,0.801686,-0.395175
-3.117014,11.912555,-7.881816,0.290285,0.000000,0.956940
22.890511,-2.431802,-1.162956,0.995747,-0.092126,0.000000
-7.397175,-4.080475,-8.479339,0.881921,0.471397,-0.000000
-12.516379,2.839811,-19.153335,-0.551642,0.078418,-0.830387
5.219638,10.678497,19.752698,0.211221,0.500142,0.839788
-18.274033,13.185622,-4.864926,-0.809504,0.538762,-0.233320
-9.372695,20.269269,-5.763788,-0.371627,0.903180,-0.214847
-13.344102,6.944428,17.444500,-0.569358,0.313422,0.759999
15.020707,6.520629,16.200216,0.641557,0.296210,0.707576
-11.905234,18.088869,-8.069890,-0.522219,0.742100,-0.420208
-6.588928,5.286844,5.319216,0.773010,-0.634394,0.000000
-16.636330,-3.349455,-15.638586,-0.759247,-0.161444,-0.630461
-21.284531,3.642438,8.131669,-0.903180,0.214847,0.371627
-17.740454,-13.480453,5.979090,-0.759999,-0.569358,0.313422
15.150939,-16.501123,5.390163,0.638726,-0.738104,0.217328
6.468893,5.433107,-19.213722,-0.773010,-0.634393,0.000000
-2.459212,8.109111,-8.081358,0.290285,0.000000,0.956940
20.326241,-4.797410,9.732434,0.889788,-0.180319,0.419240
-8.396116,5.779950,0.934145,0.995185,-0.000000,-0.098017
-6.992962,4.794527,-5.692067,0.773010,-0.634394,0.000000
-15.076662,-17.110098,-3.315785,-0.630461,-0.759247,-0.161444
-6.123312,5.854199,14.400611,0.773010,-0.634393,-0.000000
15.178869,-14.934807,8.789209,0.649101,-0.663683,0.371744
2.221874,-19.589591,8.153353,-0.290285,0.000000,-0.956940
16.933979,8.016085,-13.390171,0.731257,0.349826,-0.585564
-19.512626,8.154291,9.200236,-0.829480,0.337457,0.445068
3.371459,9.420607,-7.776152,-0.471397,0.000000,0.881921
-3.120946,-15.290113,-7.880623,0.290284,0.000000,0.956940
-18.482968,13.044284,4.420151,-0.791679,0.589578,0.160129
11.318691,1.202903,20.016154,0.482336,0.078368,0.872474
-6.387998,5.648588,-21.410804,-0.308167,0.228893,-0.923386
-14.537221,-4.406616,-17.329468,-0.639868,-0.158953,-0.751866
8.414473,16.870886,0.747762,-0.995185,0.000000,-0.098017
21.795034,5.578908,-4.971556,0.947462,0.216204,-0.235738
-7.279950,7.442823,20.555019,-0.343196,0.312401,0.885789
2.086849,-8.194313,20.974413,-0.290285,0.956940,0.000000
1.825161,-17.332070,-8.273695,-0.290285,0.000000,0.956940
-7.985061,-2.776661,-14.154388,0.956940,0.290284,0.000000
-12.759082,-17.403654,8.090663,-0.585564,-0.731257,0.349826
-19.274049,10.058953,7.644241,-0.852184,0.427026,0.302378
-20.311762,2.808955,-10.564850,-0.901705,0.082070,-0.424491
9.523047,6.016399,20.120190,0.427026,0.302378,0.852184
21.691580,7.698932,0.770275,0.934172,0.356822,-0.000000
-10.197268,-2.374033,20.530925,-0.482336,-0.078368,0.872474
-7.965953,-2.839650,-13.914570,0.956940,0.290284,0.000000
13.595639,-3.510472,-18.256360,0.589578,-0.160129,-0.791679
-0.334344,16.463010,8.455191,0.098017,0.000000,-0.995185
-16.899063,-8.624249,-13.070446,-0.731257,-0.349826,-0.585564
1.127328,-19.855701,-8.377089,-0.098017,0.000000,0.995185
-5.647318,-7.279069,-6.293095,0.634393,0.000000,0.773010
-8.444318,-11.283083,-0.444738,0.995185,0.000000,0.098017
7.272153,19.185300,-4.314375,-0.881921,0.000000,0.471397
3.216577,-7.851613,10.256872,-0.290286,0.956940,0.000000
-21.070478,9.305039,-0.780559,-0.896494,0.443055,0.000000
-12.600907,-18.717419,4.783774,-0.500142,-0.839788,0.211221
11.793825,-13.692461,-14.255233,0.503751,-0.585159,-0.635471
-7.829781,3.271126,-20.444295,0.881921,-0.471397,0.000000
-7.635368,-3.634846,-14.680328,0.881921,0.471397,-0.000000
8.438211,20.280890,-0.506751,-0.995185,0.000000,0.098017
-2.557399,18.238407,-8.051573,0.290284,-0.000000,0.956940
0.652898,-8.423816,-17.812845,-0.098017,0.995185,-0.000000
12.337398,10.867539,-16.120251,0.546563,0.446517,-0.708443
6.134556,-5.840498,-14.066295,-0.773010,0.634393,0.000000
-21.980069,-6.775848,-1.127289,-0.946807,-0.311335,-0.081408
5.469477,6.439045,-7.689299,-0.634393,-0.773010,0.000000
-12.385950,-19.250329,-2.633492,-0.557284,-0.819634,-0.132793
-9.099905,-9.105354,19.148845,-0.395175,-0.448482,0.801686
11.260418,-17.145400,10.537437,0.522219,-0.742100,0.420208
-6.406610,12.464562,5.508999,0.773010,-0.000000,-0.634393
-3.762978,-13.899602,-17.992412,-0.161444,-0.630461,-0.759247
-4.224516,12.236863,19.074891,-0.211221,0.500142,0.839788
-22.451343,-1.540078,-4.921652,-0.977326,-0.049607,-0.205849
-7.518747,17.416386,3.853030,0.881921,0.000000,-0.471397
4.742515,20.938314,-7.035647,-0.634393,0.000000,0.773010
1.260045,18.951351,13.044994,0.078418,0.830387,0.551642
-17.244286,-14.722088,-4.065348,-0.751866,-0.639868,-0.158953
-19.534866,11.491840,-4.229525,-0.851639,0.469405,-0.233171
-8.337896,-1.525262,2.477129,0.995185,0.098017,-0.000000
11.592350,-19.061132,-5.729490,0.508425,-0.818634,-0.267098
5.584991,6.344245,-15.579200,-0.634393,-0.773010,0.000000
-8.177947,13.909875,-16.440386,-0.349826,0.585564,-0.731257
4.742265,-7.035853,12.368512,-0.634393,0.773010,0.000000
-7.330677,-10.104234,4.204884,0.881921,0.000000,-0.471397
12.113510,-14.664707,13.077700,0.577350,-0.577350,0.577350
-1.648058,21.367291,8.503207,-0.081411,0.946807,0.311334
-14.036494,-7.109407,-16.846121,-0.641557,-0.296210,-0.707576
-5.467389,-6.440759,12.664940,0.634393,0.773010,-0.000000
-6.523939,-19.802340,5.366033,0.773011,0.000000,-0.634393
11.926897,19.713264,1.004388,0.546250,0.833679,0.081179
7.838132,-17.956237,-12.127453,0.382234,-0.759514,-0.526342
21.378646,1.806420,8.427491,0.939566,0.050000,0.338698
22.419967,-1.423476,-5.098722,0.977326,-0.049607,-0.205849
7.987850,-18.370266,-11.421280,0.382234,-0.759514,-0.526342
-7.036146,21.377230,-4.962598,-0.288046,0.940327,-0.181151
-6.980940,-5.525064,-4.809176,0.773010,0.000000,0.634394
-8.191466,-17.269990,2.096234,0.956940,0.000000,-0.290285
6.893046,12.789525,4.916274,-0.773010,-0.000000,-0.634394
-8.467800,11.893877,-0.206322,0.995185,0.000000,0.098017
-5.033151,15.346417,-6.797128,0.634393,-0.000000,0.773010
-20.249196,-9.511475,-5.607238,-0.851639,-0.469405,-0.233171
15.446820,15.493368,-7.296586,0.707576,0.641557,-0.296210
-1.133881,-11.386743,-20.001807,-0.050171,-0.465071,-0.883851
-11.174834,19.938018,-3.307572,-0.500142,0.839788,-0.211221
-21.507706,0.670365,-8.237180,-0.939566,0.050000,-0.338698
-6.098180,5.884822,10.207735,0.773010,-0.634393,-0.000000
8.292800,11.915388,-1.762182,-0.956940,0.000000,0.290284
-12.373341,-16.018854,10.968444,-0.521886,-0.699011,0.488895
-21.883495,-1.919950,-6.912018,-0.952951,-0.084545,-0.291097
8.487766,0.003603,3.727124,-0.995185,-0.098017,0.000000
-5.195719,-12.068587,18.930835,-0.211221,-0.500142,0.839788
-10.726949,-3.319021,-20.107230,-0.437842,-0.161879,-0.884358
-2.139369,-18.554806,13.516914,-0.078418,-0.830387,0.551642
20.145298,0.375155,11.195894,0.883851,0.050171,0.465071
-8.010240,13.636095,2.693655,0.956940,0.000000,-0.290285
-10.550370,-12.159734,-16.470740,-0.488895,-0.521886,-0.699011
11.096496,13.154792,15.303120,0.503751,0.585159,0.635471
9.787514,-11.375364,17.489150,0.420208,-0.522219,0.742100
22.152209,3.814681,-5.154064,0.947462,0.216204,-0.235738
20.459261,1.061061,-10.525224,0.883851,0.050171,-0.465071
6.188644,12.696494,18.223357,0.293108,0.581154,0.759176
-13.613951,-13.260778,12.981188,-0.577350,-0.577350,0.577350
-0.539434,-8.434992,18.820799,0.098017,0.995185,0.000000
-6.478951,-5.420851,8.912471,0.773010,0.634394,-0.000000
-2.125716,8.334342,-21.395232,-0.050000,0.338697,-0.939566
14.849971,17.475822,2.459477,0.680461,0.728345,0.080541
18.021874,-1.384164,-14.347588,0.768912,0.000000,-0.639354
-0.060849,8.482128,-14.867480,0.098017,-0.995185,-0.000000
1.351460,20.116717,8.355014,-0.098017,-0.000000,-0.995185
-10.805414,16.167995,12.326266,-0.446517,0.708443,0.546563
6.287534,5.654093,8.510329,-0.773011,-0.634393,0.000000
20.703468,7.541297,6.734801,0.885789,0.343196,0.312401
-2.909550,-17.538058,-14.664014,-0.158953,-0.751866,-0.639868
-6.089405,18.152138,12.838491,-0.233320,0.809504,0.538762
1.898779,-20.034130,-11.173112,0.078368,-0.872474,-0.482336
-1.654958,8.325122,15.103385,0.098017,-0.995185,0.000000
19.465421,7.458230,-9.815977,0.829480,0.337457,-0.445068
-5.669770,-6.274669,15.198584,0.634393,0.773010,-0.000000
5.993677,6.008845,8.305267,-0.634393,-0.773010,0.000000
6.299851,10.359000,-5.639085,-0.773010,-0.000000,0.634393
19.716592,-11.677644,-2.328666,0.872474,-0.482336,-0.078368
-22.332293,-5.866203,-0.051304,-0.984405,-0.175916,0.000000
-4.692319,-9.220066,-20.586949,-0.214847,-0.371627,-0.903180
-15.210321,8.241443,-15.210875,-0.663683,0.371744,-0.649101
7.982710,-3.979525,-2.784409,-0.956941,0.000000,0.290284
20.807190,8.348842,-5.443694,0.923386,0.308167,-0.228893
21.473462,-0.707428,8.326704,0.939566,-0.050000,0.338698
-18.407315,6.132595,-12.433316,-0.818634,0.267098,-0.508425
-5.301873,-20.961069,6.576594,0.634393,0.000000,-0.773010
-0.131509,8.475169,-15.562441,0.098017,-0.995185,-0.000000
16.776461,-14.951453,-5.120892,0.702259,-0.670527,-0.239219
7.426181,-4.975046,-21.231286,0.308167,-0.228893,-0.923386
4.741879,16.815529,-15.045754,0.239219,0.702259,-0.670527
-19.946429,10.659489,-4.379954,-0.884358,0.437842,-0.161879
8.146817,-2.243421,10.695307,-0.956940,0.290285,-0.000000
-8.711744,19.857178,-7.814699,-0.364801,0.879088,-0.306798
8.808598,-1.950886,21.240833,0.311335,-0.081407,0.946807
-19.520757,9.322737,7.988652,-0.852184,0.427026,0.302378
-13.413540,17.000235,-7.838470,-0.585564,0.731257,-0.349826
-18.484829,2.765004,-13.480482,-0.819634,0.132793,-0.557284
7.690338,-15.979996,3.532005,-0.881921,0.000000,-0.471397
13.426942,-15.061362,-11.085339,0.585159,-0.635471,-0.503751
-7.547283,-8.245171,-3.799642,0.881921,0.000000,0.471397
-20.015260,-3.947817,10.757874,-0.889788,-0.180319,0.419240
10.194295,-20.692593,0.018118,0.465071,-0.883851,0.050171
-16.512469,-11.541567,-11.175304,-0.699011,-0.488895,-0.521886
15.597148,5.280710,16.105501,0.670527,0.239219,0.702259
-11.847368,17.400793,-9.356967,-0.522219,0.742100,-0.420208
8.185584,-13.371130,-2.115623,-0.956940,0.000000,0.290285
-14.506882,15.792805,8.430761,-0.649101,0.663683,0.371744
21.586089,-5.418510,-5.958439,0.947462,-0.216204,-0.235738
-1.534049,-17.646943,-8.337031,0.098017,0.000000,0.995185
15.691798,-3.784532,16.478392,0.639868,-0.158953,0.751866
-11.966322,-5.138886,19.006571,-0.538762,-0.233320,0.809504
-6.444944,20.555000,8.188340,-0.312401,0.885789,0.343196
18.076088,-14.022185,2.831238,0.791679,-0.589578,0.160129
-8.403750,-9.971028,-18.997561,-0.337457,-0.445068,-0.829480
6.852304,5.221816,-4.965919,-0.773011,0.000000,0.634392
-15.506879,-4.159778,16.556434,-0.639868,-0.158953,0.751866
16.026639,-16.530400,-1.067856,0.680461,-0.728345,-0.080541
-17.711000,-10.128374,-10.769354,-0.801686,-0.395175,-0.448482
-18.151906,-12.039834,-7.569982,-0.759514,-0.526342,-0.382234
-7.427393,-4.023942,-16.233911,0.881921,0.471397,-0.000000
22.103138,-6.408575,1.100543,0.946807,-0.311335,0.081408
-4.491867,7.534691,-7.177282,0.471397,0.000000,0.881921
8.297707,-4.131910,21.074976,0.350587,-0.159793,0.922798
-0.904204,8.533593,8.399065,0.098017,-0.000000,-0.995185
-18.229619,10.353734,9.572541,-0.802678,0.457621,0.382479
-14.074441,0.443603,-18.230636,-0.597636,0.000000,-0.801768
1.443081,15.412327,-8.345990,-0.098017,-0.000000,0.995185
-14.991785,8.930034,15.039961,-0.663683,0.371744,0.649101
-20.431684,-7.086684,7.939577,-0.879088,-0.306798,0.364801
4.087514,16.826634,15.207337,0.158953,0.751866,0.639868
0.011715,21.039060,9.368611,0.000000,0.896494,0.443055
-1.057951,8.383922,-12.101990,0.098017,-0.995185,0.000000
-1.527414,18.985283,8.337684,0.098017,0.000000,-0.995185
5.822224,-6.149553,15.049452,-0.634393,0.773011,0.000000
14.426141,-9.864744,-14.982132,0.620644,-0.440461,-0.648687
-6.641054,5.223328,-11.991338,0.773010,-0.634394,0.000000
12.380550,-7.643296,17.878140,0.569358,-0.313422,0.759999
13.314523,-16.091918,9.845153,0.522219,-0.742100,0.420208
-12.541276,-19.201012,2.130912,-0.546250,-0.833679,0.081179
7.539573,15.494667,3.814067,-0.881921,0.000000,-0.471397
15.604906,-1.298089,16.896952,0.685852,-0.080531,0.723272
-6.655267,5.206010,13.658863,0.773010,-0.634393,-0.000000
-14.857144,10.547933,-14.105873,-0.620644,0.440461,-0.648687
-5.294710,-6.582473,-13.950599,0.634393,0.773010,0.000000
7.433555,-20.283364,7.989527,0.312401,-0.885789,0.343196
-4.924450,16.939979,-6.886337,0.634393,-0.000000,0.773010
-2.420676,20.356019,8.093047,0.290285,0.000000,-0.956940
-1.129423,8.376883,8.963244,0.098017,-0.995185,0.000000
-7.155540,-4.532542,-15.768912,0.881921,0.471397,-0.000000
5.925362,-17.443337,-13.906633,0.313422,-0.759999,-0.569358
-7.487420,3.911638,5.485074,0.881921,-0.471397,0.000000
-5.379310,20.911032,6.513043,0.634393,0.000000,-0.773010
15.533550,2.405623,16.841301,0.685852,0.080531,0.723272
-13.779902,18.359700,-2.280772,-0.557284,0.819634,-0.132793
-9.474298,-20.018609,6.445420,-0.364801,-0.879088,0.306798
-8.005480,-10.315089,18.974979,-0.337457,-0.445068,0.829480
-6.416634,-5.496785,20.702176,0.773010,0.634393,-0.000000
-21.680622,-7.300908,2.601949,-0.946807,-0.311335,0.081408
18.382966,10.122722,-9.527120,0.802678,0.457621,-0.382479
-6.872490,19.970792,-9.214991,-0.302378,0.852184,-0.427026
-16.953154,-15.174230,3.622329,-0.751866,-0.639868,0.158953
-14.867100,-5.195592,-16.831557,-0.670527,-0.239219,-0.702259
3.352225,7.786433,-16.289870,-0.471397,-0.881921,0.000000
13.643479,-8.521273,-16.561834,0.526342,-0.382234,-0.759514
8.609663,-14.332199,15.863443,0.371744,-0.649101,0.663683
-4.414063,7.665199,21.290210,-0.181151,0.288045,0.940327
8.473078,5.389404,0.152738,-0.995185,-0.000000,-0.098017
-22.184212,5.579186,-2.735151,-0.971231,0.223787,-0.081426
-21.725612,7.609835,-0.826712,-0.934172,0.356822,0.000000
-8.219271,-19.648211,-2.004572,0.956940,-0.000000,0.290285
7.707098,-15.980706,14.715007,0.296210,-0.707576,0.641557
18.499017,-13.581544,-2.275483,0.830387,-0.551642,-0.078418
2.715544,-11.198729,20.010956,0.050171,-0.465071,0.883851
2.598445,19.653310,11.748280,0.078368,0.872474,0.482336
17.535424,-1.816126,14.862325,0.728345,-0.080541,0.680461
20.657877,9.839248,-2.711798,0.884358,0.437842,-0.161879
-3.322023,-11.421274,-19.787614,-0.211221,-0.500142,-0.839788
7.582114,3.734479,-20.055773,-0.881921,-0.471397,0.000000
8.111426,-16.104555,-14.391734,0.296210,-0.707576,-0.641557
-22.730085,-3.637947,1.559281,-0.971231,-0.223787,0.081426
-8.428021,-0.610205,6.440616,0.995185,0.098017,-0.000000
-14.762407,-5.261350,16.909120,-0.670527,-0.239219,0.702259
-6.614169,5.256088,-17.933113,0.773010,-0.634393,0.000000
6.543432,-11.858337,5.342281,-0.773010,0.000000,-0.634393
-8.088404,14.081647,2.435983,0.956940,0.000000,-0.290285
-15.386789,-8.824371,-14.696596,-0.663683,-0.371744,-0.649101
18.918528,-7.735129,10.625282,0.829480,-0.337457,0.445068
-5.703138,6.247284,13.740931,0.634393,-0.773011,0.000000
-7.197900,-4.453293,12.907580,0.881921,0.471397,0.000000
0.951118,16.550767,-16.010719,0.080531,0.723272,-0.685852
5.024325,-21.285403,7.227422,0.228893,-0.923386,0.308167
-8.217149,-4.487576,-21.043994,-0.350587,-0.159793,-0.922798
5.387295,17.567200,6.506490,-0.634393,0.000000,-0.773010
2.380542,17.395356,-14.952211,0.080531,0.723272,-0.685852
-22.851057,-2.317755,-2.153953,-0.996384,-0.049505,-0.069057
-7.020628,15.640962,15.406660,-0.296210,0.707576,0.641557
8.390959,0.986508,-1.099874,-0.995185,-0.098017,0.000000
0.291803,13.919814,-8.459381,-0.098017,-0.000000,0.995185
3.895572,-7.496008,9.380945,-0.471397,0.881921,0.000000
-11.043987,17.123097,-10.808683,-0.521886,0.699011,-0.488895
-14.375914,-4.700057,17.404710,-0.639868,-0.158953,0.751866
5.324462,17.358663,-6.558056,-0.634393,0.000000,0.773010
-7.100298,-14.849565,-4.635892,0.881921,-0.000000,0.471397
13.077438,18.857799,-2.047776,0.546250,0.833679,-0.081179
7.891666,3.084541,-15.864014,-0.956940,-0.290285,-0.000000
-9.836111,-20.633843,-3.038493,-0.419240,-0.889788,-0.180319
-9.344366,20.405308,-5.240904,-0.371627,0.903180,-0.214847
7.997378,6.223950,-2.736056,-0.956940,0.000000,0.290285
4.100292,-15.697234,-16.408170,0.217328,-0.638726,-0.738104
-22.043783,-2.899324,-6.102845,-0.952951,-0.084545,-0.291097
-6.208890,20.010242,-9.606160,-0.302378,0.852184,-0.427026
8.474278,20.633960,-0.140552,-0.995185,0.000000,0.098017
-9.932401,-17.405601,11.401145,-0.382234,-0.759514,0.526342
1.171550,8.372734,-16.651673,-0.098017,-0.995185,0.000000
3.654914,15.317654,7.624642,-0.471397,0.000000,-0.881921
10.141691,11.905312,16.915673,0.420208,0.522219,0.742100
-7.306986,-4.249206,15.197157,0.881921,0.471397,0.000000
-8.065731,-2.510727,-8.261617,0.956940,0.290284,0.000000
-3.311246,-10.272007,20.373189,-0.180319,-0.419240,0.889788
3.379282,7.771971,-19.595605,-0.471397,-0.881921,0.000000
-5.071573,6.765597,20.681034,0.634393,-0.773010,-0.000000
8.441319,-5.701050,0.475187,-0.995185,0.000000,-0.098017
-22.843726,-2.251898,2.273358,-0.984754,-0.084103,0.152272
8.380410,-19.850019,-1.093607,-0.995185,0.000000,0.098017
11.975289,9.741199,-17.103945,0.526342,0.382234,-0.759514
-7.439325,5.608918,-21.069772,-0.308167,0.228893,-0.923386
-8.454706,15.265894,0.339270,0.995185,-0.000000,-0.098017
11.349631,9.803299,-17.506272,0.526342,0.382234,-0.759514
3.822995,-11.851257,-7.534801,-0.471397,0.000000,0.881921
-22.856323,-2.192334,2.167883,-0.996384,-0.049505,0.069057
-12.536229,-16.230331,-10.492200,-0.521886,-0.699011,-0.488895
22.363511,-2.105067,-5.202506,0.977326,-0.049607,-0.205849
-7.381034,-4.110672,-7.242536,0.881921,0.471397,-0.000000
7.859429,12.250760,-3.190812,-0.956940,0.000000,0.290286
-13.493224,18.127922,4.712658,-0.630461,0.759247,0.161444
-5.661792,16.794780,-6.281216,0.634393,0.000000,0.773010
13.987362,-13.740332,12.100803,0.585159,-0.635471,0.503751
-16.208243,-2.941814,-16.141815,-0.685852,-0.080531,-0.723272
-6.102187,-16.665908,14.700291,-0.296210,-0.707576,0.641557
2.299050,16.381018,-16.031460,0.080531,0.723272,-0.685852
7.158748,-4.526540,-15.713147,-0.881921,0.471397,-0.000000
8.457332,0.312604,19.433856,-0.995185,-0.098017,-0.000000
-2.196981,-8.160905,14.666639,0.290285,0.956940,0.000000
-7.148972,-5.137833,21.283448,-0.308167,-0.228893,0.923386
20.696714,4.692435,8.953234,0.903180,0.214847,0.371627
7.830837,19.704782,9.067241,0.302378,0.852184,0.427026
-2.558818,-8.051143,-20.913775,0.290285,0.956940,-0.000000
20.669007,6.572170,-7.800389,0.879088,0.306798,-0.364801
-2.159487,-8.172278,14.662154,0.290285,0.956940,0.000000
1.098063,-8.379972,-16.456407,-0.098017,0.995185,0.000000
15.454408,16.783594,3.376140,0.630461,0.759247,0.161444
-22.048654,-5.347503,4.164455,-0.947462,-0.216204,0.235738
-9.538793,0.902085,20.954955,-0.443055,0.000000,0.896494
-6.232274,-5.721428,-17.814449,0.773010,0.634393,0.000000
1.782380,8.286673,-12.526532,-0.290285,-0.956940,-0.000000
12.751198,-14.435527,-12.659761,0.585159,-0.635471,-0.503751
-4.607867,-11.319628,-7.115278,0.471397,-0.000000,0.881921
-6.024288,9.174775,-5.974860,0.773011,0.000000,0.634393
8.170268,-21.341896,2.166114,-0.956940,-0.000000,-0.290285
-6.701733,-16.875387,14.192442,-0.296210,-0.707576,0.641557
1.772704,-8.289608,-13.268185,-0.290285,0.956940,0.000000
-3.485833,-14.117852,17.870113,-0.161444,-0.630461,0.759247
-20.812678,-6.433595,-7.570717,-0.879088,-0.306798,-0.364801
-13.303404,18.802842,1.091643,-0.546250,0.833679,0.081179
-2.305163,8.128088,10.382912,0.290285,-0.956940,0.000000
3.482547,-7.716774,-21.315802,-0.471397,0.881921,0.000000
-10.990137,18.558657,-8.138501,-0.445068,0.829480,-0.337457
-10.403387,20.461455,-1.999413,-0.424491,0.901705,-0.082070
7.072308,-13.672677,-4.688258,-0.881921,0.000000,0.471397
21.855779,-6.744181,-2.693940,0.946807,-0.311335,-0.081408
-9.361315,20.973960,1.758428,-0.424491,0.901705,0.082070
-18.785547,8.285479,10.455836,-0.829480,0.337457,0.445068
-13.351921,0.385067,18.769201,-0.597636,0.000000,0.801768
-3.454481,-19.008365,-12.601063,-0.160129,-0.791679,-0.589578
-8.215656,21.378728,-3.079303,-0.288044,0.940327,-0.181150
3.060839,14.761380,7.898856,-0.290285,-0.000000,-0.956940
-13.528981,-18.400063,3.084671,-0.557284,-0.819634,0.132793
9.475005,-0.850603,-20.986479,0.443055,0.000000,-0.896494
-0.364647,8.452207,17.100759,0.098017,-0.995185,0.000000
-18.449197,11.471521,-7.761829,-0.759514,0.526342,-0.382234
1.135095,21.248247,-8.859594,-0.000001,0.934172,-0.356823
16.881855,-15.102385,-4.248799,0.751866,-0.639868,-0.158953
-17.849403,10.727408,-9.923385,-0.802678,0.457621,-0.382479
-22.890107,0.917473,2.594352,-0.996384,0.049505,0.069057
-7.264917,7.268415,4.327913,0.881921,0.000000,-0.471397
6.385194,-11.448730,18.936390,0.267098,-0.508425,0.818634
-7.978163,19.355390,2.799399,0.956940,0.000000,-0.290285
14.289077,13.327072,-12.239769,0.577350,0.577350,-0.577350
-6.377189,5.714678,5.544849,0.773010,-0.000000,-0.634394
22.167117,-5.587902,2.915103,0.971231,-0.223787,0.081426
18.779438,10.048971,-8.783317,0.802678,0.457621,-0.382479
-10.195179,-3.003894,20.428190,-0.437842,-0.161879,0.884358
-9.732511,-19.468729,-7.560182,-0.445068,-0.829480,-0.337457
-12.740899,11.083056,15.673114,-0.546563,0.446517,0.708443
15.704328,-0.634569,16.874040,0.647218,0.000000,0.762305
-6.934294,8.394572,-4.866014,0.773010,0.000000,0.634394
-11.342149,8.579880,18.127157,-0.526342,0.382234,0.759514
20.194926,11.076663,0.184690,0.896494,0.443055,0.000000
-21.897362,0.013347,-7.253247,-0.939566,0.050000,-0.338698
-20.307586,3.122759,-10.492312,-0.889788,0.180319,-0.419240
22.273708,5.446061,-2.033531,0.971231,0.223787,-0.081426
-14.037681,16.056600,8.766263,-0.585564,0.731257,0.349826
-22.910597,1.764489,1.691501,-0.996384,0.049505,0.069057
-4.695415,19.163504,-11.922578,-0.233320,0.809504,-0.538762
-11.541053,-19.304452,-4.959391,-0.500142,-0.839788,-0.211221
7.673118,3.564221,15.589124,-0.881921,-0.471397,0.000000
-8.215007,15.846130,-2.018629,0.956940,-0.000000,0.290285
8.186791,-12.672488,-2.111645,-0.956940,0.000000,0.290285
-7.747216,20.026373,3.425595,0.881921,0.000000,-0.471397
20.858431,-9.026788,3.782834,0.922797,-0.350587,0.159792
8.468812,17.064355,0.196050,-0.995185,-0.000000,-0.098017
6.718213,-19.433535,-5.129310,-0.773010,-0.000000,0.634393
1.862004,17.744441,-8.262519,-0.290285,0.000000,0.956940
-7.270706,-4.317082,4.856654,0.881921,0.471397,-0.000000
-7.812465,3.303522,-16.809871,0.881921,-0.471397,0.000000
12.451880,19.372477,-0.971556,0.546250,0.833679,-0.081179
-7.628471,10.045073,3.647751,0.881921,0.000000,-0.471397
22.224313,-5.984004,1.144249,0.971231,-0.223787,0.081426
3.177578,-18.708926,-13.078352,0.160129,-0.791679,-0.589578
