x,y,z,nx,ny,nz
-0.294842,-0.059762,0.339484,-0.655721,0.000000,0.755003
-0.291517,-0.093901,0.037164,-0.991972,0.000000,0.126460
-0.429472,0.105806,-0.140325,0.000000,1.000000,0.000000
0.293797,-0.050223,-0.006790,0.999733,0.000000,-0.023105
-0.293852,0.075594,0.003713,-0.999920,0.000000,0.012634
0.238659,0.067422,0.171478,0.812109,0.000000,0.583506
-0.203854,0.105806,0.143585,0.000000,1.000000,0.000000
-0.462368,-0.101967,-0.138679,-0.957844,0.000000,-0.287287
0.028996,0.105806,-0.241017,0.000000,1.000000,0.000000
-0.489426,-0.002271,0.131069,-0.965962,0.000000,0.258685
-0.419723,0.023296,0.147489,-0.943447,0.000000,0.331523
0.418739,-0.082301,-0.067668,0.987193,0.000000,-0.159531
0.139930,-0.063703,0.258423,0.476154,0.000000,0.879362
-0.011309,-0.105806,-0.102478,0.000000,-1.000000,0.000000
-0.193393,-0.105806,-0.393274,0.000000,-1.000000,0.000000
-0.238100,0.088745,0.172254,-0.810207,0.000000,0.586144
-0.391013,0.032230,0.151381,-0.932551,0.000000,0.361038
0.262311,-0.105806,-0.109052,0.000000,-1.000000,0.000000
0.145422,0.093486,-0.431477,0.319382,0.000000,-0.947626
0.162550,0.086862,0.244828,0.553124,0.000000,0.833099
-0.152533,-0.105806,-0.197163,0.000000,-1.000000,0.000000
0.351812,-0.026646,-0.332940,0.726320,0.000000,-0.687357
0.350233,0.055745,0.327468,0.730447,0.000000,0.682969
0.468158,0.040128,-0.109542,0.973701,0.000000,-0.227832
0.312030,-0.012162,-0.345436,0.670314,0.000000,-0.742078
0.150583,-0.015805,0.398010,0.353862,0.000000,0.935298
0.070718,-0.049284,-0.015726,-0.976156,0.000000,0.217070
-0.354380,-0.105806,0.305145,0.000000,-1.000000,0.000000
-0.153907,0.091896,0.250351,-0.523713,0.000000,0.851895
-0.016226,-0.051547,-0.070605,0.223978,0.000000,0.974594
-0.259790,0.011586,0.137377,-0.884011,0.000000,0.467465
-0.418832,-0.099634,-0.067737,-0.987173,0.000000,-0.159655
-0.332063,0.105806,0.124018,0.000000,1.000000,0.000000
0.443905,-0.095896,0.142939,0.951869,0.000000,0.306504
-0.281028,0.105806,-0.239593,0.000000,1.000000,0.000000
-0.391892,-0.007015,0.151286,-0.932899,0.000000,0.360137
-0.463073,0.073656,0.104736,-0.975364,0.000000,0.220603
0.356121,0.028544,-0.349106,0.714105,0.000000,-0.700038
0.292043,-0.025826,-0.032774,0.993762,0.000000,-0.111524
-0.149144,-0.049413,-0.408930,-0.342640,0.000000,-0.939467
0.279128,-0.105806,0.301869,0.000000,-1.000000,0.000000
0.054427,-0.105806,-0.118521,0.000000,-1.000000,0.000000
0.017570,-0.016930,-0.293350,0.059786,0.000000,-0.998211
0.239958,-0.105806,0.230926,0.000000,-1.000000,0.000000
-0.072325,-0.012454,-0.004173,0.998340,0.000000,0.057598
0.370180,0.074567,0.153179,0.924016,0.000000,0.382353
-0.292624,0.073718,0.027102,-0.995738,0.000000,0.092224
-0.423116,-0.045099,0.070970,-0.986223,0.000000,0.165422
0.116379,0.105806,-0.077063,0.000000,1.000000,0.000000
-0.129564,0.038276,-0.488013,-0.256603,0.000000,-0.966517
0.025745,0.089150,0.292746,0.087605,0.000000,0.996155
-0.115077,-0.098243,0.270408,-0.391583,0.000000,0.920143
0.258421,-0.027882,0.139934,0.879354,0.000000,0.476168
0.293835,0.079955,0.004875,0.999862,0.000000,0.016587
-0.041824,0.105806,-0.437925,0.000000,1.000000,0.000000
-0.266785,-0.088498,-0.123242,-0.907816,0.000000,-0.419368
0.293001,0.028605,-0.022654,0.997024,0.000000,-0.077087
0.458522,0.018259,0.139623,0.956632,0.000000,0.291300
-0.282277,0.073412,-0.334705,-0.644697,0.000000,-0.764438
0.136239,0.050939,0.260388,0.463594,0.000000,0.886048
-0.071117,-0.095101,0.013809,0.981664,0.000000,-0.190617
-0.262227,0.104278,-0.132664,-0.892306,0.000000,-0.451430
-0.104062,0.105806,-0.026673,0.000000,1.000000,0.000000
0.356761,0.020430,-0.351687,0.712153,0.000000,-0.702025
0.041398,-0.069566,0.059452,-0.571440,0.000000,-0.820644
-0.178878,-0.004358,0.233164,-0.608686,0.000000,0.793411
0.407963,0.065468,-0.149281,0.939103,0.000000,-0.343635
-0.134756,0.105806,0.121688,0.000000,1.000000,0.000000
-0.257426,-0.053748,0.324126,-0.621928,0.000000,0.783074
-0.163571,-0.049105,-0.244147,-0.556599,0.000000,-0.830782
-0.304598,-0.060553,0.342943,-0.664071,0.000000,0.747670
-0.340199,0.105806,0.228989,0.000000,1.000000,0.000000
0.114632,0.105806,-0.003103,0.000000,1.000000,0.000000
-0.267320,-0.102273,0.122079,-0.909635,0.000000,0.415408
-0.009841,0.067185,0.071774,0.135835,0.000000,-0.990732
-0.096761,-0.105806,0.102838,0.000000,-1.000000,0.000000
-0.132141,-0.096818,-0.262491,-0.449651,0.000000,-0.893205
-0.256493,0.060346,0.143439,-0.872792,0.000000,0.488092
0.142738,-0.067137,0.256883,0.485710,0.000000,0.874120
0.048869,-0.067736,0.053481,-0.674556,0.000000,-0.738224
-0.120848,0.055248,-0.267878,-0.411222,0.000000,-0.911535
-0.239241,-0.005317,0.170666,-0.814087,0.000000,0.580743
-0.083415,-0.105806,0.066542,0.000000,-1.000000,0.000000
-0.125688,-0.060071,0.484326,-0.251191,0.000000,0.967937
0.141997,0.105064,0.257294,0.483186,0.000000,0.875518
0.282559,0.023120,0.334816,0.644947,0.000000,0.764227
0.450867,0.035290,0.141412,0.954168,0.000000,0.299270
-0.014658,0.105806,0.090003,0.000000,1.000000,0.000000
-0.249269,-0.087978,0.155654,-0.848211,0.000000,0.529659
0.444352,0.089745,0.088067,0.980920,0.000000,0.194411
0.134384,-0.058894,-0.478538,0.270364,0.000000,-0.962758
0.149851,-0.003826,0.252800,0.509912,0.000000,0.860227
-0.137347,-0.105806,0.123477,0.000000,-1.000000,0.000000
-0.355828,-0.097420,-0.347939,-0.714988,0.000000,-0.699137
0.145956,-0.091386,0.428585,0.322373,0.000000,0.946613
-0.089386,0.024255,-0.445900,-0.196553,0.000000,-0.980493
0.061736,0.054991,-0.037908,-0.852170,0.000000,0.523265
-0.177606,-0.022707,-0.234135,-0.604356,0.000000,-0.796715
-0.050227,0.043070,-0.052207,0.693308,0.000000,0.720641
0.268015,0.077095,-0.328823,0.631794,0.000000,-0.775137
0.362880,-0.105806,-0.071199,0.000000,-1.000000,0.000000
0.293020,0.061270,-0.022419,0.997086,0.000000,-0.076289
-0.026859,0.056936,0.292646,-0.091396,0.000000,0.995815
-0.208584,-0.105806,0.154536,0.000000,-1.000000,0.000000
0.397568,-0.042191,0.052696,0.991330,0.000000,0.131398
-0.352008,0.105806,-0.042703,0.000000,1.000000,0.000000
0.105052,-0.096773,0.463412,0.221083,0.000000,0.975255
-0.195380,0.105806,-0.056078,0.000000,1.000000,0.000000
-0.325000,0.092737,0.349500,-0.680974,0.000000,0.732308
0.013694,0.001985,-0.293557,0.046598,0.000000,-0.998914
0.423292,0.013012,0.146890,0.944733,0.000000,0.327840
0.247781,-0.018954,0.158012,0.843148,0.000000,0.537682
0.247033,-0.105806,0.097099,0.000000,-1.000000,0.000000
-0.028226,0.105806,-0.416232,0.000000,1.000000,0.000000
0.182249,-0.105806,0.187629,0.000000,-1.000000,0.000000
0.012704,0.100852,0.071323,-0.175353,0.000000,-0.984506
-0.411427,0.105806,0.155443,0.000000,1.000000,0.000000
0.127828,0.043521,0.264619,0.434974,0.000000,0.900443
-0.250350,0.020076,0.153909,-0.851889,0.000000,0.523722
0.109741,0.105806,-0.055302,0.000000,1.000000,0.000000
-0.069474,0.101018,0.421145,-0.162765,0.000000,0.986665
0.262382,0.042406,-0.132359,0.892832,0.000000,-0.450389
0.346618,-0.008433,0.315684,0.739327,0.000000,0.673347
0.255567,-0.069552,0.323272,0.620170,0.000000,0.784467
0.149056,0.047928,-0.409547,0.342005,0.000000,-0.939698
-0.098015,-0.105806,-0.089380,0.000000,-1.000000,0.000000
-0.477706,0.016798,0.118913,-0.970387,0.000000,0.241555
0.259592,0.002086,-0.137749,0.883340,0.000000,-0.468732
0.008756,-0.105806,-0.233982,0.000000,-1.000000,0.000000
-0.470058,-0.105806,-0.012331,0.000000,-1.000000,0.000000
-0.109814,-0.105806,-0.049305,0.000000,-1.000000,0.000000
0.328233,0.036011,-0.266649,0.776161,0.000000,-0.630535
0.004973,0.100240,0.293834,0.016921,0.000000,0.999857
-0.441322,-0.025622,0.085515,-0.981739,0.000000,0.190232
0.308768,-0.105806,0.058771,0.000000,-1.000000,0.000000
0.113270,0.105806,-0.475851,0.000000,1.000000,0.000000
0.071381,-0.101928,-0.423654,0.166148,0.000000,-0.986101
-0.153432,-0.047849,-0.250643,-0.522098,0.000000,-0.852886
0.343111,0.067892,-0.354585,0.695384,0.000000,-0.718638
0.130986,-0.105806,0.486213,0.000000,-1.000000,0.000000
0.106106,-0.105806,-0.216188,0.000000,-1.000000,0.000000
0.264455,0.103939,0.128167,0.899885,0.000000,0.436127
0.261301,0.105806,-0.341031,0.000000,1.000000,0.000000
0.040174,0.105806,0.401778,0.000000,1.000000,0.000000
0.168736,-0.105806,-0.078734,0.000000,-1.000000,0.000000
-0.113443,0.041383,0.472189,-0.233603,0.000000,0.972332
-0.419785,0.026204,-0.068451,-0.986965,0.000000,-0.160937
-0.139361,0.062128,-0.459598,-0.290178,0.000000,-0.956973
-0.046807,0.049002,0.055295,0.646097,0.000000,-0.763255
0.246963,0.105806,0.196705,0.000000,1.000000,0.000000
0.069407,0.092916,0.421056,0.162646,0.000000,0.986685
-0.291655,0.052599,-0.036064,-0.992441,0.000000,-0.122720
-0.135509,0.028702,0.260769,-0.461109,0.000000,0.887344
0.246839,0.102774,-0.159479,0.839944,0.000000,-0.542673
0.268180,-0.036209,0.120176,0.912563,0.000000,0.408936
0.125075,-0.016325,0.483736,0.250328,0.000000,0.968161
0.265533,0.047634,-0.327748,0.629504,0.000000,-0.776998
0.266621,0.105806,0.164217,0.000000,1.000000,0.000000
0.137341,0.105806,-0.184011,0.000000,1.000000,0.000000
-0.099087,-0.105806,-0.290753,0.000000,-1.000000,0.000000
-0.245955,-0.105806,0.338581,0.000000,-1.000000,0.000000
0.402993,-0.010989,-0.149956,0.937218,0.000000,-0.348744
0.198038,-0.105806,0.159749,0.000000,-1.000000,0.000000
-0.291593,-0.025119,0.036560,-0.992231,0.000000,0.124406
0.292368,0.009850,0.029730,0.994870,0.000000,0.101166
-0.072278,0.048042,-0.004929,0.997682,0.000000,0.068042
0.357505,0.037846,0.358154,0.706465,0.000000,0.707748
0.064816,0.033244,0.414878,0.154356,0.000000,0.988015
-0.279172,0.105806,0.314624,0.000000,1.000000,0.000000
0.146078,-0.074736,0.427909,0.323071,0.000000,0.946375
-0.004699,0.084103,-0.293838,-0.015991,0.000000,-0.999872
-0.103331,-0.105806,-0.113896,0.000000,-1.000000,0.000000
0.472596,-0.070257,0.113841,0.972192,0.000000,0.234186
0.471334,0.037507,-0.112609,0.972626,0.000000,-0.232375
0.292538,0.043754,0.028006,0.995449,0.000000,0.095297
-0.173840,0.050528,-0.236945,-0.591542,0.000000,-0.806274
-0.321827,-0.011603,-0.252467,-0.786790,0.000000,-0.617221
-0.269317,-0.105806,-0.195404,0.000000,-1.000000,0.000000
0.172504,0.092941,-0.237919,0.586995,0.000000,-0.809591
-0.136417,0.097892,0.260295,-0.464200,0.000000,0.885730
0.448888,0.006616,0.091963,0.979653,0.000000,0.200699
0.007242,-0.067401,0.072083,-0.099963,0.000000,-0.994991
-0.251493,-0.027698,0.152034,-0.855779,0.000000,0.517341
-0.111206,0.010964,0.469887,-0.230303,0.000000,0.973119
0.410903,0.033434,-0.061937,0.988830,0.000000,-0.149051
-0.126320,0.095701,0.265342,-0.429841,0.000000,0.902905
-0.356431,0.049999,-0.350348,-0.713165,0.000000,-0.700996
-0.029405,-0.063974,0.292401,-0.100058,0.000000,0.994982
0.069124,-0.079947,0.021685,-0.954149,0.000000,-0.299333
-0.488193,0.062874,-0.129755,-0.966447,0.000000,-0.256868
0.177975,0.032973,-0.233855,0.605613,0.000000,-0.795759
-0.266217,-0.058850,-0.124465,-0.905882,0.000000,-0.423529
0.450409,0.050646,-0.093289,0.979217,0.000000,-0.202816
0.159556,-0.104918,0.246789,0.542936,0.000000,0.839774
-0.265882,-0.073821,0.125180,-0.904741,0.000000,0.425962
-0.015388,0.006758,0.293473,-0.052364,0.000000,0.998628
-0.144116,0.062804,0.438207,-0.312414,0.000000,0.949946
-0.136661,0.051624,-0.470215,-0.279086,0.000000,-0.960266
-0.127453,0.105806,-0.199082,0.000000,1.000000,0.000000
-0.356295,0.016455,0.349801,-0.713580,0.000000,0.700574
0.337531,-0.094296,-0.289588,0.758949,0.000000,-0.651150
-0.118386,-0.084535,0.268975,-0.402844,0.000000,0.915269
0.018415,-0.001206,0.070066,-0.254187,0.000000,-0.967155
0.335650,0.049057,-0.284685,0.762631,0.000000,-0.646834
-0.324815,-0.051139,-0.258939,-0.781940,0.000000,-0.623354
-0.344115,0.019713,0.308046,-0.745076,0.000000,0.666980
0.292957,0.086911,-0.338790,0.654087,0.000000,-0.756420
-0.444003,-0.105806,-0.049350,0.000000,-1.000000,0.000000
-0.459521,0.036421,0.139380,-0.956948,0.000000,0.290258
-0.418381,-0.062306,0.067401,-0.987271,0.000000,0.159050
-0.463596,0.038117,0.138371,-0.958228,0.000000,0.286006
-0.146989,0.105806,0.161954,0.000000,1.000000,0.000000
-0.320455,0.045357,-0.348117,-0.677271,0.000000,-0.735734
0.237779,0.010944,0.172697,0.809113,0.000000,0.587654
-0.307427,-0.105806,0.037127,0.000000,-1.000000,0.000000
0.008292,0.037824,0.293759,0.028217,0.000000,0.999602
0.482285,-0.039594,-0.123575,0.968706,0.000000,-0.248210
-0.259605,0.105806,-0.218406,0.000000,1.000000,0.000000
-0.177417,-0.071001,-0.234278,-0.603715,0.000000,-0.797200
0.242469,-0.105806,0.178383,0.000000,-1.000000,0.000000
0.162187,-0.012995,0.245068,0.551888,0.000000,0.833918
0.243050,0.090741,0.165197,0.827049,0.000000,0.562130
-0.136039,-0.088763,-0.472541,-0.276652,0.000000,-0.960970
-0.077020,-0.105806,0.077968,0.000000,-1.000000,0.000000
-0.159121,-0.087262,0.247070,-0.541457,0.000000,0.840728
0.226936,-0.105806,0.326589,0.000000,-1.000000,0.000000
-0.139002,0.105806,0.329955,0.000000,1.000000,0.000000
0.268721,0.067306,0.118963,0.914402,0.000000,0.404807
-0.149828,0.105806,-0.106859,0.000000,1.000000,0.000000
0.009908,0.027720,-0.293709,0.033714,0.000000,-0.999432
0.326412,-0.100139,0.349921,0.682116,0.000000,0.731244
-0.355044,0.023772,0.344872,-0.717307,0.000000,0.696757
-0.250869,0.083088,0.153062,-0.853655,0.000000,0.520838
-0.143819,-0.071450,0.439670,-0.310897,0.000000,0.950444
-0.068230,0.054417,0.024354,0.941803,0.000000,-0.336166
-0.234627,0.096627,-0.176956,-0.798388,0.000000,-0.602144
-0.094816,-0.105806,0.482218,0.000000,-1.000000,0.000000
-0.339887,-0.040373,-0.295950,-0.754171,0.000000,-0.656679
-0.292622,-0.039629,0.027118,-0.995733,0.000000,0.092276
-0.382313,-0.031196,0.152237,-0.929052,0.000000,0.369948
0.415685,-0.035343,0.065407,0.987846,0.000000,0.155435
-0.088166,-0.105806,0.381619,0.000000,-1.000000,0.000000
0.246321,0.097849,-0.160278,0.838180,0.000000,-0.545394
0.293665,-0.058196,-0.011135,0.999282,0.000000,-0.037891
-0.436844,0.076749,-0.144387,-0.949481,0.000000,-0.313826
-0.004059,-0.024876,-0.072332,0.056026,0.000000,0.998429
-0.096681,0.105806,-0.251019,0.000000,1.000000,0.000000
-0.105902,0.002821,-0.464320,-0.222370,0.000000,-0.974962
-0.067760,0.098312,0.025630,0.935327,0.000000,-0.353785
0.484277,0.032562,-0.125637,0.967956,0.000000,-0.251119
-0.059840,-0.093276,0.040836,0.825997,0.000000,-0.563675
-0.144897,0.087485,0.255672,-0.493054,0.000000,0.869999
0.165368,-0.078250,-0.242933,0.562713,0.000000,-0.826653
0.036271,0.091964,0.291629,0.123424,0.000000,0.992354
0.237549,-0.095069,0.173014,0.808330,0.000000,0.588730
0.027239,-0.057740,-0.067130,-0.375991,0.000000,0.926623
-0.026081,0.046557,0.067588,0.360013,0.000000,-0.932947
-0.257705,-0.089036,-0.141248,-0.876919,0.000000,-0.480638
-0.129150,-0.035374,0.487623,-0.256029,0.000000,0.966669
-0.172638,0.041907,0.237822,-0.587452,0.000000,0.809259
-0.101629,-0.089635,-0.459716,-0.215857,0.000000,-0.976425
0.000582,-0.058469,-0.293875,0.001979,0.000000,-0.999998
-0.293663,-0.103931,0.011179,-0.999276,0.000000,0.038039
-0.050754,0.105806,-0.098678,0.000000,1.000000,0.000000
-0.117785,-0.001993,-0.269239,-0.400797,0.000000,-0.916167
0.158229,-0.092770,0.247642,0.538420,0.000000,0.842676
-0.184926,0.105806,0.175601,0.000000,1.000000,0.000000
0.482161,-0.077203,-0.123446,0.968753,0.000000,-0.248027
0.348284,0.070829,-0.320997,0.735325,0.000000,-0.677714
-0.135241,-0.080488,-0.260908,-0.460199,0.000000,-0.887816
-0.060455,0.105806,-0.234640,0.000000,1.000000,0.000000
0.136191,0.042234,0.471975,0.277244,0.000000,0.960800
0.167360,-0.084076,-0.241565,0.569492,0.000000,-0.821997
0.152534,0.105806,0.369495,0.000000,1.000000,0.000000
0.140940,0.057347,-0.452937,0.297117,0.000000,-0.954841
-0.291928,0.067272,0.033777,-0.993373,0.000000,0.114936
0.004091,-0.061902,-0.072330,-0.056465,0.000000,0.998405
-0.130090,-0.105806,-0.299882,0.000000,-1.000000,0.000000
0.023748,-0.071917,-0.068443,-0.327797,0.000000,0.944748
-0.152705,-0.005219,-0.376752,-0.375638,0.000000,-0.926767
0.271141,-0.067795,0.113337,0.922639,0.000000,0.385664
-0.142369,0.085123,-0.257088,-0.484453,0.000000,-0.874817
0.005511,-0.105806,-0.109665,0.000000,-1.000000,0.000000
0.151324,0.105806,-0.227858,0.000000,1.000000,0.000000
0.178351,-0.105806,-0.247219,0.000000,-1.000000,0.000000
-0.012469,0.090813,-0.293611,-0.042428,0.000000,-0.999100
0.183551,-0.105806,0.057317,0.000000,-1.000000,0.000000
-0.264933,-0.091344,0.127175,-0.901513,0.000000,0.432751
0.464228,0.025198,-0.105817,0.974992,0.000000,-0.222241
0.293169,0.077498,0.338868,0.654271,0.000000,0.756260
0.224978,0.105806,0.053061,0.000000,1.000000,0.000000
-0.138153,-0.100979,-0.464461,-0.285102,0.000000,-0.958497
-0.335755,0.001041,0.352601,-0.689596,0.000000,0.724194
0.271185,0.042598,0.330174,0.634699,0.000000,0.772759
-0.146455,0.013741,0.425799,-0.325252,0.000000,0.945628
0.345602,0.045789,0.312537,0.741696,0.000000,0.670736
0.141366,-0.053795,0.257641,0.481039,0.000000,0.876699
0.254934,0.088896,-0.146191,0.867487,0.000000,-0.497459
0.292180,0.003179,0.031524,0.994230,0.000000,0.107270
0.424501,-0.047127,-0.146682,0.945165,0.000000,-0.326592
0.284827,0.105806,0.075814,0.000000,1.000000,0.000000
0.098505,-0.105806,0.248949,0.000000,-1.000000,0.000000
-0.292718,-0.060019,-0.026057,-0.996061,0.000000,-0.088667
0.137914,-0.025047,-0.465399,0.284123,0.000000,-0.958788
-0.149824,0.073452,-0.403992,-0.347717,0.000000,-0.937599
-0.322707,0.088088,-0.348808,-0.679110,0.000000,-0.734037
0.310312,0.105806,-0.162562,0.000000,1.000000,0.000000
-0.084695,-0.105806,0.082805,0.000000,-1.000000,0.000000
-0.021387,0.062736,-0.293097,-0.072775,0.000000,-0.997348
-0.015183,-0.023241,-0.293483,-0.051665,0.000000,-0.998664
-0.429906,-0.046362,-0.076239,-0.984637,0.000000,-0.174615
0.145183,-0.057102,-0.432744,0.318071,0.000000,-0.948067
-0.017237,-0.105806,-0.097752,0.000000,-1.000000,0.000000
-0.157505,-0.081835,-0.248103,-0.535958,0.000000,-0.844245
0.030123,0.105806,-0.133226,0.000000,1.000000,0.000000
-0.167128,0.105806,0.257900,0.000000,1.000000,0.000000
0.426204,0.044516,-0.073344,0.985514,0.000000,-0.169594
-0.132527,0.048996,-0.262297,-0.450964,0.000000,-0.892542
-0.116733,0.105806,0.093688,0.000000,1.000000,0.000000
0.008283,0.105806,0.076207,0.000000,1.000000,0.000000
-0.187881,-0.105806,0.061395,0.000000,-1.000000,0.000000
0.058066,0.105806,0.087812,0.000000,1.000000,0.000000
0.098961,-0.016382,-0.456786,0.211734,0.000000,-0.977327
0.069179,0.041945,-0.021509,-0.954909,0.000000,0.296898
0.017550,-0.060472,0.293351,0.059720,0.000000,0.998215
-0.254313,0.032555,0.147269,-0.865374,0.000000,0.501126
-0.143086,-0.069267,0.256690,-0.486891,0.000000,0.873463
-0.178252,-0.002731,-0.233643,-0.606557,0.000000,-0.795040
0.262435,0.105662,-0.132253,0.893014,0.000000,-0.450029
-0.458485,-0.091710,-0.139631,-0.956620,0.000000,-0.291338
0.050327,0.074538,-0.052111,-0.694682,0.000000,0.719317
0.252714,0.066970,-0.321943,0.617457,0.000000,-0.786605
0.450297,0.001774,-0.093191,0.979249,0.000000,-0.202660
0.362517,-0.105806,0.065449,0.000000,-1.000000,0.000000
0.251799,0.079200,-0.151527,0.856820,0.000000,-0.515616
0.059824,0.077456,-0.040859,-0.825780,0.000000,0.563992
-0.262921,-0.029062,0.326599,-0.627079,0.000000,0.778956
-0.255768,-0.084708,0.144727,-0.870325,0.000000,0.492478
0.097988,-0.105806,0.165585,0.000000,-1.000000,0.000000
0.006775,0.105806,0.384520,0.000000,1.000000,0.000000
0.005934,-0.105806,0.386151,0.000000,-1.000000,0.000000
-0.171732,-0.040948,-0.238477,-0.584369,0.000000,-0.811488
-0.170602,-0.048864,-0.239287,-0.580523,0.000000,-0.814244
0.242372,-0.056259,0.166190,0.824742,0.000000,0.565510
-0.131244,-0.056044,0.489259,-0.259090,0.000000,0.965853
-0.033680,-0.082818,-0.064141,0.464900,0.000000,0.885363
0.190985,0.105806,-0.015757,0.000000,1.000000,0.000000
0.302460,0.066977,-0.342204,0.662257,0.000000,-0.749277
0.140404,-0.034806,0.258166,0.477766,0.000000,0.878487
0.345689,-0.023964,-0.312804,0.741495,0.000000,-0.670958
-0.101401,-0.105806,-0.089007,0.000000,-1.000000,0.000000
-0.131556,-0.105806,0.388030,0.000000,-1.000000,0.000000
-0.320986,0.099094,-0.348281,-0.677705,0.000000,-0.735333
-0.066734,-0.020730,-0.028195,0.921159,0.000000,0.389187
0.066789,0.026886,0.028065,-0.921916,0.000000,-0.387390
0.015866,0.037056,-0.070687,-0.219011,0.000000,0.975722
-0.173010,-0.081772,0.237551,-0.588719,0.000000,0.808338
0.046367,-0.105806,-0.132606,0.000000,-1.000000,0.000000
0.052973,0.077607,0.049419,-0.731214,0.000000,-0.682149
-0.144188,0.037880,-0.437846,-0.312788,0.000000,-0.949823
-0.406499,-0.019922,0.058815,-0.989694,0.000000,0.143196
-0.069537,-0.105806,-0.058812,0.000000,-1.000000,0.000000
-0.161773,-0.103732,0.245342,-0.550479,0.000000,0.834849
0.097367,0.105806,0.057858,0.000000,1.000000,0.000000
0.248430,-0.057762,0.156989,0.845356,0.000000,0.534203
-0.152672,-0.006707,0.251106,-0.519513,0.000000,0.854463
-0.288592,-0.105806,0.046189,0.000000,-1.000000,0.000000
-0.325468,-0.105806,0.127621,0.000000,-1.000000,0.000000
-0.028083,-0.105806,0.273159,0.000000,-1.000000,0.000000
-0.397474,0.005631,-0.052633,-0.991346,0.000000,-0.131274
0.474456,-0.105806,0.009054,0.000000,-1.000000,0.000000
0.001796,0.096552,-0.293870,0.006113,0.000000,-0.999981
-0.253160,-0.103553,0.149241,-0.861452,0.000000,0.507838
0.148956,0.076987,-0.253328,0.506866,0.000000,-0.862025
0.295453,-0.075023,0.339707,0.656250,0.000000,0.754544
-0.385090,0.026075,-0.151980,-0.930179,0.000000,-0.367106
0.293672,-0.101428,0.010945,0.999306,0.000000,0.037244
0.138692,0.030937,-0.462314,0.287344,0.000000,-0.957827
0.071519,0.005717,-0.011549,-0.987212,0.000000,0.159413
-0.460228,0.047182,0.139207,-0.957172,0.000000,0.289520
0.329338,0.074994,0.269216,0.774236,0.000000,0.632897
0.001483,-0.055463,0.293872,0.005045,0.000000,0.999987
0.254384,0.041464,0.147146,0.865616,0.000000,0.500708
0.324951,-0.105806,0.080386,0.000000,-1.000000,0.000000
-0.254598,-0.067818,-0.322823,-0.619251,0.000000,-0.785193
-0.115167,0.074940,0.473945,-0.236126,0.000000,0.971722
-0.261789,-0.090423,0.133527,-0.890815,0.000000,0.454366
0.199997,-0.105806,-0.414708,0.000000,-1.000000,0.000000
0.406283,-0.091327,-0.149515,0.938469,0.000000,-0.345362
-0.152824,0.056213,-0.251014,-0.520028,0.000000,-0.854149
-0.288278,0.074516,0.337034,-0.650001,0.000000,0.759933
0.022341,0.105806,0.273565,0.000000,1.000000,0.000000
0.028566,0.105806,-0.113180,0.000000,1.000000,0.000000
-0.060772,0.105806,-0.184323,0.000000,1.000000,0.000000
-0.177108,0.049698,0.234512,-0.602661,0.000000,0.797997
-0.139425,0.076450,-0.258696,-0.474436,0.000000,-0.880290
0.487913,0.054724,0.131651,0.965471,0.000000,0.260509
0.251466,-0.099895,0.152079,0.855687,0.000000,0.517493
0.145600,0.027215,-0.430524,0.320368,0.000000,-0.947293
0.174604,0.051988,0.236382,0.594143,0.000000,0.804360
0.178858,-0.013222,0.233180,0.608619,0.000000,0.793463
-0.093735,-0.016394,-0.450918,-0.203525,0.000000,-0.979070
0.235237,0.000694,-0.176144,0.800463,0.000000,-0.599383
0.021122,0.105806,0.114349,0.000000,1.000000,0.000000
0.068506,0.018506,-0.023566,-0.945615,0.000000,0.325287
0.322842,-0.080686,-0.348849,0.679220,0.000000,-0.733935
0.425782,0.074624,-0.146458,0.945622,0.000000,-0.325269
-0.185995,0.105806,0.197020,0.000000,1.000000,0.000000
0.317369,-0.062037,0.347153,0.674737,0.000000,0.738058
-0.072431,-0.102381,-0.001438,0.999803,0.000000,0.019842
-0.343028,-0.077711,-0.354563,-0.695319,0.000000,-0.718701
-0.009813,-0.061311,-0.293712,-0.033390,0.000000,-0.999442
-0.341505,0.105806,-0.260886,0.000000,1.000000,0.000000
0.068247,-0.034349,0.024306,-0.942038,0.000000,-0.335505
-0.144879,0.013240,-0.255682,-0.492995,0.000000,-0.870032
0.404576,0.027176,-0.149746,0.937822,0.000000,-0.347118
0.424627,0.105806,0.023748,0.000000,1.000000,0.000000
-0.163234,-0.105806,0.064225,0.000000,-1.000000,0.000000
-0.469766,-0.078863,-0.111089,-0.973160,0.000000,-0.230130
-0.265389,0.072420,-0.126220,-0.903066,0.000000,-0.429502
-0.146965,0.050092,0.254488,-0.500093,0.000000,0.865971
-0.246084,-0.015006,0.160642,-0.837374,0.000000,0.546631
-0.429709,-0.019745,0.145751,-0.947008,0.000000,0.321210
0.409680,0.036474,0.149036,0.939748,0.000000,0.341868
0.026894,0.003605,0.292643,0.091516,0.000000,0.995804
0.433345,0.039663,-0.145069,0.948275,0.000000,-0.317449
0.063732,0.105806,0.179734,0.000000,1.000000,0.000000
-0.227657,-0.105806,0.234419,0.000000,-1.000000,0.000000
-0.293626,-0.078804,-0.012108,-0.999151,0.000000,-0.041202
-0.093355,-0.105806,0.142095,0.000000,-1.000000,0.000000
0.477645,-0.003339,0.118852,0.970409,0.000000,0.241466
-0.268170,0.066032,-0.328890,-0.631936,0.000000,-0.775020
-0.268016,0.093616,-0.328824,-0.631795,0.000000,-0.775136
0.269602,0.067707,0.116951,0.917402,0.000000,0.397962
-0.178145,0.068042,0.233725,-0.606191,0.000000,0.795319
0.261449,-0.056353,-0.134193,0.889657,0.000000,-0.456630
-0.391782,0.105806,-0.043135,0.000000,1.000000,0.000000
-0.204369,-0.105806,-0.381619,0.000000,-1.000000,0.000000
0.115547,-0.098445,0.270207,0.393184,0.000000,0.919460
0.244732,0.074930,0.162693,0.832775,0.000000,0.553612
0.221852,-0.105806,-0.415156,0.000000,-1.000000,0.000000
-0.293622,0.028007,-0.012219,-0.999135,0.000000,-0.041578
-0.015367,-0.086041,-0.070797,0.212123,0.000000,0.977243
-0.267367,-0.093323,-0.121976,-0.909795,0.000000,-0.415058
-0.034761,0.105806,0.213979,0.000000,1.000000,0.000000
-0.135421,0.050994,-0.260815,-0.460810,0.000000,-0.887499
0.392329,0.105806,0.007206,0.000000,1.000000,0.000000
-0.320891,-0.044421,0.250487,-0.788273,0.000000,0.615325
-0.265532,-0.082586,-0.125921,-0.903550,0.000000,-0.428482
0.311174,0.083455,-0.345155,0.669599,0.000000,-0.742723
0.461547,-0.045781,-0.103317,0.975850,0.000000,-0.218443
0.244385,0.024049,0.163215,0.831593,0.000000,0.555386
0.138531,-0.105806,-0.363787,0.000000,-1.000000,0.000000
0.077040,-0.105806,-0.127333,0.000000,-1.000000,0.000000
-0.183702,0.105806,-0.422108,0.000000,1.000000,0.000000
0.129540,-0.035238,0.263785,0.440800,0.000000,0.897605
0.036202,-0.025603,-0.062752,-0.499713,0.000000,0.866191
-0.354602,0.060860,-0.343176,-0.718589,0.000000,-0.695435
-0.332902,-0.105806,-0.359509,0.000000,-1.000000,0.000000
-0.097341,-0.071306,-0.454986,-0.209209,0.000000,-0.977871
0.250155,-0.064862,-0.154226,0.851227,0.000000,-0.524798
0.048745,0.034613,-0.053594,-0.672845,0.000000,0.739783
0.266081,0.072542,-0.124755,0.905420,0.000000,-0.424518
-0.287795,-0.035442,0.336849,-0.649577,0.000000,0.760296
0.061939,0.051065,-0.037576,-0.854973,0.000000,0.518673
-0.120994,-0.057775,-0.267813,-0.411717,0.000000,-0.911312
0.349907,0.010096,0.326366,0.731278,0.000000,0.682079
-0.059913,0.007962,0.408060,-0.145267,0.000000,0.989392
-0.293845,0.051395,-0.004232,-0.999896,0.000000,-0.014402
0.120402,-0.102342,0.268079,0.409702,0.000000,0.912219
0.117204,0.105806,-0.224647,0.000000,1.000000,0.000000
0.239048,0.005397,-0.170936,0.813433,0.000000,-0.581659
0.087689,-0.105806,-0.389386,0.000000,-1.000000,0.000000
0.271275,0.104604,0.113017,0.923094,0.000000,0.384574
-0.472704,-0.030704,0.113947,-0.972154,0.000000,0.234341
-0.152139,0.105806,-0.460588,0.000000,1.000000,0.000000
-0.149014,-0.010108,0.409833,-0.341711,0.000000,0.939805
-0.341584,-0.041141,0.300692,-0.750607,0.000000,0.660749
-0.239823,0.105806,0.437851,0.000000,1.000000,0.000000
-0.019508,0.076503,-0.293228,-0.066382,0.000000,-0.997794
0.477873,0.101969,-0.134571,0.962562,0.000000,-0.271061
0.357229,0.031152,0.353611,0.710696,0.000000,0.703499
0.075085,-0.105806,0.057481,0.000000,-1.000000,0.000000
0.150094,0.033320,-0.401933,0.349833,0.000000,-0.936812
-0.223694,-0.105806,-0.263494,0.000000,-1.000000,0.000000
-0.013423,0.101773,0.293569,-0.045675,0.000000,0.998956
-0.098102,-0.094553,0.455833,-0.210397,0.000000,0.977616
0.180530,0.105806,0.143033,0.000000,1.000000,0.000000
-0.293259,0.044449,0.019036,-0.997900,0.000000,0.064775
0.151875,0.053265,0.386181,0.365989,0.000000,0.930619
0.160445,-0.006286,-0.246212,0.545961,0.000000,-0.837811
0.144158,0.028475,0.256089,0.490542,0.000000,0.871418
0.017077,-0.105806,0.195322,0.000000,-1.000000,0.000000
0.072253,-0.075646,-0.005274,-0.997346,0.000000,0.072803
-0.111536,0.105806,0.216962,0.000000,1.000000,0.000000
0.062575,0.075062,-0.036507,-0.863748,0.000000,0.503925
-0.272682,0.105806,0.049395,0.000000,1.000000,0.000000
0.139723,-0.105806,0.271833,0.000000,-1.000000,0.000000
0.292735,0.004838,0.025876,0.996116,0.000000,0.088051
0.234040,0.092676,-0.177731,0.796389,0.000000,-0.604784
0.393566,0.085136,0.151101,0.933560,0.000000,0.358420
-0.338824,-0.070474,-0.353442,-0.692022,0.000000,-0.721877
-0.153074,-0.090631,-0.371737,-0.380763,0.000000,-0.924673
-0.272715,-0.087916,0.330816,-0.636093,0.000000,0.771612
-0.247608,-0.062942,0.158282,-0.842560,0.000000,0.538603
0.050640,-0.105806,-0.185659,0.000000,-1.000000,0.000000
-0.072430,-0.018617,-0.001505,0.999784,0.000000,0.020777
0.450784,0.084077,-0.141431,0.954141,0.000000,-0.299357
-0.458406,0.105806,0.147128,0.000000,1.000000,0.000000
0.237958,-0.079082,-0.172450,0.809724,0.000000,-0.586811
0.139626,-0.071211,0.458508,0.291314,0.000000,0.956628
0.103472,0.105806,0.025984,0.000000,1.000000,0.000000
0.172091,0.029212,0.238218,0.585590,0.000000,0.810608
0.144746,-0.073815,-0.255757,0.492541,0.000000,-0.870289
0.142144,-0.008653,-0.447584,0.302684,0.000000,-0.953091
-0.348938,0.039095,-0.323135,-0.733714,0.000000,-0.679458
-0.014022,-0.024121,0.293541,-0.047715,0.000000,0.998861
-0.323812,0.017553,-0.256739,-0.783589,0.000000,-0.621280
0.215851,-0.105806,-0.106818,0.000000,-1.000000,0.000000
-0.277004,0.096862,-0.332588,-0.639976,0.000000,-0.768395
0.469452,-0.027624,0.136862,0.960034,0.000000,0.279884
-0.421359,-0.096522,-0.069636,-0.986617,0.000000,-0.163053
0.066678,-0.057273,0.028328,-0.920379,0.000000,-0.391027
-0.346764,-0.086541,-0.316141,-0.738983,0.000000,-0.673724
0.145693,-0.075761,-0.255219,0.495762,0.000000,-0.868458
-0.477725,0.081647,-0.134613,-0.962518,0.000000,-0.271217
-0.235452,0.105806,-0.184472,0.000000,1.000000,0.000000
0.140461,0.040354,-0.258135,0.477961,0.000000,-0.878381
-0.274929,-0.105806,-0.088411,0.000000,-1.000000,0.000000
-0.260026,-0.069996,0.136929,-0.884815,0.000000,0.465942
0.292524,-0.017680,0.028154,0.995400,0.000000,0.095804
-0.310761,-0.072955,0.345019,-0.669255,0.000000,0.743033
-0.303199,-0.097191,0.342460,-0.662884,0.000000,0.748722
-0.138143,0.033804,0.464498,-0.285063,0.000000,0.958509
0.153379,-0.032719,0.250675,0.521916,0.000000,0.852997
0.269662,-0.105806,-0.221926,0.000000,-1.000000,0.000000
-0.293648,0.048414,0.011570,-0.999225,0.000000,0.039371
0.042910,0.084566,-0.058370,-0.592309,0.000000,0.805711
0.161784,0.105806,-0.265826,0.000000,1.000000,0.000000
0.238285,-0.041094,-0.171998,0.810835,0.000000,-0.585275
-0.153266,0.038234,-0.250744,-0.521532,0.000000,-0.853232
-0.071930,-0.046683,-0.424370,-0.167114,0.000000,-0.985938
0.176055,0.082318,-0.235304,0.599078,0.000000,-0.800691
0.215677,-0.105806,-0.328778,0.000000,-1.000000,0.000000
0.082762,0.079486,-0.438002,0.185668,0.000000,-0.982613
0.254212,0.078071,-0.147442,0.865033,0.000000,-0.501715
-0.002015,-0.008772,-0.293869,-0.006855,0.000000,-0.999977
-0.091572,-0.105806,-0.094335,0.000000,-1.000000,0.000000
0.443396,-0.048629,0.087258,0.981181,0.000000,0.193091
-0.178724,0.032594,-0.233282,-0.608163,0.000000,-0.793812
-0.293812,0.091611,-0.006106,-0.999784,0.000000,-0.020776
0.093689,-0.105806,0.066189,0.000000,-1.000000,0.000000
-0.263201,0.015944,-0.130723,-0.895619,0.000000,-0.444823
-0.146626,-0.105806,0.193614,0.000000,-1.000000,0.000000
-0.266794,-0.086648,0.123224,-0.907844,0.000000,0.419308
-0.439799,0.065854,0.084247,-0.982143,0.000000,0.188136
0.410107,0.092395,0.061368,0.988989,0.000000,0.147991
-0.242057,0.028528,-0.166648,-0.823670,0.000000,-0.567069
-0.145948,-0.063595,-0.428632,-0.322324,0.000000,-0.946629
-0.345066,0.069863,-0.310904,-0.742925,0.000000,-0.669374
-0.062207,-0.041709,0.411280,-0.149552,0.000000,0.988754
-0.119865,-0.094182,-0.268319,-0.407878,0.000000,-0.913037
-0.478878,0.022461,-0.134288,-0.962858,0.000000,-0.270007
-0.029825,0.075434,-0.292359,-0.101487,0.000000,-0.994837
0.065745,-0.105806,-0.081483,0.000000,-1.000000,0.000000
-0.270260,-0.018774,-0.115422,-0.919641,0.000000,-0.392759
-0.257043,-0.104036,0.142450,-0.874665,0.000000,0.484728
0.292681,-0.019614,-0.026477,0.995933,0.000000,-0.090095
-0.043694,-0.105806,-0.400086,0.000000,-1.000000,0.000000
-0.015046,-0.105389,0.070866,0.207684,0.000000,-0.978196
-0.249685,0.017928,-0.154985,-0.849627,0.000000,-0.527384
0.020365,0.017563,-0.069524,-0.281107,0.000000,0.959676
-0.143714,-0.105806,-0.057897,0.000000,-1.000000,0.000000
-0.066675,-0.037219,0.028335,0.920341,0.000000,-0.391117
0.345213,0.017311,-0.311349,0.742591,0.000000,-0.669746
0.137448,-0.089346,-0.259752,0.467707,0.000000,-0.883884
-0.267324,-0.089433,-0.122069,-0.909650,0.000000,-0.415376
0.171819,-0.037261,0.238414,0.584664,0.000000,0.811276
0.243973,-0.038474,-0.163830,0.830191,0.000000,-0.557479
-0.174741,0.015176,0.236281,-0.594608,0.000000,0.804016
0.135281,0.015953,-0.260887,0.460333,0.000000,-0.887747
0.157538,0.105806,0.298589,0.000000,1.000000,0.000000
-0.465659,-0.103487,-0.107165,-0.974526,0.000000,-0.224273
0.017586,0.099519,-0.070279,-0.242753,0.000000,0.970088
0.292514,0.032578,-0.028261,0.995365,0.000000,-0.096168
0.454294,0.089009,0.096723,0.978078,0.000000,0.208240
0.080509,-0.105806,0.064216,0.000000,-1.000000,0.000000
-0.060171,0.038817,-0.408423,-0.145751,0.000000,-0.989321
0.044851,0.035471,-0.056892,-0.619104,0.000000,0.785309
0.056468,0.105806,-0.354815,0.000000,1.000000,0.000000
0.251479,-0.017928,0.152056,0.855733,0.000000,0.517417
-0.149954,0.105806,0.133718,0.000000,1.000000,0.000000
0.329436,0.006208,0.269447,0.774063,0.000000,0.633109
0.257239,0.062130,0.142095,0.875334,0.000000,0.483519
-0.010043,0.105806,-0.101667,0.000000,1.000000,0.000000
0.057710,-0.020213,-0.043795,-0.796594,0.000000,0.604515
-0.019405,-0.105806,-0.295852,0.000000,-1.000000,0.000000
-0.244274,0.035560,0.163380,-0.831216,0.000000,0.555949
-0.457024,-0.053627,-0.099176,-0.977255,0.000000,-0.212068
-0.068909,0.055167,-0.022360,0.951180,0.000000,0.308638
0.483940,0.020531,0.132831,0.964334,0.000000,0.264689
0.248623,-0.049411,-0.320000,0.613533,0.000000,-0.789669
-0.059203,0.091452,-0.041754,0.817204,0.000000,0.576349
0.293077,0.023353,0.021654,0.997282,0.000000,0.073683
0.345594,0.001401,0.312512,0.741715,0.000000,0.670715
-0.452967,-0.105806,-0.225762,0.000000,-1.000000,0.000000
-0.056439,0.021596,0.403079,-0.138666,0.000000,0.990339
0.161424,0.080056,0.245572,0.549291,0.000000,0.835631
-0.188900,0.105806,-0.334668,0.000000,1.000000,0.000000
0.136102,0.105391,-0.260460,0.463127,0.000000,-0.886292
-0.434658,0.056372,-0.144816,-0.948729,0.000000,-0.316090
-0.071117,-0.053140,0.013812,0.981657,0.000000,-0.190656
-0.118127,-0.017456,0.476922,-0.240421,0.000000,0.970669
0.354218,-0.053242,0.341722,0.719688,0.000000,0.694298
0.474148,-0.045267,-0.115368,0.971651,0.000000,-0.236418
-0.062043,0.100805,-0.037404,0.856403,0.000000,0.516309
-0.125487,0.037111,0.265737,-0.427006,0.000000,0.904249
-0.245630,-0.083177,0.161335,-0.835828,0.000000,0.548991
0.141369,0.042143,-0.451057,0.299073,0.000000,-0.954230
0.405078,0.027685,-0.057822,0.989965,0.000000,-0.141312
0.107742,-0.105806,-0.104426,0.000000,-1.000000,0.000000
0.106707,-0.105806,-0.179947,0.000000,-1.000000,0.000000
-0.153374,-0.014236,0.250678,-0.521900,0.000000,0.853007
0.008568,0.105806,-0.218984,0.000000,1.000000,0.000000
-0.149747,0.081599,0.252862,-0.509557,0.000000,0.860437
-0.459908,0.025738,0.139286,-0.957071,0.000000,0.289854
0.144278,-0.015152,-0.437397,0.313254,0.000000,-0.949669
0.131079,-0.105806,0.264931,0.000000,-1.000000,0.000000
-0.131321,-0.080182,-0.489005,-0.259358,0.000000,-0.965781
0.258238,-0.034156,-0.140272,0.878731,0.000000,-0.477318
-0.077473,-0.016506,0.431462,-0.176732,0.000000,0.984259
-0.442137,0.021429,0.143311,-0.951276,0.000000,0.308339
-0.399694,0.089339,-0.054128,-0.990955,0.000000,-0.134198
0.441463,0.097448,0.085633,0.981702,0.000000,0.190425
0.151872,0.080733,0.251591,0.516788,0.000000,0.856113
-0.268174,-0.047378,0.120191,-0.912541,0.000000,0.408985
-0.254866,0.058895,-0.146309,-0.867258,0.000000,-0.497859
0.337218,-0.001429,0.288763,0.759569,0.000000,0.650426
0.165813,0.000176,-0.242629,0.564228,0.000000,-0.825619
-0.293574,-0.090925,-0.013308,-0.998974,0.000000,-0.045285
0.244124,0.053200,-0.163606,0.830703,0.000000,-0.556716
0.298435,-0.030187,-0.340783,0.658817,0.000000,-0.752303
-0.149812,-0.053601,-0.252823,-0.509780,0.000000,-0.860305
0.010638,0.105806,0.161892,0.000000,1.000000,0.000000
0.116950,0.105806,0.069526,0.000000,1.000000,0.000000
-0.038048,0.020623,0.291402,-0.129469,0.000000,0.991583
-0.258829,0.065282,0.324765,-0.623250,0.000000,0.782023
-0.123297,0.016106,-0.482015,-0.247816,0.000000,-0.968807
-0.351198,-0.073862,0.330788,-0.727944,0.000000,0.685637
0.436780,0.105806,0.198227,0.000000,1.000000,0.000000
0.401465,-0.037813,-0.150154,0.936632,0.000000,-0.350314
0.169249,-0.087089,0.240245,0.575921,0.000000,0.817505
0.039497,-0.009219,0.060732,-0.545193,0.000000,-0.838310
0.207291,0.105806,-0.172760,0.000000,1.000000,0.000000
0.009501,-0.105806,0.132393,0.000000,-1.000000,0.000000
-0.292304,0.069293,-0.030359,-0.994650,0.000000,-0.103307
0.474142,0.068445,-0.115362,0.971653,0.000000,-0.236410
-0.071286,-0.061277,-0.012913,0.983985,0.000000,0.178249
-0.099980,-0.105806,0.121045,0.000000,-1.000000,0.000000
0.136810,0.011386,0.260088,0.465538,0.000000,0.885028
0.352878,0.046154,0.336759,0.723436,0.000000,0.690391
0.020254,0.087236,-0.069557,-0.279579,0.000000,0.960123
0.253773,-0.075620,-0.148197,0.863537,0.000000,-0.504285
0.049515,-0.051007,-0.052884,-0.683472,0.000000,0.729977
0.063835,0.050226,0.413533,0.152558,0.000000,0.988294
0.131485,-0.022022,0.262821,0.447418,0.000000,0.894325
0.271291,0.046484,0.330218,0.634796,0.000000,0.772680
0.146213,-0.103333,0.427161,0.323844,0.000000,0.946110
-0.082312,0.053043,0.437453,-0.184916,0.000000,0.982754
-0.262530,0.028182,-0.132064,-0.893337,0.000000,-0.449386
-0.035735,-0.105806,0.105124,0.000000,-1.000000,0.000000
-0.028756,-0.025631,-0.292466,-0.097852,0.000000,-0.995201
0.021300,-0.105806,0.099299,0.000000,-1.000000,0.000000
0.262499,-0.101907,-0.132125,0.893232,0.000000,-0.449596
0.330374,-0.090912,0.271660,0.772403,0.000000,0.635132
-0.489300,0.011421,-0.131231,-0.965865,0.000000,-0.259047
-0.270837,-0.070566,-0.114063,-0.921604,0.000000,-0.388132
0.268512,0.066242,0.119434,0.913691,0.000000,0.406410
0.339699,0.041123,-0.295431,0.754560,0.000000,-0.656231
-0.147371,0.023244,0.420434,-0.330789,0.000000,0.943705
-0.292287,0.094860,0.030519,-0.994593,0.000000,0.103849
0.388487,0.105806,-0.167551,0.000000,1.000000,0.000000
0.420087,0.074013,-0.147429,0.943579,0.000000,-0.331147
-0.152874,0.003059,-0.250983,-0.520198,0.000000,-0.854046
0.248191,-0.057235,-0.157367,0.844542,0.000000,-0.535489
-0.054052,-0.050605,0.399582,-0.134050,0.000000,0.990975
-0.112576,0.075962,0.271459,-0.383072,0.000000,0.923719
0.131166,-0.031909,-0.489515,0.258821,0.000000,-0.965925
-0.344196,-0.100022,-0.308288,-0.744894,0.000000,-0.667183
-0.254444,-0.084888,-0.147043,-0.865820,0.000000,-0.500356
0.237743,-0.015819,0.172746,0.808992,0.000000,0.587820
0.291834,0.030776,-0.034583,0.993052,0.000000,-0.117677
0.254355,-0.105806,-0.071938,0.000000,-1.000000,0.000000
-0.132542,-0.050611,-0.484923,-0.263655,0.000000,-0.964617
0.023837,0.066047,-0.068412,-0.329035,0.000000,0.944318
0.472166,0.086108,-0.136140,0.960857,0.000000,-0.277044
-0.102761,0.020070,0.460945,-0.217593,0.000000,0.976040
0.331325,0.105806,0.053360,0.000000,1.000000,0.000000
-0.070705,-0.059391,-0.015786,0.975972,0.000000,0.217895
0.271061,0.027811,0.113531,0.922364,0.000000,0.386322
0.009284,-0.105806,-0.434106,0.000000,-1.000000,0.000000
-0.487007,-0.064240,0.131923,-0.965214,0.000000,0.261462
0.240256,-0.043486,-0.169234,0.817542,0.000000,-0.575868
0.257484,0.105806,0.351742,0.000000,1.000000,0.000000
0.207259,0.105806,-0.051513,0.000000,1.000000,0.000000
-0.293727,-0.057383,-0.009360,-0.999493,0.000000,-0.031851
0.282782,-0.068823,-0.334904,0.645146,0.000000,-0.764059
0.021934,0.040187,-0.293056,0.074638,0.000000,-0.997211
0.211266,-0.105806,-0.298774,0.000000,-1.000000,0.000000
-0.152188,0.007414,0.251400,-0.517864,0.000000,0.855463
0.293391,0.065533,-0.016875,0.998350,0.000000,-0.057424
0.072444,-0.005598,0.000539,-0.999972,0.000000,-0.007441
-0.035328,0.105806,0.227401,0.000000,1.000000,0.000000
-0.250342,-0.095736,-0.153921,-0.851864,0.000000,-0.523762
-0.254462,-0.040906,0.147011,-0.865882,0.000000,0.500248
-0.055020,0.086607,-0.401008,-0.135930,0.000000,-0.990718
-0.072630,0.105806,-0.253474,0.000000,1.000000,0.000000
0.419120,-0.078752,0.067953,0.987110,0.000000,0.160043
0.030311,0.090339,0.065800,-0.418392,0.000000,-0.908267
0.251978,0.105806,-0.029205,0.000000,1.000000,0.000000
0.066211,-0.041174,0.029403,-0.913937,0.000000,-0.405856
0.292529,0.091181,-0.028100,0.995418,0.000000,-0.095618
0.291232,-0.105806,0.295312,0.000000,-1.000000,0.000000
-0.303211,-0.105806,-0.302110,0.000000,-1.000000,0.000000
-0.135952,-0.058421,-0.472861,-0.276316,0.000000,-0.961067
-0.298726,-0.105806,-0.357487,0.000000,-1.000000,0.000000
-0.120315,0.028858,-0.479094,-0.243568,0.000000,-0.969884
-0.149558,-0.006443,0.252973,-0.508917,0.000000,0.860816
0.025630,0.092188,0.067761,-0.353778,0.000000,-0.935329
-0.293844,0.003196,-0.004330,-0.999891,0.000000,-0.014734
-0.219001,0.105806,0.019764,0.000000,1.000000,0.000000
-0.214951,0.105806,-0.179582,0.000000,1.000000,0.000000
-0.039937,0.038490,0.060443,0.551270,0.000000,-0.834327
0.158303,-0.092506,-0.247595,0.538672,0.000000,-0.842516
-0.064387,-0.091065,-0.033206,0.888766,0.000000,0.458361
-0.331011,-0.085116,0.351263,-0.685816,0.000000,0.727775
-0.005593,-0.011672,-0.072230,0.077207,0.000000,0.997015
-0.157047,0.090201,-0.248393,-0.534400,0.000000,-0.845232
-0.138183,0.105806,-0.224451,0.000000,1.000000,0.000000
0.261544,0.087234,-0.134007,0.889981,0.000000,-0.455998
0.241104,-0.103323,0.168024,0.820427,0.000000,0.571751
-0.256315,0.072933,0.143755,-0.872189,0.000000,0.489168
0.292591,-0.043241,-0.027455,0.995627,0.000000,-0.093422
0.084375,-0.105806,-0.226769,0.000000,-1.000000,0.000000
0.175348,-0.092852,-0.235831,0.596672,0.000000,-0.802485
0.151308,0.088087,0.391692,0.360342,0.000000,0.932820
-0.309350,0.047416,-0.344551,-0.668074,0.000000,-0.744095
0.143264,-0.071387,0.442362,0.308106,0.000000,0.951352
0.118873,0.101215,-0.477665,0.241496,0.000000,-0.970402
-0.246104,-0.103132,-0.160611,-0.837443,0.000000,-0.546525
-0.172295,-0.105806,0.419848,0.000000,-1.000000,0.000000
-0.148729,-0.054832,0.253462,-0.506093,0.000000,0.862479
-0.167576,0.022304,-0.241415,-0.570228,0.000000,-0.821486
0.260172,0.005753,-0.136652,0.885312,0.000000,-0.464998
0.048103,0.028185,0.054170,-0.663993,0.000000,-0.747739
-0.275945,-0.082430,0.332155,-0.639021,0.000000,0.769190
0.145068,-0.024055,0.433349,0.317445,0.000000,0.948277
0.135711,0.008978,0.260664,0.461798,0.000000,0.886985
0.149883,0.090189,-0.403545,0.348177,0.000000,-0.937429
-0.193197,0.105806,-0.092003,0.000000,1.000000,0.000000
-0.334997,-0.058920,-0.352390,-0.688995,0.000000,-0.724767
0.016227,0.095895,-0.070605,-0.223994,0.000000,0.974590
0.236698,0.029872,-0.174175,0.805436,0.000000,-0.592683
0.142283,-0.009310,0.257135,0.484160,0.000000,0.874980
0.006552,0.020353,-0.293803,0.022295,0.000000,-0.999751
0.153733,-0.093002,0.250458,0.523121,0.000000,0.852259
0.374407,0.105806,0.260263,0.000000,1.000000,0.000000
0.071805,0.077086,-0.009613,-0.991158,0.000000,0.132688
0.074165,0.105806,-0.439009,0.000000,1.000000,0.000000
0.417954,-0.009054,-0.067084,0.987363,0.000000,-0.158477
-0.063057,0.000170,0.035668,0.870402,0.000000,-0.492343
0.291717,-0.074304,0.035559,0.992652,0.000000,0.121001
-0.031687,-0.094517,0.065148,0.437395,0.000000,-0.899270
0.162430,0.096921,-0.244907,0.552717,0.000000,-0.833369
-0.118772,-0.034482,-0.268805,-0.404158,0.000000,-0.914689
0.119235,0.105806,-0.098125,0.000000,1.000000,0.000000
-0.124460,-0.105806,-0.373049,0.000000,-1.000000,0.000000
0.407395,0.096855,0.149361,0.938889,0.000000,0.344219
-0.242320,-0.094500,0.166265,-0.824565,0.000000,0.565768
-0.293618,-0.052837,0.012321,-0.999121,0.000000,0.041927
0.161737,0.105806,-0.206636,0.000000,1.000000,0.000000
-0.002915,0.050736,-0.072387,0.040242,0.000000,0.999190
-0.293637,0.018742,0.011854,-0.999186,0.000000,0.040338
0.144336,-0.087744,-0.437105,0.313556,0.000000,-0.949570
-0.346070,-0.043922,-0.313978,-0.740612,0.000000,-0.671933
0.328521,0.044030,0.350542,0.683817,0.000000,0.729653
0.341549,-0.013040,-0.300593,0.750681,0.000000,-0.660665
-0.155566,0.023599,-0.249323,-0.529361,0.000000,-0.848397
-0.072742,-0.104581,-0.425425,-0.168540,0.000000,-0.985695
-0.477295,-0.105806,-0.150815,0.000000,-1.000000,0.000000
0.473093,0.048678,-0.135889,0.961137,0.000000,-0.276073
-0.133351,-0.034715,0.482154,-0.266567,0.000000,0.963816
0.253461,0.003185,0.148729,0.862477,0.000000,0.506096
-0.118811,-0.086862,-0.477604,-0.241408,0.000000,-0.970424
0.000724,-0.105806,0.348037,0.000000,-1.000000,0.000000
-0.022413,0.066159,0.293020,-0.076266,0.000000,0.997088
-0.040171,0.105806,0.078735,0.000000,1.000000,0.000000
0.148098,0.102042,0.253831,0.503948,0.000000,0.863734
0.136648,-0.018473,-0.470263,0.279037,0.000000,-0.960280
0.003676,-0.105806,-0.150616,0.000000,-1.000000,0.000000
-0.350412,-0.057741,-0.328077,-0.729988,0.000000,-0.683460
-0.395918,-0.105806,-0.157804,0.000000,-1.000000,0.000000
0.264102,0.004188,0.128892,0.898686,0.000000,0.438593
-0.134494,0.104698,0.478147,-0.270774,0.000000,0.962643
0.410959,-0.105806,-0.282389,0.000000,-1.000000,0.000000
-0.023036,-0.105806,-0.311997,0.000000,-1.000000,0.000000
-0.292835,-0.056834,-0.024714,-0.996458,0.000000,-0.084096
-0.257741,0.103354,-0.141182,-0.877041,0.000000,-0.480415
-0.170413,0.105806,0.293794,0.000000,1.000000,0.000000
0.235155,0.105806,-0.349424,0.000000,1.000000,0.000000
-0.033072,-0.049881,0.064457,0.456502,0.000000,-0.889722
-0.038283,0.030983,0.291372,-0.130270,0.000000,0.991479
0.138254,0.105806,-0.341911,0.000000,1.000000,0.000000
-0.281400,0.005757,0.334358,-0.643916,0.000000,0.765096
0.476159,0.007295,-0.135049,0.962054,0.000000,-0.272860
-0.263667,-0.103426,0.129780,-0.897205,0.000000,0.441614
-0.119432,0.086958,-0.268513,-0.406403,0.000000,-0.913694
-0.264533,-0.099022,0.327310,-0.628578,0.000000,0.777747
0.198944,-0.105806,0.067232,0.000000,-1.000000,0.000000
-0.332996,-0.014680,-0.351828,-0.687402,0.000000,-0.726277
0.064894,0.044467,0.414984,0.154499,0.000000,0.987993
0.115529,-0.068477,0.270215,0.393122,0.000000,0.919486
0.064624,0.105806,-0.071008,0.000000,1.000000,0.000000
-0.091294,0.003878,-0.448117,-0.199628,0.000000,-0.979872
0.263230,0.105806,0.419524,0.000000,1.000000,0.000000
-0.292188,-0.001994,0.031449,-0.994257,0.000000,0.107016
-0.062062,-0.083102,-0.411077,-0.149283,0.000000,-0.988795
-0.242271,-0.072414,-0.166337,-0.824398,0.000000,-0.566010
0.014299,-0.010083,-0.071021,-0.197371,0.000000,0.980329
-0.137714,0.062920,-0.466180,-0.283306,0.000000,-0.959030
-0.328833,-0.105806,0.162101,0.000000,-1.000000,0.000000
-0.056233,-0.105806,-0.168498,0.000000,-1.000000,0.000000
-0.243613,0.009598,0.164365,-0.828964,0.000000,0.559302
-0.123926,-0.105806,0.029889,0.000000,-1.000000,0.000000
-0.248363,-0.052312,0.157096,-0.845127,0.000000,0.534565
0.149182,0.105806,0.039771,0.000000,1.000000,0.000000
0.291769,0.012512,0.035130,0.992830,0.000000,0.119539
0.434783,0.024721,0.144792,0.948772,0.000000,0.315961
0.244225,-0.035692,0.163454,0.831048,0.000000,0.556200
-0.283346,-0.105806,-0.369291,0.000000,-1.000000,0.000000
-0.410404,-0.029075,-0.148931,-0.940019,0.000000,-0.341123
0.178043,-0.073194,0.233803,0.605844,0.000000,0.795584
-0.471552,-0.091553,-0.112821,-0.972551,0.000000,-0.232688
0.271474,-0.085436,0.112538,0.923771,0.000000,0.382945
0.147986,-0.042309,0.253896,0.503567,0.000000,0.863956
-0.082618,0.105806,0.155141,0.000000,1.000000,0.000000
-0.232717,0.105806,-0.047737,0.000000,1.000000,0.000000
-0.445003,-0.004293,-0.088621,-0.980741,0.000000,-0.195312
0.022749,0.042760,0.292994,0.077410,0.000000,0.996999
-0.166918,-0.065764,-0.241870,-0.567989,0.000000,-0.823036
