x,y,z,nx,ny,nz
-27.710787,13.319125,24.572407,-1.000000,0.000000,0.000000
-0.408656,11.652926,2.347793,0.000000,-0.000000,1.000000
-23.015202,12.555417,26.459121,1.000000,0.000000,-0.000000
-27.710787,8.729577,32.862320,-1.000000,0.000000,0.000000
27.710787,-1.139628,0.271499,1.000000,-0.000000,0.000000
-27.710787,-11.145657,12.022756,-1.000000,0.000000,0.000000
14.274967,5.624631,-1.933176,0.098017,-0.995185,0.000000
-21.846111,4.292266,-2.347793,0.000000,0.000000,-1.000000
-23.015202,3.215324,8.742619,1.000000,0.000000,-0.000000
-23.015202,-3.621354,14.248785,1.000000,0.000000,-0.000000
9.384761,11.110562,2.347793,0.000000,-0.000000,1.000000
-27.275845,-13.574961,40.994747,0.000000,0.000000,1.000000
-27.710787,12.274992,20.247506,-1.000000,0.000000,0.000000
-27.710787,-2.889096,22.878586,-1.000000,0.000000,0.000000
-12.320510,-8.204420,2.347793,0.000000,-0.000000,1.000000
-27.710787,1.544099,29.179629,-1.000000,-0.000000,0.000000
-20.882177,15.014946,-0.620262,0.000000,1.000000,0.000000
2.134919,10.933271,2.347793,0.000000,-0.000000,1.000000
-13.603624,15.014946,0.859677,0.000000,1.000000,0.000000
-2.780631,2.264237,2.347793,0.000000,-0.000000,1.000000
6.519281,14.191020,-2.347793,0.000000,-0.000000,-1.000000
-26.089265,15.014946,18.277289,0.000000,1.000000,0.000000
7.770593,0.140997,-2.347793,0.000000,-0.000000,-1.000000
12.408669,13.527266,2.347793,0.000000,-0.000000,1.000000
-18.213425,-14.256267,2.347793,0.000000,-0.000000,1.000000
-23.015202,-5.104549,11.171567,1.000000,0.000000,-0.000000
-17.877384,-8.346712,-2.347793,0.000000,0.000000,-1.000000
-23.015202,4.109613,11.418970,1.000000,0.000000,-0.000000
4.142391,8.510067,-2.347793,0.000000,-0.000000,-1.000000
15.220653,13.204039,2.347793,0.000000,-0.000000,1.000000
27.710787,-11.094690,-0.131076,1.000000,0.000000,-0.000000
-27.710787,-3.472412,30.648858,-1.000000,-0.000000,0.000000
-23.015202,8.247157,6.998041,1.000000,0.000000,-0.000000
-10.820663,7.785519,-2.347793,0.000000,-0.000000,-1.000000
-19.787331,1.771528,-2.347793,0.000000,0.000000,-1.000000
-23.015202,-1.741994,27.244989,1.000000,0.000000,0.000000
-23.949151,-5.255130,40.994747,0.000000,0.000000,1.000000
-0.282505,12.585737,-2.347793,0.000000,-0.000000,-1.000000
1.607121,-15.014946,-1.674384,0.000000,-1.000000,0.000000
-12.515617,-12.359202,-2.347793,0.000000,0.000000,-1.000000
-23.015202,7.898366,21.878710,1.000000,0.000000,-0.000000
-27.710787,12.304343,-1.908508,-1.000000,0.000000,0.000000
-23.015202,-12.983958,17.138208,1.000000,0.000000,-0.000000
2.228885,-4.959444,-0.757742,0.956940,-0.290285,0.000000
-23.015202,-2.868697,18.912982,1.000000,0.000000,-0.000000
16.114045,-2.117458,1.271585,-0.290285,0.956940,0.000000
7.656593,11.976993,-2.347793,0.000000,-0.000000,-1.000000
-24.499047,-4.004170,-2.347793,0.000000,0.000000,-1.000000
-23.015202,-5.242844,2.629729,1.000000,0.000000,-0.000000
1.172679,4.626681,2.347793,0.000000,-0.000000,1.000000
-5.563074,-5.128882,-2.347793,0.000000,0.000000,-1.000000
27.710787,2.164438,0.812262,1.000000,-0.000000,0.000000
-27.710787,-5.499789,11.218611,-1.000000,0.000000,0.000000
-23.015202,-6.481071,20.810783,1.000000,0.000000,-0.000000
8.698540,1.876981,-2.347793,0.000000,0.000000,-1.000000
-27.710787,-4.522153,1.731164,-1.000000,0.000000,0.000000
-23.015202,-6.492113,16.598126,1.000000,0.000000,-0.000000
-23.976623,6.334352,-2.347793,0.000000,0.000000,-1.000000
-23.015202,12.455116,25.331227,1.000000,0.000000,-0.000000
-16.029262,15.014946,1.963138,0.000000,1.000000,0.000000
-27.710787,3.462313,33.217181,-1.000000,-0.000000,0.000000
-24.267465,15.014946,18.727678,-0.000000,1.000000,0.000000
-27.710787,-11.098987,33.206565,-1.000000,0.000000,-0.000000
18.665744,3.104111,2.347793,0.000000,-0.000000,1.000000
-12.959927,0.817688,2.347793,0.000000,-0.000000,1.000000
-18.440520,0.320902,2.347793,0.000000,-0.000000,1.000000
-14.554990,-15.014946,1.748217,0.000000,-1.000000,0.000000
-15.734630,1.556363,-2.347793,0.000000,0.000000,-1.000000
10.852014,-13.199144,2.347793,0.000000,-0.000000,1.000000
-23.015202,-14.963658,31.239997,1.000000,0.000000,-0.000000
-27.710787,6.758547,24.697953,-1.000000,0.000000,0.000000
-23.015202,-6.796736,9.522860,1.000000,0.000000,-0.000000
-23.222549,-9.662654,27.035597,0.000000,0.956940,-0.290284
-17.319410,7.975306,-2.347793,0.000000,0.000000,-1.000000
8.468741,-9.259388,2.164434,-0.634394,0.773010,0.000000
23.610272,-5.050753,-2.347793,0.000000,0.000000,-1.000000
27.710787,5.865434,-2.296328,1.000000,0.000000,-0.000000
6.026934,8.158236,2.347793,0.000000,-0.000000,1.000000
-15.548651,-0.066256,-2.347793,0.000000,0.000000,-1.000000
-18.488595,8.653552,2.347793,0.000000,-0.000000,1.000000
-23.015202,0.592793,9.168749,1.000000,0.000000,-0.000000
25.049597,15.014946,1.564342,-0.000000,1.000000,0.000000
-25.379652,-15.014946,23.001064,0.000000,-1.000000,0.000000
-27.710787,-8.740101,12.088556,-1.000000,0.000000,0.000000
-6.306802,-15.014946,1.946534,0.000000,-1.000000,0.000000
-0.872513,-9.040941,-2.347793,0.000000,0.000000,-1.000000
-23.015202,-9.043606,15.813192,1.000000,0.000000,-0.000000
-6.933524,10.706826,2.347793,0.000000,-0.000000,1.000000
-27.710787,-11.577392,34.324197,-1.000000,0.000000,-0.000000
14.258481,-13.518678,-2.347793,0.000000,0.000000,-1.000000
-27.525820,-9.765331,26.460640,0.000000,0.995185,-0.098017
9.931752,6.176185,-2.347793,0.000000,-0.000000,-1.000000
-23.015202,-3.243044,35.249561,1.000000,-0.000000,0.000000
-16.874680,-7.906938,-2.347793,0.000000,0.000000,-1.000000
17.257189,-5.507406,2.347793,-0.000000,-0.000000,1.000000
19.264125,2.768971,-2.347793,0.000000,0.000000,-1.000000
1.981011,-7.677137,-2.347793,0.000000,0.000000,-1.000000
-6.059663,5.708719,2.347793,0.000000,-0.000000,1.000000
27.710787,-12.391922,1.355221,1.000000,0.000000,-0.000000
-23.015202,-8.424587,7.617927,1.000000,0.000000,-0.000000
-23.015202,-4.309548,6.161843,1.000000,0.000000,-0.000000
-4.041691,-4.782890,2.347793,0.000000,0.000000,1.000000
27.710787,14.879640,-2.314552,1.000000,-0.000000,0.000000
27.710787,-4.979296,-0.292951,1.000000,0.000000,-0.000000
-27.710787,-14.481936,18.247776,-1.000000,0.000000,0.000000
-13.101476,14.194408,-2.347793,0.000000,-0.000000,-1.000000
-23.015202,9.454783,25.791406,1.000000,0.000000,-0.000000
-21.606237,2.213020,2.347793,0.000000,-0.000000,1.000000
-23.015202,-4.438718,34.923679,1.000000,-0.000000,0.000000
-23.015202,-1.055026,13.672631,1.000000,0.000000,-0.000000
-23.015202,-10.331555,18.886597,1.000000,0.000000,-0.000000
-20.224330,-15.014946,0.651959,0.000000,-1.000000,0.000000
3.255703,9.961540,2.347793,0.000000,-0.000000,1.000000
-5.700567,-15.014946,-1.794562,0.000000,-1.000000,0.000000
-23.388063,12.990133,40.994747,0.000000,-0.000000,1.000000
3.539289,-9.092911,-0.788284,0.634394,0.773010,-0.000000
-23.015202,10.725278,27.725188,1.000000,0.000000,-0.000000
5.274557,14.703147,2.347793,0.000000,-0.000000,1.000000
-23.015202,-2.301909,37.198454,1.000000,-0.000000,0.000000
-6.517982,-15.014946,1.944677,0.000000,-1.000000,0.000000
-23.015202,11.271318,5.821721,1.000000,0.000000,-0.000000
-23.015202,-0.000694,15.554177,1.000000,0.000000,-0.000000
24.943757,15.014946,-1.753002,-0.000000,1.000000,0.000000
-23.015202,1.546517,11.600494,1.000000,0.000000,-0.000000
-23.015202,8.244736,17.231384,1.000000,0.000000,-0.000000
-23.901099,-15.014946,6.811100,0.000000,-1.000000,0.000000
14.178403,-15.014946,2.159867,0.000000,-1.000000,0.000000
-23.015202,-7.889120,4.964166,1.000000,0.000000,-0.000000
-23.015202,6.677969,4.875892,1.000000,0.000000,-0.000000
17.862047,-10.837478,2.347793,-0.000000,-0.000000,1.000000
7.217690,9.895781,-2.347793,0.000000,-0.000000,-1.000000
-24.469706,-8.246511,29.188125,0.000000,0.634394,-0.773010
-27.710787,4.868245,23.550729,-1.000000,0.000000,0.000000
21.583218,10.212923,2.347793,-0.000000,0.000000,1.000000
-27.710787,-6.337728,19.493740,-1.000000,0.000000,0.000000
-8.250264,-9.826135,2.347793,0.000000,-0.000000,1.000000
-11.940261,13.191296,2.347793,0.000000,-0.000000,1.000000
-24.196834,-5.256278,30.005933,0.000000,-0.098017,-0.995185
-23.526354,1.212105,-2.347793,0.000000,0.000000,-1.000000
18.464334,0.440896,-0.469573,-0.956940,0.290284,0.000000
-23.015202,-11.058066,19.625674,1.000000,0.000000,-0.000000
-23.015202,6.895447,26.969541,1.000000,0.000000,-0.000000
-23.099260,5.750428,40.994747,0.000000,0.000000,1.000000
-23.015202,9.792918,6.253896,1.000000,0.000000,-0.000000
-27.710787,-9.782606,4.030833,-1.000000,0.000000,0.000000
26.296346,-1.195290,-2.347793,0.000000,0.000000,-1.000000
-27.710787,11.864374,17.867655,-1.000000,0.000000,0.000000
8.271712,-14.422559,-2.347793,0.000000,0.000000,-1.000000
-20.804407,-13.712476,-2.347793,0.000000,0.000000,-1.000000
-23.015202,-12.338297,30.018660,1.000000,0.000000,-0.000000
-6.341409,-2.075841,2.347793,0.000000,-0.000000,1.000000
-25.283200,15.014946,15.797835,-0.000000,1.000000,0.000000
-27.710787,-9.204682,17.818352,-1.000000,0.000000,0.000000
22.706008,-12.647358,2.347793,-0.000000,-0.000000,1.000000
-23.015202,-2.707517,15.588764,1.000000,0.000000,-0.000000
-7.962325,-4.807030,2.347793,0.000000,-0.000000,1.000000
-7.765477,15.014946,0.238693,0.000000,1.000000,0.000000
-23.015202,6.160826,23.661124,1.000000,0.000000,-0.000000
-22.571922,-3.436090,-2.347793,0.000000,0.000000,-1.000000
-23.015202,-10.952909,27.978075,1.000000,0.000000,-0.000000
-11.900666,1.364029,2.347793,0.000000,-0.000000,1.000000
-27.710787,-1.558597,34.846362,-1.000000,0.000000,-0.000000
-26.667408,15.014946,3.103625,-0.000000,1.000000,0.000000
-18.643187,14.315757,-2.347793,0.000000,-0.000000,-1.000000
-18.519840,15.014946,0.723981,0.000000,1.000000,0.000000
-23.015202,-14.587251,26.117405,1.000000,0.000000,-0.000000
-12.398778,-0.270894,-2.347793,0.000000,0.000000,-1.000000
-27.710787,-6.122740,31.109002,-1.000000,0.000000,-0.000000
13.607750,-6.984652,-2.347793,0.000000,0.000000,-1.000000
-27.710787,-4.451288,34.674796,-1.000000,0.000000,-0.000000
-27.710787,-7.217350,-0.754790,-1.000000,0.000000,0.000000
-27.710787,8.378549,35.655764,-1.000000,-0.000000,0.000000
27.710787,-10.748779,0.106199,1.000000,0.000000,-0.000000
25.570563,-11.753829,-2.347793,0.000000,0.000000,-1.000000
-26.840982,-6.193348,40.994747,0.000000,-0.000000,1.000000
-11.803895,-12.638497,2.347793,0.000000,-0.000000,1.000000
-27.710787,11.526073,9.581461,-1.000000,0.000000,0.000000
22.876224,12.361018,-2.347793,0.000000,-0.000000,-1.000000
-27.710787,-4.235921,15.904278,-1.000000,0.000000,0.000000
5.280112,-14.223252,-2.347793,0.000000,0.000000,-1.000000
-23.015202,-5.064768,7.037517,1.000000,0.000000,-0.000000
-27.710787,4.836149,7.396086,-1.000000,0.000000,0.000000
-26.634194,8.051787,40.994747,0.000000,-0.000000,1.000000
-13.659081,-11.623686,-2.347793,0.000000,0.000000,-1.000000
11.958715,4.626665,-2.245263,0.634393,-0.773010,0.000000
-27.710787,12.844647,35.042526,-1.000000,0.000000,0.000000
-27.710787,11.041896,36.273349,-1.000000,0.000000,0.000000
15.557921,11.783931,2.347793,0.000000,-0.000000,1.000000
-6.250041,-4.934836,-2.347793,0.000000,0.000000,-1.000000
-24.696439,15.014946,26.729921,-0.000000,1.000000,0.000000
-23.015202,-13.314582,27.341768,1.000000,0.000000,-0.000000
-25.279821,8.842181,40.994747,0.000000,-0.000000,1.000000
27.062200,12.059112,-2.347793,0.000000,0.000000,-1.000000
-6.166018,-10.503520,-2.347793,0.000000,0.000000,-1.000000
-5.651418,7.564548,-2.347793,0.000000,-0.000000,-1.000000
-23.015202,8.348751,37.704347,1.000000,-0.000000,0.000000
-13.992556,-15.014946,-0.210334,0.000000,-1.000000,0.000000
-27.710787,-13.515002,24.867557,-1.000000,0.000000,0.000000
-14.222788,8.909429,-2.347793,0.000000,-0.000000,-1.000000
3.084733,11.339813,-2.347793,0.000000,-0.000000,-1.000000
-27.710787,0.123952,10.892797,-1.000000,0.000000,0.000000
-24.359689,-0.422906,40.994747,0.000000,0.000000,1.000000
-20.777688,-15.014946,-1.668014,0.000000,-1.000000,0.000000
-23.373868,-8.595367,23.146171,0.000000,0.634394,0.773010
18.110340,11.260213,2.347793,0.000000,-0.000000,1.000000
-27.710787,-9.988293,1.134824,-1.000000,0.000000,0.000000
-27.710787,6.202899,7.797723,-1.000000,0.000000,0.000000
24.823544,-3.500616,-2.347793,0.000000,0.000000,-1.000000
-23.015202,-5.844910,33.122870,1.000000,-0.000000,0.000000
-27.710787,-4.228997,32.694201,-1.000000,0.000000,-0.000000
-27.710787,-14.745572,30.729097,-1.000000,0.000000,0.000000
-2.898693,-12.688913,2.347793,0.000000,-0.000000,1.000000
-10.278613,8.626930,2.347793,0.000000,-0.000000,1.000000
-27.710787,-9.524018,5.698487,-1.000000,0.000000,0.000000
-23.015202,14.605518,38.529980,1.000000,0.000000,-0.000000
-21.682946,-12.780440,2.347793,0.000000,-0.000000,1.000000
-27.710787,-6.672922,30.756543,-1.000000,0.000000,-0.000000
-23.015202,-3.172917,31.357008,1.000000,0.000000,0.000000
27.641037,-5.217521,2.347793,0.000000,-0.000000,1.000000
5.964860,14.978559,2.347793,0.000000,-0.000000,1.000000
-14.637539,-9.677993,-2.347793,0.000000,0.000000,-1.000000
18.259680,-0.096708,-0.196429,-0.881921,0.471397,0.000000
27.710787,5.781546,-1.698551,1.000000,0.000000,-0.000000
-9.988940,1.015946,2.347793,0.000000,-0.000000,1.000000
18.978092,-13.070772,2.347793,0.000000,-0.000000,1.000000
24.027359,-14.937611,-2.347793,0.000000,0.000000,-1.000000
12.614845,12.584326,2.347793,0.000000,-0.000000,1.000000
-16.080992,8.066542,-2.347793,0.000000,-0.000000,-1.000000
-17.561485,-12.697660,-2.347793,0.000000,0.000000,-1.000000
-22.839395,15.014946,-1.015298,0.000000,1.000000,0.000000
19.649365,-5.945883,-2.347793,0.000000,0.000000,-1.000000
-26.873898,-9.440815,24.367382,0.000000,0.881921,0.471397
-27.710787,12.040967,3.023211,-1.000000,0.000000,0.000000
-27.710787,-12.414468,5.942161,-1.000000,0.000000,0.000000
-24.568308,-7.788382,40.994747,0.000000,0.000000,1.000000
-23.015202,8.884567,2.673645,1.000000,0.000000,-0.000000
-24.204378,15.014946,9.793801,-0.000000,1.000000,0.000000
-27.710787,13.230930,14.494404,-1.000000,0.000000,0.000000
-21.647760,-10.180065,2.347793,0.000000,-0.000000,1.000000
-23.015202,8.033157,9.976773,1.000000,0.000000,0.000000
13.145991,15.014946,0.353608,-0.000000,1.000000,0.000000
-12.546482,7.460864,-2.347793,0.000000,-0.000000,-1.000000
-23.015202,-3.435561,34.970076,1.000000,-0.000000,0.000000
10.709976,-11.157278,-2.347793,0.000000,0.000000,-1.000000
-26.241587,9.141318,40.994747,0.000000,-0.000000,1.000000
-23.015202,-0.902410,33.571564,1.000000,-0.000000,0.000000
-27.710787,6.966715,24.613030,-1.000000,0.000000,0.000000
19.253415,-2.003863,2.347793,0.000000,0.000000,1.000000
-11.417868,1.493412,-2.347793,0.000000,0.000000,-1.000000
11.381686,3.995464,-1.584990,0.773010,-0.634393,0.000000
-26.745670,-7.780661,40.994747,0.000000,-0.000000,1.000000
-21.595339,3.161137,2.347793,0.000000,-0.000000,1.000000
10.703503,2.509942,0.172372,0.956940,-0.290284,0.000000
-20.672839,-10.497112,2.347793,0.000000,-0.000000,1.000000
-17.257283,-9.726010,2.347793,0.000000,-0.000000,1.000000
-24.349232,-15.014946,28.096111,0.000000,-1.000000,0.000000
-4.231598,-8.612096,-2.347793,0.000000,0.000000,-1.000000
-27.710787,-10.278864,33.633729,-1.000000,0.000000,-0.000000
24.631422,2.812607,2.347793,0.000000,-0.000000,1.000000
-16.735319,-7.765522,2.347793,0.000000,-0.000000,1.000000
-27.710787,-6.268558,20.392710,-1.000000,0.000000,0.000000
-19.430023,10.875350,2.347793,0.000000,-0.000000,1.000000
27.710787,0.997449,0.326334,1.000000,-0.000000,0.000000
2.541734,-15.014946,1.271105,0.000000,-1.000000,0.000000
-23.015202,-10.245518,36.947395,1.000000,-0.000000,0.000000
13.499332,-2.831877,-1.571123,-0.956940,-0.290284,0.000000
12.847409,5.748151,2.347793,0.000000,0.000000,1.000000
-26.614449,-8.791067,28.675983,0.000000,0.773010,-0.634394
-8.083355,-1.252383,2.347793,0.000000,-0.000000,1.000000
-4.368569,-6.480825,2.347793,0.000000,0.000000,1.000000
-18.958866,-13.751745,2.347793,0.000000,-0.000000,1.000000
23.846000,1.513400,-2.347793,0.000000,0.000000,-1.000000
-27.710787,3.226813,-0.368642,-1.000000,0.000000,0.000000
0.620773,-6.341741,2.347793,0.000000,0.000000,1.000000
18.077358,8.561616,2.347793,0.000000,0.000000,1.000000
-23.015202,11.931244,5.374832,1.000000,0.000000,-0.000000
1.475151,4.528473,2.347793,0.000000,-0.000000,1.000000
-23.015202,-13.009658,3.434030,1.000000,0.000000,-0.000000
15.229604,-5.236539,-2.347793,0.000000,0.000000,-1.000000
18.939278,4.203627,2.347793,0.000000,-0.000000,1.000000
11.998955,-10.182318,2.347793,-0.000000,-0.000000,1.000000
6.241855,1.994183,2.347793,0.000000,0.000000,1.000000
-23.015202,2.901183,9.076555,1.000000,0.000000,-0.000000
-27.710787,-8.575721,35.598919,-1.000000,0.000000,-0.000000
-27.710787,-2.743716,36.826768,-1.000000,0.000000,-0.000000
-5.780864,-13.161562,2.347793,0.000000,-0.000000,1.000000
-15.509902,-7.487681,2.347793,0.000000,-0.000000,1.000000
-23.015202,14.489728,17.116509,1.000000,0.000000,-0.000000
-14.214016,6.544588,2.347793,0.000000,-0.000000,1.000000
-5.731338,4.035270,-2.347793,0.000000,-0.000000,-1.000000
-25.043267,-15.014946,1.720449,0.000000,-1.000000,0.000000
-12.568663,-6.737296,-2.347793,0.000000,0.000000,-1.000000
-23.015202,-3.907995,17.927536,1.000000,0.000000,-0.000000
-27.710787,-7.726958,34.365845,-1.000000,0.000000,-0.000000
-27.710787,10.072604,33.151864,-1.000000,0.000000,0.000000
4.028667,-2.565738,0.699993,0.471397,-0.881921,0.000000
14.744952,-11.874911,-2.347793,0.000000,0.000000,-1.000000
-2.915154,-5.890010,-2.347793,0.000000,0.000000,-1.000000
27.710787,5.615030,0.226601,1.000000,-0.000000,0.000000
27.710787,11.291107,0.787689,1.000000,-0.000000,0.000000
-27.710787,1.720613,0.091715,-1.000000,0.000000,0.000000
-27.710787,-1.547317,20.014601,-1.000000,0.000000,0.000000
27.710787,-13.622230,0.308960,1.000000,0.000000,-0.000000
-13.275487,-2.852849,2.347793,0.000000,-0.000000,1.000000
-9.735743,3.309220,-2.347793,0.000000,0.000000,-1.000000
-14.044254,-1.827059,2.347793,0.000000,-0.000000,1.000000
11.950849,-14.659393,2.347793,0.000000,-0.000000,1.000000
-23.015202,14.270699,21.880328,1.000000,0.000000,-0.000000
2.953488,-15.014946,1.405391,0.000000,-1.000000,0.000000
26.943520,1.335782,2.347793,0.000000,-0.000000,1.000000
-13.996435,7.590465,2.347793,0.000000,-0.000000,1.000000
-12.893767,-14.606607,-2.347793,0.000000,0.000000,-1.000000
-23.015202,5.364568,33.506771,1.000000,0.000000,0.000000
3.556444,11.119564,-2.347793,0.000000,-0.000000,-1.000000
-23.015202,-13.332806,28.878142,1.000000,0.000000,-0.000000
-23.015202,14.715905,17.739386,1.000000,0.000000,-0.000000
-0.555320,14.755654,-2.347793,0.000000,-0.000000,-1.000000
-2.719770,6.303893,-2.347793,0.000000,-0.000000,-1.000000
-3.401038,-14.020202,2.347793,0.000000,-0.000000,1.000000
-23.015202,1.637565,30.187583,1.000000,0.000000,0.000000
-27.710787,-8.439544,38.761268,-1.000000,0.000000,-0.000000
12.475303,8.621170,-2.347793,0.000000,-0.000000,-1.000000
21.564933,1.533770,2.347793,0.000000,-0.000000,1.000000
-27.710787,-2.030776,7.234253,-1.000000,0.000000,0.000000
-23.307852,-5.273278,22.040389,0.000000,-0.098017,0.995185
-20.913713,0.952392,2.347793,0.000000,-0.000000,1.000000
22.023407,-7.521915,-2.347793,0.000000,0.000000,-1.000000
-7.826651,15.014946,1.228732,0.000000,1.000000,0.000000
-17.731934,-4.382091,-2.347793,0.000000,0.000000,-1.000000
20.222839,-0.032107,2.347793,0.000000,-0.000000,1.000000
20.933382,15.014946,-1.990432,-0.000000,1.000000,0.000000
-23.015202,9.579796,18.871115,1.000000,0.000000,-0.000000
-23.015202,3.587673,23.700529,1.000000,0.000000,-0.000000
-1.465503,-13.987108,2.347793,0.000000,-0.000000,1.000000
-23.015202,3.117423,20.411066,1.000000,0.000000,-0.000000
-10.979970,-12.548880,-2.347793,0.000000,0.000000,-1.000000
2.685071,-3.891410,0.295196,0.881921,-0.471397,0.000000
-8.789290,-15.014946,-2.105411,0.000000,-1.000000,0.000000
-23.015202,-10.823244,2.741493,1.000000,0.000000,-0.000000
27.710787,-4.584835,0.691151,1.000000,0.000000,-0.000000
-23.015202,-0.330422,5.368025,1.000000,0.000000,-0.000000
-27.710787,10.187719,26.335684,-1.000000,0.000000,0.000000
-27.710787,12.105224,-1.021881,-1.000000,0.000000,0.000000
-4.540678,-2.065397,-2.347793,0.000000,0.000000,-1.000000
26.987373,-15.014946,0.346916,0.000000,-1.000000,0.000000
-25.443898,-3.618095,40.994747,0.000000,0.000000,1.000000
-17.032855,11.792099,2.347793,0.000000,-0.000000,1.000000
-9.399365,-8.179636,-2.347793,0.000000,0.000000,-1.000000
27.018307,-13.256786,2.347793,0.000000,-0.000000,1.000000
-27.710787,14.373462,18.889839,-1.000000,0.000000,0.000000
11.463812,8.630997,-2.347793,0.000000,-0.000000,-1.000000
-27.710787,-10.384452,38.081594,-1.000000,0.000000,-0.000000
-1.765916,-10.074275,2.347793,0.000000,-0.000000,1.000000
12.073905,4.721199,-1.642161,0.634393,-0.773010,0.000000
11.969906,6.001056,2.347793,0.000000,-0.000000,1.000000
-24.530096,15.014946,31.129319,0.000000,1.000000,0.000000
8.783499,5.565181,-2.347793,0.000000,-0.000000,-1.000000
-23.015202,1.254466,27.053970,1.000000,0.000000,-0.000000
-23.015202,12.693160,40.147286,1.000000,-0.000000,0.000000
-26.302420,-4.705928,-2.347793,0.000000,0.000000,-1.000000
-27.710787,12.680236,14.814551,-1.000000,0.000000,0.000000
18.207968,-14.941528,2.347793,0.000000,-0.000000,1.000000
6.528817,-1.507984,0.236186,0.773010,-0.634394,0.000000
-27.710787,-12.240653,22.727987,-1.000000,0.000000,0.000000
-27.710787,-6.061676,37.072955,-1.000000,0.000000,-0.000000
13.359505,-2.414313,-0.624302,-0.881921,-0.471398,0.000000
-1.116338,-0.784404,2.347793,0.000000,-0.000000,1.000000
-20.583676,-11.965933,2.347793,0.000000,-0.000000,1.000000
-24.833556,0.827130,-2.347793,0.000000,0.000000,-1.000000
17.882503,3.989764,0.850024,-0.773010,-0.634393,0.000000
5.174097,13.210163,2.347793,0.000000,-0.000000,1.000000
17.098850,-14.161368,-2.347793,0.000000,0.000000,-1.000000
-17.944917,8.673763,2.347793,0.000000,-0.000000,1.000000
-23.015202,1.872564,5.612047,1.000000,0.000000,-0.000000
-27.710787,-9.920831,12.687195,-1.000000,0.000000,0.000000
-23.015202,8.147618,39.580888,1.000000,-0.000000,0.000000
-1.411243,8.033216,2.347793,0.000000,-0.000000,1.000000
-21.716463,12.763891,2.347793,0.000000,-0.000000,1.000000
-24.919068,-15.014946,12.474171,0.000000,-1.000000,0.000000
-23.015202,11.177820,23.851935,1.000000,0.000000,-0.000000
-23.015202,-6.963768,2.461614,1.000000,0.000000,-0.000000
-14.598213,-11.409494,2.347793,0.000000,0.000000,1.000000
2.074718,-6.850232,2.347793,0.000000,-0.000000,1.000000
-5.167105,-3.326163,-2.347793,0.000000,0.000000,-1.000000
-3.706284,9.891706,-2.347793,0.000000,-0.000000,-1.000000
3.240696,-1.803732,2.347793,0.000000,0.000000,1.000000
-24.067499,-11.039924,-2.347793,0.000000,0.000000,-1.000000
-23.015202,13.421534,13.479689,1.000000,0.000000,-0.000000
4.733900,-2.228506,-0.691714,0.290285,-0.956940,0.000000
14.247616,-15.014946,2.171885,0.000000,-1.000000,0.000000
-27.710787,0.368629,4.296730,-1.000000,0.000000,0.000000
-23.015202,-13.493243,11.786520,1.000000,0.000000,-0.000000
-27.710787,-3.316024,9.146799,-1.000000,0.000000,0.000000
-15.130438,8.412084,2.347793,0.000000,-0.000000,1.000000
8.737042,15.014946,-0.070151,-0.000000,1.000000,0.000000
24.369306,11.754256,2.347793,-0.000000,0.000000,1.000000
-27.710787,-0.630349,30.979561,-1.000000,-0.000000,0.000000
-23.015202,3.787760,14.007919,1.000000,0.000000,0.000000
-6.974309,-10.357696,-2.347793,0.000000,0.000000,-1.000000
-16.134252,0.795900,-2.347793,0.000000,0.000000,-1.000000
18.316294,-10.519586,2.347793,-0.000000,-0.000000,1.000000
-22.157503,-1.893983,2.347793,0.000000,-0.000000,1.000000
25.475649,14.668427,2.347793,0.000000,-0.000000,1.000000
-23.015202,-9.148972,5.912687,1.000000,0.000000,-0.000000
13.669714,-13.719027,-2.347793,0.000000,0.000000,-1.000000
-23.015202,-7.330168,3.357902,1.000000,0.000000,-0.000000
-27.710787,0.856127,39.208285,-1.000000,0.000000,-0.000000
-27.710787,13.839275,14.967779,-1.000000,0.000000,0.000000
-27.031571,15.014946,6.197337,-0.000000,1.000000,0.000000
-4.252864,-1.196855,2.347793,0.000000,-0.000000,1.000000
-27.710787,-13.564563,38.184873,-1.000000,0.000000,-0.000000
-7.170437,-3.860756,-2.347793,0.000000,0.000000,-1.000000
-23.719243,-3.247024,29.141318,0.000000,-0.634394,-0.773010
-23.015202,-8.626936,35.302948,1.000000,-0.000000,0.000000
26.300527,8.960103,2.347793,0.000000,-0.000000,1.000000
-27.710787,-3.843187,31.559723,-1.000000,0.000000,-0.000000
-5.842882,-0.984116,2.347793,0.000000,-0.000000,1.000000
-23.735490,-7.342863,-2.347793,0.000000,0.000000,-1.000000
-23.015202,14.738664,25.721729,1.000000,0.000000,-0.000000
-20.138373,0.532107,-2.347793,0.000000,0.000000,-1.000000
-23.015202,-5.411469,38.438156,1.000000,-0.000000,0.000000
-23.015202,-0.181836,5.663283,1.000000,0.000000,-0.000000
-6.778987,2.094602,2.347793,0.000000,-0.000000,1.000000
-23.015202,-5.470348,2.395134,1.000000,0.000000,-0.000000
19.074694,9.130120,-2.347793,0.000000,-0.000000,-1.000000
2.842348,-3.656054,-0.261858,0.773010,-0.634393,0.000000
-27.710787,-6.758973,30.327064,-1.000000,0.000000,-0.000000
-0.462820,11.469602,2.347793,0.000000,-0.000000,1.000000
14.191616,15.014946,1.867405,0.000000,1.000000,0.000000
-22.001310,0.883346,2.347793,0.000000,-0.000000,1.000000
2.835496,-15.014946,1.929874,0.000000,-1.000000,0.000000
-9.058417,5.410347,2.347793,0.000000,-0.000000,1.000000
-27.710787,-11.055876,11.362744,-1.000000,0.000000,0.000000
13.207751,-10.388817,2.347793,-0.000000,-0.000000,1.000000
18.196899,-2.965642,2.347793,0.000000,0.000000,1.000000
-23.015202,12.985065,6.015789,1.000000,0.000000,-0.000000
-12.175781,-13.967383,2.347793,0.000000,-0.000000,1.000000
-27.710787,0.228672,17.710890,-1.000000,0.000000,0.000000
-26.414020,-9.753870,25.470986,0.000000,0.995185,0.098017
-23.282236,-15.014946,33.671439,0.000000,-1.000000,0.000000
-6.561142,9.551320,2.347793,0.000000,-0.000000,1.000000
-27.710787,9.828978,36.964935,-1.000000,-0.000000,0.000000
-16.453378,11.592781,2.347793,0.000000,-0.000000,1.000000
-18.170420,5.027505,-2.347793,0.000000,0.000000,-1.000000
-2.782518,-2.398591,2.347793,0.000000,-0.000000,1.000000
2.203694,13.437816,-2.347793,0.000000,-0.000000,-1.000000
-23.649856,5.665757,-2.347793,0.000000,0.000000,-1.000000
21.696435,-15.014946,-0.804056,0.000000,-1.000000,0.000000
26.735780,-12.220237,2.347793,0.000000,-0.000000,1.000000
-27.710787,8.159678,24.314506,-1.000000,0.000000,0.000000
-23.015202,7.977348,10.706594,1.000000,0.000000,0.000000
-23.015202,3.329057,5.956368,1.000000,0.000000,-0.000000
-11.134462,-11.105828,-2.347793,0.000000,0.000000,-1.000000
-27.710787,8.888606,-0.870502,-1.000000,0.000000,0.000000
-17.349462,-6.237241,-2.347793,0.000000,0.000000,-1.000000
-27.312477,15.014946,0.401435,0.000000,1.000000,0.000000
-11.346058,-13.945665,2.347793,0.000000,-0.000000,1.000000
-9.634590,-9.828375,2.347793,0.000000,0.000000,1.000000
-23.015202,-13.089349,39.795561,1.000000,-0.000000,0.000000
-23.015202,1.833516,38.296858,1.000000,-0.000000,0.000000
-23.015202,-14.054004,4.564477,1.000000,0.000000,-0.000000
-14.449499,15.014946,0.032685,0.000000,1.000000,0.000000
-0.105172,-4.942164,-2.347793,0.000000,0.000000,-1.000000
18.637383,1.884659,-1.622104,-0.995185,-0.098017,0.000000
27.474937,-1.725295,-2.347793,0.000000,0.000000,-1.000000
-23.521390,-15.014946,20.647259,0.000000,-1.000000,0.000000
-23.015202,-14.683787,7.707323,1.000000,0.000000,-0.000000
-27.086998,15.014946,22.751215,0.000000,1.000000,0.000000
-23.015202,-3.914129,22.171588,1.000000,0.000000,0.000000
7.287526,5.188678,-2.347793,0.000000,-0.000000,-1.000000
-5.832417,-12.433016,2.347793,0.000000,-0.000000,1.000000
-25.721527,-15.014946,33.493459,0.000000,-1.000000,0.000000
-12.908437,-9.906229,-2.347793,0.000000,-0.000000,-1.000000
9.362815,4.680070,-2.347793,0.000000,-0.000000,-1.000000
-23.015202,-7.161765,31.079916,1.000000,-0.000000,0.000000
23.378216,10.988940,2.347793,-0.000000,0.000000,1.000000
-22.071786,-1.469609,-2.347793,0.000000,0.000000,-1.000000
-25.338507,14.173841,-2.347793,0.000000,0.000000,-1.000000
7.777208,15.014946,-0.573690,-0.000000,1.000000,0.000000
3.644800,-12.813169,-2.347793,0.000000,0.000000,-1.000000
-23.015202,-10.952272,2.707436,1.000000,0.000000,-0.000000
-23.015202,-9.559969,34.554718,1.000000,-0.000000,0.000000
25.397670,8.161034,2.347793,0.000000,-0.000000,1.000000
-10.472589,-9.734233,-2.347793,0.000000,-0.000000,-1.000000
1.315784,-15.014946,-0.247193,0.000000,-1.000000,0.000000
-13.049627,-10.360765,2.347793,0.000000,0.000000,1.000000
-20.411977,3.659792,2.347793,0.000000,-0.000000,1.000000
-27.710787,9.886229,10.963741,-1.000000,0.000000,0.000000
-27.710787,-6.822165,17.949983,-1.000000,0.000000,0.000000
-23.015202,-10.357555,10.048392,1.000000,0.000000,-0.000000
-23.015202,-1.038290,5.916413,1.000000,0.000000,-0.000000
-27.710787,6.947602,10.684917,-1.000000,0.000000,0.000000
-9.522029,-0.669894,2.347793,0.000000,-0.000000,1.000000
21.055899,-3.736750,-2.347793,0.000000,0.000000,-1.000000
-27.710787,12.238739,26.064323,-1.000000,0.000000,0.000000
-23.015202,-14.191960,9.544798,1.000000,0.000000,-0.000000
-27.710787,-2.425182,20.095014,-1.000000,0.000000,0.000000
25.551935,1.746876,2.347793,0.000000,-0.000000,1.000000
-25.549316,-11.761856,40.994747,0.000000,0.000000,1.000000
4.528193,11.672230,-2.347793,0.000000,-0.000000,-1.000000
-26.616403,15.014946,16.835969,0.000000,1.000000,0.000000
-25.186653,12.584823,-2.347793,0.000000,0.000000,-1.000000
0.392106,-14.939292,-2.347793,0.000000,0.000000,-1.000000
0.642681,-2.711395,-2.347793,0.000000,-0.000000,-1.000000
6.008166,11.601291,-2.347793,0.000000,-0.000000,-1.000000
21.813709,5.936720,2.347793,0.000000,-0.000000,1.000000
13.318843,-7.855356,2.347793,-0.000000,-0.000000,1.000000
-24.192355,-14.977621,-2.347793,0.000000,0.000000,-1.000000
-27.710787,-6.194378,19.805752,-1.000000,0.000000,0.000000
-23.015202,-6.630474,4.136088,1.000000,0.000000,-0.000000
-23.015202,-13.027735,31.039566,1.000000,0.000000,-0.000000
-24.082737,-14.596864,40.994747,0.000000,0.000000,1.000000
5.588206,5.346311,-2.347793,0.000000,-0.000000,-1.000000
-10.892355,-10.920557,2.347793,0.000000,-0.000000,1.000000
11.059419,-11.165237,2.347793,0.000000,-0.000000,1.000000
-13.617098,15.014946,-1.625443,-0.000000,1.000000,0.000000
-23.015202,11.788638,36.629389,1.000000,0.000000,-0.000000
-14.005667,6.072337,2.347793,0.000000,-0.000000,1.000000
-27.710787,10.095792,2.213005,-1.000000,0.000000,0.000000
-18.686134,-11.641214,-2.347793,0.000000,0.000000,-1.000000
27.710787,-4.713502,-0.886503,1.000000,0.000000,-0.000000
20.957374,12.650246,2.347793,0.000000,-0.000000,1.000000
-27.710787,-0.602135,19.187704,-1.000000,0.000000,0.000000
12.672085,-15.014946,-1.135397,0.000000,-1.000000,0.000000
-1.706016,7.896977,2.347793,0.000000,-0.000000,1.000000
-23.015202,-14.654872,27.884892,1.000000,0.000000,-0.000000
-24.290251,-9.745930,26.657619,0.000000,0.995185,-0.098017
12.518082,-7.508447,2.347793,-0.000000,-0.000000,1.000000
-25.465755,-12.659876,-2.347793,0.000000,0.000000,-1.000000
3.921066,-11.776876,-2.347793,0.000000,0.000000,-1.000000
-24.177098,15.014946,0.992825,0.000000,1.000000,0.000000
-27.710787,-8.443475,15.834649,-1.000000,0.000000,0.000000
11.855917,14.191984,2.347793,0.000000,-0.000000,1.000000
-23.015202,-10.734213,38.476579,1.000000,-0.000000,0.000000
-27.227626,-15.014946,1.581163,0.000000,-1.000000,0.000000
-27.710787,14.448215,11.563113,-1.000000,0.000000,0.000000
-14.817490,5.241163,-2.347793,0.000000,0.000000,-1.000000
25.624811,15.014946,0.296337,-0.000000,1.000000,0.000000
-23.015202,5.087146,12.168897,1.000000,0.000000,-0.000000
-26.883205,-1.756251,25.881659,0.000000,-0.995185,0.098017
2.767190,-3.747634,-1.820976,0.773010,-0.634393,0.000000
-25.977300,-4.444828,-2.347793,0.000000,0.000000,-1.000000
-1.106289,7.793991,-2.347793,0.000000,-0.000000,-1.000000
-9.963410,-3.497117,-2.347793,0.000000,0.000000,-1.000000
-23.015202,5.392001,14.930873,1.000000,0.000000,-0.000000
15.967504,9.151075,-2.347793,0.000000,-0.000000,-1.000000
-27.710787,8.242910,11.072528,-1.000000,0.000000,0.000000
10.892334,-9.554393,-2.347793,0.000000,0.000000,-1.000000
-27.710787,-12.622996,38.674252,-1.000000,0.000000,-0.000000
-27.710787,14.028096,35.292474,-1.000000,0.000000,0.000000
-26.447790,15.014946,38.911646,0.000000,1.000000,0.000000
-8.264808,7.107789,2.347793,0.000000,-0.000000,1.000000
-4.635438,13.410107,-2.347793,0.000000,-0.000000,-1.000000
23.252880,-5.612053,-2.347793,0.000000,0.000000,-1.000000
-27.710787,-1.137775,27.322812,-1.000000,-0.000000,0.000000
7.334376,15.014946,0.259639,-0.000000,1.000000,0.000000
10.584047,9.362085,2.347793,0.000000,-0.000000,1.000000
-27.710787,-5.655529,7.481408,-1.000000,0.000000,0.000000
-27.710787,-5.094972,33.879492,-1.000000,0.000000,-0.000000
-27.129756,15.014946,30.894248,0.000000,1.000000,0.000000
-10.572949,7.982667,-2.347793,0.000000,-0.000000,-1.000000
27.137996,-11.502060,2.347793,0.000000,-0.000000,1.000000
-26.121455,15.014946,2.243954,0.000000,1.000000,0.000000
2.095837,-3.122700,-2.347793,0.000000,-0.000000,-1.000000
23.368446,15.014946,1.631248,-0.000000,1.000000,0.000000
-23.358761,0.077732,40.994747,0.000000,0.000000,1.000000
16.120768,-7.204026,2.347793,-0.000000,-0.000000,1.000000
21.771612,-8.272625,2.347793,0.000000,0.000000,1.000000
-15.612965,7.759761,2.347793,0.000000,-0.000000,1.000000
13.955749,-9.634860,-2.347793,0.000000,0.000000,-1.000000
-24.158970,-8.084597,40.994747,0.000000,0.000000,1.000000
20.599097,3.806670,2.347793,0.000000,-0.000000,1.000000
-23.015202,3.713622,21.603464,1.000000,0.000000,-0.000000
-23.015202,-9.805305,33.287531,1.000000,-0.000000,0.000000
27.710787,14.999166,1.261680,1.000000,-0.000000,0.000000
-20.486751,-1.122567,2.347793,0.000000,-0.000000,1.000000
8.509938,-10.621907,-2.347793,0.000000,0.000000,-1.000000
-23.015202,-4.267106,17.922263,1.000000,0.000000,-0.000000
-23.015202,7.824760,4.440121,1.000000,0.000000,-0.000000
-2.532477,14.545105,2.347793,0.000000,-0.000000,1.000000
-17.094208,-9.692368,2.347793,0.000000,-0.000000,1.000000
-26.735991,-1.172956,-2.347793,0.000000,0.000000,-1.000000
-27.710787,7.341021,-2.023370,-1.000000,0.000000,0.000000
-7.600760,-11.423650,-2.347793,0.000000,0.000000,-1.000000
-23.015202,3.221192,31.416005,1.000000,0.000000,0.000000
5.411797,10.530724,-2.347793,0.000000,-0.000000,-1.000000
19.994668,-14.990004,-2.347793,0.000000,0.000000,-1.000000
-23.015202,8.202474,15.227969,1.000000,0.000000,-0.000000
-23.015202,-2.807374,40.026554,1.000000,-0.000000,0.000000
-27.710787,-3.965894,39.452755,-1.000000,0.000000,-0.000000
-27.710787,9.472810,38.627199,-1.000000,0.000000,-0.000000
-23.015202,-7.310350,13.995524,1.000000,0.000000,-0.000000
13.471365,-2.739682,-0.081752,-0.956940,-0.290284,0.000000
-20.261483,15.014946,0.655328,0.000000,1.000000,0.000000
-27.710787,-7.958118,30.548093,-1.000000,0.000000,-0.000000
-4.863586,-4.286931,-2.347793,0.000000,0.000000,-1.000000
11.639249,-14.451854,2.347793,0.000000,-0.000000,1.000000
0.532256,9.329262,-2.347793,0.000000,-0.000000,-1.000000
-9.076092,-14.693496,2.347793,0.000000,-0.000000,1.000000
-24.852577,-13.540854,40.994747,0.000000,0.000000,1.000000
-27.710787,-2.751719,34.799997,-1.000000,0.000000,-0.000000
16.110732,-7.645505,2.347793,-0.000000,-0.000000,1.000000
-1.872076,7.713875,2.347793,0.000000,-0.000000,1.000000
15.466439,-6.076276,-2.347793,0.000000,0.000000,-1.000000
10.808261,4.745449,2.347793,0.000000,0.000000,1.000000
25.045812,-8.955425,-2.347793,0.000000,0.000000,-1.000000
-27.056849,13.093790,-2.347793,0.000000,0.000000,-1.000000
-2.891770,-15.014946,1.421076,0.000000,-1.000000,0.000000
21.792564,-8.448040,2.347793,-0.000000,-0.000000,1.000000
-24.744920,-6.559879,29.979775,0.000000,0.098017,-0.995185
-25.682757,-15.014946,21.237940,0.000000,-1.000000,0.000000
-26.212897,-9.808336,26.023994,0.000000,0.995185,0.098017
-13.563212,9.143144,2.347793,0.000000,-0.000000,1.000000
-27.097221,-8.028715,22.681131,0.000000,0.634394,0.773010
15.525761,12.181333,-2.347793,0.000000,-0.000000,-1.000000
10.332925,-7.981782,-0.272856,-0.098017,0.995185,0.000000
-23.015202,-13.967531,17.308800,1.000000,0.000000,-0.000000
-25.477298,-3.899575,29.572421,0.000000,-0.471397,-0.881921
15.615315,-11.192582,-2.347793,0.000000,0.000000,-1.000000
-19.240019,13.129437,-2.347793,0.000000,-0.000000,-1.000000
10.122766,-0.026769,-0.623623,-0.098017,-0.995185,0.000000
-20.907008,3.947381,-2.347793,0.000000,0.000000,-1.000000
-13.267212,15.014946,-1.365350,-0.000000,1.000000,0.000000
4.795644,-12.965800,-2.347793,0.000000,0.000000,-1.000000
-3.141561,7.618996,-2.347793,0.000000,-0.000000,-1.000000
-23.015202,-12.246095,30.058399,1.000000,0.000000,-0.000000
23.231297,-10.431039,2.347793,-0.000000,-0.000000,1.000000
-23.015202,9.025035,27.596546,1.000000,0.000000,-0.000000
24.958098,8.462192,2.347793,0.000000,-0.000000,1.000000
26.438862,13.555706,-2.347793,0.000000,0.000000,-1.000000
23.398689,15.014946,-0.009052,-0.000000,1.000000,0.000000
24.662524,-11.144580,2.347793,0.000000,0.000000,1.000000
-24.813252,15.014946,21.279220,-0.000000,1.000000,0.000000
18.709665,-11.737272,-2.347793,0.000000,0.000000,-1.000000
27.710787,-13.756683,0.235769,1.000000,0.000000,-0.000000
-15.867966,-1.972502,2.347793,0.000000,-0.000000,1.000000
-5.544378,-13.645245,2.347793,0.000000,-0.000000,1.000000
-27.710787,-7.134831,16.941791,-1.000000,0.000000,0.000000
24.338856,9.292142,-2.347793,0.000000,0.000000,-1.000000
-27.710787,-0.918756,19.948494,-1.000000,0.000000,0.000000
-26.610573,-15.014946,32.653014,0.000000,-1.000000,0.000000
-23.015202,-10.826523,32.808665,1.000000,-0.000000,0.000000
-27.710787,6.978783,17.708236,-1.000000,0.000000,0.000000
-23.204417,15.014946,28.494479,-0.000000,1.000000,0.000000
-16.153434,-3.253706,-2.347793,0.000000,0.000000,-1.000000
10.967593,-0.036395,1.664163,0.881921,0.471398,0.000000
-18.759142,6.225569,-2.347793,0.000000,0.000000,-1.000000
-23.015202,-11.673817,39.467480,1.000000,-0.000000,0.000000
27.710787,10.717177,0.149905,1.000000,-0.000000,0.000000
21.327234,-4.680708,-2.347793,0.000000,0.000000,-1.000000
-27.710787,-5.988339,-0.737486,-1.000000,0.000000,0.000000
-26.687969,-15.014946,2.464987,0.000000,-1.000000,0.000000
0.192619,-5.645110,-2.347793,0.000000,-0.000000,-1.000000
-27.710787,-14.950259,12.191751,-1.000000,0.000000,0.000000
-8.680856,-6.816366,2.347793,0.000000,0.000000,1.000000
19.283705,11.521521,-2.347793,0.000000,-0.000000,-1.000000
-27.710787,5.198703,22.268852,-1.000000,0.000000,0.000000
-24.620877,-15.014946,35.089148,0.000000,-1.000000,0.000000
-12.183300,0.649826,2.347793,0.000000,-0.000000,1.000000
-12.508698,7.513462,-2.347793,0.000000,-0.000000,-1.000000
-4.787370,10.766302,2.347793,0.000000,-0.000000,1.000000
-23.015202,10.941996,5.063178,1.000000,0.000000,-0.000000
-27.710787,2.384554,40.779311,-1.000000,0.000000,-0.000000
-19.714768,-8.639954,2.347793,0.000000,-0.000000,1.000000
16.696227,-9.059757,2.347793,-0.000000,-0.000000,1.000000
27.710787,-10.247852,-1.863853,1.000000,0.000000,-0.000000
-23.015202,-2.412909,40.292579,1.000000,-0.000000,0.000000
27.710787,1.462959,-0.402521,1.000000,0.000000,-0.000000
-23.015202,-4.006844,6.409073,1.000000,0.000000,-0.000000
13.893947,-14.418074,2.347793,0.000000,-0.000000,1.000000
-1.165307,-2.604286,2.347793,0.000000,0.000000,1.000000
-12.196647,2.839926,2.347793,0.000000,-0.000000,1.000000
27.710787,-4.033387,-0.258312,1.000000,0.000000,-0.000000
-27.710787,0.792571,3.331475,-1.000000,0.000000,0.000000
14.701208,5.652537,0.565890,-0.098017,-0.995185,-0.000000
19.243867,-4.909524,2.347793,0.000000,0.000000,1.000000
-23.015202,-8.788245,22.825894,1.000000,0.000000,-0.000000
-24.296080,0.537738,40.994747,0.000000,0.000000,1.000000
-23.015202,-0.241244,17.434413,1.000000,0.000000,-0.000000
-27.710787,-8.679809,40.392885,-1.000000,0.000000,-0.000000
-25.086476,-15.014946,5.232015,0.000000,-1.000000,0.000000
-27.710787,3.986611,38.169977,-1.000000,0.000000,-0.000000
-27.710787,10.944367,9.029211,-1.000000,0.000000,0.000000
-27.710787,-0.704247,5.082378,-1.000000,0.000000,0.000000
-27.710787,14.890239,-1.077929,-1.000000,0.000000,0.000000
-27.710787,-5.967189,34.143676,-1.000000,0.000000,-0.000000
-19.208026,4.959356,2.347793,0.000000,-0.000000,1.000000
23.840880,3.810784,-2.347793,0.000000,0.000000,-1.000000
18.211007,-6.232284,2.347793,-0.000000,-0.000000,1.000000
-27.710787,-8.489583,40.345376,-1.000000,0.000000,-0.000000
-27.710787,-11.786174,10.980119,-1.000000,0.000000,0.000000
17.530263,4.418969,-1.453034,-0.773010,-0.634393,0.000000
14.062993,10.273538,-2.347793,0.000000,-0.000000,-1.000000
-21.582918,-5.687807,-2.347793,0.000000,0.000000,-1.000000
-16.047326,1.866596,2.347793,0.000000,-0.000000,1.000000
-23.015202,12.876249,28.690984,1.000000,0.000000,-0.000000
25.468471,7.596672,2.347793,0.000000,-0.000000,1.000000
-27.415905,13.615058,-2.347793,0.000000,0.000000,-1.000000
21.580032,-5.605267,-2.347793,0.000000,0.000000,-1.000000
-27.710787,-12.905175,24.291939,-1.000000,0.000000,0.000000
0.190972,10.275276,-2.347793,0.000000,-0.000000,-1.000000
-20.338716,5.833594,-2.347793,0.000000,0.000000,-1.000000
11.636390,-7.588081,-2.347793,0.000000,0.000000,-1.000000
4.107486,-13.967593,-2.347793,0.000000,0.000000,-1.000000
-7.778075,-10.372396,-2.347793,0.000000,0.000000,-1.000000
-27.194803,-15.014946,7.621572,0.000000,-1.000000,0.000000
-23.015202,6.579137,7.204815,1.000000,0.000000,-0.000000
-2.067196,8.789706,2.347793,0.000000,-0.000000,1.000000
7.439668,-0.652481,-2.177120,0.471397,-0.881921,0.000000
-27.710787,-11.721331,8.118634,-1.000000,0.000000,0.000000
27.710787,10.457946,0.536445,1.000000,-0.000000,0.000000
-27.710787,4.451308,32.556685,-1.000000,-0.000000,0.000000
-26.745914,-15.014946,11.595955,0.000000,-1.000000,0.000000
-27.710787,10.300271,24.703186,-1.000000,0.000000,0.000000
-23.015202,4.254921,9.097317,1.000000,0.000000,-0.000000
-26.975364,-2.825954,-2.347793,0.000000,0.000000,-1.000000
23.632397,-12.239243,-2.347793,0.000000,0.000000,-1.000000
-11.128406,9.407145,-2.347793,0.000000,-0.000000,-1.000000
-23.015202,-6.213176,7.136329,1.000000,0.000000,-0.000000
-27.496683,-15.014946,15.138893,0.000000,-1.000000,0.000000
-25.490762,-10.283308,-2.347793,0.000000,0.000000,-1.000000
-27.710787,-7.541443,8.738817,-1.000000,0.000000,0.000000
-26.230022,15.014946,18.921287,0.000000,1.000000,0.000000
-23.807865,-15.014946,10.521261,0.000000,-1.000000,0.000000
-23.015202,-2.448322,22.021401,1.000000,0.000000,0.000000
-27.666037,-15.014946,29.530835,0.000000,-1.000000,0.000000
-27.710787,-13.099213,38.576657,-1.000000,0.000000,-0.000000
11.986019,15.014946,-1.504857,-0.000000,1.000000,0.000000
-27.710787,7.611287,18.486619,-1.000000,0.000000,0.000000
-4.851428,-9.748708,-2.347793,0.000000,0.000000,-1.000000
3.773644,-12.569311,2.347793,0.000000,-0.000000,1.000000
22.699305,-15.014946,-1.164548,0.000000,-1.000000,0.000000
-14.242572,-0.107045,-2.347793,0.000000,0.000000,-1.000000
11.823571,-7.411255,-0.373973,-0.471398,0.881921,0.000000
-27.676460,-9.799635,25.935652,0.000000,0.995185,0.098017
-24.305477,15.014946,0.848567,0.000000,1.000000,0.000000
-4.132668,-4.598237,2.347793,0.000000,0.000000,1.000000
-23.015202,-12.279803,13.465339,1.000000,0.000000,-0.000000
-27.474648,-13.127242,-2.347793,0.000000,0.000000,-1.000000
-27.710787,5.462799,11.752160,-1.000000,0.000000,0.000000
10.949198,-9.582807,-2.347793,0.000000,0.000000,-1.000000
-23.015202,4.609113,11.334059,1.000000,0.000000,-0.000000
-27.710787,-2.557646,-0.067336,-1.000000,0.000000,0.000000
-25.371293,-9.304537,24.112424,0.000000,0.881921,0.471397
-27.710787,1.990084,3.280725,-1.000000,0.000000,0.000000
-27.710787,-10.658876,5.620678,-1.000000,0.000000,0.000000
-23.015202,2.544988,24.068817,1.000000,0.000000,-0.000000
7.411351,10.402817,-2.347793,0.000000,-0.000000,-1.000000
21.418850,11.786638,2.347793,0.000000,-0.000000,1.000000
-23.668534,-15.014946,34.933403,0.000000,-1.000000,0.000000
-27.710787,-14.951709,34.106631,-1.000000,0.000000,0.000000
-27.710787,0.688713,5.563535,-1.000000,0.000000,0.000000
-27.710787,-4.825951,1.357247,-1.000000,0.000000,0.000000
-10.899045,-1.799204,2.347793,0.000000,-0.000000,1.000000
-27.710787,-14.641772,13.002477,-1.000000,0.000000,0.000000
-10.244609,-1.907586,-2.347793,0.000000,0.000000,-1.000000
15.271546,-6.296539,2.347793,-0.000000,-0.000000,1.000000
-27.710787,-2.599659,16.435588,-1.000000,0.000000,0.000000
-26.362809,15.014946,17.074231,0.000000,1.000000,0.000000
-23.015202,12.543288,4.784424,1.000000,0.000000,-0.000000
-12.229036,-15.014946,1.052433,0.000000,-1.000000,0.000000
-23.015202,12.895936,29.203427,1.000000,0.000000,-0.000000
-23.607884,-15.014946,21.364328,0.000000,-1.000000,0.000000
-14.204131,3.177508,-2.347793,0.000000,0.000000,-1.000000
1.583870,11.436066,-2.347793,0.000000,-0.000000,-1.000000
-27.469378,-7.920794,29.428210,0.000000,0.471397,-0.881921
-23.015202,-6.652473,4.027845,1.000000,0.000000,-0.000000
-23.015202,-7.636622,11.449504,1.000000,0.000000,-0.000000
-8.760197,8.626956,2.347793,0.000000,-0.000000,1.000000
-16.622660,10.896037,-2.347793,0.000000,0.000000,-1.000000
-23.015202,-8.431012,15.331804,1.000000,0.000000,-0.000000
-23.015202,-11.156177,30.948082,1.000000,-0.000000,0.000000
-27.710787,5.264329,-0.225157,-1.000000,0.000000,0.000000
-23.265937,4.247005,40.994747,0.000000,0.000000,1.000000
27.710787,-2.470668,0.763791,1.000000,-0.000000,0.000000
-27.710787,11.595210,38.222498,-1.000000,-0.000000,0.000000
3.273414,1.447096,2.347793,0.000000,-0.000000,1.000000
-27.710787,-8.646274,2.194497,-1.000000,0.000000,0.000000
-15.617534,10.283255,2.347793,0.000000,-0.000000,1.000000
-27.710787,-12.604672,39.595721,-1.000000,0.000000,-0.000000
5.020721,-14.045379,2.347793,0.000000,-0.000000,1.000000
-23.015202,6.422953,9.725565,1.000000,0.000000,-0.000000
13.885899,15.014946,0.752553,-0.000000,1.000000,0.000000
25.098802,12.896516,-2.347793,0.000000,-0.000000,-1.000000
-23.015202,-1.433487,40.036541,1.000000,-0.000000,0.000000
-21.084946,6.134024,-2.347793,0.000000,0.000000,-1.000000
-0.066311,-15.014946,-1.784663,0.000000,-1.000000,0.000000
-13.412179,-4.036652,2.347793,0.000000,-0.000000,1.000000
19.445421,-8.379811,2.347793,-0.000000,-0.000000,1.000000
-27.147263,-3.485845,40.994747,0.000000,-0.000000,1.000000
-23.015202,14.042420,7.062413,1.000000,0.000000,-0.000000
-25.302986,14.433298,-2.347793,0.000000,-0.000000,-1.000000
-26.707173,-14.198616,-2.347793,0.000000,0.000000,-1.000000
-23.015202,7.160694,32.986977,1.000000,0.000000,-0.000000
-12.459296,0.601613,2.347793,0.000000,-0.000000,1.000000
7.492424,14.559669,-2.347793,0.000000,-0.000000,-1.000000
-26.381394,-15.014946,3.873916,0.000000,-1.000000,0.000000
-2.139078,14.391192,2.347793,0.000000,-0.000000,1.000000
-20.454827,-0.068156,-2.347793,0.000000,0.000000,-1.000000
-27.710787,4.229810,36.602477,-1.000000,0.000000,-0.000000
-23.015202,7.028729,30.399285,1.000000,0.000000,-0.000000
-27.710787,8.254906,-0.938637,-1.000000,0.000000,0.000000
27.710787,-12.988639,-2.063821,1.000000,0.000000,-0.000000
-27.710787,4.032419,15.380903,-1.000000,0.000000,0.000000
-27.710787,9.403361,25.328884,-1.000000,0.000000,0.000000
2.923566,-8.482371,2.347793,0.000000,-0.000000,1.000000
-27.710787,1.004752,27.312166,-1.000000,-0.000000,0.000000
-5.215561,8.171708,-2.347793,0.000000,-0.000000,-1.000000
-27.710787,5.687284,37.423785,-1.000000,0.000000,-0.000000
18.630422,-11.395056,-2.347793,0.000000,0.000000,-1.000000
-3.077455,0.656574,2.347793,0.000000,-0.000000,1.000000
-23.015202,-12.303163,33.775615,1.000000,-0.000000,0.000000
-25.350993,-15.014946,24.867028,0.000000,-1.000000,0.000000
-9.923194,-8.442780,2.347793,0.000000,0.000000,1.000000
-23.015202,-6.539370,35.985272,1.000000,-0.000000,0.000000
-13.479518,-8.893096,-2.347793,0.000000,0.000000,-1.000000
-10.600175,5.623939,2.347793,0.000000,-0.000000,1.000000
3.676103,-9.205191,-1.091492,0.634394,0.773010,-0.000000
-27.710787,3.037616,27.607901,-1.000000,0.000000,0.000000
-23.015202,3.269233,21.683702,1.000000,0.000000,-0.000000
-23.015202,-6.328239,36.674584,1.000000,-0.000000,0.000000
-27.710787,13.949084,6.512603,-1.000000,0.000000,0.000000
-2.617335,-15.014946,-0.296635,0.000000,-1.000000,0.000000
23.167258,-3.704667,2.347793,0.000000,-0.000000,1.000000
