x,y,z,nx,ny,nz
3.421171,-3.578279,-44.211923,0.634393,-0.773010,0.000000
-8.859349,0.340731,4.907247,-0.866025,0.500000,0.000000
-8.655125,0.694458,0.579048,-0.866025,0.500000,0.000000
-2.710366,4.148621,-28.516724,-0.471396,0.881921,0.000000
4.696291,-1.523831,-46.903057,0.956940,-0.290285,0.000000
-6.285899,4.798078,7.546450,-0.866025,0.500000,0.000000
1.425470,-4.726128,-57.140947,0.290285,-0.956940,0.000000
5.673807,-5.858252,2.842107,0.866025,-0.500000,0.000000
7.927996,1.953883,1.810917,0.866025,0.500000,0.000000
1.979719,4.539160,-44.189245,0.471396,0.881921,-0.000000
-0.535418,5.061171,9.105390,0.000000,0.000000,1.000000
3.945627,2.973557,-29.612370,0.773010,0.634393,-0.000000
4.582630,-2.554969,0.000000,0.000000,0.000000,-1.000000
1.934434,-4.563365,-35.282551,0.471396,-0.881921,0.000000
3.992898,2.915956,-32.878480,0.773010,0.634393,0.000000
-3.385712,5.980677,9.105390,0.000000,0.000000,1.000000
3.950686,-0.008853,9.105390,-0.000000,0.000000,1.000000
4.807567,-1.157003,-31.772658,0.956940,-0.290285,0.000000
-4.500392,2.052250,-40.064622,-0.881921,0.471396,0.000000
-0.309664,-7.842787,8.699434,-0.000000,-1.000000,-0.000000
-0.630716,7.842787,7.178317,-0.000000,1.000000,0.000000
0.411554,-4.919765,-32.508844,0.098017,-0.995185,0.000000
1.103959,4.823658,-35.372016,0.290285,0.956940,-0.000000
0.284539,-4.932275,-32.772843,0.098017,-0.995185,0.000000
-6.361726,-4.666741,3.829249,-0.866025,-0.500000,0.000000
-1.575597,-4.680588,-47.122962,-0.290285,-0.956940,0.000000
-2.211699,-4.415165,-45.565560,-0.471396,-0.881921,0.000000
-0.484771,5.825071,9.105390,0.000000,0.000000,1.000000
5.291851,-6.144383,9.105390,0.000000,0.000000,1.000000
-2.899866,1.517684,9.105390,0.000000,0.000000,1.000000
-4.484783,-6.418685,9.105390,0.000000,0.000000,1.000000
-3.296995,-6.126397,0.000000,0.000000,0.000000,-1.000000
-4.869202,0.924930,-50.761683,-0.995185,0.098017,0.000000
-3.969376,4.730760,0.000000,0.000000,0.000000,-1.000000
-0.595166,4.901681,-23.953269,-0.098017,0.995185,0.000000
-6.253092,-4.854902,8.691354,-0.866025,-0.500000,0.000000
8.566341,0.848236,4.077012,0.866025,0.500000,0.000000
2.984301,-3.604151,-22.566689,0.000000,-0.000000,1.000000
2.994303,-3.928601,-40.628432,0.634393,-0.773010,0.000000
-2.563718,4.227006,-40.409387,-0.471396,0.881921,0.000000
4.644778,-1.693648,-52.638262,0.956940,-0.290285,0.000000
3.428187,1.139553,-58.594673,-0.000000,0.000000,-1.000000
4.632596,-1.733804,-25.401468,0.956940,-0.290285,0.000000
0.617542,-4.899477,-28.604495,0.098017,-0.995185,0.000000
-1.806083,4.610671,-53.299028,-0.290285,0.956940,0.000000
3.484608,-3.526218,-30.262746,0.634393,-0.773010,0.000000
3.162278,6.072014,0.000000,0.000000,0.000000,-1.000000
1.715710,-4.638085,-35.370385,0.290285,-0.956940,0.000000
-0.679048,-1.769145,0.000000,0.000000,0.000000,-1.000000
-0.881055,-4.873524,-50.910032,-0.098017,-0.995185,0.000000
1.561920,-4.684737,-57.817578,0.290285,-0.956940,0.000000
-7.122997,-3.348182,8.940781,-0.866025,-0.500000,0.000000
-0.030059,-2.039477,9.105390,-0.000000,0.000000,1.000000
-1.279626,4.770370,-41.962098,-0.290285,0.956940,0.000000
-1.685196,-2.442521,-58.594673,0.000000,-0.000000,-1.000000
-0.717739,-2.140193,-22.566689,-0.000000,0.000000,1.000000
-0.531541,4.907948,-22.826942,-0.098017,0.995185,0.000000
4.163896,2.681790,-37.727973,0.881921,0.471396,-0.000000
3.638471,-3.347827,-25.986059,0.773010,-0.634393,0.000000
-3.451511,-3.553380,-51.305460,-0.634393,-0.773010,0.000000
-1.312530,-0.809949,9.105390,0.000000,0.000000,1.000000
5.435814,6.270468,3.837026,0.866025,0.500000,0.000000
3.294380,3.682334,-38.517784,0.634393,0.773010,0.000000
-1.726119,-3.554148,0.000000,0.000000,0.000000,-1.000000
4.876859,-0.847189,-39.044296,0.995185,-0.098017,0.000000
-5.565958,-3.985156,9.105390,0.000000,0.000000,1.000000
-2.980796,3.939686,-28.254956,-0.634393,0.773010,0.000000
-2.410196,7.842787,1.937602,-0.000000,1.000000,0.000000
4.541886,-1.974620,-56.428493,0.881921,-0.471396,0.000000
-8.700177,-0.616425,0.019062,-0.866025,-0.500000,-0.000000
-4.921427,-0.394686,-58.321607,-0.995185,-0.098017,0.000000
3.972161,-2.941225,-55.429954,0.773010,-0.634393,0.000000
3.163758,-0.020456,-22.566689,0.000000,-0.000000,1.000000
-6.590998,4.269630,1.190056,-0.866025,0.500000,0.000000
-3.783581,-2.291614,-58.594673,0.000000,-0.000000,-1.000000
-3.227173,-3.737490,-48.685570,-0.634393,-0.773010,0.000000
-4.923688,-7.157496,6.844509,-0.866025,-0.500000,0.000000
4.877218,-0.843548,-48.745378,0.995185,-0.098017,0.000000
3.423220,-7.842787,1.311499,-0.000000,-1.000000,-0.000000
1.403181,4.732890,-52.331541,0.290285,0.956940,0.000000
-6.120672,5.084259,5.071095,-0.866025,0.500000,0.000000
-1.724255,3.613815,-22.566689,0.000000,0.000000,1.000000
0.409300,-4.919987,-57.393176,0.098017,-0.995185,0.000000
5.372610,-6.379940,3.017168,0.866025,-0.500000,0.000000
-2.613134,4.200105,0.000000,0.000000,0.000000,-1.000000
-4.872489,4.781194,0.000000,0.000000,0.000000,-1.000000
-2.319157,-1.048241,-58.594673,0.000000,-0.000000,-1.000000
-4.950471,-0.099791,-40.546194,-0.995185,-0.098017,0.000000
-4.372889,-7.842787,3.299797,-0.000000,-1.000000,-0.000000
4.293699,-2.438945,-42.838621,0.881921,-0.471396,0.000000
-3.698970,3.274109,-38.818976,-0.773010,0.634393,0.000000
-4.514494,-4.016048,9.105390,0.000000,0.000000,1.000000
-8.400305,1.135818,4.116451,-0.866025,0.500000,0.000000
1.985950,-4.535830,-38.738231,0.471396,-0.881921,0.000000
-4.746610,-1.357953,-43.966465,-0.956940,-0.290285,0.000000
3.544236,3.462652,-57.788346,0.773010,0.634393,0.000000
4.033044,-2.867039,-41.703438,0.773010,-0.634393,0.000000
4.587418,-1.882737,-47.978360,0.956940,-0.290285,0.000000
-2.217031,4.412315,-29.733899,-0.471396,0.881921,0.000000
-5.619182,5.952866,6.360922,-0.866025,0.500000,0.000000
4.717040,-6.991254,0.000000,0.000000,0.000000,-1.000000
-4.592987,-1.864379,-27.417900,-0.956940,-0.290285,0.000000
4.835005,4.703039,9.105390,0.000000,0.000000,1.000000
-1.793573,-4.614466,-52.472493,-0.290285,-0.956940,0.000000
-4.849487,-1.006135,-22.566689,-0.000000,0.000000,1.000000
-1.437280,4.722546,-24.696480,-0.290285,0.956940,0.000000
2.640138,4.186159,-35.385735,0.471396,0.881921,0.000000
-0.791623,-7.842787,3.818859,-0.000000,-1.000000,-0.000000
1.534158,4.693158,-22.908898,0.290285,0.956940,-0.000000
4.865091,0.966673,-24.513368,0.995185,0.098017,-0.000000
8.002081,-1.825563,4.531928,0.866025,-0.500000,0.000000
4.889438,0.719470,-54.967064,0.995185,0.098017,0.000000
-2.901804,-4.004513,-34.833201,-0.634393,-0.773010,0.000000
-4.457306,-2.132858,-33.895880,-0.881921,-0.471396,0.000000
0.406441,4.920269,-46.631633,0.098017,0.995185,0.000000
3.383153,-3.609480,-31.416575,0.634393,-0.773010,0.000000
4.663458,-1.632067,-22.763684,0.956940,-0.290285,0.000000
4.533311,-1.194111,-22.566689,0.000000,-0.000000,1.000000
-1.365992,-4.744171,-47.963042,-0.290285,-0.956940,0.000000
-4.430246,-2.183484,-51.927755,-0.881921,-0.471396,0.000000
-2.188120,-4.427768,-23.449649,-0.471396,-0.881921,0.000000
1.239961,-7.842787,5.585569,-0.000000,-1.000000,-0.000000
-1.474109,7.842787,4.078860,-0.000000,1.000000,0.000000
0.153154,-4.945216,-45.731444,0.098017,-0.995185,0.000000
-0.459742,-7.842787,4.509172,-0.000000,-1.000000,-0.000000
2.591814,7.842787,4.283050,-0.000000,1.000000,0.000000
4.596227,-1.853699,-45.524865,0.956940,-0.290285,0.000000
-5.556304,6.061774,3.947772,-0.866025,0.500000,0.000000
-0.235848,7.656009,9.105390,0.000000,0.000000,1.000000
-4.189503,-2.633883,-40.226102,-0.881921,-0.471396,0.000000
2.893366,-4.011438,-44.006177,0.634393,-0.773010,0.000000
-4.444147,-2.157477,-25.113995,-0.881921,-0.471396,0.000000
-1.222202,-7.842787,2.258068,-0.000000,-1.000000,-0.000000
6.570286,1.228694,0.000000,0.000000,0.000000,-1.000000
-8.391255,1.151494,5.137869,-0.866025,0.500000,0.000000
4.796856,7.377176,4.725114,0.866025,0.500000,0.000000
3.903942,3.024350,-23.740865,0.773010,0.634393,-0.000000
5.966513,5.351270,4.662763,0.866025,0.500000,0.000000
-4.908724,0.523661,-51.386834,-0.995185,0.098017,0.000000
4.739485,-1.381439,-39.194301,0.956940,-0.290285,0.000000
-4.946257,0.142581,-25.096653,-0.995185,0.098017,0.000000
-0.638783,-7.842787,2.878474,-0.000000,-1.000000,-0.000000
0.689763,4.538154,9.105390,0.000000,0.000000,1.000000
4.220420,2.576040,-23.862015,0.881921,0.471396,-0.000000
-4.044236,2.853401,-25.236084,-0.773010,0.634393,0.000000
-0.363461,0.658910,0.000000,0.000000,0.000000,-1.000000
3.370179,-0.374800,-58.594673,0.000000,0.000000,-1.000000
-4.414873,7.842787,1.463713,-0.000000,1.000000,0.000000
-3.929049,-2.993757,-32.275707,-0.773010,-0.634393,0.000000
6.839369,2.360791,0.000000,0.000000,0.000000,-1.000000
-3.636815,-7.842787,7.865919,-0.000000,-1.000000,-0.000000
-4.089211,-2.798599,-35.921909,-0.773010,-0.634393,0.000000
-2.723007,-7.842787,2.226497,-0.000000,-1.000000,-0.000000
3.843500,3.097998,-27.972180,0.773010,0.634393,-0.000000
-4.505833,2.042069,-37.957281,-0.881921,0.471396,0.000000
-2.065075,7.122492,9.105390,0.000000,0.000000,1.000000
7.255034,-3.119487,8.386529,0.866025,-0.500000,0.000000
-2.830403,4.866679,9.105390,0.000000,0.000000,1.000000
3.201159,3.758839,-57.062765,0.634393,0.773010,0.000000
6.040739,-2.118481,0.000000,0.000000,0.000000,-1.000000
-5.449539,-6.246696,7.523987,-0.866025,-0.500000,0.000000
-2.275821,1.448984,0.000000,0.000000,0.000000,-1.000000
2.281751,-4.377721,-23.807643,0.471396,-0.881921,0.000000
1.956029,1.763012,0.000000,0.000000,0.000000,-1.000000
5.193161,-1.952354,9.105390,0.000000,0.000000,1.000000
-2.212647,4.414658,-24.051721,-0.471396,0.881921,0.000000
4.873399,-0.882326,-38.056777,0.995185,-0.098017,0.000000
-7.074548,2.059195,0.000000,0.000000,0.000000,-1.000000
5.080060,-1.974045,9.105390,0.000000,0.000000,1.000000
0.740237,-7.842787,1.583209,-0.000000,-1.000000,-0.000000
6.796395,-3.913873,4.937011,0.866025,-0.500000,0.000000
-3.995499,2.912788,-53.107627,-0.773010,0.634393,0.000000
3.990769,2.918551,-35.530229,0.773010,0.634393,0.000000
-3.379123,3.612787,-34.189493,-0.634393,0.773010,0.000000
-0.663815,-4.894920,-32.064500,-0.098017,-0.995185,0.000000
1.151571,-6.424460,0.000000,0.000000,0.000000,-1.000000
-4.780967,1.244691,-34.900438,-0.956940,0.290285,0.000000
4.489026,-2.073514,-24.900636,0.881921,-0.471396,0.000000
8.137683,-1.590694,8.033749,0.866025,-0.500000,0.000000
-1.778597,4.619009,-51.427884,-0.290285,0.956940,0.000000
3.255587,3.714170,-24.018962,0.634393,0.773010,-0.000000
6.918830,1.402492,9.105390,0.000000,0.000000,1.000000
-0.021448,-4.958187,-27.503616,-0.098017,-0.995185,0.000000
3.719437,3.249169,-46.133257,0.773010,0.634393,-0.000000
-4.674495,-1.595683,-23.050056,-0.956940,-0.290285,0.000000
-3.412315,3.585547,-30.108194,-0.634393,0.773010,0.000000
-2.985004,3.936233,-40.462076,-0.634393,0.773010,0.000000
-8.220358,-1.447496,8.268192,-0.866025,-0.500000,0.000000
6.900628,-3.733335,3.003083,0.866025,-0.500000,0.000000
0.205156,4.940094,-27.427989,0.098017,0.995185,-0.000000
-1.088082,-4.453313,-22.566689,-0.000000,0.000000,1.000000
3.936713,2.984418,-42.274392,0.773010,0.634393,0.000000
4.869028,0.657026,-58.594673,0.000000,0.000000,-1.000000
1.168065,-0.073177,0.000000,0.000000,0.000000,-1.000000
-8.390835,1.152221,0.186468,-0.866025,0.500000,0.000000
-4.070604,-2.821272,-24.659502,-0.773010,-0.634393,0.000000
5.856849,-5.541214,0.749507,0.866025,-0.500000,0.000000
-1.357075,-4.746876,-49.184937,-0.290285,-0.956940,0.000000
-4.163384,-3.855295,9.105390,0.000000,0.000000,1.000000
4.109205,-1.288419,0.000000,0.000000,0.000000,-1.000000
-6.775518,-3.950033,2.304546,-0.866025,-0.500000,-0.000000
-2.071382,-3.004879,0.000000,0.000000,0.000000,-1.000000
3.076705,3.860975,-57.382974,0.634393,0.773010,0.000000
-7.877262,-1.356297,0.000000,0.000000,0.000000,-1.000000
-5.055189,-6.929729,7.098068,-0.866025,-0.500000,0.000000
-1.180602,4.800408,-41.572501,-0.290285,0.956940,0.000000
-3.881239,1.257903,0.000000,0.000000,0.000000,-1.000000
-3.678563,-3.298975,-32.254328,-0.773010,-0.634393,0.000000
-4.919380,0.415468,-30.514488,-0.995185,0.098017,0.000000
0.459524,-4.915041,-35.229664,0.098017,-0.995185,0.000000
-1.958496,4.550504,-31.139984,-0.471396,0.881921,0.000000
-0.294243,2.714559,9.105390,0.000000,0.000000,1.000000
-5.191366,4.428450,9.105390,0.000000,0.000000,1.000000
0.422115,7.842787,7.209511,-0.000000,1.000000,0.000000
3.473954,-3.534961,-27.347605,0.634393,-0.773010,0.000000
2.633505,-7.842787,5.764236,-0.000000,-1.000000,-0.000000
2.719762,4.143599,-48.503814,0.471396,0.881921,0.000000
-5.816992,3.597563,9.105390,0.000000,0.000000,1.000000
4.746231,3.220563,9.105390,0.000000,0.000000,1.000000
0.816811,-4.879851,-23.969255,0.098017,-0.995185,0.000000
4.231953,2.554463,-36.655690,0.881921,0.471396,-0.000000
-2.294339,-2.723526,0.000000,0.000000,0.000000,-1.000000
0.702996,4.891061,-53.120070,0.098017,0.995185,0.000000
0.148389,1.906935,-22.566689,0.000000,0.000000,1.000000
5.563261,1.752695,9.105390,0.000000,0.000000,1.000000
-4.763629,7.434727,3.034596,-0.866025,0.500000,0.000000
0.712864,3.092172,-58.594673,-0.000000,0.000000,-1.000000
5.248773,-6.594432,1.721869,0.866025,-0.500000,0.000000
-4.583584,-2.250610,9.105390,0.000000,0.000000,1.000000
1.442661,4.720914,-31.381963,0.290285,0.956940,-0.000000
0.124321,-4.948055,-26.211912,0.098017,-0.995185,0.000000
4.920119,-0.407968,-30.979462,0.995185,-0.098017,0.000000
0.566325,2.452975,0.000000,0.000000,0.000000,-1.000000
-3.804992,3.144920,-53.475665,-0.773010,0.634393,0.000000
3.609065,-3.383659,-58.536475,0.773010,-0.634393,0.000000
8.849263,0.358201,8.650420,0.866025,0.500000,0.000000
4.198967,-7.842787,0.520613,-0.000000,-1.000000,-0.000000
2.604642,4.205132,-36.511984,0.471396,0.881921,0.000000
-2.490629,-4.266073,-42.153597,-0.471396,-0.881921,0.000000
-4.681224,1.573500,-49.423359,-0.956940,0.290285,0.000000
-3.481765,-3.528551,-54.283170,-0.634393,-0.773010,0.000000
-4.880391,-0.811327,-22.698746,-0.995185,-0.098017,0.000000
6.754721,-3.986054,4.687491,0.866025,-0.500000,0.000000
-5.801515,-5.637056,2.935676,-0.866025,-0.500000,0.000000
5.956695,-5.368276,1.770363,0.866025,-0.500000,0.000000
4.675419,-1.592635,-23.078154,0.956940,-0.290285,0.000000
-4.914413,0.465901,-50.661469,-0.995185,0.098017,0.000000
3.931064,-2.991301,-30.914496,0.773010,-0.634393,0.000000
-5.156583,6.754111,5.676410,-0.866025,0.500000,0.000000
5.504205,-1.035698,9.105390,0.000000,0.000000,1.000000
4.929872,0.308938,-35.764038,0.995185,0.098017,0.000000
3.378860,3.613003,-33.337279,0.634393,0.773010,0.000000
-2.177364,4.433517,-41.343172,-0.471396,0.881921,0.000000
-3.743743,3.219553,-30.855893,-0.773010,0.634393,0.000000
1.396728,1.443957,-22.566689,0.000000,0.000000,1.000000
6.797240,-3.912410,8.278451,0.866025,-0.500000,0.000000
3.392882,7.842787,0.501417,-0.000000,1.000000,0.000000
-1.045016,-7.842787,5.218569,-0.000000,-1.000000,-0.000000
-4.545712,1.967461,-43.659679,-0.881921,0.471396,0.000000
4.328537,-1.172502,9.105390,-0.000000,0.000000,1.000000
1.921247,-3.450075,9.105390,-0.000000,0.000000,1.000000
4.952551,-0.078677,-38.548422,0.995185,-0.098017,0.000000
-7.414525,-0.790619,0.000000,0.000000,0.000000,-1.000000
-2.148325,-1.408955,0.000000,0.000000,0.000000,-1.000000
4.894724,0.665802,-26.700456,0.995185,0.098017,-0.000000
-5.030763,6.972037,0.849760,-0.866025,0.500000,0.000000
1.732359,4.633034,-36.024767,0.290285,0.956940,0.000000
8.456681,-0.527979,0.000000,0.000000,0.000000,-1.000000
4.938508,-0.221261,-24.072365,0.995185,-0.098017,0.000000
1.751117,7.842787,2.874620,-0.000000,1.000000,0.000000
4.233402,2.551754,-40.129598,0.881921,0.471396,-0.000000
7.289698,-3.059447,7.340891,0.866025,-0.500000,0.000000
1.882927,-2.828970,9.105390,-0.000000,0.000000,1.000000
6.265086,-4.834127,2.745826,0.866025,-0.500000,0.000000
0.546399,3.935684,0.000000,0.000000,0.000000,-1.000000
1.574128,4.681033,-36.321540,0.290285,0.956940,0.000000
2.373971,4.328428,-49.559887,0.471396,0.881921,0.000000
-3.441295,6.313084,0.000000,0.000000,0.000000,-1.000000
-2.817973,4.073311,-45.562940,-0.634393,0.773010,0.000000
0.778845,1.236870,-22.566689,0.000000,0.000000,1.000000
-4.240670,-2.538156,-35.850820,-0.881921,-0.471396,0.000000
-4.568010,7.773548,8.435689,-0.866025,0.500000,0.000000
0.136830,-4.946823,-54.348817,0.098017,-0.995185,0.000000
-4.536001,1.985630,-22.879138,-0.881921,0.471396,0.000000
-3.788293,-3.165268,-31.786281,-0.773010,-0.634393,0.000000
7.652183,-2.431604,3.414969,0.866025,-0.500000,0.000000
0.328388,-4.927957,-34.528539,0.098017,-0.995185,0.000000
-5.223458,6.638280,0.349585,-0.866025,0.500000,0.000000
-4.048827,2.847807,-24.204914,-0.773010,0.634393,0.000000
-8.944655,-0.192977,1.801629,-0.866025,-0.500000,-0.000000
4.034462,-2.865311,-57.554839,0.773010,-0.634393,0.000000
-0.179839,4.942587,-40.370064,-0.098017,0.995185,0.000000
6.291903,-4.787678,6.716009,0.866025,-0.500000,0.000000
7.216099,-3.186924,4.930783,0.866025,-0.500000,0.000000
-4.814460,1.134279,-40.461533,-0.956940,0.290285,0.000000
6.331897,2.352649,9.105390,0.000000,0.000000,1.000000
4.534463,1.988507,-51.744367,0.881921,0.471396,0.000000
-4.848059,1.023518,-24.282040,-0.956940,0.290285,0.000000
3.001622,-3.922594,-25.585775,0.634393,-0.773010,0.000000
4.501548,-2.050087,-37.065683,0.881921,-0.471396,0.000000
5.106832,5.980858,0.000000,0.000000,0.000000,-1.000000
2.279310,-4.379026,-38.107470,0.471396,-0.881921,0.000000
3.624758,-3.364536,-41.720530,0.773010,-0.634393,0.000000
-2.292238,-7.842787,5.373549,-0.000000,-1.000000,-0.000000
0.768886,-4.884571,-34.362995,0.098017,-0.995185,0.000000
-4.949008,-0.114646,-40.458546,-0.995185,-0.098017,0.000000
-4.846136,-1.029857,-42.537070,-0.956940,-0.290285,0.000000
-2.488797,-4.267052,-46.812905,-0.471396,-0.881921,0.000000
5.534953,-6.098754,3.350915,0.866025,-0.500000,0.000000
-1.823327,-2.041740,-58.594673,0.000000,-0.000000,-1.000000
-3.465805,3.541649,-27.074229,-0.634393,0.773010,0.000000
1.130619,4.815570,-28.938240,0.290285,0.956940,-0.000000
5.874962,5.410442,9.105390,0.000000,0.000000,1.000000
4.120515,7.842787,6.373056,-0.000000,1.000000,0.000000
2.039118,7.842787,2.095643,-0.000000,1.000000,0.000000
1.535990,2.881937,9.105390,0.000000,0.000000,1.000000
4.701406,1.506969,-36.738754,0.956940,0.290285,-0.000000
-0.620083,4.899227,-41.632057,-0.098017,0.995185,0.000000
0.492387,-7.325898,0.000000,0.000000,0.000000,-1.000000
-4.930506,-0.302502,-57.249220,-0.995185,-0.098017,0.000000
2.751517,-4.126626,-31.781763,0.471396,-0.881921,0.000000
2.567333,-4.225074,-54.034395,0.471396,-0.881921,0.000000
-0.918179,-4.869867,-28.890529,-0.098017,-0.995185,0.000000
-0.103533,-4.950103,-33.345346,-0.098017,-0.995185,0.000000
-2.932730,-2.325842,-58.594673,0.000000,-0.000000,-1.000000
3.153461,-3.797984,-33.357602,0.634393,-0.773010,0.000000
-1.870818,3.516839,-58.594673,-0.000000,-0.000000,-1.000000
1.429001,-4.725057,-35.068845,0.290285,-0.956940,0.000000
-6.854835,3.812651,1.440002,-0.866025,0.500000,0.000000
1.280247,4.770181,-42.532876,0.290285,0.956940,-0.000000
4.389180,2.260313,-47.836800,0.881921,0.471396,0.000000
-1.654342,-4.656701,-40.490589,-0.290285,-0.956940,0.000000
-2.423461,4.301976,-24.993092,-0.471396,0.881921,0.000000
-6.131927,5.064765,0.636802,-0.866025,0.500000,0.000000
-5.012003,7.004530,7.108620,-0.866025,0.500000,0.000000
-1.583755,6.620542,9.105390,0.000000,0.000000,1.000000
-4.943102,-0.174614,-41.035884,-0.995185,-0.098017,0.000000
3.954000,-2.963355,-22.855388,0.773010,-0.634393,0.000000
-4.445248,7.842787,5.742248,-0.000000,1.000000,0.000000
4.561662,-7.784544,5.870876,0.866025,-0.500000,0.000000
-1.183398,4.799560,-57.521517,-0.290285,0.956940,0.000000
6.817658,-3.877043,6.461323,0.866025,-0.500000,0.000000
6.560193,1.620276,9.105390,0.000000,0.000000,1.000000
-1.473587,-4.711532,-49.733076,-0.290285,-0.956940,0.000000
-2.634713,-4.189059,-25.925674,-0.471396,-0.881921,0.000000
-3.974884,-6.454417,0.000000,0.000000,0.000000,-1.000000
-5.210596,6.660557,2.282307,-0.866025,0.500000,0.000000
3.076226,3.861368,-29.558494,0.634393,0.773010,-0.000000
0.009680,4.959347,-58.374958,0.098017,0.995185,0.000000
-0.770875,-4.884376,-52.745734,-0.098017,-0.995185,0.000000
-4.832252,1.075628,-53.891719,-0.956940,0.290285,0.000000
2.557392,-4.230388,-33.561998,0.471396,-0.881921,0.000000
3.981058,2.930384,-46.005304,0.773010,0.634393,0.000000
-0.710813,-2.926259,9.105390,-0.000000,0.000000,1.000000
-2.583000,-2.335558,-22.566689,-0.000000,0.000000,1.000000
4.786341,1.226975,-29.976870,0.956940,0.290285,-0.000000
3.734103,0.327987,9.105390,-0.000000,0.000000,1.000000
-0.697697,4.891583,-37.308704,-0.098017,0.995185,0.000000
3.801051,7.842787,3.394896,-0.000000,1.000000,0.000000
0.532776,5.315237,0.000000,0.000000,0.000000,-1.000000
-5.640259,-5.916360,8.396618,-0.866025,-0.500000,0.000000
-0.121401,-4.948343,-51.985884,-0.098017,-0.995185,0.000000
7.213446,3.182447,9.105390,0.000000,0.000000,1.000000
-4.923857,0.370013,-29.412328,-0.995185,0.098017,0.000000
-4.880504,0.810183,-33.843867,-0.995185,0.098017,0.000000
1.039327,-4.843263,-34.125874,0.290285,-0.956940,0.000000
1.950642,7.842787,5.614026,-0.000000,1.000000,0.000000
3.522489,3.489151,-48.939986,0.773010,0.634393,-0.000000
-8.705140,0.607830,2.427749,-0.866025,0.500000,0.000000
-4.840068,1.049862,-55.488092,-0.956940,0.290285,0.000000
-2.569204,-0.082733,-58.594673,0.000000,-0.000000,-1.000000
0.329103,7.842787,2.706100,-0.000000,1.000000,0.000000
4.224059,2.569232,-38.178560,0.881921,0.471396,-0.000000
-3.676804,3.301119,-49.901775,-0.773010,0.634393,0.000000
4.305724,2.416448,-40.338316,0.881921,0.471396,-0.000000
2.334812,-4.349359,-45.059631,0.471396,-0.881921,0.000000
4.974409,0.878088,0.000000,0.000000,0.000000,-1.000000
4.053079,-2.842626,-33.125734,0.773010,-0.634393,0.000000
2.214298,-3.609043,-58.594673,0.000000,0.000000,-1.000000
4.938569,-0.220639,-47.017517,0.995185,-0.098017,0.000000
0.868754,3.584545,0.000000,0.000000,0.000000,-1.000000
4.657755,1.650865,-51.446409,0.956940,0.290285,0.000000
-4.674527,-1.595578,-24.112751,-0.956940,-0.290285,0.000000
-6.465505,-2.404761,9.105390,0.000000,0.000000,1.000000
-3.315466,-4.984909,9.105390,0.000000,0.000000,1.000000
-4.908296,0.528005,-45.405470,-0.995185,0.098017,0.000000
4.406347,-2.228195,-50.201809,0.881921,-0.471396,0.000000
-5.310017,2.503888,9.105390,0.000000,0.000000,1.000000
-4.199652,-2.614894,-36.044527,-0.881921,-0.471396,0.000000
2.902454,1.754711,-58.594673,-0.000000,0.000000,-1.000000
-4.686852,1.554946,-27.128855,-0.956940,0.290285,0.000000
-8.246943,-1.401450,4.902438,-0.866025,-0.500000,-0.000000
7.389004,2.887443,2.947662,0.866025,0.500000,0.000000
2.196909,-4.423070,-48.474082,0.471396,-0.881921,0.000000
3.899600,3.029641,-24.393015,0.773010,0.634393,-0.000000
-4.747327,0.717623,9.105390,0.000000,0.000000,1.000000
4.280546,-7.129922,9.105390,-0.000000,0.000000,1.000000
4.678376,7.577424,9.105390,0.000000,0.000000,1.000000
6.147597,-5.037623,6.766274,0.866025,-0.500000,0.000000
0.375147,-4.923351,-25.456447,0.098017,-0.995185,0.000000
-4.886783,-0.746431,-27.984111,-0.995185,-0.098017,0.000000
6.371378,0.279289,9.105390,0.000000,0.000000,1.000000
-5.617226,-5.956253,4.151037,-0.866025,-0.500000,0.000000
-1.555916,4.686558,-39.611657,-0.290285,0.956940,0.000000
2.315778,4.359533,-50.914744,0.471396,0.881921,0.000000
1.938313,-7.842787,5.969277,-0.000000,-1.000000,-0.000000
0.940483,6.917216,0.000000,0.000000,0.000000,-1.000000
-1.648090,4.658597,-52.779394,-0.290285,0.956940,0.000000
-5.609851,5.969026,1.471693,-0.866025,0.500000,0.000000
7.080879,-3.421132,3.417846,0.866025,-0.500000,0.000000
2.845192,4.050973,-39.039746,0.634393,0.773010,-0.000000
-6.967410,3.617666,8.754833,-0.866025,0.500000,0.000000
1.861498,4.593861,-48.731792,0.290285,0.956940,0.000000
5.487408,-0.063341,9.105390,0.000000,0.000000,1.000000
1.951392,-4.554301,-27.984701,0.471396,-0.881921,0.000000
-6.245613,4.867854,0.895884,-0.866025,0.500000,0.000000
-1.975565,4.541381,-35.425066,-0.471396,0.881921,0.000000
-3.646041,-4.572370,9.105390,0.000000,0.000000,1.000000
-4.572674,7.765471,2.327420,-0.866025,0.500000,0.000000
-0.708515,7.842787,4.743360,-0.000000,1.000000,0.000000
4.866006,0.957384,-56.590869,0.995185,0.098017,-0.000000
-2.562162,-7.842787,5.598725,-0.000000,-1.000000,-0.000000
4.161296,-2.686653,-52.204967,0.881921,-0.471396,0.000000
-4.667532,-1.618637,-32.763346,-0.956940,-0.290285,0.000000
1.367258,-2.474986,9.105390,-0.000000,0.000000,1.000000
4.250927,-2.518965,-49.195732,0.881921,-0.471396,0.000000
5.107931,4.283734,9.105390,0.000000,0.000000,1.000000
-1.465166,-2.518235,9.105390,0.000000,0.000000,1.000000
0.518608,4.909222,-24.115945,0.098017,0.995185,-0.000000
-0.437937,4.917167,-27.281754,-0.098017,0.995185,0.000000
-4.840601,-1.048103,-42.814128,-0.956940,-0.290285,0.000000
-8.066921,-0.431978,0.000000,0.000000,0.000000,-1.000000
1.979804,-0.209200,9.105390,-0.000000,0.000000,1.000000
1.149287,4.809907,-52.962573,0.290285,0.956940,0.000000
1.545013,4.689865,-28.062579,0.290285,0.956940,-0.000000
3.763755,-3.195168,-46.449508,0.773010,-0.634393,0.000000
-5.600258,0.454578,9.105390,0.000000,0.000000,1.000000
-4.683917,1.564622,-53.034137,-0.956940,0.290285,0.000000
1.767761,-7.842787,0.731411,-0.000000,-1.000000,-0.000000
-8.649361,0.704442,6.995064,-0.866025,0.500000,0.000000
-1.412446,-4.730079,-37.684378,-0.290285,-0.956940,0.000000
5.095079,5.841985,9.105390,0.000000,0.000000,1.000000
2.573486,2.262625,-22.566689,0.000000,0.000000,1.000000
-1.623980,4.665911,-36.065125,-0.290285,0.956940,0.000000
1.593786,7.842787,0.891783,-0.000000,1.000000,0.000000
-6.713140,4.058074,8.599670,-0.866025,0.500000,0.000000
-3.047713,-3.884768,-50.349058,-0.634393,-0.773010,0.000000
-4.380664,-2.276244,-37.278313,-0.881921,-0.471396,0.000000
-5.821851,-2.178679,0.000000,0.000000,0.000000,-1.000000
7.576072,-2.563432,2.695897,0.866025,-0.500000,0.000000
-8.283896,-1.337445,5.755401,-0.866025,-0.500000,-0.000000
-0.893419,4.872306,-45.941417,-0.098017,0.995185,0.000000
-0.549245,4.906204,-56.088633,-0.098017,0.995185,0.000000
1.062390,-4.000516,0.000000,0.000000,0.000000,-1.000000
0.524960,4.908596,-39.838299,0.098017,0.995185,0.000000
-3.949171,-2.969239,-24.244624,-0.773010,-0.634393,0.000000
-6.621975,-1.937814,9.105390,0.000000,0.000000,1.000000
4.365194,-2.305187,-46.282442,0.881921,-0.471396,0.000000
0.322148,-4.928571,-55.875852,0.098017,-0.995185,0.000000
4.657211,1.652660,-31.600068,0.956940,0.290285,-0.000000
-2.773716,4.109632,-52.149175,-0.634393,0.773010,0.000000
4.150574,3.947372,0.000000,0.000000,0.000000,-1.000000
6.012723,-5.271233,1.837695,0.866025,-0.500000,0.000000
0.324273,-4.928362,-38.954837,0.098017,-0.995185,0.000000
-6.256224,4.849476,4.873399,-0.866025,0.500000,0.000000
7.955271,1.906640,7.847713,0.866025,0.500000,0.000000
6.714611,4.055527,4.128858,0.866025,0.500000,0.000000
2.693086,4.157858,-31.749487,0.471396,0.881921,0.000000
-4.248937,-2.522690,-26.950532,-0.881921,-0.471396,0.000000
-6.466108,-4.485946,5.949320,-0.866025,-0.500000,0.000000
-4.981888,2.625414,0.000000,0.000000,0.000000,-1.000000
-4.140734,2.725123,-41.602981,-0.881921,0.471396,0.000000
-1.697784,4.643523,-37.224096,-0.290285,0.956940,0.000000
4.551989,-1.955717,-58.118255,0.881921,-0.471396,0.000000
4.877307,0.842644,-40.418312,0.995185,0.098017,-0.000000
3.227555,3.737176,-26.809928,0.634393,0.773010,-0.000000
4.800273,7.371258,6.169516,0.866025,0.500000,0.000000
-1.204792,7.842787,4.821525,-0.000000,1.000000,0.000000
1.203122,-3.174369,-22.566689,0.000000,-0.000000,1.000000
-7.223998,-3.173242,4.681927,-0.866025,-0.500000,-0.000000
5.948486,-2.837036,9.105390,0.000000,0.000000,1.000000
-2.717133,4.145004,-58.077977,-0.471396,0.881921,0.000000
5.648804,0.215413,0.000000,0.000000,0.000000,-1.000000
-2.823911,4.068438,-42.852530,-0.634393,0.773010,0.000000
-7.462062,2.084327,9.105390,0.000000,0.000000,1.000000
-8.314811,-1.283899,7.984850,-0.866025,-0.500000,0.000000
5.872981,5.513273,8.273997,0.866025,0.500000,0.000000
-2.987804,-3.933935,-45.884229,-0.634393,-0.773010,0.000000
4.934980,-0.257081,-24.168072,0.995185,-0.098017,0.000000
3.430386,-7.842787,2.592590,-0.000000,-1.000000,-0.000000
5.683953,-5.840679,4.326007,0.866025,-0.500000,0.000000
4.911773,0.492707,-43.248176,0.995185,0.098017,0.000000
4.093828,-2.792973,-41.581676,0.773010,-0.634393,0.000000
-4.832414,1.075092,-40.785595,-0.956940,0.290285,0.000000
2.106574,6.376860,9.105390,0.000000,0.000000,1.000000
2.862078,1.998097,-58.594673,-0.000000,0.000000,-1.000000
3.669937,-7.842787,0.206011,-0.000000,-1.000000,-0.000000
4.201833,-2.610814,-55.126512,0.881921,-0.471396,0.000000
-4.901010,0.601977,-51.395077,-0.995185,0.098017,0.000000
-1.486641,-4.707572,-29.878205,-0.290285,-0.956940,0.000000
-3.364245,3.624997,-46.511559,-0.634393,0.773010,0.000000
4.297743,-2.431380,-47.776634,0.881921,-0.471396,0.000000
-4.034112,-7.842787,5.768397,-0.000000,-1.000000,-0.000000
-4.809319,-1.151228,-24.724417,-0.956940,-0.290285,0.000000
-4.098902,2.786790,-45.092778,-0.773010,0.634393,0.000000
1.142240,-2.793912,0.000000,0.000000,0.000000,-1.000000
0.415959,7.842787,3.693969,-0.000000,1.000000,0.000000
-1.343926,4.750864,-32.775521,-0.290285,0.956940,0.000000
5.566515,-6.044087,5.830058,0.866025,-0.500000,0.000000
0.937747,4.867940,-56.424183,0.098017,0.995185,0.000000
-2.477612,-4.273031,-37.244548,-0.471396,-0.881921,0.000000
-0.271964,-0.831622,0.000000,0.000000,0.000000,-1.000000
3.701341,-3.271220,-23.191298,0.773010,-0.634393,0.000000
-2.756555,-6.052395,0.000000,0.000000,0.000000,-1.000000
-5.767916,-5.695250,0.234338,-0.866025,-0.500000,-0.000000
2.561296,-4.228301,-29.434880,0.471396,-0.881921,0.000000
-4.859491,0.985832,-48.822606,-0.956940,0.290285,0.000000
0.168079,1.127900,0.000000,0.000000,0.000000,-1.000000
-7.554084,-2.601517,6.702203,-0.866025,-0.500000,0.000000
3.148420,-3.802120,-38.958551,0.634393,-0.773010,0.000000
-2.817528,-7.842787,3.146055,-0.000000,-1.000000,-0.000000
8.586135,0.813953,6.891997,0.866025,0.500000,0.000000
-5.350887,6.417566,0.113694,-0.866025,0.500000,0.000000
-2.793930,-4.093043,-51.701203,-0.634393,-0.773010,0.000000
3.716789,-0.601709,-58.594673,0.000000,0.000000,-1.000000
-0.887434,-4.872895,-23.314496,-0.098017,-0.995185,0.000000
-0.972313,0.409869,-22.566689,0.000000,0.000000,1.000000
0.951156,6.982272,0.000000,0.000000,0.000000,-1.000000
-1.267536,-4.774037,-25.563938,-0.290285,-0.956940,0.000000
7.946818,1.921282,4.652447,0.866025,0.500000,0.000000
2.845961,4.050342,-55.448445,0.634393,0.773010,0.000000
-2.739224,-4.133197,-47.456144,-0.471396,-0.881921,0.000000
6.908507,3.719688,5.958441,0.866025,0.500000,0.000000
1.488226,4.707091,-56.904343,0.290285,0.956940,0.000000
3.882634,-6.174794,9.105390,-0.000000,0.000000,1.000000
0.516674,-4.104217,-58.594673,0.000000,0.000000,-1.000000
1.298151,4.764750,-53.437650,0.290285,0.956940,0.000000
-3.784282,3.170156,-33.721843,-0.773010,0.634393,0.000000
-4.192170,-2.628892,-40.725409,-0.881921,-0.471396,0.000000
7.344448,2.964617,3.739131,0.866025,0.500000,0.000000
-3.924499,-3.478307,0.000000,0.000000,0.000000,-1.000000
-7.816684,-2.146680,5.599104,-0.866025,-0.500000,-0.000000
-2.514672,-4.253222,-54.270701,-0.471396,-0.881921,0.000000
-3.450037,-7.842787,6.186984,-0.000000,-1.000000,-0.000000
4.971461,5.901139,9.105390,0.000000,0.000000,1.000000
2.460158,-4.282360,-27.870499,0.471396,-0.881921,0.000000
-0.292230,4.931518,-43.072501,-0.098017,0.995185,0.000000
4.332149,-2.367011,-46.933448,0.881921,-0.471396,0.000000
-0.336182,-4.927189,-45.266267,-0.098017,-0.995185,0.000000
4.281579,-1.166797,0.000000,0.000000,0.000000,-1.000000
-2.876123,4.025589,-46.973975,-0.634393,0.773010,0.000000
-5.526384,-5.578623,0.000000,0.000000,0.000000,-1.000000
-2.975492,-3.944039,-35.112909,-0.634393,-0.773010,0.000000
3.879954,-3.053579,-58.349072,0.773010,-0.634393,0.000000
4.738999,1.383040,-24.576969,0.956940,0.290285,-0.000000
-0.073247,4.953086,-40.725540,-0.098017,0.995185,0.000000
-2.416872,-2.834630,-58.594673,0.000000,-0.000000,-1.000000
-4.939248,-0.213748,-30.048862,-0.995185,-0.098017,0.000000
-4.056606,2.838329,-34.864122,-0.773010,0.634393,0.000000
0.752319,-2.840097,0.000000,0.000000,0.000000,-1.000000
3.920613,7.842787,3.693318,-0.000000,1.000000,0.000000
-8.023842,-1.787871,8.792260,-0.866025,-0.500000,0.000000
3.916685,3.008823,-47.232831,0.773010,0.634393,0.000000
-4.952148,-0.082773,-43.459197,-0.995185,-0.098017,0.000000
3.077110,3.860642,-40.962290,0.634393,0.773010,-0.000000
-0.508766,4.910191,-45.727006,-0.098017,0.995185,0.000000
4.453825,6.862408,0.000000,0.000000,0.000000,-1.000000
-2.367070,4.332117,-57.565793,-0.471396,0.881921,0.000000
7.598700,-2.524240,3.359316,0.866025,-0.500000,0.000000
-3.218621,0.537580,9.105390,0.000000,0.000000,1.000000
-4.674634,7.588871,4.513913,-0.866025,0.500000,0.000000
-4.749802,-1.347430,-48.296654,-0.956940,-0.290285,0.000000
0.937136,4.868000,-58.183129,0.098017,0.995185,0.000000
3.341044,3.644038,-53.896352,0.634393,0.773010,0.000000
-0.537567,7.842787,4.925914,-0.000000,1.000000,0.000000
3.437242,-3.565090,-36.732841,0.634393,-0.773010,0.000000
3.544419,2.568208,-58.594673,-0.000000,0.000000,-1.000000
0.806845,1.911470,0.000000,0.000000,0.000000,-1.000000
3.505763,3.508856,-43.781938,0.634393,0.773010,0.000000
-4.771813,-1.274869,-44.150444,-0.956940,-0.290285,0.000000
3.006899,-3.918263,-35.984808,0.634393,-0.773010,0.000000
-2.187174,-7.842787,3.685439,-0.000000,-1.000000,-0.000000
-8.156040,1.558899,3.968033,-0.866025,0.500000,0.000000
6.445500,-4.233596,9.105390,0.000000,0.000000,1.000000
4.624458,1.760631,-39.768765,0.956940,0.290285,-0.000000
2.613872,4.200198,-48.925503,0.471396,0.881921,0.000000
1.779489,1.909646,0.000000,0.000000,0.000000,-1.000000
-4.241718,-7.842787,3.102999,-0.000000,-1.000000,-0.000000
0.493981,4.911647,-35.614858,0.098017,0.995185,-0.000000
-4.524722,-2.006731,-32.560367,-0.881921,-0.471396,0.000000
-3.469060,-3.471828,9.105390,0.000000,0.000000,1.000000
-2.410181,-7.842787,8.425106,-0.000000,-1.000000,-0.000000
-1.155309,-4.808081,-54.127968,-0.290285,-0.956940,0.000000
3.259218,-7.842787,4.171697,-0.000000,-1.000000,-0.000000
8.912417,-0.248815,6.105488,0.866025,-0.500000,0.000000
-5.008042,7.011391,6.916441,-0.866025,0.500000,0.000000
-0.134173,4.947085,-48.470610,-0.098017,0.995185,0.000000
-4.381962,2.273816,-55.601550,-0.881921,0.471396,0.000000
-2.927826,-3.983157,-27.873507,-0.634393,-0.773010,0.000000
-7.921646,-1.964881,3.190153,-0.866025,-0.500000,-0.000000
-2.660707,4.175165,-36.817389,-0.471396,0.881921,0.000000
1.835343,-4.601795,-52.743196,0.290285,-0.956940,0.000000
-3.850322,-3.089686,-23.129006,-0.773010,-0.634393,0.000000
-5.726286,-4.160541,0.000000,0.000000,0.000000,-1.000000
7.470303,2.746630,3.525408,0.866025,0.500000,0.000000
1.013230,-4.851180,-47.214552,0.290285,-0.956940,0.000000
-6.220402,-0.194380,0.000000,0.000000,0.000000,-1.000000
-4.811355,1.144516,-34.738662,-0.956940,0.290285,0.000000
-1.988545,1.352685,-58.594673,-0.000000,-0.000000,-1.000000
2.981381,-3.939206,-32.581016,0.634393,-0.773010,0.000000
1.001793,4.817069,0.000000,0.000000,0.000000,-1.000000
5.700802,2.028373,9.105390,0.000000,0.000000,1.000000
-4.885334,-7.223928,4.155194,-0.866025,-0.500000,0.000000
4.939665,0.209506,-44.419321,0.995185,0.098017,0.000000
-2.736819,5.474879,0.000000,0.000000,0.000000,-1.000000
2.747726,-4.128652,-35.663998,0.471396,-0.881921,0.000000
8.367261,1.193052,0.662349,0.866025,0.500000,0.000000
4.775953,-1.261218,-30.064399,0.956940,-0.290285,0.000000
-4.903123,-0.580526,-24.650624,-0.995185,-0.098017,0.000000
1.249255,-2.059772,0.000000,0.000000,0.000000,-1.000000
-4.855301,-0.999643,-50.914015,-0.956940,-0.290285,0.000000
5.321200,-6.468985,0.188885,0.866025,-0.500000,0.000000
-7.260324,2.596593,9.105390,0.000000,0.000000,1.000000
-4.957772,-0.025667,-24.737719,-0.995185,-0.098017,0.000000
2.862849,-4.036483,-33.291859,0.634393,-0.773010,0.000000
0.919786,-4.869709,-39.022903,0.098017,-0.995185,0.000000
2.337841,-4.347740,-46.438237,0.471396,-0.881921,0.000000
2.307779,4.363808,-39.525413,0.471396,0.881921,-0.000000
-2.969861,-7.842787,3.682374,-0.000000,-1.000000,-0.000000
-2.261841,4.388363,-43.287559,-0.471396,0.881921,0.000000
1.629606,-4.664204,-56.116892,0.290285,-0.956940,0.000000
-2.155728,7.842787,3.862957,-0.000000,1.000000,0.000000
-0.254888,-4.935196,-55.006352,-0.098017,-0.995185,0.000000
-2.800627,-4.087546,-37.240204,-0.634393,-0.773010,0.000000
-3.864081,5.139278,0.000000,0.000000,0.000000,-1.000000
-1.430812,4.724508,-26.418447,-0.290285,0.956940,0.000000
-4.257281,2.507078,-24.256845,-0.881921,0.471396,0.000000
6.407370,-4.587684,0.172553,0.866025,-0.500000,0.000000
3.252969,7.842787,2.413616,-0.000000,1.000000,0.000000
2.106601,4.471341,-24.396972,0.471396,0.881921,-0.000000
-1.772921,7.842787,8.165079,-0.000000,1.000000,0.000000
-0.150796,-4.945448,-45.450489,-0.098017,-0.995185,0.000000
-4.955904,-0.044637,-29.494183,-0.995185,-0.098017,0.000000
-2.925864,7.842787,0.991523,-0.000000,1.000000,0.000000
-0.270109,4.933697,-40.595435,-0.098017,0.995185,0.000000
5.304876,-2.362916,0.000000,0.000000,0.000000,-1.000000
2.811958,-7.031762,0.000000,0.000000,0.000000,-1.000000
4.774209,-1.266970,-56.295826,0.956940,-0.290285,0.000000
1.453580,-7.350199,9.105390,-0.000000,0.000000,1.000000
-3.687985,3.287494,-33.761857,-0.773010,0.634393,0.000000
-3.636900,3.172095,9.105390,0.000000,0.000000,1.000000
-6.186607,-2.656180,0.000000,0.000000,0.000000,-1.000000
3.137408,-3.811157,-57.399852,0.634393,-0.773010,0.000000
-1.024116,7.842787,1.398311,-0.000000,1.000000,0.000000
4.155960,-2.696637,-53.054052,0.881921,-0.471396,0.000000
3.862355,-2.466110,-58.594673,0.000000,0.000000,-1.000000
8.729754,-0.565196,0.069608,0.866025,-0.500000,0.000000
-4.553545,7.798603,6.915103,-0.866025,0.500000,0.000000
4.280717,2.463233,-43.264615,0.881921,0.471396,-0.000000
4.618762,-0.387794,-22.566689,0.000000,-0.000000,1.000000
1.478245,3.775651,-58.594673,-0.000000,0.000000,-1.000000
-5.858416,-5.538501,5.076757,-0.866025,-0.500000,0.000000
-3.385322,3.607700,-40.721595,-0.634393,0.773010,0.000000
4.917680,0.432724,-34.846362,0.995185,0.098017,-0.000000
6.387779,4.621616,0.215187,0.866025,0.500000,0.000000
4.941212,-0.193804,-49.085309,0.995185,-0.098017,0.000000
-4.136683,2.732702,-28.957081,-0.881921,0.471396,0.000000
8.979398,0.132800,3.435769,0.866025,0.500000,0.000000
-4.762407,-1.305874,-36.347388,-0.956940,-0.290285,0.000000
6.524998,-2.566107,9.105390,0.000000,0.000000,1.000000
7.351555,-2.952308,6.612385,0.866025,-0.500000,0.000000
4.944676,-7.121145,4.447999,0.866025,-0.500000,0.000000
-7.055460,3.465159,6.900603,-0.866025,0.500000,0.000000
2.967908,-2.430229,0.000000,0.000000,0.000000,-1.000000
-5.769894,-1.616322,0.000000,0.000000,0.000000,-1.000000
4.692522,1.536255,-39.462570,0.956940,0.290285,-0.000000
-6.273191,-4.820089,1.362427,-0.866025,-0.500000,-0.000000
-3.770343,-3.187141,-37.920969,-0.773010,-0.634393,0.000000
1.227941,7.842787,7.060827,-0.000000,1.000000,0.000000
2.957069,-3.959158,-36.588851,0.634393,-0.773010,0.000000
1.177414,-0.929738,-22.566689,0.000000,-0.000000,1.000000
-3.434109,-3.567661,-30.777560,-0.634393,-0.773010,0.000000
1.927520,7.842787,3.452335,-0.000000,1.000000,0.000000
4.903929,-0.572347,-57.150408,0.995185,-0.098017,0.000000
3.762528,0.969449,0.000000,0.000000,0.000000,-1.000000
3.942896,7.448913,0.000000,0.000000,0.000000,-1.000000
4.506773,-7.515827,9.105390,-0.000000,0.000000,1.000000
2.873821,-4.027478,-35.194845,0.634393,-0.773010,0.000000
3.938027,2.982817,-33.238934,0.773010,0.634393,-0.000000
4.875578,0.860198,-29.239037,0.995185,0.098017,-0.000000
3.189809,-3.768153,-56.657416,0.634393,-0.773010,0.000000
-4.621826,-1.769308,-53.571919,-0.956940,-0.290285,0.000000
4.739515,-1.381340,-53.285315,0.956940,-0.290285,0.000000
4.269233,-7.321115,0.000000,0.000000,0.000000,-1.000000
-5.178904,-4.764557,9.105390,0.000000,0.000000,1.000000
-3.531154,3.478593,-22.996252,-0.773010,0.634393,0.000000
0.227869,-4.937857,-47.460798,0.098017,-0.995185,0.000000
-3.650618,-3.333026,-34.721147,-0.773010,-0.634393,0.000000
2.132008,4.457760,-55.812081,0.471396,0.881921,0.000000
3.495710,3.517107,-42.005811,0.634393,0.773010,0.000000
-1.963541,4.547807,-50.939255,-0.471396,0.881921,0.000000
-0.382257,-4.922651,-40.283082,-0.098017,-0.995185,0.000000
-5.990936,5.308969,8.066521,-0.866025,0.500000,0.000000
-4.332149,-2.367010,-54.898634,-0.881921,-0.471396,0.000000
-4.654690,1.557103,-22.566689,0.000000,0.000000,1.000000
-1.900263,-4.581631,-39.884030,-0.471396,-0.881921,0.000000
2.839571,-6.744458,9.105390,-0.000000,0.000000,1.000000
7.716708,-2.319843,4.130594,0.866025,-0.500000,0.000000
-0.002513,3.692283,-58.594673,-0.000000,0.000000,-1.000000
-2.563738,4.226996,-58.204357,-0.471396,0.881921,0.000000
3.737499,3.227161,-50.930231,0.773010,0.634393,0.000000
4.175993,2.659157,-51.203960,0.881921,0.471396,-0.000000
8.825217,0.399849,8.586011,0.866025,0.500000,0.000000
4.387341,-2.263753,-32.351092,0.881921,-0.471396,0.000000
4.600577,1.839356,-23.178315,0.956940,0.290285,-0.000000
2.333641,4.349985,-54.435988,0.471396,0.881921,0.000000
-4.058143,-6.415820,9.105390,0.000000,0.000000,1.000000
-3.142141,-3.807273,-33.797999,-0.634393,-0.773010,0.000000
-2.106632,4.471324,-28.258288,-0.471396,0.881921,0.000000
5.270420,6.556939,6.880193,0.866025,0.500000,0.000000
2.544248,3.183269,-58.594673,-0.000000,0.000000,-1.000000
1.098650,-4.825268,-58.350377,0.290285,-0.956940,0.000000
1.924007,-5.583972,9.105390,-0.000000,0.000000,1.000000
5.147198,1.976937,0.000000,0.000000,0.000000,-1.000000
-1.742064,-7.842787,5.696058,-0.000000,-1.000000,-0.000000
2.860773,1.507761,-58.594673,-0.000000,0.000000,-1.000000
2.245461,4.397118,-38.831373,0.471396,0.881921,-0.000000
-0.447469,-4.916228,-35.605811,-0.098017,-0.995185,0.000000
-2.303978,4.365840,-57.284329,-0.471396,0.881921,0.000000
-4.474088,-1.070034,-58.594673,0.000000,-0.000000,-1.000000
-3.056153,7.842787,2.193706,-0.000000,1.000000,0.000000
-4.681542,1.572451,-25.926006,-0.956940,0.290285,0.000000
2.668621,3.191525,-22.566689,0.000000,0.000000,1.000000
0.511418,4.909930,-38.510328,0.098017,0.995185,-0.000000
-0.332790,-5.758908,9.105390,-0.000000,0.000000,1.000000
-3.971124,1.523320,0.000000,0.000000,0.000000,-1.000000
6.597453,4.258451,2.081507,0.866025,0.500000,0.000000
-0.236841,-4.973627,9.105390,-0.000000,0.000000,1.000000
4.586065,1.887196,-25.340422,0.956940,0.290285,-0.000000
-3.274195,-7.842787,8.827054,-0.000000,-1.000000,-0.000000
-0.411252,-4.919795,-43.779109,-0.098017,-0.995185,0.000000
4.597389,-1.849865,-24.472781,0.956940,-0.290285,0.000000
-4.311148,2.406300,-34.790600,-0.881921,0.471396,0.000000
-5.677457,-5.851930,3.938127,-0.866025,-0.500000,0.000000
-0.891214,4.303209,-22.566689,0.000000,0.000000,1.000000
5.325888,3.103928,9.105390,0.000000,0.000000,1.000000
-6.205869,2.897499,0.000000,0.000000,0.000000,-1.000000
0.052122,0.798924,-22.566689,0.000000,0.000000,1.000000
3.462022,3.544754,-56.907150,0.634393,0.773010,0.000000
-3.881281,-3.051963,-32.520031,-0.773010,-0.634393,0.000000
-4.906290,-0.548376,-52.434567,-0.995185,-0.098017,0.000000
-7.702339,-2.344732,7.131409,-0.866025,-0.500000,0.000000
-4.412766,2.216187,-49.916352,-0.881921,0.471396,0.000000
-1.608585,3.754441,9.105390,0.000000,0.000000,1.000000
0.590107,4.902180,-32.908492,0.098017,0.995185,-0.000000
-1.259530,4.776466,-32.711933,-0.290285,0.956940,0.000000
2.618508,4.197720,-26.383253,0.471396,0.881921,-0.000000
-3.123725,3.822387,-50.852779,-0.634393,0.773010,0.000000
5.591097,3.513617,0.000000,0.000000,0.000000,-1.000000
-3.169726,-0.011124,-22.566689,-0.000000,0.000000,1.000000
-1.613937,-2.069346,-22.566689,-0.000000,0.000000,1.000000
6.900054,-3.734331,1.871453,0.866025,-0.500000,0.000000
-3.567708,7.842787,0.756056,-0.000000,1.000000,0.000000
-5.335630,6.443992,9.048931,-0.866025,0.500000,0.000000
2.250985,-4.394166,-49.375291,0.471396,-0.881921,0.000000
4.646645,-1.687491,-23.734403,0.956940,-0.290285,0.000000
6.415664,-4.573319,7.433711,0.866025,-0.500000,0.000000
-2.431623,-4.297613,-25.794013,-0.471396,-0.881921,0.000000
-5.668226,-5.867918,7.609244,-0.866025,-0.500000,0.000000
2.159686,-2.659346,9.105390,-0.000000,0.000000,1.000000
4.907346,-0.537647,-34.235659,0.995185,-0.098017,0.000000
2.651617,-4.180023,-31.617515,0.471396,-0.881921,0.000000
-3.332377,7.842787,0.893385,-0.000000,1.000000,0.000000
4.405752,0.975391,0.000000,0.000000,0.000000,-1.000000
-3.625310,3.363864,-54.620716,-0.773010,0.634393,0.000000
-2.264907,-4.386724,-45.468008,-0.471396,-0.881921,0.000000
0.689370,-4.892403,-53.851431,0.098017,-0.995185,0.000000
5.594645,-5.995365,4.534665,0.866025,-0.500000,0.000000
-4.294259,2.437898,-38.166556,-0.881921,0.471396,0.000000
1.237089,4.783273,-52.153882,0.290285,0.956940,0.000000
2.347959,-4.342332,-48.222944,0.471396,-0.881921,0.000000
8.068502,1.710519,5.528682,0.866025,0.500000,0.000000
-4.849765,1.017896,-50.266191,-0.956940,0.290285,0.000000
-3.687231,-3.288412,-39.019104,-0.773010,-0.634393,0.000000
-2.641381,5.463580,9.105390,0.000000,0.000000,1.000000
3.293314,0.141853,-58.594673,0.000000,0.000000,-1.000000
-0.326161,-4.928176,-46.249075,-0.098017,-0.995185,0.000000
4.430592,2.182836,-50.927333,0.881921,0.471396,0.000000
4.774564,1.265799,-41.381499,0.956940,0.290285,0.000000
5.358760,-6.403930,4.964979,0.866025,-0.500000,0.000000
2.403465,0.488122,0.000000,0.000000,0.000000,-1.000000
5.753496,-1.934772,9.105390,0.000000,0.000000,1.000000
-4.707331,-4.745578,0.000000,0.000000,0.000000,-1.000000
8.579683,0.825128,6.109211,0.866025,0.500000,0.000000
3.466702,-3.540913,-27.254473,0.634393,-0.773010,0.000000
1.563741,-4.684184,-50.920712,0.290285,-0.956940,0.000000
-6.564978,-4.314698,2.495977,-0.866025,-0.500000,-0.000000
0.796534,5.488837,9.105390,0.000000,0.000000,1.000000
-1.420608,-1.763687,-22.566689,-0.000000,0.000000,1.000000
-3.700158,0.885290,0.000000,0.000000,0.000000,-1.000000
4.502403,-0.088060,-22.566689,0.000000,-0.000000,1.000000
-7.256758,0.991242,9.105390,0.000000,0.000000,1.000000
4.733488,-1.401207,-31.009140,0.956940,-0.290285,0.000000
-4.789138,1.217755,-47.743938,-0.956940,0.290285,0.000000
0.972644,4.863492,-26.699824,0.290285,0.956940,-0.000000
0.505214,4.910541,-34.891562,0.098017,0.995185,-0.000000
2.767542,0.034715,9.105390,-0.000000,0.000000,1.000000
-4.027574,-2.873704,-56.505154,-0.773010,-0.634393,0.000000
-4.877093,-0.844816,-32.909880,-0.995185,-0.098017,0.000000
-7.126360,2.337737,9.105390,0.000000,0.000000,1.000000
-0.510243,-4.910045,-22.898366,-0.098017,-0.995185,0.000000
0.889839,4.872659,-32.281582,0.098017,0.995185,0.000000
-4.908802,-0.522864,-53.300494,-0.995185,-0.098017,0.000000
-1.400451,-7.842787,3.053931,-0.000000,-1.000000,-0.000000
-4.712329,1.470959,-28.303210,-0.956940,0.290285,0.000000
7.632304,-2.466036,0.798101,0.866025,-0.500000,0.000000
1.981081,7.842787,7.549262,-0.000000,1.000000,0.000000
-3.794325,-3.157919,-30.798902,-0.773010,-0.634393,0.000000
8.655046,-0.694595,5.980087,0.866025,-0.500000,0.000000
4.919231,-0.416976,-32.201074,0.995185,-0.098017,0.000000
-3.814927,3.132815,-46.581076,-0.773010,0.634393,0.000000
3.949309,-7.842787,5.431228,-0.000000,-1.000000,-0.000000
4.181902,1.376104,-22.566689,0.000000,0.000000,1.000000
4.948874,0.116014,-48.433422,0.995185,0.098017,0.000000
-1.724127,-7.716037,9.105390,-0.000000,0.000000,1.000000
-3.427949,3.572717,-42.491723,-0.634393,0.773010,0.000000
-2.823983,-3.494646,9.105390,0.000000,0.000000,1.000000
0.397002,3.237639,0.000000,0.000000,0.000000,-1.000000
6.804042,3.900628,0.717811,0.866025,0.500000,0.000000
-4.921545,0.393485,-49.540715,-0.995185,0.098017,0.000000
-0.189719,-4.941614,-54.612515,-0.098017,-0.995185,0.000000
1.189461,-4.797721,-46.524308,0.290285,-0.956940,0.000000
-4.791467,-7.386510,9.089275,-0.866025,-0.500000,0.000000
1.420311,2.113897,9.105390,-0.000000,0.000000,1.000000
3.425244,3.574937,-45.888835,0.634393,0.773010,0.000000
-1.509332,-5.453643,0.000000,0.000000,0.000000,-1.000000
-3.519803,7.711602,0.000000,0.000000,0.000000,-1.000000
3.853651,-3.085630,-24.722323,0.773010,-0.634393,0.000000
