x,y,z,nx,ny,nz
-14.018360,-22.138417,-5.604562,0.956940,-0.000000,0.290285
6.135350,-26.096642,15.867196,0.000000,-1.000000,0.000000
-25.418637,-10.144238,-3.899714,-0.290285,0.000000,0.956940
13.126824,10.239473,7.350130,-0.881921,0.000000,-0.471397
34.215302,3.373452,5.257813,1.000000,-0.000000,0.000000
29.962334,-26.096642,3.558381,-0.000000,-1.000000,0.000000
-0.897245,-0.056254,-15.026061,0.098017,0.000000,0.995185
-34.215302,14.342025,14.499357,-1.000000,0.000000,0.000000
-22.769520,-22.180198,-1.960442,-0.881922,0.000000,0.471395
23.500348,-12.429500,-2.898675,0.634392,0.000000,0.773011
-34.215302,14.057549,-6.869871,-1.000000,0.000000,0.000000
12.340322,1.176364,-8.673570,-0.773011,0.000000,0.634393
-26.028324,16.977533,-19.858526,0.000000,0.000000,-1.000000
-32.561375,17.229928,-19.858526,0.000000,0.000000,-1.000000
-17.487596,25.164037,-6.809991,0.946930,0.000000,0.321439
19.087454,26.096642,-1.539026,0.000000,1.000000,-0.000000
20.619568,-13.036371,-19.858526,0.000000,0.000000,-1.000000
-15.082068,8.935634,-0.328598,0.995185,0.000000,0.098017
34.215302,25.589537,-13.835294,1.000000,-0.000000,0.000000
28.071724,-10.916041,3.501379,-0.471395,0.000000,-0.881922
34.215302,-15.163584,0.136288,1.000000,0.000000,-0.000000
-0.445285,11.339312,-19.858526,0.000000,0.000000,-1.000000
25.465249,20.665209,-3.908355,0.098017,0.000000,0.995185
34.215302,-19.272874,1.827696,1.000000,0.000000,-0.000000
30.823782,26.096642,10.724146,-0.000000,1.000000,0.000000
-34.215302,11.248356,-7.796713,-1.000000,0.000000,0.000000
-1.448051,-21.503195,14.971812,0.098017,0.000000,-0.995185
32.002557,-26.096642,-10.330964,-0.000000,-1.000000,0.000000
5.915745,-24.294156,-13.893519,-0.471397,0.000000,0.881921
-1.822301,7.438479,-14.934951,0.098017,0.000000,0.995185
23.436944,1.853402,19.858526,0.000000,0.000000,1.000000
-2.207071,-14.030821,-19.858526,0.000000,0.000000,-1.000000
24.054967,10.820543,3.338936,0.471395,0.000000,-0.881922
27.571716,18.351744,19.858526,0.000000,0.000000,1.000000
-34.215302,-5.084920,-12.316495,-1.000000,0.000000,0.000000
-13.443344,26.096642,19.501182,-0.000000,1.000000,0.000000
7.147632,-16.382294,-19.858526,0.000000,0.000000,-1.000000
0.687333,-11.363484,-19.858526,0.000000,0.000000,-1.000000
34.215302,18.822741,7.876049,1.000000,-0.000000,0.000000
-12.972605,6.200493,-7.638652,0.881921,-0.000000,0.471397
-27.132382,-1.458435,-19.858526,0.000000,0.000000,-1.000000
-15.481684,-2.326557,19.858526,0.000000,-0.000000,1.000000
-1.572737,15.779744,-19.858526,0.000000,0.000000,-1.000000
-3.438876,19.941142,-18.431802,0.195090,-0.000000,0.980785
-13.662018,5.385774,6.348852,0.881921,0.000000,-0.471397
7.974224,-14.016423,-12.793239,-0.471397,0.000000,0.881921
-23.981033,-3.676673,-3.293161,-0.634392,0.000000,0.773011
25.823130,-26.096642,-5.905408,0.000000,-1.000000,0.000000
6.383023,-26.096642,16.664572,0.000000,-1.000000,0.000000
33.300354,10.138042,-19.858526,0.000000,0.000000,-1.000000
15.078392,10.946428,-0.365923,-0.995185,0.000000,0.098017
-25.062951,-16.530510,3.791818,-0.290285,0.000000,-0.956940
-20.581584,26.096642,-0.078030,0.000000,1.000000,-0.000000
1.096866,21.756683,-19.858526,0.000000,0.000000,-1.000000
-32.743931,22.170599,-19.858526,0.000000,0.000000,-1.000000
-2.732967,5.796061,-14.845259,0.098017,0.000000,0.995185
-11.791622,15.265687,19.858526,0.000000,-0.000000,1.000000
-14.235856,-15.706005,19.858526,0.000000,0.000000,1.000000
-2.171546,20.002726,18.646429,0.065403,0.000000,-0.997859
-34.215302,-18.308593,13.091380,-1.000000,0.000000,0.000000
11.424221,26.096642,17.501026,-0.000000,1.000000,0.000000
-25.947119,26.096642,-9.045662,0.000000,1.000000,0.000000
27.071284,20.792833,19.858526,0.000000,-0.000000,1.000000
-14.294206,11.608096,19.858526,0.000000,-0.000000,1.000000
-15.928217,-10.764880,-19.858526,0.000000,0.000000,-1.000000
34.215302,-19.033348,9.552446,1.000000,0.000000,-0.000000
8.944352,17.587351,-16.493473,-0.442289,0.000000,0.896873
-5.724936,8.743298,-19.858526,0.000000,0.000000,-1.000000
-24.816269,5.322947,19.858526,0.000000,-0.000000,1.000000
-5.931927,-21.483244,19.858526,0.000000,0.000000,1.000000
-31.446920,26.096642,-0.142193,-0.000000,1.000000,0.000000
24.248136,-15.406786,-19.858526,0.000000,0.000000,-1.000000
-9.713948,16.169472,-16.058015,0.555570,-0.000000,0.831470
30.093585,-0.057375,0.867309,-0.956941,0.000000,-0.290283
-9.682654,15.440233,19.858526,0.000000,-0.000000,1.000000
-12.857398,16.301253,-13.661235,0.659346,-0.000000,0.751840
-8.723037,-14.072941,-12.299725,0.634393,-0.000000,0.773011
-34.215302,-17.242491,-18.535909,-1.000000,0.000000,0.000000
-11.717904,-26.096642,-19.262720,0.000000,-1.000000,0.000000
10.702175,-8.374643,10.669659,-0.773011,0.000000,-0.634393
22.774557,17.726398,-1.969866,0.881922,0.000000,0.471395
-33.067656,26.096642,-16.353433,-0.000000,1.000000,0.000000
9.363524,-16.828935,19.858526,0.000000,0.000000,1.000000
-0.768819,6.314390,15.038710,0.098017,0.000000,-0.995185
-11.654288,16.066912,19.858526,0.000000,-0.000000,1.000000
-25.919139,-13.061227,19.858526,0.000000,-0.000000,1.000000
18.596093,17.911023,2.612932,-0.980785,0.000000,-0.195090
17.411139,25.456110,19.858526,0.000000,-0.000000,1.000000
-29.812978,8.284267,-1.676262,0.881922,0.000000,0.471395
-14.050730,9.815256,5.497852,0.956940,0.000000,-0.290285
5.044899,-0.285744,14.188132,-0.290285,-0.000000,-0.956940
16.297441,22.301038,-9.341866,-0.896873,0.000000,0.442289
-22.515021,-9.580413,-1.454110,-0.956940,0.000000,0.290285
-10.136902,-7.155508,11.139397,0.634393,0.000000,-0.773011
-1.103789,-25.368532,-15.005719,0.098017,0.000000,0.995185
10.000374,24.369115,15.866631,-0.555570,0.000000,-0.831470
34.215302,25.085422,11.270579,1.000000,-0.000000,0.000000
-23.044170,-0.413378,-2.382965,-0.773010,0.000000,0.634393
10.659648,14.881060,12.399249,-0.000000,1.000000,0.000000
-34.215302,-21.450660,-17.591877,-1.000000,0.000000,0.000000
8.875333,21.423520,16.527509,-0.442289,-0.000000,-0.896873
-30.045210,-0.081941,-1.026777,0.956940,0.000000,0.290285
23.568810,-23.731132,2.954861,0.634393,-0.000000,-0.773011
-24.178494,-12.743159,19.858526,0.000000,-0.000000,1.000000
33.898456,14.760223,-19.858526,0.000000,0.000000,-1.000000
23.733047,-14.127104,-3.089645,0.634392,-0.000000,0.773011
-34.215302,17.931975,18.389551,-1.000000,0.000000,0.000000
29.448321,-26.096642,-6.377404,-0.000000,-1.000000,0.000000
34.215302,-15.718789,-0.927876,1.000000,0.000000,-0.000000
30.081483,24.573295,0.907203,-0.956940,-0.000000,-0.290286
-6.662850,5.948214,13.494183,0.471397,0.000000,-0.881921
-24.927198,-14.872404,19.858526,0.000000,-0.000000,1.000000
-27.402684,-16.875342,-19.858526,0.000000,0.000000,-1.000000
-34.215302,-11.902622,-18.514306,-1.000000,0.000000,0.000000
-12.089472,21.166855,-19.858526,0.000000,0.000000,-1.000000
3.238140,4.937663,-14.736206,-0.290285,0.000000,0.956940
-9.918074,-17.088764,-19.858526,0.000000,0.000000,-1.000000
-21.128674,-26.096642,13.494280,0.000000,-1.000000,0.000000
-4.425837,-17.229427,-14.375922,0.290285,0.000000,0.956940
16.476526,1.749985,-19.858526,0.000000,0.000000,-1.000000
19.581011,-16.356993,19.858526,0.000000,0.000000,1.000000
-21.625695,7.160575,19.858526,0.000000,-0.000000,1.000000
34.215302,15.384245,9.980217,1.000000,-0.000000,0.000000
29.996643,26.096642,15.149083,0.000000,1.000000,-0.000000
-19.784140,-26.096642,-15.109878,0.000000,-1.000000,0.000000
-33.409781,26.096642,-14.292933,-0.000000,1.000000,0.000000
34.215302,-19.517381,-17.895650,1.000000,0.000000,-0.000000
-12.888137,26.096642,17.389933,0.000000,1.000000,0.000000
-11.837799,-2.047764,19.858526,0.000000,-0.000000,1.000000
-25.414592,-3.792466,-3.898487,-0.290285,0.000000,0.956940
11.347043,17.673306,19.858526,0.000000,-0.000000,1.000000
34.215302,7.172235,17.776459,1.000000,-0.000000,0.000000
-21.623580,26.096642,-14.983953,-0.000000,1.000000,0.000000
24.888989,12.032904,-3.739047,0.290285,0.000000,0.956940
-21.089380,2.125434,19.858526,0.000000,-0.000000,1.000000
-23.563128,-19.792734,-19.858526,0.000000,0.000000,-1.000000
32.349080,-21.381589,19.858526,0.000000,0.000000,1.000000
24.157962,24.690228,-19.858526,0.000000,0.000000,-1.000000
17.027132,-26.096642,18.657064,0.000000,-1.000000,0.000000
-10.692897,13.976887,19.858526,0.000000,-0.000000,1.000000
28.101259,-18.748290,-19.858526,0.000000,0.000000,-1.000000
-11.833319,-26.096642,-15.584319,0.000000,-1.000000,0.000000
34.215302,-0.113906,6.790228,1.000000,-0.000000,0.000000
-15.665681,-19.119653,19.858526,0.000000,0.000000,1.000000
-14.156948,-26.096642,15.904410,0.000000,-1.000000,0.000000
-10.204916,2.092382,-11.083580,0.634393,0.000000,0.773011
-14.051844,19.978929,12.411993,0.751840,0.000000,-0.659346
21.377202,-1.554147,-19.858526,0.000000,0.000000,-1.000000
-23.990215,-10.536353,3.300697,-0.634393,0.000000,-0.773011
-22.480755,-21.890597,-1.341152,-0.956940,0.000000,0.290285
-22.496704,26.096642,13.370366,0.000000,1.000000,0.000000
11.352811,14.119595,9.876856,-0.773011,0.000000,-0.634393
-4.551496,6.113174,-14.337804,0.290285,-0.000000,0.956940
-34.215302,1.350962,-1.342830,-1.000000,0.000000,0.000000
-17.352471,-26.096642,17.060907,0.000000,-1.000000,0.000000
-34.215302,24.050667,-12.781503,-1.000000,0.000000,0.000000
34.215302,14.750476,18.602005,1.000000,-0.000000,0.000000
14.794209,-8.517117,-3.046929,-0.956940,0.000000,0.290285
-11.986019,20.664088,14.425413,0.659346,0.000000,-0.751840
-13.124939,-0.183919,-19.858526,0.000000,0.000000,-1.000000
-13.631399,3.024542,6.406135,0.881921,0.000000,-0.471397
-34.215302,-16.535831,-18.561845,-1.000000,0.000000,0.000000
-34.215302,13.747323,-13.319593,-1.000000,0.000000,0.000000
-28.889515,10.492380,-19.858526,0.000000,0.000000,-1.000000
21.035067,26.096642,12.102001,-0.000000,1.000000,0.000000
-0.656608,-5.528092,-19.858526,0.000000,0.000000,-1.000000
-14.507629,5.679841,-3.991657,0.956940,-0.000000,0.290285
13.830309,-2.436277,-19.858526,0.000000,0.000000,-1.000000
-30.961243,-6.166090,-19.858526,0.000000,0.000000,-1.000000
-16.763364,26.096642,9.846649,0.000000,1.000000,0.000000
-34.215302,-9.144928,-7.275769,-1.000000,0.000000,0.000000
-28.981159,24.350591,19.858526,0.000000,-0.000000,1.000000
6.419255,5.327102,-13.624387,-0.471397,0.000000,0.881921
-24.099001,-4.338974,19.858526,0.000000,-0.000000,1.000000
-22.237555,2.144787,-0.045518,-0.995185,0.000000,0.098017
22.349378,-19.770887,19.858526,0.000000,0.000000,1.000000
0.237023,14.035746,19.858526,0.000000,-0.000000,1.000000
17.874076,22.501395,-19.858526,0.000000,0.000000,-1.000000
-22.543430,-10.191470,1.537457,-0.881922,-0.000000,-0.471396
34.215302,-10.710153,1.381677,1.000000,0.000000,-0.000000
9.675163,-0.212317,-11.518336,-0.634393,0.000000,0.773011
-10.401448,-26.096642,-11.061468,0.000000,-1.000000,0.000000
5.017888,16.105966,-19.858526,0.000000,0.000000,-1.000000
32.521057,-26.096642,-3.560670,-0.000000,-1.000000,0.000000
-13.883773,20.372448,12.603641,0.751840,0.000000,-0.659346
9.949411,-23.927117,19.858526,0.000000,0.000000,1.000000
15.920089,21.484185,19.858526,0.000000,-0.000000,1.000000
-17.748459,20.051674,-6.041515,0.946930,-0.000000,0.321439
-18.388201,-2.985685,-19.858526,0.000000,0.000000,-1.000000
-34.215302,-25.281276,14.972396,-1.000000,0.000000,0.000000
-13.070643,-0.545011,-7.455237,0.881921,-0.000000,0.471397
25.338445,15.751307,-19.858526,0.000000,0.000000,-1.000000
-34.215302,-6.510004,16.761824,-1.000000,0.000000,0.000000
31.111291,-26.096642,12.134503,-0.000000,-1.000000,0.000000
29.857563,24.810455,19.858526,0.000000,-0.000000,1.000000
18.909603,11.560663,19.858526,0.000000,0.000000,1.000000
-22.025785,26.096642,6.900697,-0.000000,1.000000,-0.000000
-30.113737,-26.096642,16.194354,0.000000,-1.000000,0.000000
34.215302,2.721418,-6.338471,1.000000,0.000000,-0.000000
-17.540788,-26.096642,-5.350772,0.000000,-1.000000,0.000000
34.215302,-5.635865,-6.193501,1.000000,0.000000,-0.000000
5.888517,-5.773432,-13.908072,-0.471397,0.000000,0.881921
-16.841820,-15.647799,-19.858526,0.000000,0.000000,-1.000000
-34.215302,13.738950,-14.675141,-1.000000,0.000000,0.000000
-28.613894,26.096642,-13.647942,-0.000000,1.000000,0.000000
23.754864,-4.274947,-3.107550,0.634392,-0.000000,0.773011
9.597284,1.554755,-19.858526,0.000000,0.000000,-1.000000
-24.870480,-25.222636,-19.858526,0.000000,0.000000,-1.000000
-14.366015,-25.967458,-4.458496,0.956940,0.000000,0.290285
12.849871,7.177683,-19.858526,0.000000,0.000000,-1.000000
6.651827,-3.135925,19.858526,0.000000,0.000000,1.000000
34.215302,11.214691,7.716700,1.000000,-0.000000,0.000000
-15.430392,17.714678,-10.653252,0.831470,-0.000000,0.555570
-16.724304,5.487353,-19.858526,0.000000,0.000000,-1.000000
-23.303715,-26.096642,5.157616,0.000000,-1.000000,0.000000
34.215302,-13.171503,-11.354492,1.000000,0.000000,-0.000000
-21.523779,-24.354023,19.858526,0.000000,0.000000,1.000000
-33.009909,-26.096642,13.918956,0.000000,-1.000000,0.000000
-24.096376,25.076626,19.858526,0.000000,-0.000000,1.000000
34.215302,-14.069790,19.355585,1.000000,-0.000000,0.000000
-34.215302,-6.784936,14.174686,-1.000000,0.000000,0.000000
-33.157051,26.096642,14.445850,-0.000000,1.000000,0.000000
26.405244,9.577105,-19.858526,0.000000,0.000000,-1.000000
-5.491027,-14.357474,-14.052800,0.290285,0.000000,0.956940
-11.680793,-4.789267,19.858526,0.000000,-0.000000,1.000000
-1.538102,-4.378362,19.858526,0.000000,0.000000,1.000000
34.215302,-18.231610,8.736374,1.000000,0.000000,-0.000000
2.157515,-14.793918,19.858526,0.000000,0.000000,1.000000
8.462623,-16.275538,-19.858526,0.000000,0.000000,-1.000000
-25.140423,26.096642,-16.655409,-0.000000,1.000000,0.000000
-34.215302,19.054533,-16.737888,-1.000000,0.000000,0.000000
34.215302,20.934477,-8.886320,1.000000,-0.000000,0.000000
33.262683,-13.326199,19.858526,0.000000,0.000000,1.000000
13.084358,7.038839,7.429578,-0.881921,0.000000,-0.471397
-11.725455,-15.690510,-9.422788,0.773011,0.000000,0.634393
14.770198,-8.992537,3.126082,-0.956940,0.000000,-0.290285
22.346565,-11.171886,0.898788,0.956940,0.000000,-0.290287
34.215302,-4.392402,-19.639465,1.000000,0.000000,-0.000000
34.215302,24.739849,-3.851081,1.000000,-0.000000,0.000000
34.215302,-20.929310,9.874755,1.000000,0.000000,-0.000000
28.620320,-22.631737,-19.858526,0.000000,0.000000,-1.000000
-34.215302,-19.086810,19.508472,-1.000000,0.000000,0.000000
14.516456,-23.651045,19.858526,0.000000,0.000000,1.000000
4.820148,-9.269266,-14.256309,-0.290285,0.000000,0.956940
18.097923,-23.269174,-19.858526,0.000000,0.000000,-1.000000
-34.215302,-11.056532,15.143891,-1.000000,0.000000,0.000000
-9.005430,0.066989,12.067972,0.634393,0.000000,-0.773011
1.040243,17.209109,19.858526,0.000000,-0.000000,1.000000
-28.615656,-11.750391,19.858526,0.000000,-0.000000,1.000000
13.620851,-11.889915,6.425869,-0.881921,-0.000000,-0.471397
21.392061,10.782493,19.858526,0.000000,0.000000,1.000000
-34.215302,-18.609605,2.857096,-1.000000,0.000000,0.000000
24.186564,26.096642,-17.127760,-0.000000,1.000000,0.000000
-26.762791,-2.784893,19.858526,0.000000,-0.000000,1.000000
4.563643,-3.793930,19.858526,0.000000,0.000000,1.000000
34.215302,-23.460770,-12.414322,1.000000,0.000000,-0.000000
-30.113844,13.506975,19.858526,0.000000,-0.000000,1.000000
-4.249017,-22.141871,-19.858526,0.000000,0.000000,-1.000000
21.969660,-9.756406,-19.858526,0.000000,0.000000,-1.000000
-34.215302,5.194566,-11.029380,-1.000000,0.000000,0.000000
14.699805,-26.096642,18.152731,0.000000,-1.000000,0.000000
-19.107609,-26.096642,-19.666116,0.000000,-1.000000,0.000000
-27.245509,4.294253,-19.858526,0.000000,0.000000,-1.000000
-27.208336,-9.553709,-19.858526,0.000000,0.000000,-1.000000
-1.574567,-17.434600,-14.959351,0.098017,0.000000,0.995185
3.305942,-26.096642,15.673680,0.000000,-1.000000,0.000000
-2.868968,-16.778044,19.858526,0.000000,0.000000,1.000000
34.215302,-11.468483,13.783254,1.000000,-0.000000,0.000000
2.253839,-2.366054,-14.892449,-0.098017,0.000000,0.995185
27.610482,7.827548,3.718156,-0.290285,0.000000,-0.956940
6.521316,-26.096642,18.106504,0.000000,-1.000000,0.000000
-9.336291,-26.096642,-15.563845,0.000000,-1.000000,0.000000
16.587486,10.388118,-19.858526,0.000000,0.000000,-1.000000
-31.406495,26.096642,14.217267,0.000000,1.000000,0.000000
-34.215302,-18.390979,5.321404,-1.000000,0.000000,0.000000
25.235409,-22.104310,-3.844133,0.290285,-0.000000,0.956940
-12.278838,26.096642,15.205038,0.000000,1.000000,0.000000
12.853924,-6.832054,7.860690,-0.881921,0.000000,-0.471397
27.322138,-22.937239,19.858526,0.000000,0.000000,1.000000
-1.052507,5.794065,-15.010769,0.098017,0.000000,0.995185
-3.619158,25.617348,-19.858526,0.000000,0.000000,-1.000000
-31.398292,-12.582052,-19.858526,0.000000,0.000000,-1.000000
-14.435723,-14.940226,4.228699,0.956940,0.000000,-0.290285
28.646920,5.370519,-3.131200,-0.634392,0.000000,0.773011
10.850097,-23.944603,-19.858526,0.000000,0.000000,-1.000000
22.777751,6.274982,-19.858526,0.000000,0.000000,-1.000000
-12.313692,25.704053,-19.858526,0.000000,0.000000,-1.000000
-34.215302,2.154239,-9.258727,-1.000000,0.000000,0.000000
4.283575,25.644073,18.263781,-0.195090,0.000000,-0.980785
-1.925855,-22.891037,14.924752,0.098017,0.000000,-0.995185
34.215302,-2.732952,-9.493766,1.000000,0.000000,-0.000000
25.090093,-26.096642,-5.623531,0.000000,-1.000000,0.000000
-34.215302,-10.602601,-7.309363,-1.000000,0.000000,0.000000
-22.343626,-0.788331,-0.889097,-0.956940,0.000000,0.290285
24.084403,-24.769791,3.354670,0.471397,-0.000000,-0.881921
-16.285853,-8.860207,-19.858526,0.000000,0.000000,-1.000000
24.244813,-20.842362,-19.858526,0.000000,0.000000,-1.000000
29.557816,-4.789910,-2.153640,-0.881922,0.000000,0.471395
-26.439162,4.315695,3.960180,0.098018,0.000000,-0.995185
17.235890,26.096642,-12.703848,-0.000000,1.000000,0.000000
-6.578397,-15.421622,-13.539324,0.471397,0.000000,0.881921
-11.007575,-9.225783,10.297527,0.773011,0.000000,-0.634393
-34.215302,-3.891473,8.282874,-1.000000,0.000000,0.000000
34.215302,7.635777,10.049971,1.000000,-0.000000,0.000000
34.215302,-8.203503,17.329253,1.000000,-0.000000,0.000000
14.876911,-5.345086,2.411596,-0.995185,0.000000,-0.098017
23.652116,12.794861,3.023227,0.634391,-0.000000,-0.773012
-34.215302,-19.472902,-8.310369,-1.000000,0.000000,0.000000
-23.524210,-9.739990,2.918257,-0.634391,0.000000,-0.773012
-24.513954,-17.399817,-3.584270,-0.471397,0.000000,0.881921
15.086264,6.344329,-0.285995,-0.995185,0.000000,0.098017
-13.476936,-19.436399,-6.695116,0.881921,0.000000,0.471397
16.094780,18.708975,19.858526,0.000000,-0.000000,1.000000
25.972908,26.096642,-10.385462,0.000000,1.000000,-0.000000
-34.215302,-12.692139,-8.468724,-1.000000,0.000000,0.000000
13.241976,5.824481,19.858526,0.000000,0.000000,1.000000
-13.846216,-7.388470,6.004242,0.881921,0.000000,-0.471397
7.154338,6.125586,13.231477,-0.471397,0.000000,-0.881921
-34.215302,-16.731388,-14.080124,-1.000000,0.000000,0.000000
-8.653112,18.892000,-19.858526,0.000000,0.000000,-1.000000
27.269434,-26.096642,18.326950,0.000000,-1.000000,0.000000
-10.781702,-7.069169,-10.572755,0.773011,-0.000000,0.634393
-34.215302,16.703456,9.976349,-1.000000,0.000000,0.000000
-32.416839,26.096642,9.752886,-0.000000,1.000000,0.000000
18.281815,-18.305368,19.858526,0.000000,0.000000,1.000000
-32.248988,-10.942744,-19.858526,0.000000,0.000000,-1.000000
-34.215302,-13.197093,-19.630545,-1.000000,0.000000,0.000000
34.215302,-0.378267,13.451614,1.000000,-0.000000,0.000000
34.215302,7.280522,-1.536219,1.000000,-0.000000,0.000000
0.304879,-9.157590,-19.858526,0.000000,0.000000,-1.000000
9.431774,24.319458,16.246557,-0.555570,0.000000,-0.831470
-2.026693,-24.178549,19.858526,0.000000,0.000000,1.000000
17.178635,11.884374,19.858526,0.000000,0.000000,1.000000
24.082964,-26.096642,12.524800,-0.000000,-1.000000,0.000000
34.215302,6.707885,14.262240,1.000000,-0.000000,0.000000
-26.336075,26.096642,-14.937680,-0.000000,1.000000,0.000000
2.271076,2.839657,19.858526,0.000000,-0.000000,1.000000
34.215302,5.148695,-4.205515,1.000000,0.000000,-0.000000
-34.215302,-8.242183,10.823313,-1.000000,0.000000,0.000000
-16.302085,14.881060,1.676875,-0.000000,1.000000,0.000000
-34.215302,19.216267,1.622934,-1.000000,0.000000,0.000000
-34.215302,22.234417,6.204548,-1.000000,0.000000,0.000000
26.177608,18.581878,-3.978516,0.098017,-0.000000,0.995185
-29.439629,26.096642,-5.553998,-0.000000,1.000000,0.000000
-16.027387,-12.422392,-19.858526,0.000000,0.000000,-1.000000
34.215302,-24.349820,3.817226,1.000000,0.000000,-0.000000
-10.675006,-3.237253,19.858526,0.000000,-0.000000,1.000000
-11.018172,-17.549167,10.284615,0.773011,0.000000,-0.634393
11.723385,8.204521,19.858526,0.000000,0.000000,1.000000
-5.710565,-26.096642,-17.119408,0.000000,-1.000000,0.000000
-34.215302,23.882016,2.154354,-1.000000,0.000000,0.000000
34.215302,-9.538574,-1.662228,1.000000,0.000000,-0.000000
25.989133,0.814746,-3.959953,0.098017,-0.000000,0.995185
34.215302,-1.921505,-11.695915,1.000000,0.000000,-0.000000
-9.737895,22.694998,-19.858526,0.000000,0.000000,-1.000000
4.611745,19.593317,19.858526,0.000000,-0.000000,1.000000
26.587367,-23.783098,3.945583,-0.098018,0.000000,-0.995185
-5.789929,23.726982,-17.833861,0.321439,0.000000,0.946930
-13.459044,1.992095,-6.728589,0.881921,-0.000000,0.471397
12.945458,-26.096642,8.603019,-0.000000,-1.000000,0.000000
-27.142661,26.096642,-19.807849,-0.000000,1.000000,0.000000
28.840081,19.315326,19.858526,0.000000,0.000000,1.000000
-1.887190,-23.529822,-14.928560,0.098017,0.000000,0.995185
-23.074170,-4.367855,2.419519,-0.773010,0.000000,-0.634393
22.414016,-21.257588,-1.121144,0.956940,-0.000000,0.290285
-32.736000,26.096642,1.982636,-0.000000,1.000000,0.000000
-4.204017,-16.641597,14.443210,0.290285,0.000000,-0.956940
-34.215302,25.864904,15.293429,-1.000000,0.000000,0.000000
34.032644,-26.096642,5.797566,-0.000000,-1.000000,0.000000
-30.512463,-26.096642,13.509025,0.000000,-1.000000,0.000000
-12.040450,16.838415,19.858526,0.000000,-0.000000,1.000000
10.108418,-20.006935,11.162773,-0.634393,-0.000000,-0.773011
16.651585,26.096642,19.485058,-0.000000,1.000000,0.000000
4.265703,2.749690,19.858526,0.000000,0.000000,1.000000
-13.783082,24.087399,12.718458,0.751840,0.000000,-0.659346
-12.094330,-12.249043,19.858526,0.000000,0.000000,1.000000
-1.689015,14.710501,19.858526,0.000000,-0.000000,1.000000
6.039281,7.047288,13.827487,-0.471397,0.000000,-0.881921
5.069693,11.704656,-19.858526,0.000000,0.000000,-1.000000
4.766676,-26.096642,17.205888,0.000000,-1.000000,0.000000
-2.797383,13.176290,19.858526,0.000000,-0.000000,1.000000
-34.215302,-21.303469,16.691440,-1.000000,0.000000,0.000000
34.215302,7.061740,7.447885,1.000000,-0.000000,0.000000
-4.307069,-8.736048,-14.411950,0.290285,0.000000,0.956940
19.963485,-9.876543,-19.858526,0.000000,0.000000,-1.000000
34.215302,-11.086284,11.711605,1.000000,-0.000000,0.000000
-21.218003,26.096642,-15.234618,-0.000000,1.000000,0.000000
19.949611,19.047439,19.858526,0.000000,-0.000000,1.000000
-21.687639,26.096642,-9.403360,-0.000000,1.000000,0.000000
-34.215302,12.235307,6.917081,-1.000000,0.000000,0.000000
34.215302,-22.708871,8.407327,1.000000,0.000000,-0.000000
-34.215302,-12.627359,-15.653231,-1.000000,0.000000,0.000000
-34.215302,9.866287,-14.972521,-1.000000,0.000000,0.000000
16.341997,-26.096642,-9.666502,0.000000,-1.000000,0.000000
3.696594,-26.096642,16.575998,0.000000,-1.000000,0.000000
-8.725664,22.665414,19.858526,0.000000,-0.000000,1.000000
-33.051908,-26.096642,-6.204291,0.000000,-1.000000,0.000000
-25.501594,12.423941,-19.858526,0.000000,0.000000,-1.000000
-29.353773,-26.096642,-11.948460,-0.000000,-1.000000,0.000000
7.974952,1.680353,12.792849,-0.471397,-0.000000,-0.881921
-28.875067,-13.391805,2.943965,0.634393,-0.000000,-0.773011
-10.416372,9.478326,10.910042,0.634393,0.000000,-0.773011
-31.978834,-26.096642,10.769632,0.000000,-1.000000,0.000000
-30.122928,-22.618294,-0.757442,0.995185,-0.000000,0.098015
17.163882,-26.096642,19.161983,0.000000,-1.000000,0.000000
34.215302,-23.139707,5.638700,1.000000,0.000000,-0.000000
-7.196081,24.770824,-17.355625,0.442289,-0.000000,0.896873
27.896955,-23.466090,-19.858526,0.000000,0.000000,-1.000000
28.019935,-25.159977,-3.529061,-0.471397,0.000000,0.881921
-16.051521,-26.096642,-2.100982,0.000000,-1.000000,0.000000
-17.407506,26.096642,-12.272134,-0.000000,1.000000,0.000000
-14.662873,6.305109,3.479887,0.956940,0.000000,-0.290285
23.042586,-20.826965,-19.858526,0.000000,0.000000,-1.000000
24.282246,-26.096642,-19.727865,0.000000,-1.000000,0.000000
16.849151,-26.096642,9.570640,0.000000,-1.000000,0.000000
17.520834,-22.038999,19.858526,0.000000,0.000000,1.000000
-29.531085,8.987802,2.203649,0.881922,0.000000,-0.471396
-23.143455,-26.096642,5.157646,0.000000,-1.000000,0.000000
26.870030,-24.355627,-3.917743,-0.098017,0.000000,0.995185
29.712400,26.096642,-17.649399,-0.000000,1.000000,0.000000
-26.795176,-13.938498,-19.858526,0.000000,0.000000,-1.000000
-14.207157,-26.096642,8.669300,0.000000,-1.000000,0.000000
14.911034,-6.203830,2.065141,-0.995185,0.000000,-0.098017
-9.266301,26.096642,16.600698,0.000000,1.000000,0.000000
-25.606456,14.340288,-19.858526,0.000000,0.000000,-1.000000
34.215302,10.193108,17.223800,1.000000,-0.000000,0.000000
-22.402964,-16.837397,19.858526,0.000000,-0.000000,1.000000
-34.215302,9.369181,-11.134290,-1.000000,0.000000,0.000000
15.741358,20.072637,19.858526,0.000000,-0.000000,1.000000
-12.550080,-24.837649,-19.858526,0.000000,0.000000,-1.000000
15.874345,-26.096642,-6.831741,0.000000,-1.000000,0.000000
-34.132603,26.096642,16.443532,-0.000000,1.000000,0.000000
-4.335249,0.345300,14.403402,0.290285,0.000000,-0.956940
7.995359,-2.336661,12.781942,-0.471397,-0.000000,-0.881921
-29.565157,10.349509,2.139904,0.881922,0.000000,-0.471396
-15.360605,26.096642,-11.164971,-0.000000,1.000000,0.000000
23.017947,3.866605,-19.858526,0.000000,0.000000,-1.000000
15.054601,1.743871,0.607476,-0.995185,-0.000000,-0.098017
34.215302,-9.393587,-14.888673,1.000000,0.000000,-0.000000
-21.091611,-5.303696,19.858526,0.000000,-0.000000,1.000000
28.046157,-26.096642,-9.875740,0.000000,-1.000000,0.000000
13.145262,-9.217257,-19.858526,0.000000,0.000000,-1.000000
34.215302,2.524927,7.778588,1.000000,-0.000000,0.000000
-9.113636,0.514463,-11.979169,0.634393,-0.000000,0.773011
25.698085,-26.096642,6.660390,0.000000,-1.000000,0.000000
14.825030,26.096642,16.775697,-0.000000,1.000000,0.000000
34.215302,13.793306,-15.216968,1.000000,0.000000,-0.000000
-29.939301,-15.598516,1.375912,0.956941,0.000000,-0.290283
-29.562550,-14.789368,2.144783,0.881922,0.000000,-0.471396
17.585179,-26.096642,-16.457928,0.000000,-1.000000,0.000000
-1.199609,24.699435,18.710133,0.065403,0.000000,-0.997859
-34.215302,-0.893601,14.270196,-1.000000,0.000000,0.000000
-34.215302,17.798485,-14.198851,-1.000000,0.000000,0.000000
24.288208,-26.096642,7.817644,0.000000,-1.000000,0.000000
-10.742762,15.644345,19.858526,0.000000,-0.000000,1.000000
4.688178,6.010480,-14.296342,-0.290285,0.000000,0.956940
28.985885,6.068126,19.858526,0.000000,0.000000,1.000000
22.851633,-13.289523,2.114066,0.881922,0.000000,-0.471396
-26.254353,-10.490144,19.858526,0.000000,-0.000000,1.000000
-32.329530,4.524823,-19.858526,0.000000,0.000000,-1.000000
9.408140,14.881060,-13.440640,0.000000,1.000000,0.000000
-29.088980,23.493435,2.745410,0.773010,0.000000,-0.634393
27.165250,-26.096642,-8.463669,0.000000,-1.000000,0.000000
1.508861,-26.096642,-18.625721,0.000000,-1.000000,0.000000
25.578717,-6.002785,19.858526,0.000000,0.000000,1.000000
-22.624828,22.574239,19.858526,0.000000,-0.000000,1.000000
13.696564,-26.096642,-6.421561,0.000000,-1.000000,0.000000
20.892614,23.308144,-19.858526,0.000000,0.000000,-1.000000
-34.215302,-2.357985,4.932093,-1.000000,0.000000,0.000000
34.215302,-1.978215,10.136592,1.000000,-0.000000,0.000000
-33.227299,-12.409367,19.858526,0.000000,-0.000000,1.000000
-27.761353,-4.646175,19.858526,0.000000,-0.000000,1.000000
-22.463608,-26.096642,-12.704904,0.000000,-1.000000,0.000000
17.771714,-26.096642,-4.347306,0.000000,-1.000000,0.000000
30.131334,14.777328,19.858526,0.000000,0.000000,1.000000
34.215302,8.537663,10.453026,1.000000,-0.000000,0.000000
-22.256448,0.785262,0.237347,-0.995184,-0.000000,-0.098020
34.215302,4.624176,15.038169,1.000000,-0.000000,0.000000
-23.256549,26.096642,16.010367,0.000000,1.000000,0.000000
-27.786618,23.865132,-3.653772,0.471397,0.000000,0.881921
34.215302,21.203350,-11.902545,1.000000,-0.000000,0.000000
7.190104,-25.252933,-19.858526,0.000000,0.000000,-1.000000
34.215302,-25.546425,-14.134523,1.000000,0.000000,-0.000000
27.637394,-26.096642,-4.762131,-0.000000,-1.000000,0.000000
-29.957204,-10.016232,-1.316895,0.956940,-0.000000,0.290285
-27.950608,-7.486181,-19.858526,0.000000,0.000000,-1.000000
-34.215302,-12.534466,12.869219,-1.000000,0.000000,0.000000
-0.501514,-24.529231,19.858526,0.000000,0.000000,1.000000
-12.843377,-1.709718,-19.858526,0.000000,0.000000,-1.000000
-27.799162,-2.628987,19.858526,0.000000,-0.000000,1.000000
19.120563,-9.091344,-19.858526,0.000000,0.000000,-1.000000
-33.439923,-26.096642,-11.114308,0.000000,-1.000000,0.000000
13.393181,11.789724,-6.851811,-0.881921,0.000000,0.471397
4.236297,20.993299,-18.273185,-0.195090,0.000000,0.980785
-34.215302,17.953238,-11.870934,-1.000000,0.000000,0.000000
-29.637193,-8.437123,19.858526,0.000000,-0.000000,1.000000
8.904884,14.881060,-14.712180,-0.000000,1.000000,0.000000
34.215302,15.440552,4.049687,1.000000,-0.000000,0.000000
-34.215302,-2.779824,3.218663,-1.000000,0.000000,0.000000
8.602328,-25.823551,-12.398789,-0.634393,0.000000,0.773011
-11.838338,26.096642,-18.036772,-0.000000,1.000000,0.000000
-24.796986,-13.856579,-3.711138,-0.290285,0.000000,0.956940
2.459120,2.665289,-14.872230,-0.098017,0.000000,0.995185
-34.215302,11.854347,6.254439,-1.000000,0.000000,0.000000
-18.104446,15.213790,-19.858526,0.000000,0.000000,-1.000000
9.611237,-1.869530,11.570799,-0.634393,0.000000,-0.773011
18.277146,-12.449841,-19.858526,0.000000,0.000000,-1.000000
14.708597,-5.734970,-3.329155,-0.956940,0.000000,0.290285
34.215302,-11.727201,-15.929274,1.000000,0.000000,-0.000000
-34.215302,-15.953889,-4.385167,-1.000000,0.000000,0.000000
34.215302,17.125641,6.194112,1.000000,-0.000000,0.000000
-8.211496,11.800864,19.858526,0.000000,-0.000000,1.000000
27.967547,7.254657,-19.858526,0.000000,0.000000,-1.000000
34.215302,7.450232,0.348268,1.000000,-0.000000,0.000000
-33.955064,18.930117,-19.858526,0.000000,0.000000,-1.000000
7.611999,25.590686,19.858526,0.000000,-0.000000,1.000000
0.452802,7.670221,-15.069835,-0.098017,0.000000,0.995185
-15.026064,-19.542916,-0.897217,0.995185,0.000000,0.098017
25.544966,4.176025,-3.916206,0.098017,0.000000,0.995185
34.215302,15.080699,-13.721786,1.000000,0.000000,-0.000000
12.118300,14.918516,19.858526,0.000000,-0.000000,1.000000
34.215302,15.916787,11.427715,1.000000,-0.000000,0.000000
-0.568927,-23.904098,15.058398,0.098017,0.000000,-0.995185
-18.248722,14.881060,1.296862,0.000000,1.000000,0.000000
29.165127,3.909869,-19.858526,0.000000,0.000000,-1.000000
31.526970,26.096642,13.019709,-0.000000,1.000000,0.000000
12.019774,-9.943056,-9.064159,-0.773011,0.000000,0.634393
-27.524500,11.234340,19.858526,0.000000,-0.000000,1.000000
22.744043,6.999370,-1.912778,0.881922,0.000000,0.471395
21.266372,-26.096642,-4.564250,0.000000,-1.000000,0.000000
-24.700930,1.826542,-3.682000,-0.290285,0.000000,0.956940
-19.806799,-26.096642,-15.307068,0.000000,-1.000000,0.000000
-13.381302,-10.731282,-6.874035,0.881921,0.000000,0.471397
6.437395,13.031779,19.858526,0.000000,-0.000000,1.000000
-29.896137,-2.568297,-1.518207,0.956940,-0.000000,0.290285
26.174193,4.647231,-3.978180,0.098017,-0.000000,0.995185
-34.215302,20.106601,-17.100252,-1.000000,0.000000,0.000000
-2.878869,12.637992,19.858526,0.000000,-0.000000,1.000000
8.421203,26.096642,-18.633931,-0.000000,1.000000,0.000000
29.490802,19.149564,19.858526,0.000000,0.000000,1.000000
-8.381073,7.842627,-19.858526,0.000000,0.000000,-1.000000
23.476218,25.187272,19.858526,0.000000,-0.000000,1.000000
-14.991554,14.115819,1.247603,0.995185,-0.000000,-0.098017
-0.570584,-23.447756,15.058235,0.098017,0.000000,-0.995185
-34.215302,-10.118609,9.486991,-1.000000,0.000000,0.000000
14.932833,-21.964012,1.843812,-0.995185,-0.000000,-0.098017
-34.215302,-25.896119,-2.336081,-1.000000,0.000000,0.000000
26.730502,-25.130778,3.931486,-0.098017,-0.000000,-0.995185
21.159253,-5.121392,-19.858526,0.000000,0.000000,-1.000000
-14.918555,4.251059,1.988778,0.995185,-0.000000,-0.098017
26.024597,-26.096642,16.603492,-0.000000,-1.000000,0.000000
34.215302,18.251433,-13.410895,1.000000,-0.000000,0.000000
-28.057491,26.096642,12.359592,-0.000000,1.000000,-0.000000
-34.215302,-2.677172,-18.732075,-1.000000,0.000000,0.000000
4.009811,14.881060,17.581372,-0.000000,1.000000,-0.000000
-34.215302,-9.825473,16.309784,-1.000000,0.000000,0.000000
25.434090,20.817023,-19.858526,0.000000,0.000000,-1.000000
-34.034897,9.374362,19.858526,0.000000,-0.000000,1.000000
-11.411441,-14.226641,9.805415,0.773011,0.000000,-0.634393
-23.949883,4.599430,-19.858526,0.000000,0.000000,-1.000000
-13.905998,-16.859278,-5.892397,0.881921,0.000000,0.471397
17.368248,-11.200335,19.858526,0.000000,0.000000,1.000000
25.727253,9.741388,-3.934160,0.098017,0.000000,0.995185
0.564801,-10.444605,-15.058804,-0.098017,0.000000,0.995185
-30.408684,26.096642,7.535083,0.000000,1.000000,0.000000
34.215302,17.659281,14.981932,1.000000,-0.000000,0.000000
-34.215302,3.384742,-11.576150,-1.000000,0.000000,0.000000
34.215302,19.694918,3.356944,1.000000,-0.000000,0.000000
-34.215302,-19.495664,-3.535576,-1.000000,0.000000,0.000000
31.091774,26.096642,1.534592,0.000000,1.000000,-0.000000
-14.638939,-5.946299,3.558786,0.956940,0.000000,-0.290285
-21.758388,5.823576,-19.858526,0.000000,0.000000,-1.000000
34.215302,16.313592,-7.285182,1.000000,-0.000000,0.000000
14.176723,1.478248,-5.082507,-0.956940,0.000000,0.290285
-3.778850,2.831314,-14.572183,0.290285,-0.000000,0.956940
28.091976,-7.086994,3.490554,-0.471397,0.000000,-0.881921
9.466156,-26.096642,-13.327652,0.000000,-1.000000,0.000000
29.961958,-26.096642,-9.867749,-0.000000,-1.000000,0.000000
-1.639637,17.108393,19.858526,0.000000,-0.000000,1.000000
-7.678467,7.190011,19.858526,0.000000,-0.000000,1.000000
-0.331384,15.364091,18.767039,0.065403,0.000000,-0.997859
-34.215302,9.074890,-11.861052,-1.000000,0.000000,0.000000
-25.592582,-16.435799,-3.920896,-0.098017,0.000000,0.995185
14.907563,-16.128174,-2.100375,-0.995185,0.000000,0.098017
-25.116266,-26.096642,-4.974934,-0.000000,-1.000000,0.000000
-31.891417,-2.338121,-19.858526,0.000000,0.000000,-1.000000
-1.234266,25.974201,-18.707861,0.065403,0.000000,0.997859
3.240305,21.573844,-19.858526,0.000000,0.000000,-1.000000
19.818967,-26.096642,-0.329766,0.000000,-1.000000,0.000000
-32.265595,-26.096642,13.484344,0.000000,-1.000000,0.000000
33.325520,-17.910924,19.858526,0.000000,0.000000,1.000000
-30.268904,-26.096642,10.374753,0.000000,-1.000000,0.000000
-11.654251,20.062372,19.858526,0.000000,-0.000000,1.000000
-5.714099,-2.362821,-19.858526,0.000000,0.000000,-1.000000
-3.053254,8.794080,-14.792290,0.290285,-0.000000,0.956940
29.429080,-9.585348,2.330997,-0.773010,0.000000,-0.634393
-5.421332,-5.688781,-14.073942,0.290285,0.000000,0.956940
-10.957376,11.735783,-19.858526,0.000000,0.000000,-1.000000
13.256031,-26.096642,-10.406387,0.000000,-1.000000,0.000000
22.263998,25.651197,0.313992,0.995185,0.000000,-0.098017
-32.764128,21.406788,19.858526,0.000000,-0.000000,1.000000
-15.070135,11.095826,0.449763,0.995185,-0.000000,-0.098017
-27.711058,-2.301594,19.858526,0.000000,-0.000000,1.000000
34.215302,-0.857741,2.644930,1.000000,-0.000000,0.000000
-34.215302,-1.130359,13.910523,-1.000000,0.000000,0.000000
10.350273,22.684424,19.858526,0.000000,-0.000000,1.000000
7.761662,-22.683050,19.858526,0.000000,0.000000,1.000000
-19.818778,26.096642,7.593135,-0.000000,1.000000,-0.000000
-34.215302,6.955526,-4.523829,-1.000000,0.000000,0.000000
-14.826103,-26.096642,12.914274,0.000000,-1.000000,0.000000
-6.924308,-16.270375,13.354430,0.471397,0.000000,-0.881921
6.556802,-5.484755,-13.550866,-0.471397,0.000000,0.881921
28.356724,17.949921,19.858526,0.000000,0.000000,1.000000
-34.215302,4.022448,6.513116,-1.000000,0.000000,0.000000
12.203695,-26.096642,8.948125,-0.000000,-1.000000,0.000000
-26.448322,-26.096642,10.092540,0.000000,-1.000000,0.000000
-12.576628,-10.094480,-19.858526,0.000000,0.000000,-1.000000
-6.385398,19.860838,-19.858526,0.000000,0.000000,-1.000000
13.279351,1.000980,-7.064771,-0.881921,0.000000,0.471397
-20.168182,16.434493,19.858526,0.000000,-0.000000,1.000000
-31.830839,19.305409,19.858526,0.000000,-0.000000,1.000000
-24.047802,26.096642,-11.636401,-0.000000,1.000000,0.000000
-6.420885,-24.409750,-19.858526,0.000000,0.000000,-1.000000
13.551487,-8.395868,6.555641,-0.881921,-0.000000,-0.471397
23.021097,5.487171,-2.354850,0.773010,0.000000,0.634393
-12.022454,-1.392448,-19.858526,0.000000,0.000000,-1.000000
-14.417858,12.845982,-4.287592,0.956940,-0.000000,0.290285
-28.982953,-11.685487,-19.858526,0.000000,0.000000,-1.000000
29.016081,14.839812,19.858526,0.000000,0.000000,1.000000
12.340343,22.537821,19.858526,0.000000,-0.000000,1.000000
-34.215302,-4.117655,-1.311264,-1.000000,0.000000,0.000000
15.423796,16.130458,10.663123,-0.831470,0.000000,-0.555570
-34.215302,22.915059,11.896911,-1.000000,0.000000,0.000000
30.488178,26.096642,13.915159,-0.000000,1.000000,0.000000
10.985819,25.918838,15.208177,-0.555570,0.000000,-0.831470
-3.376407,17.593698,18.444228,0.195090,0.000000,-0.980785
13.432717,-19.326809,6.777843,-0.881921,-0.000000,-0.471397
-4.588836,-17.052543,14.326477,0.290285,0.000000,-0.956940
-33.189548,25.718206,19.858526,0.000000,-0.000000,1.000000
34.215302,-24.127031,-5.107235,1.000000,0.000000,-0.000000
2.404792,14.029411,14.877581,-0.098017,0.000000,-0.995185
-15.755109,24.257245,-19.858526,0.000000,0.000000,-1.000000
10.680860,23.339231,19.858526,0.000000,-0.000000,1.000000
-8.536940,-14.227712,12.452452,0.634393,0.000000,-0.773011
-34.215302,-13.752044,-18.732314,-1.000000,0.000000,0.000000
-29.482554,-7.780049,-2.265838,0.773010,0.000000,0.634393
8.747327,-15.889255,12.279791,-0.634393,0.000000,-0.773011
-34.215302,-18.490352,-6.907139,-1.000000,0.000000,0.000000
-34.215302,-6.214906,17.817964,-1.000000,0.000000,0.000000
-21.295682,26.096642,-11.496051,-0.000000,1.000000,0.000000
11.447836,17.428559,19.858526,0.000000,-0.000000,1.000000
-34.215302,-23.804282,-9.319415,-1.000000,0.000000,0.000000
-2.415576,14.881060,-16.962297,-0.000000,1.000000,-0.000000
30.856061,2.673335,19.858526,0.000000,0.000000,1.000000
-17.979099,24.515903,-5.362069,0.946930,0.000000,0.321439
34.215302,19.813062,12.821549,1.000000,-0.000000,0.000000
-18.752051,25.650585,0.560057,0.997859,0.000000,-0.065403
-29.926710,-24.940948,1.417420,0.956941,0.000000,-0.290283
-23.911313,-25.147491,-3.235944,-0.634392,0.000000,0.773011
13.959864,-0.319444,-5.791621,-0.881921,0.000000,0.471397
-34.215302,13.702308,-18.164745,-1.000000,0.000000,0.000000
25.299036,26.096642,8.322156,-0.000000,1.000000,0.000000
7.227892,-21.722425,19.858526,0.000000,0.000000,1.000000
32.011136,26.096642,-10.808457,0.000000,1.000000,-0.000000
5.909845,-12.876116,-13.896672,-0.471397,0.000000,0.881921
13.339244,-26.096642,-17.389409,0.000000,-1.000000,0.000000
-1.554004,-17.298583,-19.858526,0.000000,0.000000,-1.000000
-29.182664,-12.906119,-2.631256,0.773010,-0.000000,0.634393
32.773498,-23.548789,19.858526,0.000000,0.000000,1.000000
-27.023573,-2.729030,-3.896193,0.290285,-0.000000,0.956940
-13.834101,-26.096642,-9.545375,0.000000,-1.000000,0.000000
1.170375,-19.998868,-14.999160,-0.098017,0.000000,0.995185
19.633047,16.118103,19.858526,0.000000,-0.000000,1.000000
-17.625608,-26.096642,-8.771700,0.000000,-1.000000,0.000000
1.943675,24.543295,-19.858526,0.000000,0.000000,-1.000000
-34.215302,17.808461,9.547628,-1.000000,0.000000,0.000000
-21.710254,6.295084,19.858526,0.000000,-0.000000,1.000000
-13.606924,-13.229433,-19.858526,0.000000,0.000000,-1.000000
32.268643,5.458346,19.858526,0.000000,0.000000,1.000000
-12.166191,-25.243267,-8.885749,0.773011,0.000000,0.634393
-16.162921,23.566243,-9.556944,0.831470,0.000000,0.555570
-15.390612,21.335485,10.712786,0.831470,0.000000,-0.555570
-23.744615,-3.452810,-19.858526,0.000000,0.000000,-1.000000
25.657077,13.987582,-19.858526,0.000000,0.000000,-1.000000
7.382222,-1.260443,-19.858526,0.000000,0.000000,-1.000000
-27.786776,-26.096642,-6.943675,0.000000,-1.000000,0.000000
-14.895725,-25.856390,-2.220572,0.995185,0.000000,0.098017
9.459099,-5.045579,-19.858526,0.000000,0.000000,-1.000000
-2.892498,-26.096642,-14.973361,0.000000,-1.000000,0.000000
-2.816418,21.092427,19.858526,0.000000,-0.000000,1.000000
24.495898,1.830506,-19.858526,0.000000,0.000000,-1.000000
-34.215302,21.242918,1.504182,-1.000000,0.000000,0.000000
20.308241,-12.337876,-19.858526,0.000000,0.000000,-1.000000
-15.065806,-2.339313,0.493715,0.995185,-0.000000,-0.098017
-29.161919,-14.940177,2.656533,0.773010,0.000000,-0.634393
12.731914,-0.997418,8.088954,-0.881921,0.000000,-0.471397
-15.292251,14.881060,5.470943,-0.000000,1.000000,0.000000
-30.169753,22.326501,-0.282011,0.995185,0.000000,0.098016
34.215302,18.016412,-7.676853,1.000000,-0.000000,0.000000
12.902353,-6.411542,19.858526,0.000000,0.000000,1.000000
-9.251236,-7.310695,11.866244,0.634393,0.000000,-0.773011
9.304086,-19.953261,-19.858526,0.000000,0.000000,-1.000000
-20.243098,-26.096642,11.922107,0.000000,-1.000000,0.000000
-31.819411,-26.096642,-0.021834,0.000000,-1.000000,0.000000
18.775642,1.463090,-19.858526,0.000000,0.000000,-1.000000
-34.215302,-7.827374,-9.659361,-1.000000,0.000000,0.000000
1.690919,16.985794,18.677931,-0.065403,0.000000,-0.997859
-7.805279,-17.267133,-12.883542,0.471397,0.000000,0.881921
12.698126,15.913375,19.858526,0.000000,-0.000000,1.000000
19.124571,-26.096642,-14.547210,0.000000,-1.000000,0.000000
34.215302,23.666250,-12.289491,1.000000,-0.000000,0.000000
9.968059,-24.093579,11.277962,-0.634393,-0.000000,-0.773011
34.215302,-14.750883,13.844944,1.000000,-0.000000,0.000000
-34.215302,19.558062,-0.915477,-1.000000,0.000000,0.000000
-31.158777,26.096642,12.774919,0.000000,1.000000,0.000000
-26.396854,-26.096642,11.692403,0.000000,-1.000000,0.000000
-6.029062,-12.307849,19.858526,0.000000,0.000000,1.000000
6.897285,-0.555622,-13.368874,-0.471397,0.000000,0.881921
-14.181824,-10.983164,5.065694,0.956940,0.000000,-0.290285
21.668082,-9.308627,-19.858526,0.000000,0.000000,-1.000000
-27.083332,-14.904525,-3.878065,0.290285,-0.000000,0.956940
-2.315721,-11.822925,-19.858526,0.000000,0.000000,-1.000000
34.215302,17.080834,-1.867514,1.000000,-0.000000,0.000000
29.201697,-8.242108,-19.858526,0.000000,0.000000,-1.000000
14.850833,-21.990877,2.676364,-0.995185,0.000000,-0.098017
-0.229407,0.180373,-19.858526,0.000000,0.000000,-1.000000
34.215302,-10.409289,-19.599406,1.000000,0.000000,-0.000000
-2.867431,22.876504,19.858526,0.000000,-0.000000,1.000000
30.049985,-21.542621,1.011041,-0.956941,0.000000,-0.290283
-16.154942,-2.718370,-19.858526,0.000000,0.000000,-1.000000
23.543303,0.266023,19.858526,0.000000,0.000000,1.000000
34.215302,-15.547046,-9.796768,1.000000,0.000000,-0.000000
34.215302,21.388985,15.148696,1.000000,-0.000000,0.000000
-7.281560,-9.085168,-13.163475,0.471397,0.000000,0.881921
-2.921337,-18.812749,19.858526,0.000000,0.000000,1.000000
-34.215302,-19.098263,4.307400,-1.000000,0.000000,0.000000
-31.116553,26.096642,3.077729,-0.000000,1.000000,0.000000
-14.080459,5.379654,19.858526,0.000000,-0.000000,1.000000
-34.215302,0.257841,8.183280,-1.000000,0.000000,0.000000
-18.764649,16.147206,0.367855,0.997859,-0.000000,-0.065403
-13.067514,9.093167,7.461090,0.881921,0.000000,-0.471397
-2.917186,11.108298,-14.827115,0.098017,0.000000,0.995185
-8.169770,21.405808,-16.875454,0.442289,0.000000,0.896873
-21.230197,10.785828,19.858526,0.000000,-0.000000,1.000000
-6.687917,24.549421,19.858526,0.000000,-0.000000,1.000000
6.076710,-12.811789,13.807481,-0.471397,0.000000,-0.881921
-0.081839,25.670533,19.858526,0.000000,-0.000000,1.000000
-24.811917,-12.301679,-3.715668,-0.290285,0.000000,0.956940
14.202495,-26.096642,7.057105,0.000000,-1.000000,0.000000
-29.912114,16.188860,19.858526,0.000000,-0.000000,1.000000
-7.203519,-15.627179,-13.205189,0.471397,0.000000,0.881921
-6.820227,-14.381497,19.858526,0.000000,0.000000,1.000000
27.187356,-4.098222,3.846510,-0.290285,0.000000,-0.956940
-29.978576,10.526776,-1.246442,0.956940,0.000000,0.290285
24.735148,26.040555,3.692380,0.290285,0.000000,-0.956940
-30.697818,26.096642,1.263344,-0.000000,1.000000,0.000000
9.030899,12.036353,-19.858526,0.000000,0.000000,-1.000000
6.954809,4.818079,13.338128,-0.471397,0.000000,-0.881921
29.174435,-14.313279,2.641282,-0.773010,0.000000,-0.634393
3.222025,17.713887,18.474936,-0.195090,0.000000,-0.980785
19.190440,-26.096642,10.680102,0.000000,-1.000000,0.000000
22.609993,-6.718514,1.661988,0.881922,0.000000,-0.471395
29.802648,-14.743327,1.695588,-0.881922,-0.000000,-0.471395
11.843997,0.422766,9.278344,-0.773011,0.000000,-0.634393
14.888831,-11.001415,2.290568,-0.995185,0.000000,-0.098017
10.719133,-1.560944,-19.858526,0.000000,0.000000,-1.000000
-28.140142,19.461213,3.464809,0.471397,0.000000,-0.881921
-31.472292,-26.096642,9.920251,0.000000,-1.000000,0.000000
-24.383541,4.138418,-19.858526,0.000000,0.000000,-1.000000
-12.863182,8.153385,-7.843369,0.881921,-0.000000,0.471397
-34.215302,16.585674,-9.450576,-1.000000,0.000000,0.000000
-24.964596,5.675905,-19.858526,0.000000,0.000000,-1.000000
27.645104,1.928205,-19.858526,0.000000,0.000000,-1.000000
-28.463589,-18.758442,-3.281656,0.634392,-0.000000,0.773011
32.424327,2.284945,19.858526,0.000000,0.000000,1.000000
-1.160694,-11.840942,19.858526,0.000000,0.000000,1.000000
34.215302,18.534643,-13.536966,1.000000,-0.000000,0.000000
-6.648323,23.292131,17.542475,0.321439,0.000000,-0.946930
30.085275,-24.380680,0.894703,-0.956941,0.000000,-0.290283
-11.489619,3.650491,9.710155,0.773011,0.000000,-0.634393
-26.695313,-26.096642,-9.948993,-0.000000,-1.000000,0.000000
-34.215302,-17.620285,6.723728,-1.000000,0.000000,0.000000
17.544037,2.832816,-19.858526,0.000000,0.000000,-1.000000
-10.747715,2.094192,-10.614168,0.773011,-0.000000,0.634393
-20.007620,26.096642,-5.601096,-0.000000,1.000000,0.000000
29.218872,-26.096642,6.761736,0.000000,-1.000000,0.000000
14.663799,2.030049,3.476833,-0.956940,0.000000,-0.290285
14.370787,-22.560046,-4.442766,-0.956940,0.000000,0.290285
-13.663027,21.446403,-12.855355,0.751840,-0.000000,0.659346
-14.889054,-4.171016,-2.288308,0.995185,-0.000000,0.098017
-33.484499,17.224501,19.858526,0.000000,-0.000000,1.000000
-28.884259,4.850275,2.936421,0.634393,-0.000000,-0.773011
-25.039188,13.447575,-3.784610,-0.290285,0.000000,0.956940
-10.003654,13.503978,11.248750,0.634393,0.000000,-0.773011
-34.215302,2.043048,15.735989,-1.000000,0.000000,0.000000
27.902662,-10.607256,19.858526,0.000000,0.000000,1.000000
-34.215302,-1.940037,0.135228,-1.000000,0.000000,0.000000
-12.279410,18.154034,19.858526,0.000000,-0.000000,1.000000
-10.182321,25.983534,-15.745058,0.555570,0.000000,0.831470
-11.215240,-17.513654,-10.044487,0.773011,0.000000,0.634393
7.497739,21.560893,-17.206864,-0.442289,0.000000,0.896873
28.427066,-26.096642,5.009337,0.000000,-1.000000,0.000000
-20.539843,4.598794,-19.858526,0.000000,0.000000,-1.000000
24.175996,10.869634,-19.858526,0.000000,0.000000,-1.000000
-29.229275,26.096642,5.474503,0.000000,1.000000,0.000000
15.875825,25.329554,19.858526,0.000000,-0.000000,1.000000
-17.510807,-0.261923,19.858526,0.000000,-0.000000,1.000000
22.758650,13.075843,-1.940106,0.881922,0.000000,0.471395
-13.797442,17.679000,-12.702083,0.751840,-0.000000,0.659346
-20.955399,6.245626,-19.858526,0.000000,0.000000,-1.000000
10.473728,25.631841,19.858526,0.000000,-0.000000,1.000000
-26.599362,19.222808,-3.944402,0.098017,0.000000,0.995185
34.215302,3.472198,-4.475459,1.000000,0.000000,-0.000000
-3.777954,7.071246,-14.572455,0.290285,-0.000000,0.956940
25.474858,26.096642,-16.700348,-0.000000,1.000000,0.000000
14.269281,-22.664608,-4.777386,-0.956940,0.000000,0.290285
34.215302,23.825817,-13.590634,1.000000,-0.000000,0.000000
