x,y,z,nx,ny,nz
1.035385,-27.744997,20.448854,0.000000,-1.000000,0.000000
-8.224489,26.031092,-22.034918,0.000000,0.000000,-1.000000
27.831538,27.744997,9.174751,0.000000,1.000000,-0.000000
-11.330229,27.362505,17.487964,0.555570,0.000000,-0.831469
-27.283647,5.947865,22.034918,0.000000,-0.000000,1.000000
30.320641,24.655152,-19.280347,1.000000,-0.000000,0.000000
-30.320641,25.953076,-11.584603,-1.000000,0.000000,0.000000
-30.320641,19.103590,-16.013342,-1.000000,0.000000,0.000000
18.915972,-13.379686,-22.034918,0.000000,0.000000,-1.000000
-8.026366,2.969684,22.034918,0.000000,-0.000000,1.000000
4.625964,-27.319084,-14.792860,-0.290285,0.000000,0.956940
27.701903,-14.478292,-22.034918,0.000000,0.000000,-1.000000
-17.440475,-6.761808,22.034918,0.000000,-0.000000,1.000000
29.105037,-5.883370,22.034918,0.000000,0.000000,1.000000
-21.401392,-10.802921,-3.585231,-0.290285,0.000000,0.956940
30.320641,-1.983714,21.664200,1.000000,-0.000000,0.000000
-11.730181,27.490178,-17.220725,0.555570,0.000000,0.831469
-30.234781,24.729634,-22.034918,0.000000,0.000000,-1.000000
-24.106274,6.923738,3.238332,0.471397,0.000000,-0.881921
30.320641,5.077343,-18.599663,1.000000,0.000000,-0.000000
-12.829054,-8.592968,-8.798547,0.773010,0.000000,0.634393
22.374133,-22.358699,22.034918,0.000000,0.000000,1.000000
14.436370,-7.455340,-22.034918,0.000000,0.000000,-1.000000
-6.237934,-10.286126,-22.034918,0.000000,0.000000,-1.000000
-20.229581,27.607314,-22.034918,0.000000,0.000000,-1.000000
-9.940556,18.322038,18.329081,0.442288,0.000000,-0.896873
23.550892,27.744997,-10.510709,0.000000,1.000000,-0.000000
-30.320641,25.676769,-3.951827,-1.000000,0.000000,0.000000
6.283152,-14.841763,-22.034918,0.000000,0.000000,-1.000000
19.026333,-27.744997,-17.521901,0.000000,-1.000000,0.000000
30.320641,-7.762382,-6.966076,1.000000,0.000000,-0.000000
-12.174377,-17.903437,9.596273,0.773010,0.000000,-0.634393
6.356363,9.078058,15.178330,-0.000000,1.000000,0.000000
-25.782347,-27.744997,-8.585862,0.000000,-1.000000,0.000000
-30.320641,-23.412252,20.690858,-1.000000,0.000000,0.000000
30.320641,22.978514,-13.935911,1.000000,-0.000000,0.000000
-26.212447,-27.744997,-20.952996,0.000000,-1.000000,0.000000
30.320641,-26.377519,14.238940,1.000000,0.000000,-0.000000
7.860212,-26.710565,22.034918,0.000000,0.000000,1.000000
20.203421,18.113213,-5.229530,-0.980785,0.000000,0.195091
30.320641,-16.508825,3.584014,1.000000,0.000000,-0.000000
-2.726041,-13.167865,-22.034918,0.000000,0.000000,-1.000000
-25.183178,21.053971,-2.340699,0.773010,-0.000000,0.634393
-6.332274,22.494051,-22.034918,0.000000,0.000000,-1.000000
-12.495174,-2.277696,-9.205380,0.773010,0.000000,0.634393
21.469993,-27.744997,-8.431761,0.000000,-1.000000,0.000000
21.663500,-9.073544,-3.650865,0.098017,0.000000,0.995185
15.840285,-17.180181,22.034918,0.000000,0.000000,1.000000
-30.320641,1.204452,5.260454,-1.000000,0.000000,0.000000
-30.320641,-23.102689,-12.028457,-1.000000,0.000000,0.000000
-20.023645,9.310479,22.034918,0.000000,-0.000000,1.000000
23.353166,-11.986610,-3.550869,-0.290284,-0.000000,0.956940
-30.320641,-11.221162,-16.657393,-1.000000,0.000000,0.000000
14.586529,-1.324626,-5.306148,-0.956940,0.000000,0.290285
30.320641,11.915998,5.177709,1.000000,-0.000000,0.000000
28.566194,-18.711772,22.034918,0.000000,0.000000,1.000000
-30.320641,25.901981,-17.631390,-1.000000,0.000000,0.000000
-30.320641,5.732184,0.112784,-1.000000,0.000000,0.000000
-30.320641,-14.879504,-14.845237,-1.000000,0.000000,0.000000
-18.704951,-27.744997,-20.393812,0.000000,-1.000000,0.000000
6.096431,-3.322921,-14.315216,-0.471397,0.000000,0.881921
20.569199,16.389232,3.390643,-0.980785,0.000000,-0.195091
-1.042692,-4.202556,15.471027,0.098017,0.000000,-0.995185
-27.980436,6.617024,22.034918,0.000000,-0.000000,1.000000
-15.479502,-2.393839,-0.956639,0.995185,-0.000000,0.098017
-30.320641,19.557281,-10.583273,-1.000000,0.000000,0.000000
10.081439,-13.043870,22.034918,0.000000,0.000000,1.000000
3.585254,9.078058,20.342621,-0.000000,1.000000,-0.000000
20.732182,-12.659814,-22.034918,0.000000,0.000000,-1.000000
5.896540,15.312821,22.034918,0.000000,-0.000000,1.000000
20.754779,4.857297,3.355803,0.471397,0.000000,-0.881921
15.479644,17.736056,-13.949032,-0.751840,0.000000,0.659346
25.833262,5.280567,-22.034918,0.000000,0.000000,-1.000000
-29.494480,-16.081129,-22.034918,0.000000,0.000000,-1.000000
-30.320641,-16.516797,5.978242,-1.000000,0.000000,0.000000
-23.052107,-27.744997,5.407181,0.000000,-1.000000,0.000000
-5.400931,18.943473,22.034918,0.000000,-0.000000,1.000000
30.320641,-24.020432,-11.399206,1.000000,0.000000,-0.000000
-30.320641,-6.178836,9.585436,-1.000000,0.000000,0.000000
-27.690819,-27.744997,-19.451888,0.000000,-1.000000,0.000000
-15.854009,26.039566,-22.034918,0.000000,0.000000,-1.000000
15.611524,9.078058,7.260678,-0.000000,1.000000,0.000000
20.456150,27.744997,22.014367,-0.000000,1.000000,0.000000
-25.102544,-4.384991,2.438953,0.773012,0.000000,-0.634392
24.865945,3.109613,-2.694623,-0.634393,0.000000,0.773011
-30.320641,26.480422,9.296948,-1.000000,0.000000,0.000000
-22.601833,-21.187503,-22.034918,0.000000,0.000000,-1.000000
-17.811073,11.293406,22.034918,0.000000,-0.000000,1.000000
15.291076,21.094158,-14.164052,-0.751840,0.000000,0.659346
14.827744,-13.921139,4.510968,-0.956940,-0.000000,-0.290285
10.190183,-9.047318,-11.686967,-0.634393,0.000000,0.773010
-7.356288,-27.744997,21.625888,0.000000,-1.000000,0.000000
30.320641,1.373005,-4.716998,1.000000,0.000000,-0.000000
30.320641,-1.272835,-15.514779,1.000000,0.000000,-0.000000
8.649365,-27.744997,13.968987,0.000000,-1.000000,0.000000
30.320641,-16.652751,11.520897,1.000000,0.000000,-0.000000
-25.160246,-27.744997,-21.947546,0.000000,-1.000000,0.000000
-25.930561,13.980530,-0.837857,0.956940,0.000000,0.290284
13.008641,2.413460,8.540862,-0.881921,0.000000,-0.471397
30.320641,-12.685014,1.380939,1.000000,0.000000,-0.000000
4.429908,-5.817715,22.034918,0.000000,0.000000,1.000000
-11.686230,1.204950,22.034918,0.000000,-0.000000,1.000000
11.243122,-2.637338,-10.731010,-0.773010,0.000000,0.634393
-30.320641,15.898797,-20.553481,-1.000000,0.000000,0.000000
17.011557,-13.159363,-22.034918,0.000000,0.000000,-1.000000
-23.972982,-12.331501,-22.034918,0.000000,0.000000,-1.000000
6.974794,15.967491,-19.635529,-0.321440,0.000000,0.946930
-0.292947,-27.744997,18.165035,0.000000,-1.000000,0.000000
-23.156603,-16.680548,-3.610495,0.290284,0.000000,0.956940
-15.019740,-21.456179,-3.878041,0.956940,0.000000,0.290285
-9.065531,-10.051419,12.609945,0.634393,0.000000,-0.773010
-1.706257,25.662746,22.034918,0.000000,-0.000000,1.000000
30.320641,-27.502360,-0.056038,1.000000,0.000000,-0.000000
3.720490,-15.747861,15.067533,-0.290285,0.000000,-0.956940
18.555160,13.716463,-22.034918,0.000000,0.000000,-1.000000
5.084356,16.704739,-20.232298,-0.195091,0.000000,0.980785
26.945778,-27.744997,-14.733276,0.000000,-1.000000,0.000000
-17.281497,19.912676,11.639229,0.831469,0.000000,-0.555570
-19.958042,23.969840,6.024700,0.946930,0.000000,-0.321440
20.214819,-2.486322,22.034918,0.000000,0.000000,1.000000
11.755488,-8.225907,-10.106690,-0.773010,0.000000,0.634393
30.320641,2.583037,14.704554,1.000000,-0.000000,0.000000
12.906764,27.744997,19.617065,0.000000,1.000000,-0.000000
-21.723914,-11.070834,-22.034918,0.000000,0.000000,-1.000000
-23.034006,27.744997,-15.744747,-0.000000,1.000000,0.000000
13.669365,-23.037947,-7.304734,-0.881921,0.000000,0.471397
30.320641,-11.634666,1.975943,1.000000,0.000000,-0.000000
25.654419,27.744997,-7.710635,0.000000,1.000000,-0.000000
-15.723830,9.078058,9.360580,-0.000000,1.000000,0.000000
-23.974744,-27.744997,17.679016,0.000000,-1.000000,0.000000
-20.215513,-27.744997,13.044592,0.000000,-1.000000,0.000000
-10.925370,9.596165,22.034918,0.000000,-0.000000,1.000000
18.049983,23.819247,-22.034918,0.000000,0.000000,-1.000000
27.103229,-27.744997,-17.259944,0.000000,-1.000000,0.000000
-30.320641,21.724862,-12.532012,-1.000000,0.000000,0.000000
22.679346,-27.744997,5.900257,0.000000,-1.000000,0.000000
28.483028,-27.744997,21.173145,-0.000000,-1.000000,0.000000
30.320641,15.266572,12.728507,1.000000,-0.000000,0.000000
-28.320385,-27.744997,12.655432,0.000000,-1.000000,0.000000
30.320641,15.506060,-5.026352,1.000000,-0.000000,0.000000
23.323786,8.810647,-22.034918,0.000000,0.000000,-1.000000
10.408926,-27.744997,13.816890,0.000000,-1.000000,0.000000
14.669870,-14.712719,5.031408,-0.956940,0.000000,-0.290285
15.781900,-4.807624,22.034918,0.000000,0.000000,1.000000
30.320641,-7.146641,12.866423,1.000000,-0.000000,0.000000
-30.164751,-6.017571,22.034918,0.000000,-0.000000,1.000000
14.250688,8.830381,22.034918,0.000000,0.000000,1.000000
-9.110657,-10.457600,22.034918,0.000000,0.000000,1.000000
12.751369,22.506033,22.034918,0.000000,-0.000000,1.000000
30.320641,-5.999787,-9.965558,1.000000,0.000000,-0.000000
6.856448,1.016835,-22.034918,0.000000,0.000000,-1.000000
-30.320641,-11.053265,8.951283,-1.000000,0.000000,0.000000
-10.325021,-11.588542,-11.576308,0.634393,0.000000,0.773010
-24.612067,-17.223270,2.902976,0.634392,-0.000000,-0.773012
-30.320641,5.494685,-18.143904,-1.000000,0.000000,0.000000
21.046479,-18.699094,-22.034918,0.000000,0.000000,-1.000000
17.849442,27.744997,-13.256106,-0.000000,1.000000,0.000000
13.158603,-15.447517,8.260303,-0.881921,0.000000,-0.471397
-1.481207,-10.110881,-15.427837,0.098017,0.000000,0.995185
-10.938146,-6.830578,-11.073130,0.634393,0.000000,0.773010
-4.658058,-6.112491,-22.034918,0.000000,0.000000,-1.000000
-24.391743,-5.524004,-3.083791,0.634393,-0.000000,0.773011
15.351982,-6.230385,-2.251369,-0.995185,0.000000,0.098017
-15.553248,-20.096507,-22.034918,0.000000,0.000000,-1.000000
19.406128,-15.202652,2.277368,0.773010,0.000000,-0.634393
-25.945070,4.053690,-22.034918,0.000000,0.000000,-1.000000
-12.667281,23.810461,-16.594574,0.555570,0.000000,0.831469
-25.293847,3.541579,22.034918,0.000000,-0.000000,1.000000
-15.161150,-26.299876,-3.411873,0.956940,0.000000,0.290285
-30.320641,-1.234454,19.283550,-1.000000,0.000000,0.000000
-21.635740,18.606064,-3.648131,-0.098017,0.000000,0.995185
22.811039,19.213348,22.034918,0.000000,0.000000,1.000000
-1.885763,-22.992374,-22.034918,0.000000,0.000000,-1.000000
-25.868377,-6.561830,-1.042849,0.956940,0.000000,0.290284
-30.320641,0.852719,-5.676178,-1.000000,0.000000,0.000000
21.271438,27.038475,-3.545810,0.290285,0.000000,0.956940
-15.474821,-23.344018,-1.004162,0.995185,0.000000,0.098017
30.320641,20.068387,13.365039,1.000000,-0.000000,0.000000
30.320641,-16.621355,-2.410470,1.000000,0.000000,-0.000000
-21.436767,-21.120112,3.595962,-0.290285,-0.000000,-0.956940
-16.701794,24.810614,-12.506815,0.831469,-0.000000,0.555570
23.171040,-22.670293,22.034918,0.000000,0.000000,1.000000
23.410376,26.294075,-3.533514,-0.290284,0.000000,0.956940
28.231793,27.744997,13.158014,-0.000000,1.000000,0.000000
-0.798750,1.005119,22.034918,0.000000,-0.000000,1.000000
-7.634839,7.363932,-13.492920,0.471397,-0.000000,0.881921
-0.647147,-10.141815,-15.509984,0.098017,-0.000000,0.995185
30.320641,-26.527059,-2.933234,1.000000,0.000000,-0.000000
-9.095389,-8.872312,22.034918,0.000000,0.000000,1.000000
-30.320641,-18.029756,12.626055,-1.000000,0.000000,0.000000
10.147191,-27.744997,12.376642,-0.000000,-1.000000,0.000000
-30.320641,23.698778,13.917381,-1.000000,0.000000,0.000000
29.978782,-27.744997,12.201564,-0.000000,-1.000000,0.000000
-22.179557,13.610155,-3.701692,-0.098017,0.000000,0.995185
30.320641,-5.935573,-2.729081,1.000000,0.000000,-0.000000
30.320641,18.997223,1.275955,1.000000,-0.000000,0.000000
27.518556,-27.744997,17.373574,-0.000000,-1.000000,0.000000
14.783881,-21.606444,-22.034918,0.000000,0.000000,-1.000000
-6.559865,-1.123776,22.034918,0.000000,-0.000000,1.000000
10.051843,-1.153742,-11.800500,-0.634393,0.000000,0.773010
7.467141,11.719343,-19.468399,-0.321440,0.000000,0.946930
-13.708967,22.068529,-15.690175,0.659346,0.000000,0.751840
16.357571,19.656363,-22.034918,0.000000,0.000000,-1.000000
5.744996,13.608395,22.034918,0.000000,-0.000000,1.000000
-30.320641,-10.963474,-16.922258,-1.000000,0.000000,0.000000
-20.604017,3.041953,3.275219,-0.471397,-0.000000,-0.881921
-28.059211,15.479002,22.034918,0.000000,-0.000000,1.000000
-17.046143,27.744997,16.575876,0.000000,1.000000,0.000000
16.293121,25.070558,-22.034918,0.000000,0.000000,-1.000000
-10.221287,-2.330033,11.661441,0.634393,0.000000,-0.773010
-28.468712,-27.744997,-6.584609,0.000000,-1.000000,0.000000
29.212439,-21.459649,-22.034918,0.000000,0.000000,-1.000000
6.369002,10.199959,-19.841168,-0.321440,0.000000,0.946930
-9.186482,-20.447023,-12.510683,0.634393,0.000000,0.773010
23.125609,-11.932591,-22.034918,0.000000,0.000000,-1.000000
-20.638738,2.858340,3.293777,-0.471397,-0.000000,-0.881921
-22.470869,-24.716148,3.700791,0.098017,-0.000000,-0.995185
-30.320641,9.997095,5.740084,-1.000000,0.000000,0.000000
-30.320641,-24.150046,9.728143,-1.000000,0.000000,0.000000
-30.320641,8.488520,9.818210,-1.000000,0.000000,0.000000
-30.320641,-19.486075,6.692659,-1.000000,0.000000,0.000000
-7.758594,-25.541302,-13.426772,0.471397,0.000000,0.881921
20.475101,23.705837,22.034918,0.000000,-0.000000,1.000000
-2.290268,23.754365,-22.034918,0.000000,0.000000,-1.000000
-22.972286,27.052414,3.651406,0.098017,0.000000,-0.995185
1.365617,16.027096,22.034918,0.000000,-0.000000,1.000000
-13.304994,-10.977207,22.034918,0.000000,-0.000000,1.000000
30.320641,14.858853,-6.283876,1.000000,-0.000000,0.000000
2.401739,-9.932017,15.337172,-0.098017,-0.000000,-0.995185
3.337724,-22.304157,-15.183643,-0.290285,0.000000,0.956940
5.388792,17.469219,20.171741,-0.195091,0.000000,-0.980785
17.562731,19.040717,11.218333,-0.831469,0.000000,-0.555570
30.320641,-15.870608,8.488259,1.000000,0.000000,-0.000000
10.198863,0.847460,-11.679844,-0.634393,0.000000,0.773010
30.320641,-26.273579,19.904872,1.000000,0.000000,-0.000000
5.429057,17.996129,-20.160236,-0.321440,0.000000,0.946930
-29.443749,-27.744997,-2.371486,0.000000,-1.000000,0.000000
21.157137,-13.725139,-22.034918,0.000000,0.000000,-1.000000
12.552986,-24.879814,9.134936,-0.773010,-0.000000,-0.634393
-30.320641,21.920182,8.379010,-1.000000,0.000000,0.000000
7.459035,-15.593454,-13.586889,-0.471397,0.000000,0.881921
30.320641,-10.655794,-5.899416,1.000000,0.000000,-0.000000
-10.729996,-7.316569,-11.243954,0.634393,0.000000,0.773010
4.217300,13.296031,-20.404766,-0.195091,0.000000,0.980785
19.533268,-27.744997,6.988259,-0.000000,-1.000000,0.000000
9.718025,19.249437,18.438821,-0.442288,0.000000,-0.896873
30.320641,-16.105731,12.699395,1.000000,0.000000,-0.000000
-30.320641,17.995659,2.483883,-1.000000,0.000000,0.000000
-16.975278,27.744997,14.464029,0.000000,1.000000,0.000000
14.827700,-21.913458,22.034918,0.000000,0.000000,1.000000
-4.183149,-20.956130,14.927187,0.290285,0.000000,-0.956940
-19.713448,5.799786,-22.034918,0.000000,0.000000,-1.000000
-29.708093,-27.744997,19.595082,0.000000,-1.000000,0.000000
20.697861,-15.777756,-3.325380,0.471397,-0.000000,0.881921
-23.653565,-2.594815,3.459744,0.290285,0.000000,-0.956940
-28.314790,19.930986,-22.034918,0.000000,0.000000,-1.000000
6.362387,9.078058,-15.884703,-0.000000,1.000000,0.000000
-30.320641,-7.792858,-12.726219,-1.000000,0.000000,0.000000
30.246574,24.854852,-22.034918,0.000000,0.000000,-1.000000
26.945813,-27.744997,0.489463,-0.000000,-1.000000,0.000000
25.630865,2.191555,1.651133,-0.881921,-0.000000,-0.471396
19.565043,20.651661,7.182440,-0.946930,0.000000,-0.321440
-20.983444,-13.023461,3.458448,-0.290285,0.000000,-0.956940
-15.460964,-20.097745,1.144863,0.995185,0.000000,-0.098017
-30.320641,-3.872000,21.914119,-1.000000,0.000000,0.000000
10.841669,-27.744997,-13.594220,0.000000,-1.000000,0.000000
-14.196519,6.424258,-6.318498,0.881921,-0.000000,0.471397
-1.375546,18.614207,20.789997,0.065403,0.000000,-0.997859
-11.815263,0.802987,22.034918,0.000000,-0.000000,1.000000
11.227591,-25.730041,10.749934,-0.773010,-0.000000,-0.634393
30.320641,-4.843538,-1.083649,1.000000,0.000000,-0.000000
13.381308,-23.142740,-7.843651,-0.881921,0.000000,0.471397
3.397375,5.965273,-15.165549,-0.290285,0.000000,0.956940
-17.092978,-20.983513,22.034918,0.000000,0.000000,1.000000
-30.320641,6.060026,-12.580621,-1.000000,0.000000,0.000000
8.409147,-16.064539,-22.034918,0.000000,0.000000,-1.000000
-17.728570,22.313530,10.970138,0.831469,0.000000,-0.555570
13.911318,-27.744997,-16.295360,0.000000,-1.000000,0.000000
-6.212098,-15.337528,22.034918,0.000000,0.000000,1.000000
-7.358632,3.902370,13.640556,0.471397,0.000000,-0.881921
-8.271043,-27.744997,-15.849132,0.000000,-1.000000,0.000000
-24.396797,27.744997,-20.327897,-0.000000,1.000000,0.000000
30.320641,2.903083,19.475585,1.000000,-0.000000,0.000000
24.066984,-27.744997,-21.199000,0.000000,-1.000000,0.000000
-15.250615,-27.588389,3.116949,0.956940,0.000000,-0.290285
-7.566515,21.462358,-19.434667,0.321440,0.000000,0.946930
-30.320641,15.790765,-12.251192,-1.000000,0.000000,0.000000
30.018453,-25.015250,-22.034918,0.000000,0.000000,-1.000000
-14.003340,22.541257,-22.034918,0.000000,0.000000,-1.000000
18.583219,-27.744997,14.255844,0.000000,-1.000000,0.000000
8.514973,-15.577335,22.034918,0.000000,0.000000,1.000000
30.320641,-5.844755,5.688333,1.000000,-0.000000,0.000000
-8.874037,24.520147,-22.034918,0.000000,0.000000,-1.000000
-30.320641,0.917152,-17.702146,-1.000000,0.000000,0.000000
-11.174247,3.780989,-10.814935,0.773010,-0.000000,0.634393
5.628876,9.078058,16.177373,-0.000000,1.000000,0.000000
3.956778,12.021939,-22.034918,0.000000,0.000000,-1.000000
7.561883,5.882817,-13.531916,-0.471397,0.000000,0.881921
-13.608735,17.762144,-15.778076,0.659346,-0.000000,0.751840
-16.307587,-27.744997,-9.943275,0.000000,-1.000000,0.000000
9.833941,-18.472799,22.034918,0.000000,0.000000,1.000000
21.932019,-27.720471,-3.677312,0.098017,-0.000000,0.995185
11.890707,9.346840,17.113464,-0.555570,0.000000,-0.831469
-30.320641,-10.617071,3.361787,-1.000000,0.000000,0.000000
14.392232,-8.416450,-5.946658,-0.956940,0.000000,0.290285
1.504186,15.590416,-22.034918,0.000000,0.000000,-1.000000
19.161916,9.078058,2.258955,0.000000,1.000000,0.000000
0.129624,16.362291,-22.034918,0.000000,0.000000,-1.000000
-29.010036,-4.680310,22.034918,0.000000,-0.000000,1.000000
-30.320641,6.204390,-5.611284,-1.000000,0.000000,0.000000
20.247355,2.104556,-22.034918,0.000000,0.000000,-1.000000
24.702187,-21.919228,-22.034918,0.000000,0.000000,-1.000000
-30.228181,27.744997,-10.736319,-0.000000,1.000000,0.000000
-16.746091,23.741581,22.034918,0.000000,-0.000000,1.000000
27.281394,7.233208,22.034918,0.000000,0.000000,1.000000
21.607875,5.276758,-3.645386,0.098017,0.000000,0.995185
30.320641,-16.039405,-5.197948,1.000000,0.000000,-0.000000
15.591855,-10.093606,22.034918,0.000000,0.000000,1.000000
-14.543418,-27.256111,5.448266,0.956940,0.000000,-0.290285
30.320641,19.452135,-6.990711,1.000000,-0.000000,0.000000
-30.320641,24.705752,12.706808,-1.000000,0.000000,0.000000
7.317928,-8.049593,-13.662313,-0.471397,0.000000,0.881921
18.766656,13.513128,22.034918,0.000000,0.000000,1.000000
-30.320641,-16.234177,-4.233599,-1.000000,0.000000,0.000000
30.320641,-27.110228,-18.789246,1.000000,0.000000,-0.000000
-10.260887,9.078058,-14.933055,-0.000000,1.000000,0.000000
-27.018984,27.744997,14.789830,0.000000,1.000000,0.000000
-9.046165,18.927294,18.770146,0.442288,0.000000,-0.896873
-6.227827,-11.995400,22.034918,0.000000,0.000000,1.000000
22.141706,-12.072699,22.034918,0.000000,0.000000,1.000000
9.376823,-5.376931,-22.034918,0.000000,0.000000,-1.000000
-0.126427,-17.379898,22.034918,0.000000,0.000000,1.000000
10.376494,-10.093657,11.534065,-0.634393,0.000000,-0.773010
2.384881,-0.768143,-15.338832,-0.098017,0.000000,0.995185
-23.391153,2.535756,-3.539345,0.290285,0.000000,0.956940
-30.320641,-0.004004,-19.597144,-1.000000,0.000000,0.000000
0.152730,1.459913,-15.558680,-0.098017,0.000000,0.995185
-17.328082,9.720949,22.034918,0.000000,-0.000000,1.000000
30.320641,-9.866320,-17.109469,1.000000,0.000000,-0.000000
-30.320641,0.996390,21.824416,-1.000000,0.000000,0.000000
30.320641,12.934806,7.666939,1.000000,-0.000000,0.000000
-1.220172,6.398814,22.034918,0.000000,-0.000000,1.000000
6.123307,-21.007755,22.034918,0.000000,0.000000,1.000000
-26.017904,-23.922925,-0.186040,0.995185,-0.000000,0.098016
30.259180,-14.975196,22.034918,0.000000,0.000000,1.000000
30.320641,17.091697,17.469367,1.000000,-0.000000,0.000000
-11.916838,-24.433364,-9.910084,0.773010,0.000000,0.634393
26.011342,-10.944674,-0.252672,-0.995185,0.000000,0.098017
-21.906743,24.396125,-22.034918,0.000000,0.000000,-1.000000
30.320641,21.640208,-2.381743,1.000000,-0.000000,0.000000
30.156101,27.744997,-15.792773,0.000000,1.000000,-0.000000
23.605647,25.167630,22.034918,0.000000,-0.000000,1.000000
-10.494361,-18.356390,22.034918,0.000000,0.000000,1.000000
-10.406036,-11.960791,11.509821,0.634393,0.000000,-0.773010
-24.896332,-3.319717,22.034918,0.000000,-0.000000,1.000000
13.627239,-16.022090,-7.383545,-0.881921,0.000000,0.471397
23.368569,-16.975495,-22.034918,0.000000,0.000000,-1.000000
-12.414375,-0.464129,-9.303834,0.773010,-0.000000,0.634393
-21.796622,27.573898,-3.663976,-0.098017,0.000000,0.995185
13.812340,9.078058,9.425004,-0.000000,1.000000,0.000000
-22.375449,-9.446087,3.710189,0.098017,0.000000,-0.995185
-7.240884,-0.269286,13.703493,0.471397,0.000000,-0.881921
30.320641,15.774576,0.006788,1.000000,-0.000000,0.000000
19.983802,-16.563436,2.865707,0.634392,-0.000000,-0.773012
30.267346,-8.368308,22.034918,0.000000,0.000000,1.000000
30.320641,18.210523,-13.136501,1.000000,-0.000000,0.000000
-25.655951,-11.343122,1.604199,0.881921,-0.000000,-0.471397
-13.419917,-21.564378,-7.771419,0.881921,0.000000,0.471397
30.320641,-25.468147,14.022190,1.000000,0.000000,-0.000000
-30.320641,27.626005,-19.574592,-1.000000,0.000000,0.000000
25.932438,-27.744997,20.261243,0.000000,-1.000000,0.000000
1.792395,-9.891302,-22.034918,0.000000,0.000000,-1.000000
-19.347946,-9.326539,-22.034918,0.000000,0.000000,-1.000000
17.321012,-27.744997,6.863770,0.000000,-1.000000,0.000000
-24.171549,16.442635,-22.034918,0.000000,0.000000,-1.000000
9.294537,0.178309,22.034918,0.000000,0.000000,1.000000
14.092478,-12.926215,-6.513146,-0.881921,0.000000,0.471397
-12.797599,-12.483257,-8.836874,0.773010,0.000000,0.634393
18.293054,-17.334981,22.034918,0.000000,0.000000,1.000000
-6.001797,-0.469670,22.034918,0.000000,-0.000000,1.000000
7.235969,-18.818390,13.706120,-0.471397,-0.000000,-0.881921
-22.808596,-25.928785,-3.667528,0.098017,-0.000000,0.995185
-14.990999,9.078058,-7.515521,-0.000000,1.000000,0.000000
3.380583,-20.087916,-15.170642,-0.290285,0.000000,0.956940
-0.812006,2.614667,-15.493747,0.098017,-0.000000,0.995185
9.433072,-6.464972,-22.034918,0.000000,0.000000,-1.000000
22.016155,27.744997,4.351331,-0.000000,1.000000,0.000000
-8.600601,12.383280,22.034918,0.000000,-0.000000,1.000000
-11.517312,-26.370633,10.396909,0.773010,0.000000,-0.634393
-27.452078,-27.744997,12.584655,0.000000,-1.000000,0.000000
22.869720,-6.565765,22.034918,0.000000,0.000000,1.000000
30.320641,7.233818,15.378472,1.000000,-0.000000,0.000000
5.238891,-15.568106,14.606931,-0.290285,-0.000000,-0.956940
-30.320641,12.867472,15.573151,-1.000000,0.000000,0.000000
15.916203,20.703500,22.034918,0.000000,-0.000000,1.000000
-15.566104,-22.067286,-22.034918,0.000000,0.000000,-1.000000
-21.851581,11.013275,-3.669389,-0.098017,0.000000,0.995185
30.320641,-1.117265,7.176885,1.000000,-0.000000,0.000000
-4.362707,23.040364,22.034918,0.000000,-0.000000,1.000000
16.348148,-27.744997,17.159230,0.000000,-1.000000,0.000000
-15.366324,-19.559795,2.105752,0.995185,0.000000,-0.098017
18.900408,-4.803144,-1.445324,0.881919,0.000000,0.471400
28.729654,-10.292499,22.034918,0.000000,0.000000,1.000000
-5.545763,-27.255709,14.513842,0.290285,0.000000,-0.956940
6.398766,1.622873,-22.034918,0.000000,0.000000,-1.000000
10.544218,24.051365,18.013160,-0.555570,0.000000,-0.831469
-3.600001,-4.599089,-15.104083,0.290285,-0.000000,0.956940
-22.860776,16.838830,3.662389,0.098017,0.000000,-0.995185
11.674569,-23.650198,10.205290,-0.773010,-0.000000,-0.634393
-30.320641,9.361579,-10.381454,-1.000000,0.000000,0.000000
13.556893,-15.403890,-22.034918,0.000000,0.000000,-1.000000
-26.920514,-27.744997,-5.595980,0.000000,-1.000000,0.000000
-6.248478,-23.788246,-22.034918,0.000000,0.000000,-1.000000
7.770051,16.715381,-19.365575,-0.321440,0.000000,0.946930
-12.665212,14.460560,-22.034918,0.000000,0.000000,-1.000000
-13.374861,24.798492,22.034918,0.000000,-0.000000,1.000000
-7.034088,-8.763226,13.814028,0.471397,0.000000,-0.881921
-30.320641,3.663919,20.009155,-1.000000,0.000000,0.000000
14.565474,6.906481,-5.375557,-0.956940,0.000000,0.290285
14.007122,26.543406,-15.428700,-0.659346,0.000000,0.751840
18.967483,-6.588358,1.570812,0.881921,0.000000,-0.471397
15.212598,23.061275,-22.034918,0.000000,0.000000,-1.000000
28.017954,-27.744997,2.120272,-0.000000,-1.000000,0.000000
17.662649,-11.308960,-22.034918,0.000000,0.000000,-1.000000
-20.140455,18.739449,-5.487330,0.946930,0.000000,0.321440
18.812380,10.652206,8.960521,-0.896873,0.000000,-0.442288
30.320641,-5.970250,-4.053159,1.000000,0.000000,-0.000000
15.400507,-18.691860,-1.758684,-0.995185,0.000000,0.098017
30.320641,10.516564,-18.964844,1.000000,0.000000,-0.000000
-17.332739,-27.744997,-17.559226,0.000000,-1.000000,0.000000
-6.123041,13.423796,-19.924660,0.321440,-0.000000,0.946930
14.602603,-14.957322,5.253158,-0.956940,0.000000,-0.290285
0.322891,18.432750,22.034918,0.000000,-0.000000,1.000000
-15.534365,-1.628445,0.399605,0.995185,-0.000000,-0.098017
-27.633421,-27.744997,19.117466,0.000000,-1.000000,0.000000
8.017294,18.720426,19.277528,-0.442288,0.000000,-0.896873
-22.901275,7.790486,-22.034918,0.000000,0.000000,-1.000000
30.320641,22.893281,-6.592386,1.000000,-0.000000,0.000000
-26.338564,27.744997,-18.181346,-0.000000,1.000000,0.000000
4.975822,-27.485753,22.034918,0.000000,0.000000,1.000000
26.473837,17.238731,22.034918,0.000000,0.000000,1.000000
-4.355953,-2.768442,-22.034918,0.000000,0.000000,-1.000000
-2.940011,7.618857,15.284157,0.098017,0.000000,-0.995185
0.456082,16.948673,20.850262,-0.065403,0.000000,-0.997859
-2.105708,16.608405,-22.034918,0.000000,0.000000,-1.000000
-30.320641,0.725043,4.847681,-1.000000,0.000000,0.000000
30.320641,-0.769872,0.513525,1.000000,0.000000,-0.000000
12.965761,25.798882,-22.034918,0.000000,0.000000,-1.000000
-7.009928,12.769508,-19.623603,0.321440,-0.000000,0.946930
5.543946,13.717214,-20.121237,-0.321440,0.000000,0.946930
-23.150880,14.279738,3.612231,0.290284,0.000000,-0.956940
30.136875,-27.744997,-6.704669,-0.000000,-1.000000,0.000000
-15.428915,-23.307671,-1.470257,0.995185,0.000000,0.098017
-23.380351,2.156424,3.542622,0.290284,0.000000,-0.956940
24.964212,26.571648,-2.607511,-0.773010,0.000000,0.634393
3.410510,-15.984791,-15.161564,-0.290285,0.000000,0.956940
12.997229,27.244579,22.034918,0.000000,-0.000000,1.000000
-17.470458,22.441695,-11.356429,0.831469,0.000000,0.555570
-30.320641,-10.146773,-17.528414,-1.000000,0.000000,0.000000
13.435863,-7.690853,22.034918,0.000000,0.000000,1.000000
-2.914740,-2.755880,15.286646,0.098017,0.000000,-0.995185
-30.082747,-27.744997,16.088449,0.000000,-1.000000,0.000000
30.320641,-0.128701,9.282003,1.000000,-0.000000,0.000000
-10.053828,-8.537247,-22.034918,0.000000,0.000000,-1.000000
19.311389,-20.210504,22.034918,0.000000,0.000000,1.000000
-12.638592,-14.561497,-9.030625,0.773010,0.000000,0.634393
-26.689465,-7.387217,22.034918,0.000000,-0.000000,1.000000
30.320641,22.139312,8.507282,1.000000,-0.000000,0.000000
-8.274618,-5.276291,13.150951,0.471397,0.000000,-0.881921
-26.023567,27.744997,-8.751209,-0.000000,1.000000,0.000000
-15.135596,-0.171816,3.496116,0.956940,0.000000,-0.290285
18.808152,9.082156,8.969095,-0.896873,0.000000,-0.442288
5.866664,-23.105427,-14.416498,-0.290285,0.000000,0.956940
30.320641,-17.568925,-9.683583,1.000000,0.000000,-0.000000
30.320641,-16.693651,-19.967906,1.000000,0.000000,-0.000000
-9.197574,-24.524308,-22.034918,0.000000,0.000000,-1.000000
-25.236106,-27.744997,6.593710,0.000000,-1.000000,0.000000
8.383005,8.433325,-13.093017,-0.471397,0.000000,0.881921
-5.010962,15.298172,-20.246897,0.195091,0.000000,0.980785
-25.833554,4.496739,22.034918,0.000000,-0.000000,1.000000
-19.247230,4.637372,-2.083749,-0.773011,0.000000,0.634393
24.911906,-20.845251,-2.656904,-0.634393,0.000000,0.773011
-24.810692,-12.484587,22.034918,0.000000,-0.000000,1.000000
-21.883864,-14.616347,-22.034918,0.000000,0.000000,-1.000000
-22.916613,-19.627935,3.656889,0.098017,0.000000,-0.995185
11.301915,-19.846225,22.034918,0.000000,0.000000,1.000000
2.555330,-25.870119,15.322045,-0.098017,-0.000000,-0.995185
-10.254636,-26.659440,-11.634072,0.634393,0.000000,0.773010
11.334579,-27.744997,19.076073,0.000000,-1.000000,0.000000
-18.605561,-19.259246,0.005156,-0.995185,-0.000000,-0.098018
-14.071846,4.836886,6.551745,0.881921,0.000000,-0.471397
-22.704122,13.723354,3.677818,0.098017,0.000000,-0.995185
-7.787896,-26.694994,13.411109,0.471397,0.000000,-0.881921
18.453932,6.221884,22.034918,0.000000,0.000000,1.000000
-16.372265,27.744997,21.938818,-0.000000,1.000000,0.000000
-4.115440,-2.976941,14.947726,0.290285,0.000000,-0.956940
8.141342,10.690667,-22.034918,0.000000,0.000000,-1.000000
10.611360,16.735917,-17.968297,-0.555570,0.000000,0.831469
-24.691729,6.641586,-22.034918,0.000000,0.000000,-1.000000
13.873887,-27.744997,-9.954077,0.000000,-1.000000,0.000000
-24.626581,0.925841,2.891064,0.634392,-0.000000,-0.773012
30.320641,14.572851,-18.148099,1.000000,0.000000,-0.000000
6.948580,12.124723,19.644427,-0.321440,0.000000,-0.946930
-15.495747,-1.579676,0.791697,0.995185,-0.000000,-0.098017
10.740153,-13.935332,-11.235618,-0.634393,0.000000,0.773010
20.199987,23.170630,5.246793,-0.980785,0.000000,-0.195091
25.523063,15.283057,1.852816,-0.881921,-0.000000,-0.471396
23.290071,13.234820,3.570008,-0.290284,-0.000000,-0.956940
-23.533306,20.370206,3.496224,0.290284,0.000000,-0.956940
-30.320641,-0.170237,14.460522,-1.000000,0.000000,0.000000
-15.508423,-11.305965,-0.663001,0.995185,0.000000,0.098017
-17.571093,-19.849953,22.034918,0.000000,0.000000,1.000000
-26.994659,27.744997,-2.892847,-0.000000,1.000000,0.000000
-3.719390,-18.917021,22.034918,0.000000,0.000000,1.000000
-13.593778,2.001388,22.034918,0.000000,-0.000000,1.000000
-15.213838,18.532325,14.252126,0.751840,0.000000,-0.659346
26.656095,-24.493907,-22.034918,0.000000,0.000000,-1.000000
-30.320641,6.027466,17.404805,-1.000000,0.000000,0.000000
-23.036284,14.208757,-3.645103,0.098017,0.000000,0.995185
-13.502172,-26.442094,22.034918,0.000000,0.000000,1.000000
-15.306894,-3.189680,-2.709156,0.995185,-0.000000,0.098017
4.040128,-26.821815,-22.034918,0.000000,0.000000,-1.000000
-30.320641,18.315969,-11.815902,-1.000000,0.000000,0.000000
13.904498,12.819759,22.034918,0.000000,-0.000000,1.000000
-29.249661,25.766351,22.034918,0.000000,-0.000000,1.000000
-26.560263,-27.744997,-7.392434,0.000000,-1.000000,0.000000
-9.080650,19.824719,-18.753139,0.442288,0.000000,0.896873
22.485449,3.031959,3.699355,-0.098017,0.000000,-0.995185
25.847512,-0.780693,-1.111635,-0.956937,-0.000000,0.290296
7.863084,-10.685703,22.034918,0.000000,0.000000,1.000000
-5.725560,-19.207620,-14.459301,0.290285,0.000000,0.956940
30.320641,20.174181,19.739334,1.000000,-0.000000,0.000000
24.326593,0.000870,3.120569,-0.471397,0.000000,-0.881921
-27.771530,-27.744997,11.017169,0.000000,-1.000000,0.000000
-30.320641,6.787925,-12.258536,-1.000000,0.000000,0.000000
-29.012021,14.824332,-22.034918,0.000000,0.000000,-1.000000
-17.186060,17.621458,11.782061,0.831469,0.000000,-0.555570
15.420730,-15.084674,1.553364,-0.995185,-0.000000,-0.098017
19.663404,-4.409807,2.590861,0.773010,0.000000,-0.634393
30.320641,-14.401051,22.032212,1.000000,-0.000000,0.000000
-8.537453,-15.622089,-13.010463,0.471397,0.000000,0.881921
-10.802563,-15.396870,22.034918,0.000000,0.000000,1.000000
14.675752,-15.267437,-5.012018,-0.956940,0.000000,0.290285
-29.564943,18.425531,22.034918,0.000000,-0.000000,1.000000
28.623368,27.744997,15.795695,0.000000,1.000000,-0.000000
-5.286851,1.980894,14.592382,0.290285,0.000000,-0.956940
-10.972172,27.702254,17.727211,0.555570,0.000000,-0.831469
-30.320641,-0.394729,-3.371325,-1.000000,0.000000,0.000000
24.803970,22.044311,-2.745485,-0.634393,0.000000,0.773011
-19.457526,5.938377,22.034918,0.000000,-0.000000,1.000000
-20.314350,23.002713,4.671851,0.980785,0.000000,-0.195091
-30.320641,25.263483,-1.375659,-1.000000,0.000000,0.000000
27.465475,-27.744997,1.815549,-0.000000,-1.000000,0.000000
14.458774,3.464457,5.727298,-0.956940,0.000000,-0.290285
17.161597,17.144218,-11.818672,-0.831469,0.000000,0.555570
14.916688,-6.873208,-4.217759,-0.956940,0.000000,0.290285
-19.751450,3.211002,-22.034918,0.000000,0.000000,-1.000000
-24.649644,-18.244670,-22.034918,0.000000,0.000000,-1.000000
7.866709,-23.457196,22.034918,0.000000,0.000000,1.000000
-15.716008,-16.665000,22.034918,0.000000,0.000000,1.000000
27.892447,-27.744997,19.012439,0.000000,-1.000000,0.000000
-17.633794,-22.976956,-22.034918,0.000000,0.000000,-1.000000
-27.389632,27.744997,16.712506,0.000000,1.000000,0.000000
-10.308606,16.074533,-22.034918,0.000000,0.000000,-1.000000
-18.280978,-27.744997,-5.320251,0.000000,-1.000000,0.000000
29.636196,-18.534079,22.034918,0.000000,0.000000,1.000000
-30.320641,3.121708,18.873588,-1.000000,0.000000,0.000000
5.474909,-15.849493,-14.535335,-0.290285,0.000000,0.956940
-9.670283,19.381419,18.462365,0.442288,0.000000,-0.896873
-12.909781,0.750623,8.700180,0.773010,0.000000,-0.634393
24.195039,-27.744997,21.705355,0.000000,-1.000000,0.000000
-25.964029,6.932275,-0.727530,0.956940,0.000000,0.290287
21.808870,17.547757,-3.665182,0.098017,0.000000,0.995185
25.748956,6.711130,-1.430200,-0.881921,0.000000,0.471397
2.982859,19.095771,-20.650312,-0.195091,0.000000,0.980785
30.320641,20.197090,-18.082107,1.000000,0.000000,-0.000000
20.503216,27.744997,-10.029565,0.000000,1.000000,-0.000000
-22.030054,2.318542,3.686967,-0.098017,0.000000,-0.995185
12.216720,18.000059,22.034918,0.000000,-0.000000,1.000000
-12.643179,-14.563015,-9.025035,0.773010,0.000000,0.634393
26.024800,20.407086,-0.116032,-0.995185,0.000000,0.098017
11.238303,21.952707,-17.549387,-0.555570,0.000000,0.831469
-19.253086,-27.744997,11.099018,0.000000,-1.000000,0.000000
7.304221,-27.744997,-15.756929,0.000000,-1.000000,0.000000
25.960587,-7.389928,-0.738876,-0.956941,0.000000,0.290283
7.137121,14.610862,22.034918,0.000000,-0.000000,1.000000
-11.366227,10.035377,17.463911,0.555570,0.000000,-0.831469
25.634676,27.744997,-17.181006,0.000000,1.000000,-0.000000
-12.004280,13.484789,-17.037577,0.555570,-0.000000,0.831469
29.399695,27.744997,-14.832579,0.000000,1.000000,-0.000000
24.249392,-3.132490,-3.161834,-0.471397,0.000000,0.881921
-30.320641,4.194547,-16.429656,-1.000000,0.000000,0.000000
21.311787,24.503562,3.558050,0.290285,0.000000,-0.956940
-26.818716,27.744997,9.714566,0.000000,1.000000,0.000000
-30.320641,20.257604,-5.766863,-1.000000,0.000000,0.000000
-2.518172,1.470853,22.034918,0.000000,-0.000000,1.000000
1.087523,6.434968,15.466611,-0.098017,0.000000,-0.995185
-29.632750,-15.473054,-22.034918,0.000000,0.000000,-1.000000
28.042825,13.245787,-22.034918,0.000000,0.000000,-1.000000
-27.033706,8.403939,22.034918,0.000000,-0.000000,1.000000
-30.320641,2.868278,0.411207,-1.000000,0.000000,0.000000
-14.184267,20.537262,-15.273348,0.659346,0.000000,0.751840
-17.486684,-20.092891,22.034918,0.000000,0.000000,1.000000
-26.790459,27.744997,-14.768222,0.000000,1.000000,0.000000
5.480696,13.351936,22.034918,0.000000,-0.000000,1.000000
16.357945,-15.384625,22.034918,0.000000,0.000000,1.000000
-18.079430,-18.836589,-22.034918,0.000000,0.000000,-1.000000
-29.757293,27.744997,12.412850,-0.000000,1.000000,0.000000
13.582974,3.882923,7.466359,-0.881921,0.000000,-0.471397
24.617051,-27.744997,-11.945581,0.000000,-1.000000,0.000000
-19.752071,11.322345,6.631473,0.946930,0.000000,-0.321440
17.587193,19.967919,-11.181722,-0.831469,0.000000,0.555570
30.320641,16.732846,-16.145537,1.000000,0.000000,-0.000000
-30.320641,-9.456233,-13.779987,-1.000000,0.000000,0.000000
15.440035,-25.353728,-1.357357,-0.995185,0.000000,0.098017
-30.320641,7.808613,-14.045747,-1.000000,0.000000,0.000000
-24.717204,17.222433,-22.034918,0.000000,0.000000,-1.000000
30.320641,-16.996967,10.407748,1.000000,0.000000,-0.000000
-17.609573,26.444394,22.034918,0.000000,-0.000000,1.000000
30.320641,-25.540445,20.575022,1.000000,-0.000000,0.000000
18.985993,24.460492,-8.608469,-0.896873,0.000000,0.442288
19.851128,0.377988,2.756824,0.634394,-0.000000,-0.773010
-20.268650,14.983253,-4.901599,0.980785,-0.000000,0.195091
-10.967481,-27.650987,22.034918,0.000000,0.000000,1.000000
-30.320641,12.299132,-13.944344,-1.000000,0.000000,0.000000
-8.173865,-3.028341,-13.204805,0.471397,0.000000,0.881921
0.282587,-16.118177,-22.034918,0.000000,0.000000,-1.000000
15.460936,-2.704820,-1.145148,-0.995185,0.000000,0.098017
-24.027915,0.590277,-22.034918,0.000000,0.000000,-1.000000
-13.068513,27.744997,-17.011976,-0.000000,1.000000,0.000000
15.610525,12.364589,-22.034918,0.000000,0.000000,-1.000000
21.145304,-27.744997,-11.667606,0.000000,-1.000000,0.000000
-19.250062,12.271695,-8.072990,0.896873,0.000000,0.442288
12.575263,9.394468,22.034918,0.000000,0.000000,1.000000
20.467651,1.571865,3.202330,0.471397,-0.000000,-0.881921
30.320641,-27.541392,21.295160,1.000000,0.000000,-0.000000
-24.212240,27.744997,-17.226177,-0.000000,1.000000,0.000000
-10.562647,-9.557293,-11.381294,0.634393,0.000000,0.773010
22.534034,-5.972670,3.694570,-0.098017,0.000000,-0.995185
-14.565057,-18.020435,5.376930,0.956940,0.000000,-0.290285
7.677061,19.756823,22.034918,0.000000,-0.000000,1.000000
-12.357817,13.265591,-16.801352,0.555570,0.000000,0.831469
18.632420,-5.641400,-0.277857,0.995185,0.000000,0.098017
30.320641,4.810965,14.851169,1.000000,-0.000000,0.000000
-1.540489,19.773221,-20.779186,0.065403,0.000000,0.997859
-11.964174,19.230617,-17.064376,0.555570,0.000000,0.831469
14.526812,-10.131921,-5.503007,-0.956940,0.000000,0.290285
6.377849,11.603079,-22.034918,0.000000,0.000000,-1.000000
14.715676,-17.406509,4.880405,-0.956940,-0.000000,-0.290285
24.687355,27.744997,-16.514027,0.000000,1.000000,-0.000000
4.885869,9.078058,16.603325,-0.000000,1.000000,0.000000
2.402311,-25.449679,15.337116,-0.098017,-0.000000,-0.995185
-8.159142,-8.634527,22.034918,0.000000,0.000000,1.000000
30.320641,-25.153809,-2.699353,1.000000,0.000000,-0.000000
30.320641,17.627999,15.523882,1.000000,-0.000000,0.000000
17.995939,-14.075935,22.034918,0.000000,0.000000,1.000000
6.730158,5.461614,22.034918,0.000000,0.000000,1.000000
30.320641,-18.894826,20.989850,1.000000,-0.000000,0.000000
-3.578958,-8.719210,15.110466,0.290285,0.000000,-0.956940
-21.270681,27.744997,10.362423,-0.000000,1.000000,-0.000000
0.258537,17.070186,-20.863210,-0.065403,0.000000,0.997859
-2.708370,10.382538,20.702640,0.065403,0.000000,-0.997859
22.295216,-2.347969,22.034918,0.000000,0.000000,1.000000
29.036339,27.744997,-5.104442,0.000000,1.000000,-0.000000
-18.875048,7.711733,22.034918,0.000000,-0.000000,1.000000
22.110618,-17.929042,-3.694902,0.098017,-0.000000,0.995185
-20.115657,-7.186265,22.034918,0.000000,-0.000000,1.000000
-13.304827,10.979266,22.034918,0.000000,-0.000000,1.000000
-23.772078,27.744997,18.049073,0.000000,1.000000,0.000000
4.369668,-23.361463,22.034918,0.000000,0.000000,1.000000
11.798349,5.552386,10.054464,-0.773010,0.000000,-0.634393
-30.320641,9.739740,20.860340,-1.000000,0.000000,0.000000
-12.567995,-8.381381,-9.116647,0.773010,0.000000,0.634393
-30.320641,20.511516,-21.234957,-1.000000,0.000000,0.000000
15.218583,-12.093059,3.222544,-0.956940,-0.000000,-0.290285
-25.314729,20.206419,-2.180405,0.773010,-0.000000,0.634393
30.320641,5.140293,12.079214,1.000000,-0.000000,0.000000
-25.537870,16.789985,-1.825113,0.881921,0.000000,0.471397
-5.452627,14.369059,-22.034918,0.000000,0.000000,-1.000000
-18.944443,25.299186,-8.692724,0.896873,0.000000,0.442288
24.705200,5.154207,2.826544,-0.634394,0.000000,-0.773010
1.386992,9.612267,-20.789247,-0.065403,0.000000,0.997859
-26.200235,-20.663633,22.034918,0.000000,-0.000000,1.000000
7.276930,21.232398,19.532968,-0.321440,0.000000,-0.946930
30.320641,-1.771925,21.023304,1.000000,-0.000000,0.000000
-8.624292,23.757163,-18.978190,0.442288,0.000000,0.896873
18.640592,6.364778,0.360832,0.995185,0.000000,-0.098017
-30.320641,7.256659,7.644846,-1.000000,0.000000,0.000000
-16.007853,10.163799,-13.346725,0.751840,-0.000000,0.659346
19.908516,22.808151,-6.170600,-0.946930,0.000000,0.321440
-0.953144,-23.880056,15.479846,0.098017,0.000000,-0.995185
15.493957,2.991072,-0.809874,-0.995185,0.000000,0.098017
-7.148297,-17.891724,-22.034918,0.000000,0.000000,-1.000000
-1.002035,4.230742,15.475031,0.098017,0.000000,-0.995185
-7.090730,26.028154,22.034918,0.000000,-0.000000,1.000000
30.320641,-26.649943,17.122982,1.000000,0.000000,-0.000000
-19.874684,12.725181,-6.270265,0.946930,-0.000000,0.321440
-15.870804,12.362964,13.503000,0.751840,0.000000,-0.659346
-30.320641,-10.001449,-5.276277,-1.000000,0.000000,0.000000
14.568695,9.078058,-8.156348,-0.000000,1.000000,0.000000
-20.073448,-27.744997,-9.801451,0.000000,-1.000000,0.000000
-10.182165,-27.744997,19.423411,0.000000,-1.000000,0.000000
25.825626,7.381902,-22.034918,0.000000,0.000000,-1.000000
30.320641,27.036356,7.363482,1.000000,-0.000000,0.000000
-14.109030,9.078058,-7.770452,-0.000000,1.000000,0.000000
30.320641,-8.470792,-5.460143,1.000000,0.000000,-0.000000
25.000923,10.153810,2.562778,-0.773011,0.000000,-0.634392
19.634204,17.457436,6.978697,-0.946930,0.000000,-0.321440
17.545159,5.301683,-22.034918,0.000000,0.000000,-1.000000
-23.990445,6.339199,22.034918,0.000000,-0.000000,1.000000
14.462838,-14.488972,-5.713900,-0.956940,0.000000,0.290285
30.320641,-6.166695,13.603840,1.000000,-0.000000,0.000000
-5.866370,8.891494,-14.416587,0.290285,-0.000000,0.956940
-13.250775,-13.857026,-8.087861,0.881921,-0.000000,0.471397
18.846183,2.474098,1.284423,0.956941,0.000000,-0.290283
-20.598391,27.278587,3.272212,-0.471397,0.000000,-0.881921
21.163574,27.744997,5.392404,-0.000000,1.000000,0.000000
23.184866,21.362991,-22.034918,0.000000,0.000000,-1.000000
-30.320641,13.052041,-16.865941,-1.000000,0.000000,0.000000
-30.320641,13.097166,-15.959682,-1.000000,0.000000,0.000000
27.762304,27.744997,-12.804976,0.000000,1.000000,-0.000000
-3.559600,-15.370270,-22.034918,0.000000,0.000000,-1.000000
3.684079,-17.502945,-22.034918,0.000000,0.000000,-1.000000
5.635514,27.448267,20.090153,-0.321440,0.000000,-0.946930
-7.015592,-6.505016,-22.034918,0.000000,0.000000,-1.000000
30.320641,-21.297702,5.937304,1.000000,0.000000,-0.000000
15.379259,-7.220511,-1.974426,-0.995185,0.000000,0.098017
-24.533111,-27.744997,4.985368,0.000000,-1.000000,0.000000
18.628368,6.503382,0.236726,0.995185,0.000000,-0.098017
19.859508,16.446634,-6.314972,-0.946930,0.000000,0.321440
-30.320641,23.455346,-15.437978,-1.000000,0.000000,0.000000
-23.050350,23.993549,22.034918,0.000000,-0.000000,1.000000
19.197841,8.184047,2.001780,0.881920,0.000000,-0.471400
-27.511648,19.662104,-22.034918,0.000000,0.000000,-1.000000
-23.044644,-2.695366,-22.034918,0.000000,0.000000,-1.000000
30.121236,27.744997,13.890910,0.000000,1.000000,-0.000000
3.613497,-17.029883,15.099988,-0.290285,0.000000,-0.956940
30.320641,17.193596,-5.683582,1.000000,-0.000000,0.000000
13.186521,-27.744997,-14.692831,0.000000,-1.000000,0.000000
22.037054,21.977745,22.034918,0.000000,-0.000000,1.000000
-30.320641,5.797255,-6.336247,-1.000000,0.000000,0.000000
30.320641,-8.881207,-3.723143,1.000000,0.000000,-0.000000
-28.019723,-27.744997,-6.437961,0.000000,-1.000000,0.000000
30.320641,8.271728,-19.430048,1.000000,0.000000,-0.000000
15.269517,-27.145260,3.054637,-0.956940,-0.000000,-0.290285
-21.736305,27.744997,13.777232,-0.000000,1.000000,-0.000000
30.320641,-26.547078,-1.086823,1.000000,0.000000,-0.000000
-30.320641,-5.600533,16.635580,-1.000000,0.000000,0.000000
-30.320641,-16.569763,-18.407524,-1.000000,0.000000,0.000000
30.320641,3.340835,19.123477,1.000000,-0.000000,0.000000
-21.094571,-17.892493,-22.034918,0.000000,0.000000,-1.000000
18.778102,-12.731312,-1.059990,0.956941,-0.000000,0.290283
5.610543,-26.985287,14.494191,-0.290285,-0.000000,-0.956940
-14.929676,-18.901821,-22.034918,0.000000,0.000000,-1.000000
6.987945,6.704641,13.838692,-0.471397,0.000000,-0.881921
-23.370861,14.416452,22.034918,0.000000,-0.000000,1.000000
-0.735490,-22.205613,22.034918,0.000000,0.000000,1.000000
17.565168,27.744997,-21.265222,-0.000000,1.000000,0.000000
-25.301800,9.794010,-22.034918,0.000000,0.000000,-1.000000
11.556558,9.371054,22.034918,0.000000,0.000000,1.000000
30.320641,21.786640,-12.792180,1.000000,-0.000000,0.000000
-11.201742,1.542883,10.781431,0.773010,0.000000,-0.634393
-10.524265,-1.111097,11.412793,0.634393,0.000000,-0.773010
-22.216751,-27.744997,12.552541,0.000000,-1.000000,0.000000
-17.703500,26.193153,22.034918,0.000000,-0.000000,1.000000
24.042650,-21.450515,-3.272340,-0.471397,0.000000,0.881921
-25.802919,-27.744997,20.380055,0.000000,-1.000000,0.000000
30.320641,1.989556,-21.585056,1.000000,0.000000,-0.000000
30.320641,17.289575,12.074147,1.000000,-0.000000,0.000000
15.182747,-7.069012,-3.340679,-0.956940,0.000000,0.290285
-23.657743,-5.311711,-3.458476,0.290285,0.000000,0.956940
30.320641,-5.246419,12.726632,1.000000,-0.000000,0.000000
29.929471,-16.821900,22.034918,0.000000,0.000000,1.000000
19.964364,-14.626482,2.849755,0.634394,-0.000000,-0.773010
-30.320641,15.843416,-14.574122,-1.000000,0.000000,0.000000
13.538875,10.840175,15.839342,-0.659346,0.000000,-0.751840
-25.737761,-13.617118,-1.451143,0.881921,0.000000,0.471397
0.695412,-16.519981,15.505231,-0.098017,0.000000,-0.995185
4.584695,1.794964,14.805379,-0.290285,0.000000,-0.956940
-30.320641,21.635717,-9.167963,-1.000000,0.000000,0.000000
-7.874518,-17.198318,13.364809,0.471397,0.000000,-0.881921
-30.320641,6.048595,-0.044363,-1.000000,0.000000,0.000000
-30.320641,18.435527,7.628098,-1.000000,0.000000,0.000000
5.134947,3.059882,-14.638462,-0.290285,0.000000,0.956940
-11.113105,5.639125,-10.889436,0.773010,-0.000000,0.634393
21.285283,-6.201601,3.550010,0.290286,0.000000,-0.956940
10.008360,-6.315365,11.836185,-0.634393,0.000000,-0.773010
-15.370495,9.013501,-2.063405,0.995185,-0.000000,0.098017
-20.914736,-4.013086,-3.437605,-0.290285,0.000000,0.956940
-2.193593,9.715323,22.034918,0.000000,-0.000000,1.000000
18.666465,18.365288,-9.256409,-0.896873,0.000000,0.442288
-25.993727,-0.218002,0.431519,0.995185,0.000000,-0.098017
7.315816,10.654981,-22.034918,0.000000,0.000000,-1.000000
-6.691774,26.905893,19.731601,0.321440,0.000000,-0.946930
30.320641,1.340476,-11.260782,1.000000,0.000000,-0.000000
1.084523,1.698007,15.466907,-0.098017,0.000000,-0.995185
7.429549,2.452075,-13.602650,-0.471397,0.000000,0.881921
22.025014,26.181566,-3.686471,0.098017,0.000000,0.995185
17.793696,25.582960,10.872670,-0.831469,0.000000,-0.555570
24.203350,-17.779349,22.034918,0.000000,0.000000,1.000000
4.570818,-13.059063,14.809589,-0.290285,-0.000000,-0.956940
-17.407304,27.744997,-14.237081,-0.000000,1.000000,0.000000
6.118410,-3.470553,-14.303468,-0.471397,0.000000,0.881921
30.320641,26.210338,8.881924,1.000000,-0.000000,0.000000
14.239832,6.407636,-6.237464,-0.881921,0.000000,0.471397
-19.740394,27.744997,-8.673343,-0.000000,1.000000,0.000000
-19.154879,27.744997,-13.490002,-0.000000,1.000000,0.000000
27.519381,27.744997,-13.040396,0.000000,1.000000,-0.000000
-14.127857,-23.506364,-6.446956,0.881921,0.000000,0.471397
30.320641,9.419452,-4.750914,1.000000,-0.000000,0.000000
21.586182,-27.744997,-4.524260,0.000000,-1.000000,0.000000
30.320641,-6.800226,13.176470,1.000000,-0.000000,0.000000
18.301592,27.744997,-20.454981,-0.000000,1.000000,0.000000
-17.655583,-27.744997,14.465587,0.000000,-1.000000,0.000000
25.231028,27.744997,-19.016687,-0.000000,1.000000,0.000000
-30.320641,16.917013,21.129730,-1.000000,0.000000,0.000000
1.512720,-6.557631,15.424733,-0.098017,0.000000,-0.995185
22.637535,-27.744997,-10.925492,0.000000,-1.000000,0.000000
