x,y,z,nx,ny,nz
5.032981,-0.594418,-3.153172,-1.000000,0.000000,0.000000
6.328268,-3.283335,-43.827141,0.000000,0.000000,-1.000000
0.848967,5.263842,14.774673,0.233446,0.972370,-0.000000
1.179399,8.952280,-23.148668,0.078459,0.996917,0.000000
-7.728583,-4.645978,-5.853271,-0.852640,-0.522498,0.000000
2.637215,4.619356,0.871637,0.522498,0.852640,0.000000
-0.137322,-1.885400,12.420554,0.098017,0.995185,0.000000
-1.516304,-1.131258,-23.299299,0.773011,0.634393,-0.000000
-1.877285,-0.219712,6.231444,0.995185,0.098017,0.000000
4.157967,-8.413078,-31.908997,0.382683,-0.923880,0.000000
-4.215913,7.992127,-11.577419,-0.522498,0.852640,0.000000
-1.644199,-0.932818,-41.620284,0.881921,0.471397,-0.000000
6.165485,-7.048464,-39.572340,0.649448,-0.760406,0.000000
2.702139,-4.579570,21.801467,0.522498,-0.852640,0.000000
-4.361243,2.485929,27.672959,-0.852640,0.522498,0.000000
3.714926,-8.221393,-24.692156,0.382684,-0.923879,0.000000
3.153289,8.454031,-11.514378,0.382684,0.923879,-0.000000
5.032981,0.052242,-20.436133,-1.000000,0.000000,0.000000
1.123729,1.522482,1.002883,-0.634393,-0.773011,0.000000
4.825388,-1.393918,33.173010,0.972370,-0.233445,0.000000
-1.882510,-0.166662,40.191119,0.995185,0.098017,0.000000
-0.339200,-1.865517,-6.259175,0.098017,0.995185,-0.000000
4.276223,0.880772,-10.620986,0.000000,-1.000000,-0.000000
-9.233774,-1.650117,-36.526626,-0.972370,-0.233446,-0.000000
0.164463,-9.379867,-31.948285,0.078459,-0.996917,0.000000
-8.993007,0.661909,-15.109221,-0.996917,0.078459,0.000000
-8.513025,-3.916674,-32.484027,-0.923880,-0.382683,0.000000
4.697431,-1.770667,42.046498,0.923879,-0.382684,0.000000
-1.033982,-5.219424,21.071688,-0.233446,-0.972370,0.000000
4.871366,2.132400,6.146913,0.923880,0.382683,0.000000
-4.509691,2.223912,25.534883,-0.923879,0.382684,0.000000
-4.238764,-7.978124,-22.545854,-0.522498,-0.852640,0.000000
-4.037959,3.458478,1.299495,-0.760406,0.649448,0.000000
-0.369265,-9.363749,-39.907698,-0.078459,-0.996917,0.000000
-2.477187,-4.717421,4.407549,-0.522498,-0.852640,0.000000
8.563010,-3.795999,-29.832979,0.923880,-0.382683,0.000000
-8.234719,-0.480423,-0.104721,0.000000,-0.000000,1.000000
-0.633422,4.983129,30.195838,-0.078459,0.996917,0.000000
-3.974251,-8.113977,-8.011698,-0.382684,-0.923879,0.000000
-1.414996,-1.254702,36.278771,0.773011,0.634393,0.000000
4.780018,2.352932,2.151531,0.923880,0.382683,-0.000000
0.200245,1.879203,29.683255,-0.098017,-0.995185,0.000000
4.516545,0.880772,-23.931601,0.000000,-1.000000,-0.000000
-8.417949,3.240397,-3.305565,-0.923879,0.382684,0.000000
4.937012,-0.880772,-19.319528,0.000000,1.000000,0.000000
-1.508995,1.140164,-32.857620,0.773011,-0.634393,0.000000
-8.370533,3.354870,-9.425549,-0.923879,0.382684,0.000000
-1.025169,1.594836,-39.974292,0.471397,-0.881921,0.000000
5.032981,-0.344753,-25.530299,-1.000000,0.000000,0.000000
3.752533,0.880772,9.649891,0.000000,-1.000000,0.000000
0.335329,-8.370190,-0.104721,0.000000,-0.000000,1.000000
8.422421,-4.135413,-33.889908,0.923880,-0.382683,0.000000
-9.029200,-0.202026,-20.475608,-0.996917,-0.078459,-0.000000
1.363210,-5.140383,14.425755,0.233446,-0.972370,0.000000
-1.550337,-1.089788,-34.373077,0.773011,0.634393,-0.000000
8.320516,4.343456,-41.882738,0.852640,0.522498,0.000000
-0.093897,9.385421,-40.950643,-0.078459,0.996917,0.000000
6.172581,-7.042403,-28.708255,0.649448,-0.760406,0.000000
9.351535,0.524467,-34.937228,0.996917,0.078459,0.000000
-1.877288,0.219688,30.254893,0.995185,-0.098017,0.000000
-1.556665,1.082078,-3.526433,0.773011,-0.634393,0.000000
6.680795,-6.062227,-10.239082,0.760406,-0.649448,0.000000
-5.022073,0.138593,29.478160,-0.996917,0.078459,0.000000
-9.334819,-0.736862,-32.831028,-0.996917,-0.078459,0.000000
-6.246571,-6.523350,-4.008052,-0.649448,-0.760406,-0.000000
4.397873,-0.880772,-15.616482,0.000000,1.000000,0.000000
6.093959,7.109553,-41.944936,0.649448,0.760406,0.000000
-8.757207,-2.150282,-8.460631,-0.972370,-0.233446,0.000000
-3.692801,8.605757,-35.237094,-0.382683,0.923880,0.000000
-5.123163,1.434936,14.879965,-0.972370,0.233446,0.000000
4.689764,1.789177,36.308175,0.923879,0.382684,0.000000
-0.504078,-5.293357,19.678813,-0.078459,-0.996917,0.000000
8.765881,3.306225,-30.225391,0.923880,0.382683,-0.000000
0.306105,-9.021009,-21.584064,0.078459,-0.996917,0.000000
3.952908,0.880772,36.762030,0.000000,-1.000000,0.000000
-2.983307,-4.050419,40.142592,-0.649448,-0.760406,0.000000
-5.413086,-7.235213,-1.651186,-0.649448,-0.760406,0.000000
5.319145,7.315446,-9.584387,0.649448,0.760406,-0.000000
-3.720960,-3.369054,28.409292,-0.760406,-0.649448,-0.000000
-4.772207,2.371791,7.437789,-0.923880,0.382683,0.000000
-3.571098,-3.941772,8.477339,-0.649448,-0.760406,0.000000
-1.176644,-8.952497,-3.856862,-0.078459,-0.996917,0.000000
1.507967,-4.798007,38.942907,0.233445,-0.972370,0.000000
4.258406,3.200367,3.280120,0.760406,0.649448,0.000000
-7.805614,-4.520275,-12.489215,-0.852640,-0.522498,-0.000000
-1.586178,-5.086853,21.258786,-0.233446,-0.972370,0.000000
-5.029688,-0.041840,28.566029,-0.996917,-0.078459,-0.000000
-1.872109,0.272267,28.856174,0.995185,-0.098017,0.000000
-2.062388,-2.568225,43.827141,0.000000,-0.000000,1.000000
9.372460,0.258588,-30.775980,0.996917,0.078459,0.000000
-0.672931,-1.770685,21.982321,0.290285,0.956940,-0.000000
4.014338,-3.025553,28.511213,0.760406,-0.649448,0.000000
-0.540584,9.350266,-36.656769,-0.078459,0.996917,0.000000
-6.578277,-6.695906,-37.305888,-0.649448,-0.760406,-0.000000
-9.098158,2.214997,-35.797858,-0.972370,0.233446,0.000000
7.535842,-4.960503,-7.698149,0.852640,-0.522498,0.000000
-8.294237,-3.539064,-1.414323,-0.923879,-0.382684,0.000000
5.560630,-7.565059,-29.270693,0.649448,-0.760406,0.000000
1.538975,-1.103633,23.626245,-0.773011,0.634393,0.000000
1.888249,0.108396,-9.665460,-0.995185,-0.098017,0.000000
-0.791024,4.970130,35.474547,-0.233445,0.972370,0.000000
3.879960,-8.153033,-23.095629,0.382684,-0.923879,0.000000
3.797332,-3.740215,11.439576,0.760406,-0.649448,0.000000
-1.746575,0.741285,-35.670912,0.881921,-0.471397,0.000000
-3.959099,8.495452,-28.014325,-0.382683,0.923880,0.000000
-9.020582,-0.311533,-15.162393,-0.996917,-0.078459,-0.000000
2.779987,4.531865,10.586354,0.522498,0.852640,0.000000
-5.022281,0.135951,25.148914,-0.996917,0.078459,0.000000
0.735584,-2.211648,-43.827141,0.000000,0.000000,-1.000000
5.204154,-7.386532,-0.392343,0.522498,-0.852640,0.000000
0.765417,8.984861,-2.562326,0.078459,0.996917,-0.000000
-8.108775,4.688986,-29.033617,-0.852640,0.522498,0.000000
-4.823448,-2.248084,16.849712,-0.923880,-0.382683,0.000000
-1.755516,0.722936,30.772662,0.956940,-0.290285,0.000000
-5.020928,7.905361,-29.316426,-0.522498,0.852640,0.000000
-1.883852,-0.153036,20.713040,0.995185,0.098017,0.000000
-9.309077,1.063950,-41.118583,-0.996917,0.078459,0.000000
-0.766008,1.733360,-5.984841,0.471397,-0.881921,0.000000
-9.323931,0.875206,-29.152614,-0.996917,0.078459,0.000000
-0.781328,-1.725172,-42.797513,0.471397,0.881921,-0.000000
0.638276,1.781197,41.482920,-0.290285,-0.956940,0.000000
0.109288,2.174422,-43.827141,0.000000,-0.000000,-1.000000
1.765547,0.689867,-30.947818,-0.956940,-0.290285,0.000000
4.168435,2.800563,25.143620,0.852640,0.522498,0.000000
3.636539,3.467898,32.657734,0.760406,0.649448,-0.000000
8.950453,2.830233,-35.024152,0.972370,0.233446,-0.000000
3.618290,0.880772,-18.264864,0.000000,-1.000000,0.000000
7.090823,-5.582145,-3.548948,0.760406,-0.649448,0.000000
2.688800,4.236924,43.292079,0.522498,0.852640,-0.000000
-4.409103,2.980317,4.685923,-0.852640,0.522498,0.000000
6.681520,-0.345517,-0.104721,0.000000,-0.000000,1.000000
5.275710,7.342683,-2.681215,0.522498,0.852640,0.000000
3.271437,-0.157921,-30.497281,1.000000,0.000000,0.000000
-0.442456,-4.209579,-43.827141,0.000000,-0.000000,-1.000000
-2.387027,4.421850,39.909753,-0.522498,0.852640,0.000000
8.311490,3.497412,-17.218317,0.923879,0.382684,0.000000
1.453701,1.207539,-25.709057,-0.773011,-0.634393,0.000000
-4.596233,7.759067,-9.005224,-0.522498,0.852640,0.000000
-1.862529,0.369530,23.522672,0.995185,-0.098017,0.000000
-3.604108,-1.613751,43.827141,-0.000000,0.000000,1.000000
-8.040714,-4.800052,-39.378440,-0.852640,-0.522498,-0.000000
-0.241343,5.314035,2.927294,-0.078459,0.996917,0.000000
7.404691,-5.748397,-27.991298,0.760406,-0.649448,0.000000
4.394653,7.882595,-5.054946,0.522498,0.852640,-0.000000
-9.004451,0.516506,-0.967479,-0.996917,0.078459,0.000000
4.556638,-2.110572,32.721968,0.923879,-0.382684,0.000000
-3.973793,-3.533606,17.839282,-0.760406,-0.649448,0.000000
-4.766171,-1.604715,35.663875,-0.923879,-0.382684,0.000000
4.440082,-2.357277,38.713536,0.852640,-0.522498,0.000000
-3.433600,-8.337922,-3.532653,-0.382684,-0.923879,0.000000
-7.827885,-5.147358,-30.024044,-0.852640,-0.522498,0.000000
3.408183,3.687540,28.531812,0.649448,0.760406,0.000000
3.371580,0.880772,-12.542966,0.000000,-1.000000,0.000000
9.284021,-1.382312,-34.764892,0.996917,-0.078459,0.000000
1.864444,0.350096,4.580447,-0.995185,-0.098017,0.000000
1.688588,-8.868050,-9.793758,0.233446,-0.972370,0.000000
2.238441,4.503673,26.716038,0.382684,0.923879,0.000000
4.916105,-1.016057,34.455663,0.972370,-0.233445,0.000000
-8.064906,4.092718,-4.762341,-0.923879,0.382684,0.000000
-4.351179,-2.502352,40.430732,-0.852640,-0.522498,0.000000
-8.642889,-2.626447,-6.054340,-0.972370,-0.233446,0.000000
3.480876,-4.018829,20.233367,0.649448,-0.760406,0.000000
3.227362,-8.798547,-27.568455,0.382683,-0.923880,0.000000
-1.861410,0.373851,19.383294,0.956940,-0.290285,0.000000
-0.938872,5.242258,2.304271,-0.233446,0.972370,0.000000
0.705699,8.935643,-43.827141,0.000000,0.000000,-1.000000
5.272336,0.771179,7.970656,0.996917,0.078459,-0.000000
-5.343334,-1.435311,-0.104721,0.000000,-0.000000,1.000000
5.032981,-0.491547,-29.630608,-1.000000,0.000000,0.000000
-9.312353,-1.022316,-31.798035,-0.996917,-0.078459,0.000000
-5.004607,0.360525,32.984868,-0.996917,0.078459,0.000000
-0.935362,4.935477,26.007947,-0.233445,0.972370,0.000000
-5.194681,1.137042,9.038612,-0.972370,0.233446,0.000000
7.698262,2.843331,-0.104721,0.000000,-0.000000,1.000000
-0.710465,-9.336896,-35.063903,-0.078459,-0.996917,0.000000
7.907629,4.353802,-19.742961,0.852640,0.522498,0.000000
4.787636,-7.641775,-4.395469,0.522498,-0.852640,0.000000
-1.233509,-1.432388,11.942755,0.634393,0.773011,0.000000
0.914892,8.973097,-19.727805,0.078459,0.996917,0.000000
-1.278761,-1.395251,-24.796834,0.634393,0.773011,-0.000000
3.882451,3.179972,23.584834,0.760406,0.649448,0.000000
3.830683,-8.173445,-14.954735,0.382684,-0.923879,0.000000
9.010402,-0.440890,-15.090610,0.996917,-0.078459,0.000000
-0.317517,9.020111,-21.899710,-0.078459,0.996917,0.000000
-4.483007,-2.859716,20.537235,-0.852640,-0.522498,0.000000
-2.396410,4.416101,37.278567,-0.522498,0.852640,0.000000
1.153717,-1.497872,4.302917,-0.634393,0.773011,0.000000
-1.718701,0.793435,-7.474655,0.881921,-0.471397,0.000000
-4.631733,-1.929278,37.142816,-0.923879,-0.382684,0.000000
-4.122628,3.359342,12.526850,-0.760406,0.649448,0.000000
-7.748365,-5.180202,-43.827141,0.000000,0.000000,-1.000000
-3.578359,8.277961,-17.948938,-0.382684,0.923879,0.000000
-2.393644,8.698780,-0.409643,-0.233446,0.972370,0.000000
-2.756630,8.611635,-4.378628,-0.233446,0.972370,0.000000
2.371277,8.704150,-16.319988,0.233446,0.972370,0.000000
8.719742,2.306333,-5.757555,0.972370,0.233446,-0.000000
-1.793612,0.597349,33.397759,0.956940,-0.290285,0.000000
7.028925,5.654618,-21.222022,0.760406,0.649448,0.000000
-0.350909,5.305412,15.226741,-0.078459,0.996917,0.000000
-1.516617,-1.130876,30.209435,0.773011,0.634393,0.000000
-7.699657,-5.356607,-27.712955,-0.852640,-0.522498,0.000000
2.512178,4.695978,3.491021,0.522498,0.852640,-0.000000
5.032981,0.380868,-30.499164,-1.000000,0.000000,0.000000
-4.967073,-0.803756,34.780458,-0.972370,-0.233445,-0.000000
-1.675446,-5.060642,19.596275,-0.382683,-0.923880,0.000000
5.516736,-7.146687,-24.682549,0.649448,-0.760406,0.000000
-0.567140,-4.988346,39.010137,-0.078459,-0.996917,0.000000
4.128645,-0.880772,-25.919326,0.000000,1.000000,0.000000
4.656813,1.868727,42.762138,0.923879,0.382684,-0.000000
-6.130946,2.413891,-0.104721,-0.000000,0.000000,1.000000
1.173916,-5.185829,9.293602,0.233446,-0.972370,0.000000
3.457166,-0.880772,-16.694376,0.000000,1.000000,-0.000000
7.900796,-4.364951,-3.774569,0.852640,-0.522498,0.000000
3.271437,0.260079,-2.910853,1.000000,0.000000,0.000000
-1.150849,1.500226,-27.536508,0.634393,-0.773011,0.000000
8.132648,-3.929175,-11.830188,0.923879,-0.382684,0.000000
-7.009150,-6.211516,-39.310647,-0.760406,-0.649448,0.000000
2.172033,-9.108473,-32.933823,0.233446,-0.972370,0.000000
1.655974,9.232368,-28.594755,0.233446,0.972370,-0.000000
5.300730,-0.410400,13.426663,0.996917,-0.078459,0.000000
2.895585,-8.560775,-7.150548,0.382684,-0.923879,0.000000
3.271437,-0.254978,9.997965,1.000000,0.000000,-0.000000
-4.018237,-8.470957,-29.165806,-0.382683,-0.923880,0.000000
3.271437,-0.509562,22.823413,1.000000,0.000000,-0.000000
-1.505921,-1.143910,-39.367138,0.773011,0.634393,-0.000000
-5.324631,-0.106708,13.151298,-0.996917,-0.078459,-0.000000
8.877732,1.648257,-7.524245,0.972370,0.233446,0.000000
-8.287034,3.556455,-5.991997,-0.923879,0.382684,0.000000
-0.760620,-9.332949,-42.504621,-0.078459,-0.996917,0.000000
1.513761,-1.134356,-4.432601,-0.773011,0.634393,0.000000
1.896413,-0.025509,5.609656,-0.995185,0.098017,0.000000
-1.833818,-8.833183,-20.182917,-0.233446,-0.972370,0.000000
7.901831,4.363262,-12.949145,0.852640,0.522498,0.000000
-5.727481,-3.430375,-43.827141,0.000000,0.000000,-1.000000
3.634359,-8.254765,-16.734003,0.382684,-0.923879,0.000000
-0.674635,-4.979886,25.101521,-0.078459,-0.996917,0.000000
-1.911492,0.229085,-43.827141,0.000000,-0.000000,-1.000000
-0.529945,-1.814059,3.641644,0.290285,0.956940,0.000000
-5.759448,-5.470467,-0.104721,0.000000,-0.000000,1.000000
-2.500810,-4.352124,26.784344,-0.522498,-0.852640,0.000000
-1.305834,-1.373033,5.918555,0.634393,0.773011,-0.000000
3.700524,0.880772,-16.299254,0.000000,-1.000000,0.000000
-3.665173,-8.617201,-39.940852,-0.382683,-0.923880,0.000000
7.254002,5.391087,-4.979545,0.760406,0.649448,0.000000
3.271437,-0.609868,-42.691996,1.000000,0.000000,0.000000
-0.359654,5.004675,35.771078,-0.078459,0.996917,0.000000
-0.766559,1.733066,13.105344,0.471397,-0.881921,0.000000
-6.952713,6.277595,-38.730259,-0.760406,0.649448,0.000000
7.540603,4.952733,-8.826725,0.852640,0.522498,-0.000000
-3.524884,3.981242,17.766086,-0.649448,0.760406,0.000000
-6.232302,6.991397,-36.778641,-0.649448,0.760406,0.000000
-8.109632,-3.385907,-0.104721,-0.000000,0.000000,1.000000
4.809019,-2.975554,-43.827141,0.000000,-0.000000,-1.000000
-7.501345,5.016797,-18.849619,-0.852640,0.522498,0.000000
-7.579057,4.889983,-4.801850,-0.852640,0.522498,0.000000
3.271437,0.543305,33.612910,1.000000,0.000000,-0.000000
8.939126,1.346539,-7.960169,0.996917,0.078459,-0.000000
1.250655,1.418318,28.429770,-0.634393,-0.773011,0.000000
3.398906,8.727492,-40.538311,0.382683,0.923880,0.000000
-1.876415,4.977398,10.697756,-0.382683,0.923880,0.000000
-7.576117,4.894779,-0.747339,-0.852640,0.522498,0.000000
2.031014,-4.589592,25.734548,0.382684,-0.923879,0.000000
-3.884674,3.177370,29.139126,-0.760406,0.649448,0.000000
2.405903,-4.410283,27.102294,0.522498,-0.852640,0.000000
5.110848,7.850258,-41.116483,0.522498,0.852640,0.000000
3.981094,0.880772,25.102285,0.000000,-1.000000,0.000000
0.012596,-1.897684,-34.835969,-0.098017,0.995185,0.000000
3.271437,-0.101138,32.110564,1.000000,0.000000,-0.000000
-6.235671,-6.532660,-24.775234,-0.649448,-0.760406,-0.000000
-9.126307,-2.097748,-30.019584,-0.972370,-0.233446,0.000000
-8.948060,2.840199,-34.548284,-0.972370,0.233446,0.000000
4.067475,-0.880772,41.881424,0.000000,1.000000,-0.000000
-5.188770,-6.261741,-43.827141,0.000000,0.000000,-1.000000
-1.065010,-1.570672,-16.515271,0.634393,0.773011,0.000000
-4.194906,2.757367,38.530851,-0.852640,0.522498,0.000000
3.271437,0.168989,-8.688431,1.000000,0.000000,0.000000
-0.295772,9.021823,-3.444555,-0.078459,0.996917,0.000000
-0.308619,-5.308740,13.921366,-0.078459,-0.996917,0.000000
0.894272,-1.664802,-33.013754,-0.471397,0.881921,0.000000
-3.551861,8.664136,-40.187062,-0.382683,0.923880,0.000000
-0.326627,1.866755,-25.159360,0.098017,-0.995185,0.000000
-4.531790,-2.780110,7.458682,-0.852640,-0.522498,0.000000
2.564655,-4.663820,3.310762,0.522498,-0.852640,0.000000
4.206392,8.393020,-42.917518,0.382683,0.923880,0.000000
-4.404001,2.416155,29.398130,-0.852640,0.522498,0.000000
-9.282377,1.403203,-25.889725,-0.996917,0.078459,0.000000
-4.571796,7.112765,-43.827141,0.000000,0.000000,-1.000000
4.231528,-3.231837,15.588482,0.760406,-0.649448,0.000000
2.512912,-4.695529,13.527925,0.522498,-0.852640,0.000000
-7.947278,-4.952526,-37.562425,-0.852640,-0.522498,-0.000000
-1.401798,7.733862,-0.104721,-0.000000,-0.000000,1.000000
8.418712,3.238556,-9.933931,0.923879,0.382684,0.000000
-8.969988,-2.748864,-27.428958,-0.972370,-0.233446,0.000000
-1.516443,1.131088,-18.418730,0.773011,-0.634393,0.000000
1.888247,0.108420,20.861650,-0.995185,-0.098017,0.000000
5.032981,0.602375,16.738474,-1.000000,0.000000,0.000000
0.577422,-1.799657,22.030617,-0.290285,0.956940,0.000000
7.002298,-5.685795,-9.010021,0.760406,-0.649448,0.000000
-7.719260,-4.661192,-18.398454,-0.852640,-0.522498,-0.000000
-2.700434,-8.981615,-38.391396,-0.233446,-0.972370,0.000000
5.443475,-3.938189,-0.104721,-0.000000,0.000000,1.000000
3.773196,3.307893,34.657917,0.760406,0.649448,-0.000000
0.279662,2.258631,-43.827141,0.000000,-0.000000,-1.000000
8.152831,-4.617095,-39.058908,0.852640,-0.522498,0.000000
0.449176,1.838560,-15.042143,-0.290285,-0.956940,0.000000
-1.625360,-0.968062,-29.867208,0.881921,0.471397,-0.000000
1.702321,5.049510,21.515235,0.382683,0.923880,-0.000000
3.883525,3.639297,11.438706,0.760406,0.649448,-0.000000
-5.773914,4.474839,-0.104721,-0.000000,-0.000000,1.000000
-8.996809,0.613604,-25.770897,-0.996917,0.078459,0.000000
9.028988,-0.204732,-11.914489,0.996917,-0.078459,0.000000
-5.908174,6.812368,-2.801153,-0.649448,0.760406,0.000000
-2.336686,-4.452700,35.414805,-0.522498,-0.852640,0.000000
3.722478,-0.880772,28.442320,0.000000,1.000000,-0.000000
-8.639036,2.642499,-2.614947,-0.972370,0.233446,0.000000
-2.280005,8.726063,-11.989694,-0.233446,0.972370,0.000000
-1.734416,-0.764033,9.936001,0.881921,0.471397,-0.000000
4.582619,2.047849,41.632699,0.923879,0.382684,-0.000000
7.184861,5.472040,-13.324555,0.760406,0.649448,0.000000
-0.143925,-5.021654,25.362946,-0.078459,-0.996917,0.000000
8.972258,0.925559,-10.253501,0.996917,0.078459,-0.000000
-7.696686,0.386533,-43.827141,0.000000,0.000000,-1.000000
-4.232177,3.231077,2.237797,-0.760406,0.649448,0.000000
-7.678515,-4.727682,-21.249567,-0.852640,-0.522498,-0.000000
4.395788,0.880772,32.254663,0.000000,-1.000000,0.000000
0.105015,1.888582,-40.619822,-0.098017,-0.995185,0.000000
1.318404,5.151140,8.743661,0.233446,0.972370,0.000000
5.382806,7.261074,-10.101841,0.649448,0.760406,-0.000000
-1.784445,-0.627570,-9.632431,0.956940,0.290285,0.000000
4.860105,-0.880772,-4.875913,0.000000,1.000000,0.000000
3.937292,3.115762,31.115801,0.760406,0.649448,0.000000
5.260366,6.192003,-0.104721,0.000000,-0.000000,1.000000
5.319212,-0.175569,11.217830,0.996917,-0.078459,0.000000
8.186774,3.798504,-21.989776,0.923879,0.382684,0.000000
5.032981,0.030765,14.462126,-1.000000,0.000000,0.000000
4.310565,-0.880772,-15.790180,0.000000,1.000000,0.000000
3.685738,-4.780439,-0.104721,-0.000000,0.000000,1.000000
8.251611,3.641972,-18.721812,0.923879,0.382684,0.000000
-1.489514,-1.163902,22.171361,0.773011,0.634393,0.000000
-1.679417,0.866928,31.190611,0.881921,-0.471397,0.000000
-1.898355,-9.174177,-38.874456,-0.233446,-0.972370,0.000000
1.873038,-0.262839,-17.495147,-0.995185,0.098017,0.000000
6.148588,-7.062895,-32.661080,0.649448,-0.760406,0.000000
4.074618,0.880772,39.456082,0.000000,-1.000000,0.000000
4.611263,-1.978696,28.321016,0.923879,-0.382684,0.000000
4.830444,2.231195,8.678361,0.923880,0.382683,-0.000000
2.284931,7.513996,-0.104721,-0.000000,0.000000,1.000000
-4.000363,-3.041916,27.646079,-0.760406,-0.649448,-0.000000
4.187713,-0.880772,-11.313833,0.000000,1.000000,0.000000
-0.528624,-9.351207,-40.829471,-0.078459,-0.996917,0.000000
4.670115,0.880772,30.055235,0.000000,-1.000000,0.000000
4.161680,-3.313619,8.374799,0.760406,-0.649448,0.000000
1.642328,-0.936318,-39.158455,-0.881921,0.471397,0.000000
-6.794952,6.462309,-39.000049,-0.760406,0.649448,0.000000
-8.446308,3.171934,-18.590783,-0.923879,0.382684,0.000000
9.043083,-0.025632,-24.331120,0.996917,-0.078459,0.000000
-7.792965,4.540916,-25.330759,-0.852640,0.522498,0.000000
5.032981,0.589926,-17.594090,-1.000000,0.000000,0.000000
-3.762284,-8.576976,-32.637832,-0.382683,-0.923880,0.000000
-0.320019,9.019914,-10.023105,-0.078459,0.996917,0.000000
0.480204,1.829148,-37.283098,-0.290285,-0.956940,0.000000
2.150061,-8.757260,-7.462871,0.233446,-0.972370,0.000000
6.662073,6.084147,-7.967161,0.760406,0.649448,-0.000000
8.149246,3.889104,-19.315011,0.923879,0.382684,-0.000000
4.999856,1.822196,18.679846,0.923880,0.382683,-0.000000
0.191255,1.880088,-35.710649,-0.098017,-0.995185,0.000000
0.354551,1.864005,-2.090467,-0.098017,-0.995185,0.000000
-1.882433,-0.167448,-33.525180,0.995185,0.098017,-0.000000
1.909739,-4.639826,43.221631,0.382684,-0.923879,0.000000
6.847396,6.400905,-41.704370,0.760406,0.649448,0.000000
-4.899754,-7.573069,-16.580394,-0.522498,-0.852640,0.000000
-8.858544,1.728179,-0.107890,-0.972370,0.233446,0.000000
9.374951,0.226936,-29.933920,0.996917,0.078459,0.000000
1.003517,-9.313833,-31.604563,0.078459,-0.996917,0.000000
9.368507,-0.308815,-31.810123,0.996917,-0.078459,0.000000
-1.935190,8.808846,-19.961016,-0.233446,0.972370,0.000000
3.422555,-1.693203,43.827141,-0.000000,-0.000000,1.000000
-3.142592,4.307750,18.077461,-0.649448,0.760406,0.000000
-6.434836,6.350208,-4.530719,-0.760406,0.649448,0.000000
1.106650,4.894355,26.062135,0.233445,0.972370,0.000000
5.032981,-0.752730,-23.571383,-1.000000,0.000000,0.000000
1.896758,0.022000,-19.916683,-0.995185,-0.098017,0.000000
-8.652210,2.587623,-7.550731,-0.972370,0.233446,0.000000
5.007085,1.804745,1.158575,0.923880,0.382683,0.000000
3.192876,4.264804,18.650562,0.649448,0.760406,-0.000000
6.741197,5.991505,-9.057526,0.760406,0.649448,-0.000000
-8.427868,3.216450,-10.331913,-0.923879,0.382684,0.000000
-8.707909,2.355621,-19.509511,-0.972370,0.233446,0.000000
-6.864267,6.381152,-42.238654,-0.760406,0.649448,0.000000
0.352214,-9.365091,-30.691097,0.078459,-0.996917,0.000000
0.405719,-1.851743,-26.923519,-0.290285,0.956940,0.000000
1.021489,5.222423,0.974135,0.233446,0.972370,0.000000
-5.781996,-7.375995,-34.540743,-0.649448,-0.760406,0.000000
1.821283,0.506130,37.961386,-0.956940,-0.290285,0.000000
4.662825,-7.718259,-15.053686,0.522498,-0.852640,0.000000
-1.823346,8.835697,-21.261164,-0.233446,0.972370,0.000000
2.901548,-8.933332,-32.052309,0.233446,-0.972370,0.000000
-5.245555,0.925139,18.877905,-0.972370,0.233446,0.000000
5.625417,-7.053865,-21.936594,0.649448,-0.760406,0.000000
4.086879,-2.933652,31.108421,0.852640,-0.522498,0.000000
3.466092,4.031456,18.699193,0.649448,0.760406,-0.000000
3.271437,0.302736,25.539451,1.000000,0.000000,-0.000000
-5.073804,-7.466411,-16.448820,-0.522498,-0.852640,0.000000
3.136968,-4.312554,8.950347,0.649448,-0.760406,0.000000
5.023712,-7.497108,-7.083368,0.522498,-0.852640,0.000000
-1.298782,9.290595,-39.643506,-0.078459,0.996917,0.000000
-2.288951,-8.175669,-0.104721,-0.000000,0.000000,1.000000
4.972490,-0.880772,3.733662,-0.000000,1.000000,0.000000
4.364778,-8.307450,-40.967648,0.522498,-0.852640,0.000000
-1.507033,-1.142555,9.274976,0.773011,0.634393,-0.000000
6.186686,6.574496,-24.897635,0.649448,0.760406,0.000000
0.549995,-1.807977,-3.704164,-0.290285,0.956940,0.000000
-5.989422,6.742976,-0.526483,-0.649448,0.760406,0.000000
0.712770,-4.976885,25.746358,0.078459,-0.996917,0.000000
-3.145770,8.457145,-3.005639,-0.382684,0.923879,0.000000
0.429422,-1.844552,-34.122991,-0.290285,0.956940,0.000000
1.890847,0.082015,32.964011,-0.995185,-0.098017,0.000000
-5.990919,6.741697,-6.134580,-0.649448,0.760406,0.000000
-6.140328,-6.614091,-18.574440,-0.649448,-0.760406,-0.000000
-0.652907,8.993716,-13.450997,-0.078459,0.996917,0.000000
8.243256,-3.662143,-21.527659,0.923879,-0.382684,0.000000
-8.271928,-2.135970,-0.104721,0.000000,-0.000000,1.000000
8.828076,-1.855091,-6.835071,0.972370,-0.233446,0.000000
-1.307277,-8.942216,-11.756499,-0.078459,-0.996917,0.000000
1.070625,-1.566064,-22.325942,-0.634393,0.773011,0.000000
5.626342,-7.508936,-30.584215,0.649448,-0.760406,0.000000
-7.860645,-5.093897,-34.784277,-0.852640,-0.522498,0.000000
4.674244,7.711262,-10.453311,0.522498,0.852640,-0.000000
-7.995873,4.209800,-10.249057,-0.852640,0.522498,0.000000
3.631850,3.473388,24.490254,0.760406,0.649448,0.000000
-3.707412,-8.599704,-28.753058,-0.382683,-0.923880,0.000000
4.609489,-8.157491,-43.675595,0.522498,-0.852640,0.000000
-1.486953,-4.803052,39.859672,-0.233445,-0.972370,0.000000
3.271437,-0.464055,-16.346051,1.000000,0.000000,-0.000000
8.998979,-0.586030,-1.407796,0.996917,-0.078459,0.000000
-8.804400,1.953707,-6.899624,-0.972370,0.233446,0.000000
0.649433,-1.777813,14.845231,-0.290285,0.956940,0.000000
0.991394,5.229648,7.136926,0.233446,0.972370,-0.000000
5.032981,-0.849821,-4.202829,-1.000000,0.000000,0.000000
3.077451,3.970012,41.514479,0.649448,0.760406,-0.000000
-4.562496,2.730002,0.454733,-0.852640,0.522498,0.000000
-8.229009,-4.492782,-32.016669,-0.852640,-0.522498,-0.000000
7.779804,-4.562394,-20.193562,0.852640,-0.522498,0.000000
4.619194,2.637479,3.017054,0.852640,0.522498,0.000000
-1.243299,-8.418607,-0.104721,0.000000,-0.000000,1.000000
-4.838171,-1.340673,43.278029,-0.972370,-0.233445,0.000000
-1.263664,4.856659,40.304715,-0.233445,0.972370,0.000000
5.035682,1.735706,6.092588,0.923880,0.382683,0.000000
5.275495,-0.731037,7.084634,0.996917,-0.078459,0.000000
3.550276,0.880772,-19.970646,0.000000,-1.000000,0.000000
4.565056,0.880772,18.248210,-0.000000,-1.000000,0.000000
3.278474,4.667598,-0.104721,0.000000,-0.000000,1.000000
5.766968,7.388830,-36.383731,0.649448,0.760406,-0.000000
5.032981,-0.055543,-29.599549,-1.000000,0.000000,0.000000
8.685774,2.447818,-20.746358,0.972370,0.233446,0.000000
7.978295,-4.238485,-5.450461,0.852640,-0.522498,0.000000
4.654719,-0.896834,-43.827141,0.000000,0.000000,-1.000000
1.396154,-5.132474,3.578394,0.233446,-0.972370,0.000000
8.043785,-4.131616,-2.475955,0.852640,-0.522498,0.000000
8.920083,1.471854,-5.481437,0.972370,0.233446,0.000000
4.823999,-0.880772,-42.073158,0.000000,1.000000,0.000000
-6.850606,-5.863404,-19.286108,-0.760406,-0.649448,0.000000
7.219097,-5.431956,-19.522880,0.760406,-0.649448,0.000000
1.674880,-5.060876,12.426572,0.382683,-0.923880,0.000000
4.402967,-1.943506,43.827141,-0.000000,0.000000,1.000000
-3.573414,8.280009,-23.128118,-0.382684,0.923879,0.000000
2.369232,-8.704641,-20.746483,0.233446,-0.972370,0.000000
-8.174118,-1.539981,-0.104721,0.000000,-0.000000,1.000000
2.437418,4.741792,18.682946,0.522498,0.852640,-0.000000
9.239933,-1.624465,-34.491453,0.972370,-0.233446,0.000000
-1.690565,-0.846072,-31.516464,0.881921,0.471397,-0.000000
-1.881816,0.173713,-33.075006,0.995185,-0.098017,0.000000
0.042357,-1.894753,-34.236622,-0.098017,0.995185,0.000000
4.237730,3.224575,22.068406,0.760406,0.649448,-0.000000
0.445292,9.010055,-0.947592,0.078459,0.996917,-0.000000
4.973609,7.934358,-29.129913,0.522498,0.852640,-0.000000
1.427230,-1.239795,4.064751,-0.773011,0.634393,0.000000
-9.146329,-2.014352,-35.089172,-0.972370,-0.233446,-0.000000
3.227923,6.066128,-43.827141,0.000000,0.000000,-1.000000
5.220180,-1.030832,12.222807,0.972370,-0.233446,0.000000
-3.106161,-8.473552,-20.959928,-0.382684,-0.923879,0.000000
0.709696,-4.977126,25.022688,0.078459,-0.996917,0.000000
8.327388,4.332243,-36.752279,0.852640,0.522498,0.000000
-1.602572,-1.010696,-38.802591,0.881921,0.471397,-0.000000
6.372082,6.416154,-1.945906,0.649448,0.760406,0.000000
-4.994265,-0.491930,31.448563,-0.996917,-0.078459,0.000000
-2.339750,9.068208,-42.987200,-0.233446,0.972370,0.000000
-3.951889,3.098671,23.047650,-0.760406,0.649448,0.000000
-1.527003,9.263331,-35.346506,-0.233446,0.972370,0.000000
-2.154811,9.112608,-31.147246,-0.233446,0.972370,0.000000
8.584069,-2.839349,-21.061915,0.923879,-0.382684,0.000000
-7.615184,4.831028,-10.818441,-0.852640,0.522498,0.000000
-5.127960,-0.978130,22.379372,0.000000,0.000000,1.000000
-4.112215,3.371534,19.197875,-0.760406,0.649448,0.000000
5.599755,7.075783,-14.477243,0.649448,0.760406,-0.000000
-1.116918,1.528073,-21.316127,0.634393,-0.773011,0.000000
-8.952974,-1.170581,-14.467184,-0.996917,-0.078459,0.000000
3.363343,0.880772,-25.424510,0.000000,-1.000000,0.000000
-1.858449,0.383610,12.196144,0.956940,-0.290285,0.000000
1.446991,1.215716,-35.010593,-0.773011,-0.634393,0.000000
-2.976221,-4.056471,31.046565,-0.649448,-0.760406,0.000000
2.474737,9.035800,-26.676399,0.233446,0.972370,-0.000000
-9.268106,-0.651686,-43.827141,0.000000,0.000000,-1.000000
-1.152532,1.498845,13.796656,0.634393,-0.773011,0.000000
-8.093478,4.023739,-11.115139,-0.923879,0.382684,0.000000
2.711582,0.131812,43.827141,-0.000000,0.000000,1.000000
4.445482,-2.348463,37.798694,0.852640,-0.522498,0.000000
-2.267821,-8.728988,-10.339811,-0.233446,-0.972370,0.000000
4.056103,2.064813,-43.827141,0.000000,0.000000,-1.000000
0.231195,-5.014785,41.779195,0.078459,-0.996917,0.000000
8.898762,2.985423,-36.015431,0.923880,0.382683,0.000000
-4.474726,2.300743,39.560841,-0.852640,0.522498,0.000000
5.236850,-0.961398,3.176311,0.972370,-0.233446,0.000000
-0.483051,-4.994964,39.889567,-0.078459,-0.996917,0.000000
-9.068052,2.340397,-29.597007,-0.972370,0.233446,0.000000
4.204331,0.880772,16.978637,0.000000,-1.000000,0.000000
-6.293235,4.607937,-0.104721,-0.000000,-0.000000,1.000000
-1.845401,-0.426624,21.246330,0.956940,0.290285,-0.000000
7.791376,4.543509,-14.394844,0.852640,0.522498,0.000000
-2.307052,-4.470859,34.997672,-0.522498,-0.852640,0.000000
0.264756,1.872849,-6.826262,-0.098017,-0.995185,0.000000
-2.702990,8.624513,-14.250224,-0.233446,0.972370,0.000000
-0.714003,-8.192521,-43.827141,0.000000,-0.000000,-1.000000
4.066528,0.880772,6.620496,0.000000,-1.000000,0.000000
-3.634687,-2.506286,43.827141,0.000000,-0.000000,1.000000
5.032981,-0.372485,-1.734338,-1.000000,0.000000,0.000000
-2.166691,2.720005,-43.827141,0.000000,-0.000000,-1.000000
-0.592470,9.346183,-29.347722,-0.078459,0.996917,0.000000
-1.369256,-1.310436,-0.036880,0.773011,0.634393,0.000000
5.408768,6.422933,-0.104721,0.000000,-0.000000,1.000000
3.735537,-3.801327,9.073586,0.649448,-0.760406,0.000000
-6.276551,-6.497745,-21.257946,-0.649448,-0.760406,-0.000000
1.401745,-9.282492,-26.489489,0.078459,-0.996917,0.000000
4.017407,0.880772,-26.339592,0.000000,-1.000000,-0.000000
-0.692584,4.978473,34.449611,-0.078459,0.996917,0.000000
4.774273,0.880772,23.233211,-0.000000,-1.000000,0.000000
4.620481,2.635379,10.381555,0.852640,0.522498,0.000000
-0.619571,-9.344050,-43.296771,-0.078459,-0.996917,0.000000
-8.087108,-4.039117,-25.427993,-0.923879,-0.382684,0.000000
-5.313044,-0.253941,3.868916,-0.996917,-0.078459,-0.000000
-4.867331,2.142141,1.552583,-0.923880,0.382683,0.000000
-2.019591,0.773979,-43.827141,0.000000,-0.000000,-1.000000
5.032981,0.791959,-14.073551,-1.000000,0.000000,0.000000
0.990190,-1.613533,14.152410,-0.471397,0.881921,0.000000
4.098077,-2.915377,38.741312,0.852640,-0.522498,0.000000
7.423171,-5.144366,-25.600774,0.852640,-0.522498,0.000000
5.236970,0.325702,-43.827141,0.000000,0.000000,-1.000000
1.300794,5.155368,21.829108,0.233446,0.972370,-0.000000
1.648943,9.234056,-35.765169,0.233446,0.972370,-0.000000
-0.918586,-9.320517,-27.033127,-0.078459,-0.996917,0.000000
3.682205,0.880772,-11.181232,0.000000,-1.000000,0.000000
1.895909,0.030621,-41.594706,-0.995185,-0.098017,0.000000
-5.587864,-2.923689,-43.827141,0.000000,0.000000,-1.000000
2.141269,-4.543923,29.756261,0.382684,-0.923879,0.000000
6.321315,6.915373,-42.021533,0.649448,0.760406,0.000000
3.271437,0.430414,-14.833665,1.000000,0.000000,0.000000
0.628154,-9.343374,-30.700232,0.078459,-0.996917,0.000000
1.538515,-1.104194,40.657628,-0.773011,0.634393,0.000000
-1.723440,-4.716993,22.643688,-0.382684,-0.923879,-0.000000
0.923105,-1.649390,-36.659333,-0.471397,0.881921,0.000000
-5.315314,-5.646061,-43.827141,0.000000,0.000000,-1.000000
3.271437,-0.505804,-34.696890,1.000000,0.000000,0.000000
-3.547384,-8.290791,-15.966318,-0.382684,-0.923879,0.000000
-2.645782,8.638247,-12.002842,-0.233446,0.972370,0.000000
1.509140,-1.139988,33.163388,-0.773011,0.634393,0.000000
-4.887941,7.986856,-32.722813,-0.522498,0.852640,0.000000
4.703350,7.693425,-21.925152,0.522498,0.852640,0.000000
3.931245,-3.583423,7.590339,0.760406,-0.649448,0.000000
-1.461159,-5.116868,1.264724,-0.233446,-0.972370,0.000000
-3.448573,3.653045,28.324535,-0.649448,0.760406,0.000000
-6.321971,6.458952,-25.116929,-0.649448,0.760406,0.000000
1.617746,0.982308,-15.951495,-0.881921,-0.471397,0.000000
3.450121,4.045096,21.631967,0.649448,0.760406,-0.000000
5.006980,-7.913908,-36.628610,0.522498,-0.852640,0.000000
5.032981,-0.394820,-28.306714,-1.000000,0.000000,0.000000
-1.412872,8.933905,-18.551046,-0.078459,0.996917,0.000000
1.864250,-0.352066,-22.871617,-0.995185,0.098017,0.000000
6.426599,-4.202401,-0.104721,-0.000000,0.000000,1.000000
0.751469,1.741132,-39.804813,-0.471397,-0.881921,0.000000
4.913208,-1.028124,36.439669,0.972370,-0.233445,0.000000
1.146523,1.503776,-25.612586,-0.634393,-0.773011,0.000000
2.660670,4.604982,1.457383,0.522498,0.852640,0.000000
-3.945405,3.566844,8.273287,-0.760406,0.649448,0.000000
-1.402569,1.269844,-12.992801,0.773011,-0.634393,0.000000
-6.711679,6.559809,-39.192168,-0.760406,0.649448,0.000000
-5.187769,-7.191035,-0.104721,-0.000000,0.000000,1.000000
-3.642432,3.880846,13.753455,-0.649448,0.760406,0.000000
-2.005231,4.924041,2.686024,-0.382683,0.923880,0.000000
1.596017,1.022960,-27.562012,-0.881921,-0.471397,0.000000
-0.642410,-1.779943,-42.554158,0.290285,0.956940,-0.000000
3.851429,3.216295,23.090839,0.760406,0.649448,0.000000
-1.316977,3.424483,-43.827141,0.000000,0.000000,-1.000000
1.860082,0.378229,-43.549179,-0.956940,-0.290285,0.000000
0.333014,5.006772,30.416861,0.078459,0.996917,0.000000
8.999529,0.579035,-18.421815,0.996917,0.078459,0.000000
3.284565,-0.880772,2.560539,0.000000,1.000000,-0.000000
-4.794611,-8.044048,-36.512194,-0.522498,-0.852640,0.000000
5.032981,-0.388265,4.622998,-1.000000,0.000000,0.000000
1.909274,-2.536420,43.827141,-0.000000,-0.000000,1.000000
-8.981272,0.811015,-2.904911,-0.996917,0.078459,0.000000
-1.414732,-9.281469,-43.436251,-0.078459,-0.996917,0.000000
6.981605,5.710023,-0.258092,0.760406,0.649448,-0.000000
-3.558293,8.286272,-5.631741,-0.382684,0.923879,0.000000
3.271437,0.861382,-13.685018,1.000000,0.000000,0.000000
8.661959,-1.666512,-43.827141,0.000000,0.000000,-1.000000
-4.500794,-7.817552,-3.217837,-0.522498,-0.852640,0.000000
-1.662557,-0.898472,12.200968,0.881921,0.471397,0.000000
-0.003303,-5.032721,34.456692,-0.078459,-0.996917,0.000000
4.286728,2.607528,41.659110,0.852640,0.522498,-0.000000
-0.405133,-7.001044,-43.827141,0.000000,-0.000000,-1.000000
-4.413841,2.400097,23.195120,-0.852640,0.522498,0.000000
0.809439,-4.965709,39.527539,0.233445,-0.972370,0.000000
-6.063805,6.679447,-17.121187,-0.649448,0.760406,0.000000
1.584039,5.127003,-0.104721,-0.000000,0.000000,1.000000
1.774942,9.203806,-32.560672,0.233446,0.972370,-0.000000
8.941526,-2.867419,-41.054178,0.972370,-0.233446,0.000000
9.339852,-0.672907,-29.164946,0.996917,-0.078459,0.000000
3.848743,1.919707,-43.827141,0.000000,0.000000,-1.000000
2.922930,-4.093449,35.692981,0.522498,-0.852640,0.000000
0.535906,5.290852,9.684694,0.078459,0.996917,0.000000
4.181779,0.880772,3.620192,-0.000000,-1.000000,0.000000
-0.426723,-1.845371,26.203498,0.290285,0.956940,0.000000
-1.863722,-0.357420,30.308480,0.995185,0.098017,0.000000
0.546734,-9.002072,-17.175352,0.078459,-0.996917,0.000000
-4.311552,7.933520,-14.668164,-0.522498,0.852640,0.000000
-2.915434,-4.448863,0.559355,-0.522498,-0.852640,-0.000000
-1.103596,-1.539006,-37.448391,0.634393,0.773011,-0.000000
-9.206840,-1.762304,-38.083606,-0.972370,-0.233446,-0.000000
1.272815,5.162085,19.452890,0.233446,0.972370,-0.000000
9.177935,-1.882704,-41.108239,0.972370,-0.233446,0.000000
-1.330403,-1.352869,10.413439,0.634393,0.773011,-0.000000
5.294611,-0.488148,0.244325,0.996917,-0.078459,0.000000
-4.476211,-7.832616,-4.824465,-0.522498,-0.852640,0.000000
7.619753,5.486998,-38.463118,0.852640,0.522498,-0.000000
-5.276615,-0.716811,12.271270,-0.996917,-0.078459,0.000000
8.366566,-3.364448,-3.814200,0.923879,-0.382684,0.000000
3.098547,-8.851904,-35.275016,0.382683,-0.923880,0.000000
1.411311,-1.259192,2.626381,-0.773011,0.634393,0.000000
-9.071790,2.324827,-31.228467,-0.972370,0.233446,0.000000
-3.280938,8.776356,-32.428609,-0.382683,0.923880,0.000000
-1.565318,-4.782490,26.359865,-0.382684,-0.923879,0.000000
-9.018804,-0.334128,-4.937542,-0.996917,-0.078459,0.000000
-0.757963,-1.737661,-12.628859,0.471397,0.881921,0.000000
4.695532,8.104764,-28.764557,0.522498,0.852640,-0.000000
1.769060,-0.678288,-29.812113,-0.956940,0.290285,0.000000
5.032981,-0.061789,0.048391,-1.000000,0.000000,0.000000
3.104513,-8.474234,-3.921982,0.382684,-0.923879,0.000000
8.873602,-3.046164,-32.245520,0.923880,-0.382683,0.000000
-5.329952,0.039096,13.926838,-0.996917,0.078459,0.000000
0.932201,1.644528,-37.183820,-0.471397,-0.881921,0.000000
-7.907665,-5.017169,-40.419875,-0.852640,-0.522498,-0.000000
-3.876819,3.647147,2.878319,-0.760406,0.649448,0.000000
7.871259,-5.076577,-41.933623,0.852640,-0.522498,0.000000
1.864017,-0.354432,3.285883,-0.995185,0.098017,0.000000
-1.102383,1.540001,-17.673047,0.634393,-0.773011,0.000000
5.032981,-0.346114,-10.670160,-1.000000,0.000000,0.000000
2.866079,4.479108,9.160418,0.522498,0.852640,0.000000
7.371971,-5.227916,-22.595150,0.852640,-0.522498,0.000000
-1.590544,9.248076,-31.743405,-0.233446,0.972370,0.000000
-8.436599,4.101184,-43.027288,-0.923880,0.382683,0.000000
4.326227,-7.924527,-20.148519,0.522498,-0.852640,0.000000
3.525301,-8.299938,-6.145642,0.382684,-0.923879,0.000000
-0.787042,7.947066,-43.827141,0.000000,-0.000000,-1.000000
2.898681,-4.108309,35.630114,0.522498,-0.852640,0.000000
0.926693,1.647473,-18.626812,-0.471397,-0.881921,0.000000
-9.021662,-0.297818,-4.806056,-0.996917,-0.078459,0.000000
-1.100554,4.895818,40.093379,-0.233445,0.972370,0.000000
-8.440037,-3.187073,-9.614518,-0.923879,-0.382684,0.000000
-1.623837,5.077812,20.269357,-0.233446,0.972370,0.000000
5.032981,-0.607486,13.648809,-1.000000,0.000000,0.000000
1.791073,7.087039,-43.827141,0.000000,0.000000,-1.000000
-8.125571,3.946261,-3.467200,-0.923879,0.382684,0.000000
0.575364,4.682751,43.827141,0.000000,-0.000000,1.000000
-4.320744,2.552018,38.265584,-0.852640,0.522498,0.000000
-0.910600,-1.656075,23.068629,0.471397,0.881921,0.000000
-4.800722,2.302950,15.256780,-0.923880,0.382683,0.000000
8.939569,-1.340907,-4.684515,0.996917,-0.078459,0.000000
3.727860,0.880772,-43.644063,0.000000,-1.000000,-0.000000
-4.832519,-2.226184,2.511914,-0.923880,-0.382683,-0.000000
-1.878104,0.211403,9.681192,0.995185,-0.098017,0.000000
-0.225133,5.015262,36.943270,-0.078459,0.996917,0.000000
5.032981,0.220636,-2.821148,-1.000000,0.000000,0.000000
-8.822472,-0.221551,-0.104721,0.000000,-0.000000,1.000000
0.789860,1.720611,9.153415,-0.471397,-0.881921,0.000000
4.380624,3.026790,0.268014,0.852640,0.522498,0.000000
1.878440,-0.207987,2.412964,-0.995185,0.098017,0.000000
-9.030748,0.182369,-5.167785,-0.996917,0.078459,0.000000
-4.589562,2.031088,43.359665,-0.923879,0.382684,0.000000
-8.830542,3.150120,-41.943396,-0.923880,0.382683,0.000000
0.386853,5.002535,26.200610,0.078459,0.996917,0.000000
3.037755,-8.877085,-41.764271,0.382683,-0.923880,0.000000
2.374789,4.429350,42.622235,0.522498,0.852640,-0.000000
0.351933,-1.864263,18.866152,-0.098017,0.995185,0.000000
3.899451,-8.520159,-35.587021,0.382683,-0.923880,0.000000
-7.071193,-0.694500,-0.104721,0.000000,-0.000000,1.000000
4.278965,-0.880772,-31.195579,0.000000,1.000000,0.000000
8.504155,-3.032279,-2.642153,0.923879,-0.382684,0.000000
8.768688,-2.102459,-20.109710,0.972370,-0.233446,0.000000
-5.796451,7.363649,-34.939447,-0.649448,0.760406,0.000000
-8.726879,-3.390037,-43.827141,0.000000,0.000000,-1.000000
4.178507,-2.784128,25.776031,0.852640,-0.522498,0.000000
-2.776699,-4.533880,16.322739,-0.522498,-0.852640,0.000000
4.558041,0.880772,-0.114075,0.000000,-1.000000,-0.000000
8.987679,-0.729614,-8.797915,0.996917,-0.078459,0.000000
-7.516163,4.992616,-15.199360,-0.852640,0.522498,0.000000
1.464410,-5.116087,16.874545,0.233446,-0.972370,0.000000
-1.639219,-0.942135,4.911125,0.881921,0.471397,0.000000
5.165599,-7.816707,-33.997219,0.522498,-0.852640,0.000000
0.323534,1.867060,-29.487803,-0.098017,-0.995185,0.000000
-3.433867,4.058978,9.280027,-0.649448,0.760406,0.000000
9.088620,2.254726,-42.888512,0.972370,0.233446,0.000000
6.553098,-6.211740,-16.720753,0.760406,-0.649448,0.000000
-2.559832,0.931994,43.827141,-0.000000,0.000000,1.000000
-1.895980,-0.029902,13.513691,0.995185,0.098017,-0.000000
3.913852,3.018462,43.827141,0.000000,-0.000000,1.000000
-4.762929,-7.406331,-0.104721,-0.000000,0.000000,1.000000
-6.855316,6.391632,-30.783450,-0.760406,0.649448,0.000000
-0.612912,-1.788891,-11.497599,0.290285,0.956940,-0.000000
2.684151,-8.629036,-20.561913,0.233446,-0.972370,0.000000
-0.930836,1.645258,-29.029678,0.471397,-0.881921,0.000000
4.555958,2.740671,14.790378,0.852640,0.522498,-0.000000
-9.336213,0.719145,-33.276667,-0.996917,0.078459,0.000000
-7.739890,4.627527,-23.139253,-0.852640,0.522498,0.000000
1.037945,1.588007,-18.543262,-0.471397,-0.881921,0.000000
1.870964,-0.283890,28.058648,-0.995185,0.098017,0.000000
8.591503,3.727213,-36.940495,0.923880,0.382683,0.000000
1.077402,-9.308018,-40.110789,0.078459,-0.996917,0.000000
1.518045,-1.129136,-9.696098,-0.773011,0.634393,0.000000
-5.304524,0.362189,21.873556,-0.996917,0.078459,0.000000
1.892344,-0.066818,-33.924299,-0.995185,0.098017,0.000000
-8.740338,2.220546,-10.448587,-0.972370,0.233446,0.000000
-5.336025,-7.301030,-15.028498,-0.649448,-0.760406,0.000000
-0.650701,4.981769,29.203706,-0.078459,0.996917,0.000000
-7.792823,-5.204574,-41.119720,-0.852640,-0.522498,-0.000000
-1.895543,-0.034338,-5.016886,0.995185,0.098017,-0.000000
-8.858454,-1.728558,-19.579581,-0.972370,-0.233446,-0.000000
5.382034,-7.261734,-9.038993,0.649448,-0.760406,0.000000
-0.846035,-8.978516,-16.902070,-0.078459,-0.996917,0.000000
-0.653918,9.341347,-35.911610,-0.078459,0.996917,0.000000
1.447241,9.278911,-25.963988,0.078459,0.996917,-0.000000
-1.798292,0.581923,10.726485,0.956940,-0.290285,0.000000
0.303728,-1.869010,5.904478,-0.098017,0.995185,0.000000
-6.661083,4.042560,-43.827141,0.000000,0.000000,-1.000000
-5.138143,1.372541,19.725832,-0.972370,0.233446,0.000000
8.085812,1.980168,-43.827141,-0.000000,0.000000,-1.000000
-9.011607,2.575510,-39.732521,-0.972370,0.233446,0.000000
-3.878095,-3.185073,23.084522,-0.760406,-0.649448,-0.000000
6.105955,-6.643447,-17.213617,0.649448,-0.760406,0.000000
-3.712772,-3.820771,6.136428,-0.649448,-0.760406,0.000000
-1.492276,-1.160535,22.193792,0.773011,0.634393,0.000000
0.863124,3.626582,-43.827141,0.000000,0.000000,-1.000000
-1.074165,5.209777,16.705572,-0.233446,0.972370,0.000000
2.401028,-4.760096,6.127808,0.382683,-0.923880,0.000000
2.754379,-4.547557,21.178946,0.522498,-0.852640,0.000000
3.271437,-0.463600,-5.906755,1.000000,0.000000,-0.000000
1.116465,-8.957233,-14.717867,0.078459,-0.996917,0.000000
9.382008,-0.137266,-31.617418,0.996917,-0.078459,0.000000
8.210837,-3.740411,-22.063665,0.923879,-0.382684,0.000000
-6.376065,6.412752,-19.211931,-0.649448,0.760406,0.000000
-0.687000,-4.978913,39.309737,-0.078459,-0.996917,0.000000
2.985694,6.485156,-0.104721,0.000000,-0.000000,1.000000
-2.637953,-8.996615,-30.202861,-0.233446,-0.972370,0.000000
0.993498,1.611765,-3.578552,-0.471397,-0.881921,0.000000
8.787274,2.025043,-23.066219,0.972370,0.233446,0.000000
2.879941,-4.470613,1.375193,0.522498,-0.852640,0.000000
-5.323716,-7.719812,-39.167550,-0.522498,-0.852640,0.000000
3.839139,8.169942,-15.935235,0.382684,0.923879,0.000000
4.776453,0.996021,43.827141,-0.000000,0.000000,1.000000
6.725543,6.009834,-15.554112,0.760406,0.649448,-0.000000
6.202411,6.561066,-24.865027,0.649448,0.760406,0.000000
-9.372274,-0.260952,-38.452720,-0.996917,-0.078459,-0.000000
-5.674509,-7.011937,-3.444203,-0.649448,-0.760406,0.000000
-4.966967,-0.804199,29.122486,-0.972370,-0.233445,-0.000000
-9.032499,-0.160115,-21.596020,-0.996917,-0.078459,-0.000000
-0.123660,1.886746,11.416551,0.098017,-0.995185,0.000000
8.110047,-4.433560,-25.875095,0.000000,-0.000000,1.000000
1.488182,1.165524,17.878210,-0.773011,-0.634393,0.000000
-1.869244,0.301360,10.122057,0.995185,-0.098017,0.000000
0.667108,-1.772451,16.377874,-0.290285,0.956940,0.000000
3.951071,-8.498778,-29.368333,0.382683,-0.923880,0.000000
0.719900,-1.756437,5.935302,-0.290285,0.956940,0.000000
5.032981,-0.534140,-34.019627,-1.000000,0.000000,0.000000
0.466938,9.008352,-13.568859,0.078459,0.996917,-0.000000
-2.426310,4.748598,11.997872,-0.522498,0.852640,0.000000
-6.476045,5.196811,-43.827141,0.000000,0.000000,-1.000000
-0.897433,1.663112,42.440615,0.471397,-0.881921,0.000000
-2.292882,4.479543,32.076133,-0.522498,0.852640,0.000000
0.216936,-1.877559,-35.543314,-0.098017,0.995185,0.000000
4.997625,-0.880772,8.089301,-0.000000,1.000000,0.000000
3.416668,-0.880772,31.343850,0.000000,1.000000,-0.000000
3.658430,3.867183,9.265341,0.649448,0.760406,0.000000
0.225415,9.027360,-25.327651,0.078459,0.996917,0.000000
-1.861761,0.372693,32.536171,0.956940,-0.290285,0.000000
-5.648400,7.034236,-20.445297,-0.649448,0.760406,0.000000
-1.616106,-5.079668,-0.016880,-0.233446,-0.972370,0.000000
8.001773,4.200172,-1.940066,0.852640,0.522498,-0.000000
-5.844804,6.866492,-25.327759,-0.649448,0.760406,0.000000
2.481839,-0.612784,-43.827141,0.000000,0.000000,-1.000000
4.163676,0.880772,-41.947718,0.000000,-1.000000,-0.000000
-0.431715,-1.843857,-0.014835,0.290285,0.956940,0.000000
8.913006,-1.501330,-11.117811,0.972370,-0.233446,0.000000
-9.147756,2.008406,-31.600954,-0.972370,0.233446,0.000000
0.169858,-3.050763,43.827141,0.000000,-0.000000,1.000000
-3.640828,3.882216,19.714030,-0.649448,0.760406,0.000000
-4.231674,2.697368,39.210445,-0.852640,0.522498,0.000000
8.386045,-3.317420,-12.031367,0.923879,-0.382684,0.000000
-3.217740,3.850194,37.994093,-0.649448,0.760406,0.000000
0.565159,-5.288550,15.342976,0.078459,-0.996917,0.000000
-1.953430,4.945498,10.200440,-0.382683,0.923880,0.000000
7.263830,5.913324,-35.672984,0.760406,0.649448,0.000000
-8.535571,3.862244,-28.903917,-0.923880,0.382683,0.000000
4.570733,-2.076543,25.255881,0.923879,-0.382684,0.000000
-0.384167,9.138708,-25.875095,0.000000,0.000000,1.000000
-4.208917,-8.391974,-29.603394,-0.382683,-0.923880,0.000000
5.032981,0.058816,-27.603458,-1.000000,0.000000,0.000000
1.805165,4.683142,35.088235,0.382684,0.923879,-0.000000
-1.784318,-0.627987,39.576905,0.956940,0.290285,0.000000
-0.856072,-1.685220,-41.499387,0.471397,0.881921,-0.000000
1.220597,-1.442985,-6.493225,-0.634393,0.773011,0.000000
-0.361788,-5.004507,26.789040,-0.078459,-0.996917,0.000000
4.205549,2.740000,38.433118,0.852640,0.522498,-0.000000
0.702953,-4.977657,37.060976,0.078459,-0.996917,0.000000
5.170775,1.236619,15.607521,0.972370,0.233446,-0.000000
4.330938,-0.880772,37.042720,0.000000,1.000000,-0.000000
0.910001,-4.941566,41.462298,0.233445,-0.972370,0.000000
-0.662382,9.340680,-38.201495,-0.078459,0.996917,0.000000
9.004587,0.514777,-21.916466,0.996917,0.078459,0.000000
5.032981,-0.691863,8.125206,-1.000000,0.000000,0.000000
-0.666387,1.772670,-34.311455,0.290285,-0.956940,0.000000
4.347625,3.080639,10.472310,0.852640,0.522498,-0.000000
4.296484,3.155783,14.199018,0.760406,0.649448,0.000000
5.065140,7.878268,-42.662740,0.522498,0.852640,0.000000
1.038246,1.587847,17.165057,-0.471397,-0.881921,0.000000
1.866355,0.330693,42.625004,-0.995185,-0.098017,0.000000
5.287296,0.581093,9.671153,0.996917,0.078459,-0.000000
