x,y,z,nx,ny,nz
-0.031397,0.029127,-0.385142,-0.784915,0.000000,-0.619603
0.346729,-0.023264,-0.037607,-0.340711,0.000000,-0.940168
-0.205612,0.035314,0.014136,0.000000,1.000000,0.000000
-0.203565,0.058447,0.022049,-0.994185,0.000000,0.107684
-0.036740,-0.035314,-0.251351,0.000000,-1.000000,0.000000
-0.361872,-0.004844,-0.367782,-0.701356,0.000000,-0.712811
0.352984,-0.027448,0.039315,-0.184334,0.000000,0.982864
0.395792,0.018574,-0.018558,0.885865,0.000000,-0.463943
0.365017,-0.010507,-0.364661,0.707452,0.000000,-0.706762
0.201734,0.056522,-0.035045,0.985244,0.000000,-0.171156
-0.138216,-0.035314,0.281604,0.000000,-1.000000,0.000000
-0.194582,0.195757,-0.063739,-0.950314,0.000000,-0.311294
-0.137044,0.111358,-0.152130,-0.669308,0.000000,-0.742985
-0.039473,0.034529,-0.353883,-0.986814,0.000000,0.161859
-0.102687,-0.035314,-0.377501,0.000000,-1.000000,0.000000
0.417755,-0.030650,-0.302812,0.809666,0.000000,-0.586891
-0.319592,0.035314,0.326824,0.000000,1.000000,0.000000
-0.035575,0.001989,-0.378644,-0.889377,0.000000,-0.457174
-0.183215,0.289228,-0.091415,-0.894802,0.000000,-0.446462
0.311165,0.035314,0.267015,0.000000,1.000000,0.000000
-0.482762,-0.035314,-0.176516,0.000000,-1.000000,0.000000
-0.365646,0.035314,0.169813,0.000000,1.000000,0.000000
0.025907,0.014151,-0.390834,0.647678,0.000000,-0.761914
-0.153499,0.035314,-0.150915,0.000000,1.000000,0.000000
0.031047,-0.027437,-0.335137,0.776185,0.000000,0.630505
-0.279783,-0.031524,-0.433515,-0.542258,0.000000,-0.840212
-0.176993,0.010180,0.484652,-0.343037,0.000000,0.939322
-0.037888,0.174859,0.201219,-0.185042,0.000000,0.982731
0.254110,0.035314,-0.384440,0.000000,1.000000,0.000000
-0.380897,0.035314,0.028258,0.000000,1.000000,0.000000
0.195995,0.012205,0.477284,0.379864,0.000000,0.925042
-0.185735,0.176887,-0.086182,-0.907106,0.000000,-0.420902
0.344524,0.000017,-0.036733,-0.395842,0.000000,-0.918319
0.008327,0.152978,-0.204586,0.040669,0.000000,-0.999173
-0.100393,0.006046,0.506098,-0.194575,0.000000,0.980888
-0.515898,-0.008599,-0.008007,-0.999880,0.000000,-0.015518
-0.198655,0.026730,-0.476183,-0.385021,0.000000,-0.922908
-0.020372,-0.035314,-0.203832,0.000000,-1.000000,0.000000
0.294110,-0.020311,-0.423927,0.570025,0.000000,-0.821628
0.116961,0.035314,0.299746,0.000000,1.000000,0.000000
0.159609,-0.035314,-0.164954,0.000000,-1.000000,0.000000
-0.219807,-0.035314,0.259827,0.000000,-1.000000,0.000000
-0.204419,0.194798,-0.011727,-0.998359,0.000000,-0.057271
0.049076,-0.035314,-0.301205,0.000000,-1.000000,0.000000
-0.337191,0.032282,0.032608,0.579164,0.000000,0.815211
-0.366853,-0.019471,-0.039469,-0.162400,0.000000,-0.986725
-0.140672,-0.035314,0.246033,0.000000,-1.000000,0.000000
0.242238,0.011315,0.455560,0.469489,0.000000,0.882938
0.490406,0.035314,0.024949,0.000000,1.000000,0.000000
0.491477,-0.019978,0.157052,0.952548,0.000000,0.304387
0.359997,-0.035314,0.136632,0.000000,-1.000000,0.000000
-0.157695,0.255349,-0.130602,-0.770163,0.000000,-0.637847
-0.230008,-0.035314,0.388814,0.000000,-1.000000,0.000000
-0.339115,0.005062,-0.033893,0.531063,0.000000,-0.847332
-0.196278,0.201517,-0.058305,-0.958600,0.000000,-0.284757
0.386075,-0.035314,-0.023056,0.000000,-1.000000,0.000000
-0.451866,0.035314,-0.158023,0.000000,1.000000,0.000000
0.398145,-0.025909,0.013118,0.944698,0.000000,0.327940
0.033050,-0.005010,-0.202070,0.161412,0.000000,-0.986887
0.380535,-0.033670,-0.034538,0.504448,0.000000,-0.863442
-0.321339,-0.035314,-0.200123,0.000000,-1.000000,0.000000
-0.383651,-0.010559,0.032518,-0.582329,0.000000,0.812953
-0.013534,-0.035314,-0.358336,0.000000,-1.000000,0.000000
0.074169,-0.035314,0.380762,0.000000,-1.000000,0.000000
0.301686,-0.035314,0.036964,0.000000,-1.000000,0.000000
-0.044328,0.035314,0.225185,0.000000,1.000000,0.000000
-0.189378,0.078258,-0.077850,-0.924900,0.000000,-0.380210
0.206808,-0.035314,-0.357220,0.000000,-1.000000,0.000000
0.247183,0.035314,0.105889,0.000000,1.000000,0.000000
0.055982,-0.035314,-0.430049,0.000000,-1.000000,0.000000
0.077383,-0.035314,0.243159,0.000000,-1.000000,0.000000
-0.340260,0.001881,-0.034584,0.502447,0.000000,-0.864608
-0.400329,0.027301,-0.001494,-0.999302,0.000000,-0.037350
-0.201182,0.111137,-0.038086,-0.982549,0.000000,-0.186006
0.493614,0.007712,-0.150197,0.956692,0.000000,-0.291102
-0.500639,-0.000576,-0.124800,-0.970306,0.000000,-0.241880
-0.034602,-0.031877,-0.380426,-0.865040,0.000000,-0.501703
0.325445,-0.017678,0.019522,-0.872822,0.000000,0.488038
-0.195579,-0.018868,0.477455,-0.379059,0.000000,0.925372
-0.110815,-0.035314,-0.428078,0.000000,-1.000000,0.000000
-0.133178,0.149129,0.155526,-0.650427,0.000000,0.759569
-0.429336,-0.035314,-0.045290,0.000000,-1.000000,0.000000
0.225518,-0.027969,-0.464065,0.437084,0.000000,-0.899421
0.152698,-0.035314,-0.205226,0.000000,-1.000000,0.000000
-0.465818,0.031003,0.221873,-0.902819,0.000000,0.430021
0.038740,0.012546,0.370316,0.968509,0.000000,0.248978
0.387193,0.013215,-0.029662,0.670886,0.000000,-0.741561
0.296851,-0.035314,0.161740,0.000000,-1.000000,0.000000
-0.072256,0.271060,0.191582,-0.352889,0.000000,0.935665
-0.331936,-0.035314,-0.390043,0.000000,-1.000000,0.000000
-0.109077,-0.035314,0.229098,0.000000,-1.000000,0.000000
-0.032598,0.030952,0.383538,-0.814953,0.000000,0.579526
0.120158,0.188127,0.165791,0.586836,0.000000,0.809706
0.301422,-0.035314,-0.004073,0.000000,-1.000000,0.000000
0.175046,0.013373,0.106224,0.854903,0.000000,0.518788
0.058963,-0.035314,-0.221380,0.000000,-1.000000,0.000000
0.513503,-0.032043,0.050286,0.995239,0.000000,0.097460
0.019062,0.144886,0.203866,0.093095,0.000000,0.995657
0.009635,0.005721,-0.399180,0.240866,0.000000,-0.970558
0.149687,-0.023370,0.493769,0.290114,0.000000,0.956992
-0.206517,-0.035314,-0.211751,0.000000,-1.000000,0.000000
-0.352233,-0.035314,0.015224,0.000000,-1.000000,0.000000
0.145777,0.191539,-0.143784,0.711957,0.000000,-0.702224
0.115261,0.035314,0.183342,0.000000,1.000000,0.000000
0.488942,0.025324,0.164771,0.947637,0.000000,0.319350
-0.203924,0.182695,0.018430,-0.995941,0.000000,0.090011
0.167485,0.035314,-0.242914,0.000000,1.000000,0.000000
-0.224487,-0.035314,-0.036954,0.000000,-1.000000,0.000000
-0.454298,0.035314,0.145521,0.000000,1.000000,0.000000
-0.165605,0.022828,-0.120415,-0.808795,0.000000,-0.588091
0.352582,0.028234,0.039237,-0.194396,0.000000,0.980923
-0.201748,0.070482,0.034961,-0.985315,0.000000,0.170747
-0.180244,0.255463,0.097143,-0.880289,0.000000,0.474437
-0.182077,0.086237,0.093661,-0.889245,0.000000,0.457432
0.146477,0.183512,0.143070,0.715378,0.000000,0.698737
0.327411,-0.011776,0.022683,-0.823665,0.000000,0.567077
0.358778,0.035314,0.112673,0.000000,1.000000,0.000000
0.367951,0.035314,-0.093375,0.000000,1.000000,0.000000
-0.312858,-0.035314,-0.206070,0.000000,-1.000000,0.000000
-0.176202,0.035314,-0.119944,0.000000,1.000000,0.000000
-0.084755,0.114143,-0.186390,-0.413936,0.000000,-0.910306
0.047457,0.213769,-0.199180,0.231773,0.000000,-0.972770
-0.120357,0.035314,-0.324040,0.000000,1.000000,0.000000
0.468401,0.035314,-0.196788,0.000000,1.000000,0.000000
0.281423,-0.035314,-0.132410,0.000000,-1.000000,0.000000
-0.335423,-0.035314,0.021508,0.000000,-1.000000,0.000000
-0.493387,0.035314,0.145454,0.000000,1.000000,0.000000
-0.254695,0.035314,0.002680,0.000000,1.000000,0.000000
-0.146963,-0.035314,0.460514,0.000000,-1.000000,0.000000
-0.320578,0.017184,0.004197,0.994480,0.000000,0.104929
-0.140503,-0.013779,0.148942,-0.686198,0.000000,0.727414
-0.239736,-0.023173,-0.456882,-0.464642,0.000000,-0.885499
0.191176,0.273976,0.073325,0.933679,0.000000,0.358112
-0.004397,0.035314,0.368804,0.000000,1.000000,0.000000
-0.013571,-0.035314,-0.405485,0.000000,-1.000000,0.000000
-0.328664,0.033156,-0.024403,0.792336,0.000000,-0.610085
-0.367638,0.016208,0.039332,-0.182015,0.000000,0.983296
0.338299,0.034701,0.033368,-0.551465,0.000000,0.834198
-0.036133,0.027562,-0.201542,-0.176469,0.000000,-0.984306
-0.257944,-0.035314,0.394964,0.000000,-1.000000,0.000000
0.389731,0.011412,0.027151,0.734342,0.000000,0.678779
-0.031742,0.014861,-0.336017,-0.793546,0.000000,0.608511
0.055755,0.035314,0.447065,0.000000,1.000000,0.000000
-0.157363,-0.035314,-0.272393,0.000000,-1.000000,0.000000
-0.311993,-0.035314,-0.030349,0.000000,-1.000000,0.000000
0.243251,-0.035314,-0.038689,0.000000,-1.000000,0.000000
0.246167,0.035314,0.064443,0.000000,1.000000,0.000000
-0.032916,-0.027591,0.383085,-0.822904,0.000000,0.568181
0.124014,0.142382,0.162927,0.605670,0.000000,0.795716
-0.153442,0.000780,0.492615,-0.297392,0.000000,0.954755
-0.089833,-0.035314,0.193098,0.000000,-1.000000,0.000000
0.033491,-0.031635,0.382229,0.837265,0.000000,0.546797
-0.038331,0.032615,-0.371791,-0.958280,0.000000,-0.285830
-0.017968,-0.013686,-0.396095,-0.449206,0.000000,-0.893428
0.079817,0.195133,-0.188558,0.389815,0.000000,-0.920893
0.159404,-0.035314,0.287484,0.000000,-1.000000,0.000000
0.337806,0.035314,-0.099641,0.000000,1.000000,0.000000
0.024353,0.012204,0.392090,0.608814,0.000000,0.793313
-0.454347,-0.035314,-0.156189,0.000000,-1.000000,0.000000
-0.092628,0.035314,-0.218301,0.000000,1.000000,0.000000
0.197643,0.170919,-0.053496,0.965266,0.000000,-0.261269
0.033128,-0.022485,-0.382775,0.828202,0.000000,-0.560430
-0.142114,-0.035314,0.420827,0.000000,-1.000000,0.000000
-0.316904,-0.035314,0.017437,0.000000,-1.000000,0.000000
-0.159772,0.214857,0.128053,-0.780308,0.000000,0.625396
0.320994,0.016511,0.007109,-0.984082,0.000000,0.177715
0.358500,0.022365,-0.039957,-0.046431,0.000000,-0.998922
0.313344,-0.035314,-0.084098,0.000000,-1.000000,0.000000
-0.331812,-0.035314,-0.265503,0.000000,-1.000000,0.000000
-0.338912,-0.003726,-0.033766,0.536126,0.000000,-0.844138
0.200422,0.255711,0.041899,0.978840,0.000000,0.204629
-0.027755,-0.026915,0.389161,-0.693878,0.000000,0.720092
0.270399,0.035314,-0.366716,0.000000,1.000000,0.000000
0.031515,-0.030424,-0.384990,0.787886,0.000000,-0.615821
0.348254,-0.014829,-0.038125,-0.302589,0.000000,-0.953121
0.393203,-0.015030,0.022829,0.821150,0.000000,0.570713
0.342365,0.026231,-0.035725,-0.449817,0.000000,-0.893121
0.161970,0.237191,0.125262,0.791040,0.000000,0.611764
-0.012391,-0.012830,-0.322325,-0.309770,0.000000,0.950811
-0.150171,-0.035314,-0.266697,0.000000,-1.000000,0.000000
-0.422538,-0.035314,-0.090215,0.000000,-1.000000,0.000000
-0.513220,-0.004457,0.053097,-0.994691,0.000000,0.102910
-0.204551,-0.035314,-0.251709,0.000000,-1.000000,0.000000
-0.169174,-0.035314,0.393051,0.000000,-1.000000,0.000000
-0.066048,-0.021845,-0.511715,-0.128010,0.000000,-0.991773
0.157388,0.012801,-0.130972,0.768665,0.000000,-0.639652
-0.257940,0.035314,0.370271,0.000000,1.000000,0.000000
0.284471,-0.018164,0.430454,0.551343,0.000000,0.834278
-0.159415,-0.035314,0.409635,0.000000,-1.000000,0.000000
-0.375758,-0.030577,-0.036917,-0.385005,0.000000,-0.922914
-0.269388,-0.000243,-0.440051,-0.522110,0.000000,-0.852878
0.109798,0.245976,0.172827,0.536241,0.000000,0.844065
-0.021025,-0.035314,-0.294304,0.000000,-1.000000,0.000000
0.331344,-0.016288,0.395507,0.642190,0.000000,0.766546
0.025597,0.002077,-0.391095,0.639926,0.000000,-0.768436
-0.015902,-0.034079,0.323654,-0.397547,0.000000,-0.917582
0.013269,-0.035314,-0.236905,0.000000,-1.000000,0.000000
0.195601,0.227314,-0.060539,0.955292,0.000000,-0.295664
0.178546,0.168712,-0.100229,0.871999,0.000000,-0.489508
-0.270664,-0.035314,-0.271904,0.000000,-1.000000,0.000000
0.093782,-0.035314,-0.230876,0.000000,-1.000000,0.000000
-0.418832,0.003221,0.301320,-0.811754,0.000000,0.584000
0.383993,0.030304,-0.032270,0.590901,0.000000,-0.806744
0.107140,-0.022659,0.504713,0.207651,0.000000,0.978203
-0.320544,0.020605,0.003861,0.995330,0.000000,0.096527
-0.014047,0.004670,-0.322905,-0.351186,0.000000,0.936306
0.112130,-0.035314,0.326382,0.000000,-1.000000,0.000000
0.190710,-0.035314,0.287947,0.000000,-1.000000,0.000000
-0.322982,0.008577,0.014250,0.934387,0.000000,0.356259
0.354683,0.016446,-0.374719,0.687423,0.000000,-0.726257
0.348776,0.033882,0.038287,-0.289530,0.000000,0.957169
0.371172,-0.031487,-0.038510,0.270371,0.000000,-0.962756
0.185785,0.018111,0.086074,0.907350,0.000000,0.420376
0.119117,0.051334,-0.166541,0.581753,0.000000,-0.813365
-0.039954,-0.012985,0.362285,-0.998838,0.000000,0.048195
0.004608,-0.010657,-0.400091,0.115193,0.000000,-0.993343
-0.430495,0.035314,0.143891,0.000000,1.000000,0.000000
-0.483103,0.033882,-0.181178,-0.936320,0.000000,-0.351148
0.315036,-0.035314,-0.042617,0.000000,-1.000000,0.000000
-0.038130,0.031169,-0.348271,-0.953260,0.000000,0.302151
-0.173737,0.083163,0.108352,-0.848511,0.000000,0.529178
0.514628,0.032304,0.037051,0.997418,0.000000,0.071810
0.056576,0.254955,-0.196784,0.276310,0.000000,-0.961068
-0.057767,0.035314,0.304778,0.000000,1.000000,0.000000
-0.204751,0.033574,-0.001251,-0.999981,0.000000,-0.006108
0.505379,-0.003998,-0.103952,0.979494,0.000000,-0.201473
-0.390340,0.035314,-0.175353,0.000000,1.000000,0.000000
-0.504998,-0.007421,0.105790,-0.978755,0.000000,0.205035
0.405749,0.035314,0.052144,0.000000,1.000000,0.000000
0.039822,-0.012693,-0.364125,0.995554,0.000000,-0.094191
0.002715,-0.005619,-0.320450,0.067876,0.000000,0.997694
0.150335,0.145620,-0.139011,0.734216,0.000000,-0.678916
-0.330769,0.035314,0.187074,0.000000,1.000000,0.000000
0.282298,0.035314,0.246863,0.000000,1.000000,0.000000
0.190974,0.097248,0.073848,0.932695,0.000000,0.360667
-0.196633,-0.017232,-0.057099,-0.960330,0.000000,-0.278865
-0.355205,-0.021289,-0.374224,-0.688435,0.000000,-0.725298
0.171894,0.035314,0.291750,0.000000,1.000000,0.000000
0.326019,0.032100,-0.020515,-0.858464,0.000000,-0.512873
0.211412,-0.035314,0.102524,0.000000,-1.000000,0.000000
0.387862,-0.035314,0.280732,0.000000,-1.000000,0.000000
0.456130,0.001742,-0.241164,0.884041,0.000000,-0.467409
0.040006,0.053641,-0.200809,0.195385,0.000000,-0.980727
-0.379145,-0.012162,-0.035313,-0.469679,0.000000,-0.882837
-0.025151,-0.035314,-0.215352,0.000000,-1.000000,0.000000
0.032192,-0.029467,0.336616,0.804799,0.000000,-0.593547
0.334765,-0.028950,-0.030742,-0.639803,0.000000,-0.768539
-0.095427,0.035314,-0.412616,0.000000,1.000000,0.000000
-0.000922,0.017158,-0.320368,-0.023055,0.000000,0.999734
0.399466,-0.033798,-0.008398,0.977714,0.000000,-0.209942
0.320636,0.013402,-0.004716,-0.993025,0.000000,-0.117904
-0.156147,0.213181,-0.132449,-0.762605,0.000000,-0.646864
-0.418983,-0.035314,-0.016876,0.000000,-1.000000,0.000000
0.202665,0.138535,-0.029179,0.989793,0.000000,-0.142509
-0.257253,0.035314,0.072180,0.000000,1.000000,0.000000
0.320169,-0.035314,-0.081189,0.000000,-1.000000,0.000000
0.142336,0.035314,-0.309586,0.000000,1.000000,0.000000
0.385495,-0.010837,-0.031115,0.628434,0.000000,-0.777863
0.423281,0.035314,0.204844,0.000000,1.000000,0.000000
0.143150,0.096447,-0.146399,0.699129,0.000000,-0.714996
0.101093,0.259134,0.178058,0.493728,0.000000,0.869617
-0.095537,0.028325,-0.507038,-0.185163,0.000000,-0.982708
-0.069788,-0.035314,-0.238868,0.000000,-1.000000,0.000000
-0.018906,-0.018723,-0.395608,-0.472638,0.000000,-0.881257
0.204751,-0.013766,0.001243,0.999982,0.000000,0.006071
-0.159590,0.035314,0.243126,0.000000,1.000000,0.000000
0.211583,-0.035314,0.043596,0.000000,-1.000000,0.000000
-0.397275,-0.027704,0.015398,-0.922938,0.000000,0.384948
0.367463,0.006534,-0.039364,0.177651,0.000000,-0.984093
-0.050411,0.254451,0.198453,-0.246199,0.000000,0.969219
-0.090333,0.056085,0.183752,-0.441175,0.000000,0.897421
-0.204737,0.163229,0.002751,-0.999910,0.000000,0.013434
-0.219681,-0.035314,0.402179,0.000000,-1.000000,0.000000
0.020423,-0.003829,-0.394751,0.510580,0.000000,-0.859831
0.376755,-0.025692,-0.036485,0.409936,0.000000,-0.912114
0.097907,-0.035314,0.446854,0.000000,-1.000000,0.000000
0.194635,0.231871,-0.063576,0.950574,0.000000,-0.310499
-0.088123,0.035314,-0.311242,0.000000,1.000000,0.000000
-0.031799,-0.023069,-0.336091,-0.794965,0.000000,0.606655
-0.224573,-0.035314,0.188022,0.000000,-1.000000,0.000000
0.136727,-0.035314,-0.474617,0.000000,-1.000000,0.000000
0.364938,-0.015017,-0.039737,0.114511,0.000000,-0.993422
0.329550,0.019878,0.397002,0.638714,0.000000,0.769445
-0.278253,-0.035314,0.234894,0.000000,-1.000000,0.000000
0.166641,0.013128,0.118977,0.813854,0.000000,0.581070
-0.349843,0.024807,0.038593,0.262857,0.000000,0.964835
0.091168,0.157791,0.183339,0.445253,0.000000,0.895405
0.265039,-0.035314,-0.342838,0.000000,-1.000000,0.000000
-0.004833,-0.030514,-0.320650,-0.120823,0.000000,0.992674
-0.149516,0.035314,0.176034,0.000000,1.000000,0.000000
-0.032961,0.178860,0.202085,-0.160980,0.000000,0.986958
-0.040474,0.238579,-0.200715,-0.197670,0.000000,-0.980269
0.371235,-0.021602,-0.038493,0.271943,0.000000,-0.962313
-0.202408,0.028258,-0.030913,-0.988538,0.000000,-0.150975
0.073442,0.241726,0.191131,0.358680,0.000000,0.933461
0.300355,0.035314,0.266860,0.000000,1.000000,0.000000
-0.236022,-0.035314,-0.412182,0.000000,-1.000000,0.000000
0.003720,-0.018617,0.320531,0.092989,0.000000,-0.995667
-0.336304,-0.035314,0.166688,0.000000,-1.000000,0.000000
-0.328684,-0.035314,-0.122863,0.000000,-1.000000,0.000000
0.398464,0.035314,0.034832,0.000000,1.000000,0.000000
-0.454933,0.035314,0.061489,0.000000,1.000000,0.000000
-0.177907,-0.035314,0.471979,0.000000,-1.000000,0.000000
-0.231498,0.035314,0.004048,0.000000,1.000000,0.000000
-0.181229,-0.035314,-0.135158,0.000000,-1.000000,0.000000
-0.193447,0.192813,-0.067105,-0.944771,0.000000,-0.327733
0.254185,0.035314,-0.023880,0.000000,1.000000,0.000000
-0.047582,0.129876,0.199150,-0.232383,0.000000,0.972624
0.222466,0.028667,-0.465536,0.431169,0.000000,-0.902271
0.188417,-0.035314,0.103249,0.000000,-1.000000,0.000000
-0.291974,0.035314,-0.086222,0.000000,1.000000,0.000000
-0.038907,0.005738,-0.369646,-0.972666,0.000000,-0.232208
0.335249,-0.025450,0.031138,-0.627706,0.000000,0.778450
-0.113915,-0.035314,0.379960,0.000000,-1.000000,0.000000
-0.150571,0.035314,-0.416397,0.000000,1.000000,0.000000
0.115232,0.241294,0.169252,0.562782,0.000000,0.826606
0.146781,0.035314,0.165816,0.000000,1.000000,0.000000
-0.070668,0.035314,0.449701,0.000000,1.000000,0.000000
0.194912,0.238304,0.062721,0.951928,0.000000,0.306322
-0.182892,-0.034063,-0.092060,-0.893225,0.000000,-0.449610
-0.158317,0.128227,0.129848,-0.773201,0.000000,0.634161
-0.102445,0.035314,0.227511,0.000000,1.000000,0.000000
-0.099431,0.275030,-0.178992,-0.485609,0.000000,-0.874176
0.371969,0.029916,-0.038277,0.290301,0.000000,-0.956935
-0.023841,0.011280,0.392476,-0.596035,0.000000,0.802958
0.160109,0.239656,-0.127631,0.781955,0.000000,-0.623335
-0.015924,0.030052,0.397051,-0.398102,0.000000,0.917341
-0.351453,0.034503,-0.038996,0.222605,0.000000,-0.974909
0.320357,-0.032789,-0.000077,-0.999998,0.000000,-0.001929
0.095558,0.257387,0.181089,0.466693,0.000000,0.884419
-0.278271,0.032393,0.434487,-0.539328,0.000000,0.842096
-0.005229,-0.004890,-0.400014,-0.130726,0.000000,-0.991419
0.015498,0.016634,0.397233,0.387457,0.000000,0.921888
-0.066101,0.076651,-0.193792,-0.322831,0.000000,-0.946457
0.143081,0.035314,-0.217931,0.000000,1.000000,0.000000
-0.032579,0.035314,-0.202173,0.000000,1.000000,0.000000
0.398884,0.009382,0.010755,0.963177,0.000000,0.268868
-0.205220,0.035314,0.460219,0.000000,1.000000,0.000000
-0.079431,0.035314,-0.396765,0.000000,1.000000,0.000000
0.195105,0.003690,-0.062119,0.952869,0.000000,-0.303383
-0.006809,0.281024,-0.204642,-0.033256,0.000000,-0.999447
0.365338,0.013058,-0.039689,0.124520,0.000000,-0.992217
0.015079,-0.035314,-0.330795,0.000000,-1.000000,0.000000
0.451065,0.035314,0.236111,0.000000,1.000000,0.000000
-0.312586,0.035314,-0.195861,0.000000,1.000000,0.000000
0.381912,0.005281,0.033696,0.538866,0.000000,0.842391
0.023321,-0.004126,0.327859,0.583026,0.000000,-0.812454
0.088987,0.035314,0.447856,0.000000,1.000000,0.000000
-0.277371,0.035314,0.399822,0.000000,1.000000,0.000000
0.203950,-0.027354,0.018141,0.996067,0.000000,0.088600
0.039585,-0.025866,0.354609,0.989620,0.000000,-0.143709
0.046221,-0.007328,0.199470,0.225736,0.000000,0.974188
-0.036129,0.035314,0.219895,0.000000,1.000000,0.000000
-0.433131,-0.035314,-0.051880,0.000000,-1.000000,0.000000
-0.331466,-0.022170,0.027664,0.722282,0.000000,0.691599
-0.354260,0.029401,0.039533,0.152427,0.000000,0.988315
0.303523,0.035314,0.048616,0.000000,1.000000,0.000000
0.278604,-0.035314,0.182724,0.000000,-1.000000,0.000000
-0.263556,-0.035314,0.012431,0.000000,-1.000000,0.000000
-0.040320,-0.035314,-0.302762,0.000000,-1.000000,0.000000
0.193699,0.035314,-0.179934,0.000000,1.000000,0.000000
-0.379894,-0.035314,0.029647,0.000000,-1.000000,0.000000
0.226583,0.035314,0.064204,0.000000,1.000000,0.000000
0.515959,-0.030438,-0.000572,0.999999,0.000000,-0.001109
-0.059107,-0.035314,0.282319,0.000000,-1.000000,0.000000
0.296533,0.035314,0.375701,0.000000,1.000000,0.000000
-0.037233,-0.035314,0.514041,0.000000,-1.000000,0.000000
-0.013475,-0.035314,-0.240010,0.000000,-1.000000,0.000000
-0.037784,-0.010863,-0.347228,-0.944600,0.000000,0.328223
-0.170340,0.248859,0.113617,-0.831921,0.000000,0.554893
0.299294,0.035314,-0.260210,0.000000,1.000000,0.000000
0.320361,0.021331,-0.000528,-0.999913,0.000000,-0.013209
0.035481,-0.007458,0.378827,0.887013,0.000000,0.461745
-0.040457,-0.006786,-0.514371,-0.078412,0.000000,-0.996921
0.324671,-0.035314,0.271671,0.000000,-1.000000,0.000000
0.037848,0.157505,-0.201227,0.184845,0.000000,-0.982768
0.196139,0.061627,0.058771,0.957922,0.000000,0.287029
-0.331967,0.016133,0.394984,-0.643396,0.000000,0.765533
-0.008286,0.003135,0.321225,-0.207152,0.000000,-0.978309
0.132209,0.035314,-0.233575,0.000000,1.000000,0.000000
0.001529,-0.012008,0.320387,0.038234,0.000000,-0.999269
0.426413,0.035314,0.240492,0.000000,1.000000,0.000000
-0.406243,0.035314,0.299265,0.000000,1.000000,0.000000
0.194988,0.017527,-0.062484,0.952300,0.000000,-0.305163
-0.176054,0.035314,0.262055,0.000000,1.000000,0.000000
-0.342161,0.008298,-0.035621,0.454922,0.000000,-0.890531
0.447491,0.024660,-0.256839,0.867298,0.000000,-0.497789
0.333056,0.009098,-0.029234,-0.682546,0.000000,-0.730843
-0.204042,0.062051,-0.017079,-0.996515,0.000000,-0.083411
-0.071553,-0.035314,0.225413,0.000000,-1.000000,0.000000
0.388583,-0.035314,-0.306705,0.000000,-1.000000,0.000000
0.298788,0.035314,0.268501,0.000000,1.000000,0.000000
0.158903,-0.035314,-0.147562,0.000000,-1.000000,0.000000
0.159564,-0.035314,-0.257971,0.000000,-1.000000,0.000000
0.203794,0.019299,-0.019815,0.995307,0.000000,-0.096772
-0.024221,-0.022658,0.328524,-0.605521,0.000000,-0.795830
-0.507322,-0.029069,0.094012,-0.983260,0.000000,0.182208
0.231196,0.035314,-0.021041,0.000000,1.000000,0.000000
-0.107357,0.035314,-0.487977,0.000000,1.000000,0.000000
-0.352452,0.014567,0.039211,0.197626,0.000000,0.980277
0.265595,0.035314,-0.162886,0.000000,1.000000,0.000000
-0.346859,-0.035314,0.164544,0.000000,-1.000000,0.000000
0.251245,-0.035314,0.081231,0.000000,-1.000000,0.000000
0.030106,0.033372,0.515081,0.058349,0.000000,0.998296
-0.301128,-0.035314,0.001505,0.000000,-1.000000,0.000000
0.068799,0.064310,0.192851,0.336007,0.000000,0.941859
-0.374891,0.035314,0.328094,0.000000,1.000000,0.000000
-0.106070,-0.035314,-0.275345,0.000000,-1.000000,0.000000
-0.321134,0.028114,0.007845,0.980577,0.000000,0.196135
-0.248265,-0.035314,0.385455,0.000000,-1.000000,0.000000
0.311168,-0.035314,0.291688,0.000000,-1.000000,0.000000
0.007004,0.035314,-0.260694,0.000000,1.000000,0.000000
-0.005335,-0.035314,-0.401657,0.000000,-1.000000,0.000000
0.007165,-0.035314,-0.269508,0.000000,-1.000000,0.000000
0.514998,0.018924,-0.031484,0.998136,0.000000,-0.061021
0.321882,0.009501,0.010938,-0.961890,0.000000,0.273438
0.196561,0.146885,0.057344,0.959982,0.000000,0.280063
0.013981,-0.008465,0.397834,0.349534,0.000000,0.936924
0.197027,-0.035314,0.093091,0.000000,-1.000000,0.000000
-0.011642,-0.022353,0.515828,-0.022563,0.000000,0.999745
0.200269,0.020383,-0.475507,0.388149,0.000000,-0.921597
0.508255,0.004959,0.088831,0.985068,0.000000,0.172166
-0.400306,0.004213,0.002037,-0.998703,0.000000,0.050922
-0.073782,0.090619,-0.191000,-0.360343,0.000000,-0.932820
-0.013217,-0.001667,-0.322604,-0.330437,0.000000,0.943828
-0.030300,0.001545,-0.334244,-0.757490,0.000000,0.652846
0.458906,0.035314,-0.178309,0.000000,1.000000,0.000000
-0.387652,0.012714,0.029241,-0.682362,0.000000,0.731014
-0.203791,0.257818,-0.019842,-0.995294,0.000000,-0.096905
0.018430,0.068365,0.203924,0.090011,0.000000,0.995941
-0.213715,-0.035314,-0.197659,0.000000,-1.000000,0.000000
0.021202,0.117131,-0.203654,0.103549,0.000000,-0.994624
-0.035862,0.035314,-0.359503,0.000000,1.000000,0.000000
0.058442,-0.035314,-0.207424,0.000000,-1.000000,0.000000
-0.019583,-0.030261,0.395236,-0.489567,0.000000,0.871966
0.079104,-0.035314,-0.204522,0.000000,-1.000000,0.000000
0.074080,0.035314,0.447884,0.000000,1.000000,0.000000
0.361390,0.004812,0.039987,0.025807,0.000000,0.999667
-0.353868,-0.026722,-0.039470,0.162247,0.000000,-0.986750
-0.196376,-0.035314,-0.333457,0.000000,-1.000000,0.000000
0.496877,-0.004624,0.139024,0.963015,0.000000,0.269448
0.400318,-0.023594,-0.001769,0.999022,0.000000,-0.044223
0.032359,-0.034036,-0.336843,0.808966,0.000000,0.587856
-0.003011,-0.014869,0.400244,-0.075274,0.000000,0.997163
-0.397540,0.027254,-0.014746,-0.929568,0.000000,-0.368651
-0.379116,0.014269,0.035328,-0.468975,0.000000,0.883211
0.021730,0.000095,-0.393940,0.543258,0.000000,-0.839566
0.028501,0.008826,-0.332292,0.712527,0.000000,0.701644
0.037463,-0.001362,0.346340,0.936586,0.000000,-0.350438
0.221667,0.035314,0.061565,0.000000,1.000000,0.000000
0.334843,-0.014020,-0.030806,-0.637866,0.000000,-0.770147
0.036287,0.004852,0.343528,0.907180,0.000000,-0.420743
-0.204755,-0.025797,-0.000262,-0.999999,0.000000,-0.001282
-0.318058,-0.035314,-0.405207,0.000000,-1.000000,0.000000
-0.222020,-0.035314,0.272048,0.000000,-1.000000,0.000000
-0.215329,-0.035314,0.428760,0.000000,-1.000000,0.000000
-0.203083,0.043822,0.026117,-0.991832,0.000000,0.127554
-0.410144,0.035314,-0.122057,0.000000,1.000000,0.000000
-0.387537,-0.008812,-0.029348,-0.679486,0.000000,-0.733688
0.059800,-0.030571,0.512483,0.115900,0.000000,0.993261
-0.204345,0.117596,0.012949,-0.997998,0.000000,0.063239
0.145497,0.152395,-0.144067,0.710588,0.000000,-0.703608
0.245276,0.035314,-0.311091,0.000000,1.000000,0.000000
-0.080276,0.134968,0.188363,-0.392058,0.000000,0.919941
0.010907,0.035314,-0.267756,0.000000,1.000000,0.000000
0.092082,0.149834,-0.182881,0.449718,0.000000,-0.893171
0.126926,-0.035314,-0.271541,0.000000,-1.000000,0.000000
0.232237,0.035314,0.031056,0.000000,1.000000,0.000000
0.218670,0.035314,0.252549,0.000000,1.000000,0.000000
0.202340,0.242090,-0.031359,0.988203,0.000000,-0.153152
-0.125965,0.035314,0.422549,0.000000,1.000000,0.000000
-0.018890,-0.010200,0.395616,-0.472259,0.000000,0.881460
0.072528,0.035314,-0.317048,0.000000,1.000000,0.000000
-0.416051,-0.035314,0.041671,0.000000,-1.000000,0.000000
0.245298,-0.035314,0.327826,0.000000,-1.000000,0.000000
0.030717,0.015891,0.334736,0.767932,0.000000,-0.640531
0.034993,-0.016205,0.340979,0.874815,0.000000,-0.484456
0.136525,0.148511,-0.152596,0.666774,0.000000,-0.745260
0.382624,0.035314,-0.087911,0.000000,1.000000,0.000000
-0.038716,0.005668,0.370410,-0.967907,0.000000,0.251307
-0.400357,0.003309,-0.000074,-0.999998,0.000000,-0.001840
0.376378,-0.035314,-0.138602,0.000000,-1.000000,0.000000
0.008661,0.019369,0.321306,0.216515,0.000000,-0.976279
0.350624,-0.013126,0.038798,-0.243332,0.000000,0.969943
0.071832,0.011153,0.510935,0.139219,0.000000,0.990262
0.321018,-0.002656,0.007238,-0.983490,0.000000,0.180962
-0.295412,-0.035314,0.037447,0.000000,-1.000000,0.000000
0.353195,0.026534,0.376122,0.684539,0.000000,0.728976
0.188261,0.285431,0.080513,0.919446,0.000000,0.393216
-0.037786,0.012769,0.373479,-0.944661,0.000000,0.328049
-0.397995,0.035314,-0.066484,0.000000,1.000000,0.000000
-0.141160,0.144171,-0.148319,-0.689407,0.000000,-0.724374
0.380822,-0.035314,-0.060053,0.000000,-1.000000,0.000000
0.285784,-0.035314,0.411772,0.000000,-1.000000,0.000000
-0.270722,-0.016479,0.439231,-0.524697,0.000000,0.851289
-0.365908,0.032858,0.039613,-0.138772,0.000000,0.990324
-0.111950,-0.035314,0.441396,0.000000,-1.000000,0.000000
-0.242029,-0.011316,0.455671,-0.469085,0.000000,0.883153
-0.018126,0.015682,-0.324700,-0.453145,0.000000,0.891437
-0.053612,0.111281,0.197612,-0.261835,0.000000,0.965113
-0.001463,-0.029015,0.320384,-0.036563,0.000000,-0.999331
-0.151996,-0.035314,-0.146663,0.000000,-1.000000,0.000000
0.320666,-0.028842,0.004958,-0.992287,0.000000,0.123961
-0.019955,-0.035314,0.301599,0.000000,-1.000000,0.000000
-0.365400,0.016922,0.039681,-0.126074,0.000000,0.992021
0.023555,-0.009648,0.392686,0.588871,0.000000,0.808227
0.004718,-0.025028,-0.320637,0.117953,0.000000,0.993019
0.245589,0.035314,-0.313229,0.000000,1.000000,0.000000
0.515356,0.020925,0.024960,0.998829,0.000000,0.048377
-0.285064,0.035314,-0.368197,0.000000,1.000000,0.000000
0.023102,-0.000203,-0.327703,0.577554,0.000000,0.816353
0.305837,0.035314,-0.041516,0.000000,1.000000,0.000000
-0.195702,-0.013386,-0.060213,-0.955783,0.000000,-0.294073
-0.162695,0.035314,-0.392320,0.000000,1.000000,0.000000
-0.098802,0.035314,0.296026,0.000000,1.000000,0.000000
-0.397885,0.016591,0.013844,-0.938197,0.000000,0.346101
0.366022,-0.035314,-0.282589,0.000000,-1.000000,0.000000
-0.182260,0.112744,0.093306,-0.890136,0.000000,0.455695
0.129857,0.035314,-0.345172,0.000000,1.000000,0.000000
-0.116261,0.035314,-0.347988,0.000000,1.000000,0.000000
0.036766,0.157601,0.201427,0.179562,0.000000,0.983747
0.343366,-0.031289,0.036212,-0.424789,0.000000,0.905292
0.010321,-0.017410,0.515856,0.020004,0.000000,0.999800
0.020578,0.189883,-0.203718,0.100500,0.000000,-0.994937
-0.036863,0.024613,-0.375884,-0.921587,0.000000,-0.388172
-0.461771,-0.035314,-0.013649,0.000000,-1.000000,0.000000
-0.003020,0.035314,0.356967,0.000000,1.000000,0.000000
0.035826,0.035314,0.471503,0.000000,1.000000,0.000000
0.487765,-0.017518,0.168226,0.945354,0.000000,0.326045
0.242115,-0.035314,0.147521,0.000000,-1.000000,0.000000
0.033139,0.033184,-0.337956,0.828464,0.000000,0.560042
-0.150057,-0.035314,0.384797,0.000000,-1.000000,0.000000
-0.039984,0.027173,0.361498,-0.999593,0.000000,0.028519
-0.302341,-0.035314,0.150645,0.000000,-1.000000,0.000000
-0.217972,0.035314,-0.023681,0.000000,1.000000,0.000000
-0.028127,-0.007364,-0.388798,-0.703174,0.000000,-0.711018
-0.067221,-0.035314,-0.451710,0.000000,-1.000000,0.000000
0.156086,-0.035314,-0.138172,0.000000,-1.000000,0.000000
-0.074627,0.031450,0.190671,-0.364470,0.000000,0.931215
-0.394900,-0.026001,-0.020169,-0.863566,0.000000,-0.504237
0.114868,0.035314,0.283420,0.000000,1.000000,0.000000
0.041374,0.290326,-0.200532,0.202064,0.000000,-0.979372
-0.038573,0.284677,0.201089,-0.188386,0.000000,0.982095
-0.204589,0.111075,0.008238,-0.999190,0.000000,0.040235
0.220471,-0.035314,-0.001464,0.000000,-1.000000,0.000000
-0.216955,0.035314,0.399324,0.000000,1.000000,0.000000
0.021100,0.218729,0.203665,0.103052,0.000000,0.994676
-0.007917,-0.005708,-0.321149,-0.197924,0.000000,0.980217
0.339351,0.035314,0.363939,0.000000,1.000000,0.000000
0.458715,0.035314,-0.123793,0.000000,1.000000,0.000000
-0.405888,-0.035314,-0.210014,0.000000,-1.000000,0.000000
-0.005161,0.021587,0.320692,-0.129019,0.000000,-0.991642
0.072000,0.254497,0.191679,0.351640,0.000000,0.936135
0.369415,-0.034105,0.038961,0.226451,0.000000,0.974022
-0.397184,0.001939,-0.015614,-0.920664,0.000000,-0.390356
-0.217498,0.009648,-0.467877,-0.421541,0.000000,-0.906809
-0.320598,0.029813,0.004377,0.993996,0.000000,0.109420
0.131956,-0.035314,-0.214930,0.000000,-1.000000,0.000000
0.159373,0.201759,0.128549,0.778358,0.000000,0.627820
-0.259984,0.035314,0.259270,0.000000,1.000000,0.000000
0.188744,0.035314,-0.200297,0.000000,1.000000,0.000000
0.447606,0.035314,0.186684,0.000000,1.000000,0.000000
0.204679,0.142200,-0.005594,0.999627,0.000000,-0.027321
0.039811,0.006400,0.356474,0.995277,0.000000,-0.097073
-0.411497,-0.035314,0.128922,0.000000,-1.000000,0.000000
-0.297266,0.035314,-0.081300,0.000000,1.000000,0.000000
-0.222863,0.035314,0.452466,0.000000,1.000000,0.000000
-0.367070,-0.001645,0.039433,-0.167821,0.000000,0.985817
-0.485701,0.026427,-0.174094,-0.941355,0.000000,-0.337418
0.034980,0.004518,0.340956,0.874494,0.000000,-0.485037
-0.391711,-0.033378,0.024838,-0.783841,0.000000,0.620961
0.028894,0.265601,0.202706,0.141116,0.000000,0.989993
0.017836,0.029534,-0.324554,0.445888,0.000000,0.895089
-0.093761,-0.024789,-0.507369,-0.181721,0.000000,-0.983350
0.499481,0.024897,-0.129355,0.968063,0.000000,-0.250708
0.039882,-0.000851,0.357289,0.997054,0.000000,-0.076700
0.130952,0.035314,-0.371106,0.000000,1.000000,0.000000
0.026253,-0.020088,-0.390536,0.656329,0.000000,-0.754474
0.345253,-0.033843,-0.037038,-0.377618,0.000000,-0.925962
-0.199429,0.110572,0.046398,-0.973988,0.000000,0.226602
0.115549,0.174739,-0.169036,0.564329,0.000000,-0.825550
-0.024940,0.000964,-0.391631,-0.623491,0.000000,-0.781831
0.354060,-0.035314,-0.026776,0.000000,-1.000000,0.000000
-0.346966,-0.035314,-0.332446,0.000000,-1.000000,0.000000
-0.278388,-0.035314,-0.374331,0.000000,-1.000000,0.000000
0.092916,0.035314,0.488050,0.000000,1.000000,0.000000
-0.371508,-0.024114,-0.038414,-0.278762,0.000000,-0.960360
0.193808,0.035314,-0.207396,0.000000,1.000000,0.000000
0.162867,0.025040,0.489580,0.315658,0.000000,0.948873
0.493205,0.004387,-0.151537,0.955898,0.000000,-0.293700
0.116801,-0.010918,-0.168173,0.570444,0.000000,-0.821337
0.057137,-0.035314,0.471359,0.000000,-1.000000,0.000000
0.324195,0.010682,0.017097,-0.904054,0.000000,0.427418
-0.267297,-0.035314,-0.052995,0.000000,-1.000000,0.000000
0.197207,0.012777,0.055083,0.963134,0.000000,0.269020
-0.396756,0.028306,-0.016588,-0.909962,0.000000,-0.414691
-0.395126,0.016865,-0.331798,-0.765808,0.000000,-0.643069
0.018186,0.014156,0.324731,0.454653,0.000000,-0.890669
0.018374,0.010817,0.324827,0.459361,0.000000,-0.888250
-0.034397,-0.021953,0.339940,-0.859914,0.000000,-0.510440
-0.367698,0.005775,0.039321,-0.183503,0.000000,0.983019
-0.361771,0.014190,0.039975,-0.035348,0.000000,0.999375
-0.513583,-0.024820,0.049466,-0.995394,0.000000,0.095873
-0.047578,-0.025590,0.199151,-0.232365,0.000000,0.972629
0.359395,-0.005370,-0.039988,-0.024054,0.000000,-0.999711
0.421422,-0.035314,-0.200909,0.000000,-1.000000,0.000000
0.039856,0.019592,0.363744,0.996409,0.000000,0.084676
-0.028586,0.029336,0.515167,-0.055404,0.000000,0.998464
-0.180460,0.211457,0.096742,-0.881344,0.000000,0.472474
-0.023477,0.003079,0.327972,-0.586930,0.000000,-0.809638
-0.062655,0.141321,0.194933,-0.305999,0.000000,0.952032
-0.218655,0.035314,-0.169504,0.000000,1.000000,0.000000
0.362481,-0.004737,0.039944,0.053083,0.000000,0.998590
-0.330259,0.035314,-0.078042,0.000000,1.000000,0.000000
0.242638,-0.035314,0.011819,0.000000,-1.000000,0.000000
-0.326540,0.020277,-0.021364,0.845428,0.000000,-0.534089
0.264701,-0.035314,0.121356,0.000000,-1.000000,0.000000
-0.044387,0.035314,0.237711,0.000000,1.000000,0.000000
-0.007146,0.017222,0.399714,-0.178653,0.000000,0.983912
0.029128,0.087888,-0.202673,0.142259,0.000000,-0.989829
0.034090,-0.032396,0.339432,0.852256,0.000000,-0.523125
-0.211882,0.035314,-0.424181,0.000000,1.000000,0.000000
0.261549,-0.026574,0.444754,0.506918,0.000000,0.861994
0.423758,-0.035314,0.159435,0.000000,-1.000000,0.000000
-0.182837,0.217452,0.092169,-0.892956,0.000000,0.450144
-0.011081,0.009721,0.204455,-0.054117,0.000000,0.998535
-0.008658,0.011683,0.399409,-0.216457,0.000000,0.976292
0.479487,-0.035314,-0.017322,0.000000,-1.000000,0.000000
-0.209023,0.035314,-0.004701,0.000000,1.000000,0.000000
-0.038886,-0.011978,0.350985,-0.972159,0.000000,-0.234321
-0.277656,-0.008704,-0.434881,-0.538135,0.000000,-0.842859
0.112124,0.009953,-0.503629,0.217311,0.000000,-0.976102
0.141348,0.035314,-0.169006,0.000000,1.000000,0.000000
-0.004287,0.018838,-0.320588,-0.107185,0.000000,0.994239
0.124059,-0.035314,0.400704,0.000000,-1.000000,0.000000
0.174495,0.200189,0.107126,0.852214,0.000000,0.523193
0.319102,-0.029754,-0.405448,0.618463,0.000000,-0.785814
0.141352,-0.035314,-0.250557,0.000000,-1.000000,0.000000
-0.059674,-0.035314,0.243041,0.000000,-1.000000,0.000000
-0.181204,0.055225,-0.095341,-0.884978,0.000000,-0.465633
-0.204608,0.236258,0.007767,-0.999280,0.000000,0.037934
-0.360983,-0.035314,0.035365,0.000000,-1.000000,0.000000
-0.400356,0.015910,-0.000375,-0.999956,0.000000,-0.009368
-0.012503,0.118563,-0.204373,-0.061062,0.000000,-0.998134
-0.028375,0.054367,0.202780,-0.138579,0.000000,0.990351
0.447898,0.035314,-0.092045,0.000000,1.000000,0.000000
0.013996,0.226901,0.204276,0.068354,0.000000,0.997661
-0.181097,0.011255,0.095543,-0.884457,0.000000,0.466621
0.014998,0.173888,-0.204205,0.073248,0.000000,-0.997314
0.362446,-0.024057,0.039945,0.052224,0.000000,0.998635
0.470452,0.017087,-0.211872,0.911799,0.000000,-0.410636
0.218536,-0.035314,0.043179,0.000000,-1.000000,0.000000
0.399699,0.035314,-0.169233,0.000000,1.000000,0.000000
0.042943,0.033909,-0.200201,0.209728,0.000000,-0.977760
-0.169759,0.002936,-0.114484,-0.829081,0.000000,-0.559129
0.436907,0.035314,-0.108559,0.000000,1.000000,0.000000
-0.199950,0.035314,0.194582,0.000000,1.000000,0.000000
0.158409,0.174462,0.129735,0.773653,0.000000,0.633609
-0.037629,-0.023124,-0.346791,-0.940732,0.000000,0.339152
-0.110060,-0.035314,0.207876,0.000000,-1.000000,0.000000
0.344677,-0.007418,0.036798,-0.392008,0.000000,0.919962
0.259015,0.001576,0.446235,0.502006,0.000000,0.864864
0.214012,0.035314,0.214419,0.000000,1.000000,0.000000
0.348414,-0.007051,0.038175,-0.298580,0.000000,0.954385
0.070407,0.172199,0.192269,0.343858,0.000000,0.939022
0.220362,-0.035314,-0.354350,0.000000,-1.000000,0.000000
0.288142,-0.035314,0.325339,0.000000,-1.000000,0.000000
0.203618,0.035314,-0.040062,0.000000,1.000000,0.000000
-0.007064,0.003895,-0.399729,-0.176607,0.000000,-0.984281
0.173192,0.035314,-0.185470,0.000000,1.000000,0.000000
-0.335947,0.005529,-0.031688,0.610254,0.000000,-0.792206
-0.388278,-0.035314,0.148316,0.000000,-1.000000,0.000000
-0.453693,-0.017075,-0.245718,-0.879318,0.000000,-0.476235
0.130416,0.161811,-0.157849,0.636937,0.000000,-0.770916
0.184323,-0.035314,-0.269855,0.000000,-1.000000,0.000000
-0.380438,0.030614,0.034594,-0.502010,0.000000,0.864862
-0.251434,0.035314,0.099276,0.000000,1.000000,0.000000
-0.285111,0.035314,0.072463,0.000000,1.000000,0.000000
-0.396386,-0.026525,0.017376,-0.900725,0.000000,0.434390
0.204598,0.279548,0.008028,0.999231,0.000000,0.039208
0.511169,0.004105,-0.070146,0.990715,0.000000,-0.135952
-0.011997,0.012670,0.398516,-0.299920,0.000000,0.953964
0.169149,0.271748,-0.115383,0.826106,0.000000,-0.563515
-0.235414,0.035314,0.221266,0.000000,1.000000,0.000000
0.117290,0.035314,0.311834,0.000000,1.000000,0.000000
0.230956,0.022539,0.461382,0.447624,0.000000,0.894222
-0.028991,-0.031355,-0.387917,-0.724771,0.000000,-0.688990
0.398668,0.009808,-0.327533,0.772673,0.000000,-0.634804
-0.321249,0.030951,0.008399,0.977708,0.000000,0.209970
0.507221,0.003679,0.094556,0.983064,0.000000,0.183263
-0.295684,0.035314,0.271200,0.000000,1.000000,0.000000
0.317763,-0.005638,0.406498,0.615869,0.000000,0.787849
0.211443,-0.035314,0.382406,0.000000,-1.000000,0.000000
-0.217590,0.035314,-0.321266,0.000000,1.000000,0.000000
-0.453934,-0.034443,0.245271,-0.879787,0.000000,0.475368
0.408586,0.035314,-0.025581,0.000000,1.000000,0.000000
0.300154,-0.035314,0.359683,0.000000,-1.000000,0.000000
0.484758,0.035314,0.069197,0.000000,1.000000,0.000000
-0.017859,-0.035314,-0.384790,0.000000,-1.000000,0.000000
0.212200,-0.035314,0.405638,0.000000,-1.000000,0.000000
-0.093789,-0.021795,-0.507364,-0.181776,0.000000,-0.983340
0.360794,0.012078,0.039998,0.010913,0.000000,0.999940
-0.447813,0.035314,0.012782,0.000000,1.000000,0.000000
-0.204182,0.288778,-0.015305,-0.997203,0.000000,-0.074747
-0.015510,0.018023,0.397228,-0.387738,0.000000,0.921770
0.193604,0.030387,-0.066649,0.945540,0.000000,-0.325506
0.038727,0.005263,-0.350346,0.968175,0.000000,0.250273
0.397843,0.001533,0.013959,0.937132,0.000000,0.348976
-0.343389,-0.031755,0.385095,-0.665534,0.000000,0.746367
-0.356846,-0.025148,-0.039846,0.087783,0.000000,-0.996140
0.035329,0.006810,0.379116,0.883223,0.000000,0.468953
0.484037,-0.035314,-0.042860,0.000000,-1.000000,0.000000
-0.057375,0.241993,0.196552,-0.280213,0.000000,0.959938
-0.143185,-0.035314,0.234975,0.000000,-1.000000,0.000000
0.015663,-0.018826,0.323551,0.391563,0.000000,-0.920151
0.151466,0.120871,0.137778,0.739740,0.000000,0.672893
0.371392,-0.025820,-0.358165,0.719809,0.000000,-0.694172
-0.172605,0.227873,-0.110147,-0.842981,0.000000,-0.537943
0.204157,0.189592,-0.015644,0.997077,0.000000,-0.076404
-0.014447,-0.030831,-0.397657,-0.361173,0.000000,-0.932499
-0.325605,-0.021641,0.019806,0.868810,0.000000,0.495146
-0.155829,0.016196,0.132824,-0.761048,0.000000,0.648695
-0.263203,-0.005274,0.443777,-0.510124,0.000000,0.860101
-0.115788,-0.021823,-0.168872,-0.565497,0.000000,-0.824750
-0.356895,-0.033804,-0.039850,0.086565,0.000000,-0.996246
-0.395757,-0.018328,0.018623,-0.885002,0.000000,0.465586
0.353614,0.034761,-0.039428,-0.168580,0.000000,-0.985688
0.435247,0.007639,-0.277081,0.843569,0.000000,-0.537022
0.260072,-0.035314,0.254310,0.000000,-1.000000,0.000000
0.505114,0.007763,-0.105236,0.978979,0.000000,-0.203961
0.488712,0.000209,-0.165454,0.947190,0.000000,-0.320672
-0.193713,0.035314,0.342683,0.000000,1.000000,0.000000
-0.370297,-0.020985,0.359297,-0.717686,0.000000,0.696367
-0.181548,-0.023211,-0.482964,-0.351865,0.000000,-0.936051
0.509538,0.023074,0.081148,0.987555,0.000000,0.157276
-0.397189,0.024926,-0.015602,-0.920788,0.000000,-0.390062
-0.232839,0.035314,0.042139,0.000000,1.000000,0.000000
-0.075721,0.035314,-0.372866,0.000000,1.000000,0.000000
0.016813,0.088573,-0.204064,0.082110,0.000000,-0.996623
0.122105,-0.035314,-0.259998,0.000000,-1.000000,0.000000
-0.021332,0.147270,0.203641,-0.104182,0.000000,0.994558
0.005565,-0.014428,0.320746,0.139126,0.000000,-0.990275
-0.323387,-0.029421,0.015269,0.924271,0.000000,0.381737
0.082702,0.035314,-0.501691,0.000000,1.000000,0.000000
0.046847,0.035314,0.239917,0.000000,1.000000,0.000000
0.012229,-0.006369,0.398442,0.305729,0.000000,0.952118
-0.195512,0.167811,0.060825,-0.954858,0.000000,0.297062
-0.257985,-0.035314,-0.130564,0.000000,-1.000000,0.000000
0.392371,0.000648,-0.023982,0.800339,0.000000,-0.599548
-0.001649,-0.034587,-0.320391,-0.041235,0.000000,0.999149
-0.021432,0.019448,0.203630,-0.104672,0.000000,0.994507
-0.103709,0.035314,0.386977,0.000000,1.000000,0.000000
0.322240,0.035314,0.293027,0.000000,1.000000,0.000000
-0.139502,0.275552,-0.149880,-0.681310,0.000000,-0.731995
-0.388962,-0.009464,-0.027960,-0.715120,0.000000,-0.699001
0.383730,0.035314,-0.298108,0.000000,1.000000,0.000000
-0.262173,0.035314,0.132781,0.000000,1.000000,0.000000
-0.195137,0.154738,0.062019,-0.953024,0.000000,0.302894
-0.320481,0.013917,0.003148,0.996898,0.000000,0.078702
-0.259019,0.035314,0.126787,0.000000,1.000000,0.000000
-0.176842,-0.035314,-0.329077,0.000000,-1.000000,0.000000
-0.031574,0.017826,-0.335800,-0.789356,0.000000,0.613936
0.039161,0.006931,-0.368507,0.979024,0.000000,-0.203743
0.030021,-0.034401,0.333923,0.750516,0.000000,-0.660852
-0.400292,0.025032,-0.002283,-0.998370,0.000000,-0.057081
0.024318,0.031950,0.203306,0.118768,0.000000,0.992922
0.099785,0.035314,0.186633,0.000000,1.000000,0.000000
0.203793,0.197860,-0.019825,0.995302,0.000000,-0.096821
-0.204108,0.136225,-0.016261,-0.996841,0.000000,-0.079419
-0.241457,0.035314,0.239510,0.000000,1.000000,0.000000
0.339824,0.009773,0.034328,-0.513335,0.000000,0.858188
0.149469,0.106491,0.139942,0.729989,0.000000,0.683459
-0.498090,-0.035314,0.070038,0.000000,-1.000000,0.000000
0.027472,-0.018507,-0.389431,0.686809,0.000000,-0.726838
-0.353738,0.035314,0.305283,0.000000,1.000000,0.000000
-0.203362,0.110336,0.023847,-0.993195,0.000000,0.116465
-0.014136,-0.002754,0.397776,-0.353388,0.000000,0.935477
-0.005447,0.035314,-0.515053,0.000000,1.000000,0.000000
0.202719,-0.035314,0.246129,0.000000,-1.000000,0.000000
0.298361,0.035314,0.166084,0.000000,1.000000,0.000000
-0.216409,0.035314,0.272732,0.000000,1.000000,0.000000
-0.246091,0.021453,0.453490,-0.476958,0.000000,0.878926
0.124610,0.035314,-0.274823,0.000000,1.000000,0.000000
-0.497839,0.035314,0.063066,0.000000,1.000000,0.000000
-0.197012,0.114144,0.055777,-0.962182,0.000000,0.272407
0.414753,-0.035314,-0.049354,0.000000,-1.000000,0.000000
-0.262004,0.035314,0.247347,0.000000,1.000000,0.000000
-0.024361,-0.035314,0.395363,0.000000,-1.000000,0.000000
0.343963,0.014623,0.036486,-0.409866,0.000000,0.912146
-0.321466,0.022651,0.009353,0.972281,0.000000,0.233816
-0.462231,-0.035314,0.143866,0.000000,-1.000000,0.000000
0.189566,0.157546,-0.077392,0.925816,0.000000,-0.377973
0.037630,0.034495,-0.346794,0.940759,0.000000,0.339077
0.289150,-0.014455,0.427325,0.560412,0.000000,0.828214
-0.030648,0.004637,0.334653,-0.766192,0.000000,-0.642611
-0.106266,-0.035314,0.495135,0.000000,-1.000000,0.000000
-0.204740,0.095350,0.002482,-0.999927,0.000000,0.012120
-0.106152,-0.003875,-0.504922,-0.205736,0.000000,-0.978608
0.385846,0.027461,0.030827,0.637224,0.000000,0.770679
0.056025,-0.016515,0.512909,0.108584,0.000000,0.994087
0.025788,-0.032640,-0.329780,0.644695,0.000000,0.764440
-0.035107,-0.017605,-0.379528,-0.877672,0.000000,-0.479261
-0.215048,-0.035314,0.252468,0.000000,-1.000000,0.000000
0.012911,-0.009672,0.398216,0.322780,0.000000,0.946474
0.002533,0.003405,-0.515953,0.004910,0.000000,-0.999988
-0.031806,-0.034414,-0.336101,-0.795160,0.000000,0.606400
0.393822,0.024563,0.021912,0.836612,0.000000,0.547797
-0.329126,0.035314,-0.228834,0.000000,1.000000,0.000000
-0.025924,-0.005820,0.329895,-0.648105,0.000000,-0.761551
-0.342532,-0.035314,-0.327262,0.000000,-1.000000,0.000000
-0.209827,-0.035314,-0.029828,0.000000,-1.000000,0.000000
0.283648,0.035314,-0.316109,0.000000,1.000000,0.000000
0.388279,-0.028676,-0.028642,0.698041,0.000000,-0.716058
0.203786,0.254653,0.019901,0.995265,0.000000,0.097194
0.066050,0.035029,0.511715,0.128014,0.000000,0.991772
-0.265130,-0.035314,0.005775,0.000000,-1.000000,0.000000
-0.126991,0.157910,0.160618,-0.620208,0.000000,0.784437
-0.171720,0.175824,0.111521,-0.838661,0.000000,0.544653
0.152083,0.026901,0.137097,0.742754,0.000000,0.669564
-0.032952,0.034127,0.202086,-0.160932,0.000000,0.986966
-0.487564,0.025095,0.168807,-0.944965,0.000000,0.327170
-0.233203,0.035314,-0.314176,0.000000,1.000000,0.000000
0.035740,0.035314,0.242981,0.000000,1.000000,0.000000
-0.309831,-0.035314,-0.039212,0.000000,-1.000000,0.000000
0.068384,-0.013689,0.511408,0.132537,0.000000,0.991178
0.180697,0.146894,0.096298,0.882503,0.000000,0.470307
0.389191,0.022067,-0.027724,0.720840,0.000000,-0.693102
-0.203803,0.240257,0.019728,-0.995348,0.000000,0.096347
-0.033120,-0.003298,-0.337929,-0.828005,0.000000,0.560721
-0.000064,0.003641,0.400357,-0.001588,0.000000,0.999999
0.038875,-0.033091,0.350936,0.971869,0.000000,-0.235523
-0.477602,-0.035314,0.161141,0.000000,-1.000000,0.000000
-0.369504,0.002049,-0.038940,-0.228670,0.000000,-0.973504
0.249286,-0.035314,0.100807,0.000000,-1.000000,0.000000
0.362973,0.035314,0.366125,0.000000,1.000000,0.000000
-0.379076,0.018596,-0.035350,-0.467977,0.000000,-0.883741
0.063445,0.035314,-0.279993,0.000000,1.000000,0.000000
0.001377,0.233019,0.204751,0.006726,0.000000,0.999977
-0.398668,-0.035314,-0.022594,0.000000,-1.000000,0.000000
-0.341930,0.035314,0.131285,0.000000,1.000000,0.000000
0.259137,0.035314,0.028990,0.000000,1.000000,0.000000
0.033885,-0.001202,-0.339101,0.847121,0.000000,0.531401
-0.196513,0.178115,0.057508,-0.959749,0.000000,0.280861
0.470895,-0.000821,-0.210884,0.912659,0.000000,-0.408722
-0.288957,0.035314,0.140040,0.000000,1.000000,0.000000
0.090570,0.277561,-0.183635,0.442333,0.000000,-0.896851
-0.504175,0.035314,0.081526,0.000000,1.000000,0.000000
0.452122,0.035314,-0.238559,0.000000,1.000000,0.000000
-0.464457,0.009224,0.224709,-0.900181,0.000000,0.435516
0.316916,0.035314,0.182541,0.000000,1.000000,0.000000
0.194332,0.260580,0.064496,0.949096,0.000000,0.314988
0.255060,0.035314,-0.244375,0.000000,1.000000,0.000000
0.201325,-0.031742,-0.475061,0.390195,0.000000,-0.920732
-0.187880,0.264854,0.081398,-0.917586,0.000000,0.397538
