x,y,z,nx,ny,nz
-8.226147,-4.259232,-11.454597,-0.852640,-0.522498,-0.000000
7.477912,5.471011,-6.767813,0.760406,0.649448,0.000000
-7.236444,5.753733,-11.469049,-0.760406,0.649448,0.000000
4.590620,-3.709241,20.174316,0.760406,-0.649448,0.000000
-11.387685,-3.237666,-20.068150,-0.972370,-0.233446,0.000000
-0.964261,11.789549,-23.087835,-0.078459,0.996917,0.000000
0.130574,-2.323342,17.050860,-0.098018,0.995185,0.000000
-3.131363,-5.000424,24.556742,-0.522499,-0.852640,0.000000
9.255477,0.158552,-4.236020,0.996917,0.078459,0.000000
-1.668700,8.626508,-31.456619,0.000000,0.000000,-1.000000
11.705417,1.914219,-26.084186,0.972370,0.233446,0.000000
5.693077,-1.558899,22.128904,0.972370,-0.233445,0.000000
4.590283,-8.023278,1.452183,0.522498,-0.852640,0.000000
-11.859976,-0.069397,-27.519538,-0.996917,-0.078459,-0.000000
4.434693,-10.966556,-22.866699,0.382684,-0.923879,0.000000
6.933454,-6.784849,-16.443253,-0.000000,-0.000000,1.000000
8.076555,-4.503343,2.793033,0.852640,-0.522498,0.000000
11.853174,0.155824,-27.220773,0.996917,0.078459,0.000000
-1.650358,-1.653247,-11.101317,0.634393,0.773010,-0.000000
-7.132930,-5.104286,-31.456619,0.000000,0.000000,-1.000000
9.170890,-1.233333,7.287644,0.996917,-0.078459,0.000000
5.152384,-1.035639,-27.769653,0.000000,1.000000,0.000000
-6.908088,6.138189,6.461492,-0.760406,0.649448,0.000000
-1.658507,1.643949,31.106538,0.773010,-0.634393,0.000000
-0.248215,9.248421,11.142353,-0.078459,0.996917,0.000000
3.846660,0.952253,-23.404493,1.000000,0.000000,0.000000
-5.683163,1.600193,26.171548,-0.972370,0.233445,0.000000
4.784959,10.821471,-21.968021,0.382684,0.923879,0.000000
-2.970957,-11.451716,-24.562789,-0.233446,-0.972370,0.000000
-7.074712,7.646719,-16.443253,-0.000000,0.000000,1.000000
-9.791513,-6.660732,-22.789892,-0.852640,-0.522498,0.000000
-9.238762,-0.370940,-6.279427,-0.996917,-0.078459,-0.000000
9.251047,-0.214846,-2.523658,0.996917,-0.078459,0.000000
-2.265463,0.540987,-9.622596,0.956940,-0.290284,0.000000
-1.490167,-11.748159,-18.895958,-0.078459,-0.996917,0.000000
-9.390220,-4.315023,-16.443253,0.000000,-0.000000,1.000000
-3.168657,-4.977570,19.351864,-0.522499,-0.852640,0.000000
9.744883,-6.736824,-25.270743,0.852640,-0.522498,0.000000
-6.311723,-6.759876,10.973076,-0.649448,-0.760406,0.000000
2.678111,10.168796,-31.456619,0.000000,0.000000,-1.000000
-9.126950,-1.561882,0.645915,-0.972370,-0.233445,0.000000
-4.371655,-3.965618,26.633961,-0.760406,-0.649448,0.000000
-5.949806,-8.812428,-16.443253,-0.000000,-0.000000,1.000000
8.709032,3.118215,-0.997504,0.923879,0.382684,0.000000
6.832178,-3.477337,11.514516,-0.000000,-0.000000,1.000000
-1.654348,11.735238,-20.622710,-0.078459,0.996917,0.000000
0.487487,11.827072,-30.579814,0.078459,0.996917,0.000000
-5.575094,-7.389016,4.808375,-0.649448,-0.760406,0.000000
-2.293035,-0.438287,-24.875914,0.995185,0.098018,0.000000
7.098509,5.915234,-11.611700,0.760406,0.649448,0.000000
-3.912966,-4.416624,14.447174,-0.649448,-0.760406,-0.000000
-10.231091,-3.286052,-31.456619,0.000000,0.000000,-1.000000
10.596997,5.326886,-24.562752,0.923879,0.382684,-0.000000
5.917938,-0.008658,4.724033,-1.000000,0.000000,0.000000
-8.595269,3.392864,9.215410,-0.923879,0.382684,0.000000
9.204591,-0.805123,-2.057883,0.996917,-0.078459,0.000000
8.206225,-8.547201,-17.559335,0.649448,-0.760406,0.000000
1.911919,-1.335164,-0.956779,-0.773010,0.634393,0.000000
-9.602498,-6.969176,-24.974837,-0.852640,-0.522498,0.000000
1.153900,9.177142,3.649464,0.078459,0.996917,0.000000
6.564001,9.850790,-20.727147,0.522498,0.852640,0.000000
-7.553819,5.356371,-16.305746,-0.852640,0.522498,0.000000
3.305565,8.631430,-6.412444,0.382684,0.923879,-0.000000
-5.857023,0.773988,18.107282,-0.996917,0.078459,0.000000
-3.861346,-6.549693,-31.456619,0.000000,-0.000000,-1.000000
3.681363,-8.475768,1.075503,0.382684,-0.923879,0.000000
-8.854024,-2.698701,8.392959,-0.972370,-0.233445,0.000000
4.503979,-1.035639,-27.172247,0.000000,1.000000,0.000000
0.035895,-11.862612,-22.361944,0.078459,-0.996917,0.000000
-8.034469,2.607566,11.514516,0.000000,-0.000000,1.000000
-0.002107,-2.335995,-8.459706,0.098018,0.995185,0.000000
-7.394768,-4.951401,11.514516,0.000000,-0.000000,1.000000
-1.339675,-3.015153,-31.456619,0.000000,-0.000000,-1.000000
2.436454,5.376571,23.501869,0.382684,0.923879,0.000000
-4.915267,7.000542,11.514516,0.000000,-0.000000,1.000000
9.163901,-1.322135,6.707224,0.996917,-0.078459,0.000000
9.691406,-0.027365,-16.443253,0.000000,-0.000000,1.000000
-9.251200,0.212900,-8.250241,-0.996917,0.078459,0.000000
-6.610635,-6.486461,1.671115,-0.760406,-0.649448,0.000000
2.075302,4.489345,-31.456619,0.000000,0.000000,-1.000000
-4.869508,3.344997,18.943965,-0.852640,0.522499,0.000000
-4.645952,-5.484007,11.514516,0.000000,-0.000000,1.000000
-9.211675,0.715108,-0.159669,-0.996917,0.078459,0.000000
-4.838355,-3.395835,26.550519,-0.852640,-0.522499,0.000000
-1.052650,-11.052338,-31.456619,0.000000,-0.000000,-1.000000
5.338988,1.035639,-3.394371,0.000000,-1.000000,-0.000000
-1.053442,-2.073160,2.492752,0.471397,0.881921,0.000000
1.660736,11.734735,-29.459385,0.078459,0.996917,0.000000
-1.493399,-5.708802,15.763586,-0.233445,-0.972370,0.000000
8.781599,2.943024,-14.306539,0.923879,0.382684,0.000000
-2.101976,0.999530,-24.245441,0.881921,-0.471397,0.000000
-6.972032,-6.063320,7.369763,-0.760406,-0.649448,0.000000
7.721379,-2.245193,11.514516,-0.000000,0.000000,1.000000
7.664925,-9.009515,-30.779438,0.649448,-0.760406,0.000000
10.267016,5.884781,-27.127247,0.852640,0.522498,0.000000
10.370137,5.716503,-27.660279,0.852640,0.522498,0.000000
-0.463526,-2.288960,-28.215177,0.290284,0.956940,0.000000
-2.088332,-11.663616,-26.306700,-0.233446,-0.972370,0.000000
5.292423,2.639606,18.786055,0.923879,0.382684,-0.000000
-1.921554,-1.323425,-22.674032,0.773010,0.634393,-0.000000
-1.560967,1.726608,8.741760,0.634393,-0.773010,0.000000
-2.488491,8.904491,4.339133,-0.233445,0.972370,0.000000
4.955060,1.035639,-29.907343,0.000000,-1.000000,-0.000000
-5.759109,7.231853,-10.120342,-0.649448,0.760406,0.000000
0.262068,-5.897313,22.138141,0.078459,-0.996917,0.000000
11.007108,4.336791,-18.729227,0.923879,0.382684,-0.000000
-1.136845,-5.794403,14.306131,-0.233445,-0.972370,0.000000
3.126736,8.705503,-1.056952,0.382684,0.923879,-0.000000
3.761599,9.240826,-31.456619,0.000000,0.000000,-1.000000
-3.971772,-4.366399,11.678218,-0.649448,-0.760406,-0.000000
10.366432,3.404338,-16.443253,0.000000,-0.000000,1.000000
-0.205065,-5.901799,29.838564,-0.078459,-0.996917,0.000000
9.225376,-0.541024,-6.390299,0.996917,-0.078459,0.000000
8.969841,2.216288,-11.667723,0.972370,0.233445,0.000000
-9.164517,1.314310,11.328531,-0.996917,0.078459,0.000000
-9.105756,1.650159,0.813768,-0.972370,0.233445,0.000000
-6.812382,6.250245,-4.375254,-0.760406,0.649448,0.000000
1.119531,-11.777329,-30.254269,0.078459,-0.996917,0.000000
5.917938,-0.754946,10.866881,-1.000000,0.000000,0.000000
-5.848462,-7.155538,-8.463521,-0.649448,-0.760406,0.000000
-4.801886,-5.665786,11.514516,-0.000000,0.000000,1.000000
5.223812,7.635051,-8.002368,0.522498,0.852640,0.000000
-10.280470,5.862826,-23.943773,-0.852640,0.522498,0.000000
-2.186385,-0.801671,28.651159,0.956940,0.290284,0.000000
3.374901,8.602709,-11.621336,0.382684,0.923879,0.000000
-6.103969,10.132698,-20.416071,-0.522498,0.852640,0.000000
2.019835,-9.017005,-13.650795,0.233445,-0.972370,0.000000
10.702340,-5.072565,-26.744042,0.923879,-0.382684,0.000000
5.917938,-0.753435,-16.732520,-1.000000,0.000000,0.000000
4.431073,-10.968055,-18.579495,0.382684,-0.923879,0.000000
-8.735149,3.055163,-7.381050,-0.923879,0.382684,0.000000
-1.365718,1.886845,-28.422598,0.634393,-0.773010,0.000000
-2.450637,8.913579,9.243545,-0.233445,0.972370,0.000000
-3.128330,8.704843,7.338042,-0.382684,0.923879,0.000000
2.614481,-11.537298,-31.356966,0.233446,-0.972370,0.000000
-5.164492,10.664263,-26.384241,-0.382684,0.923879,0.000000
5.099058,-2.970406,26.738282,0.852640,-0.522499,0.000000
4.542169,3.765971,26.033274,0.760406,0.649448,-0.000000
9.043192,7.625495,-27.792564,0.760406,0.649448,0.000000
-7.119942,5.890139,-13.782675,-0.760406,0.649448,0.000000
3.846660,-0.767767,9.503777,1.000000,0.000000,-0.000000
5.917938,-0.368574,6.958138,-1.000000,0.000000,0.000000
0.118605,-5.741680,31.456619,0.000000,-0.000000,1.000000
-9.186185,-1.038995,-14.726422,-0.996917,-0.078459,-0.000000
-7.838299,7.354446,-16.443253,0.000000,-0.000000,1.000000
3.945502,-1.035639,13.197449,0.000000,1.000000,-0.000000
3.846660,0.429159,-21.804719,1.000000,0.000000,0.000000
9.266935,-0.012968,5.439213,0.996917,-0.078459,0.000000
-9.260286,0.097453,-11.295273,-0.996917,0.078459,0.000000
2.770075,11.499943,-16.484043,0.233446,0.972370,-0.000000
-6.909060,-9.639337,-17.640214,-0.522498,-0.852640,0.000000
-4.260672,-4.095562,18.741823,-0.760406,-0.649448,0.000000
-2.243082,0.614766,23.904470,0.956940,-0.290284,0.000000
-1.711330,-11.730753,-23.373043,-0.078459,-0.996917,0.000000
-8.399149,3.866339,-7.340478,-0.923879,0.382684,0.000000
7.249751,5.738153,4.626575,0.760406,0.649448,-0.000000
2.288924,-0.463646,-0.936081,-0.956940,0.290284,0.000000
5.917938,0.636795,-4.978204,-1.000000,0.000000,0.000000
8.205684,-4.292623,4.898867,0.852640,-0.522498,0.000000
-4.371724,3.965536,24.629015,-0.760406,0.649448,0.000000
-6.903437,6.143634,-3.950294,-0.760406,0.649448,0.000000
9.331260,7.288210,-21.428682,0.760406,0.649448,0.000000
-0.570211,-2.256598,28.920967,0.290284,0.956940,0.000000
10.297856,5.834455,-27.215150,0.852640,0.522498,0.000000
7.755102,-5.027908,-11.364832,0.852640,-0.522498,0.000000
-0.923564,2.818634,-31.456619,0.000000,0.000000,-1.000000
-7.563973,5.339801,-3.744760,-0.852640,0.522498,0.000000
5.650832,-1.734862,27.952925,0.972370,-0.233445,0.000000
7.456417,-5.496178,-10.372835,0.760406,-0.649448,0.000000
-1.956776,-1.271182,2.037950,0.881921,0.471397,0.000000
-1.359039,-1.892326,9.369255,0.634393,0.773010,0.000000
5.917938,-0.486167,4.296826,-1.000000,0.000000,0.000000
-8.829552,2.800636,3.052900,-0.972370,0.233445,0.000000
4.953928,-1.035639,29.866862,0.000000,1.000000,-0.000000
-7.309914,-5.667710,-1.487018,-0.760406,-0.649448,-0.000000
9.165742,-1.298745,0.527523,0.996917,-0.078459,0.000000
3.300809,-8.633399,-0.014412,0.382684,-0.923879,0.000000
-1.549027,-1.736407,-20.327489,0.634393,0.773010,-0.000000
-8.798818,-2.901454,-16.092933,-0.923879,-0.382684,-0.000000
1.346582,11.214578,-31.456619,0.000000,0.000000,-1.000000
9.195107,-0.925629,2.690312,0.996917,-0.078459,0.000000
-2.327477,0.088597,24.581161,0.995185,-0.098018,0.000000
-3.893670,4.433104,22.523098,-0.649448,0.760406,0.000000
-2.210063,-8.971336,0.344707,-0.233445,-0.972370,0.000000
-1.797612,-9.070356,-12.454477,-0.233445,-0.972370,-0.000000
8.717712,-3.097262,10.990837,0.923879,-0.382684,0.000000
2.934780,-3.406791,-31.456619,0.000000,-0.000000,-1.000000
5.682824,8.369784,-31.456619,0.000000,0.000000,-1.000000
4.194097,3.418929,31.456619,0.000000,-0.000000,1.000000
3.602477,4.681806,17.982887,0.649448,0.760406,-0.000000
3.846660,-0.421014,29.982342,1.000000,0.000000,-0.000000
1.089637,-2.053813,4.532379,-0.471397,0.881921,0.000000
5.917938,-0.391036,9.527389,-1.000000,0.000000,0.000000
11.314149,-3.543964,-31.215140,0.972370,-0.233446,0.000000
-6.421468,6.666144,-11.767970,-0.649448,0.760406,0.000000
10.789102,4.863104,-24.268236,0.923879,0.382684,-0.000000
8.085570,-5.551363,-31.456619,0.000000,-0.000000,-1.000000
-4.659598,-10.873397,-20.056853,-0.382684,-0.923879,0.000000
5.215395,1.035639,-16.241968,0.000000,-1.000000,-0.000000
-3.988667,4.351969,21.393028,-0.649448,0.760406,0.000000
0.824263,-2.179532,23.281338,-0.290284,0.956940,0.000000
5.352248,1.035639,-1.705323,0.000000,-1.000000,-0.000000
7.754594,5.028736,-10.782148,0.852640,0.522498,0.000000
-3.544076,-8.308114,-31.456619,0.000000,-0.000000,-1.000000
-5.901115,0.213756,13.339202,-0.996917,0.078459,0.000000
1.974129,1.238716,-22.159950,-0.881921,-0.471397,0.000000
-7.399581,-0.283106,-31.456619,0.000000,0.000000,-1.000000
8.734310,-7.987149,-31.361337,0.760406,-0.649448,0.000000
-7.871672,-4.837682,-15.916639,-0.852640,-0.522498,-0.000000
-4.180902,-4.187785,29.938497,-0.649448,-0.760406,-0.000000
4.463617,1.035639,-8.666491,0.000000,-1.000000,0.000000
-1.216328,6.949600,-31.456619,0.000000,0.000000,-1.000000
-7.403023,6.471074,-16.443253,0.000000,-0.000000,1.000000
-8.878850,-2.595292,-13.037975,-0.972370,-0.233445,0.000000
-7.677243,-8.998995,-21.644883,-0.649448,-0.760406,0.000000
11.052875,-4.226300,-30.424534,0.923879,-0.382684,0.000000
-9.084093,2.773873,-31.456619,0.000000,0.000000,-1.000000
-1.141858,-2.025901,3.164522,0.471397,0.881921,-0.000000
-4.102359,-5.834014,-31.456619,0.000000,-0.000000,-1.000000
4.075301,1.035639,-24.282018,-0.000000,-1.000000,0.000000
-6.918711,-6.125750,-6.299914,-0.760406,-0.649448,-0.000000
-2.051766,-9.009339,9.418744,-0.233445,-0.972370,0.000000
-7.605814,-5.271523,-13.240479,-0.852640,-0.522498,-0.000000
2.261964,8.958875,9.660308,0.233445,0.972370,-0.000000
-1.298946,-1.941643,-26.437216,0.634393,0.773010,0.000000
9.528179,5.929107,-16.443253,0.000000,-0.000000,1.000000
-9.239745,0.358451,-0.983161,-0.996917,0.078459,0.000000
-9.173308,-1.202612,-13.883886,-0.996917,-0.078459,-0.000000
-6.295627,3.068910,11.514516,-0.000000,0.000000,1.000000
7.178573,-9.424900,-23.809218,0.649448,-0.760406,0.000000
5.324950,-7.573074,10.586216,0.522498,-0.852640,0.000000
-11.449252,-2.981221,-27.995644,-0.972370,-0.233446,-0.000000
-8.881242,-2.585330,10.469034,-0.972370,-0.233445,0.000000
6.198066,-3.229246,11.514516,-0.000000,-0.000000,1.000000
-4.448133,-3.876073,19.795285,-0.760406,-0.649448,0.000000
10.329671,-4.535550,-31.456619,0.000000,-0.000000,-1.000000
-8.612782,-5.797440,-16.443253,0.000000,-0.000000,1.000000
1.250439,5.767132,31.267772,0.233445,0.972370,-0.000000
6.591549,-9.833909,-18.453215,0.522498,-0.852640,0.000000
-9.234377,-0.426658,-16.426198,-0.996917,-0.078459,-0.000000
-7.830460,-8.868135,-27.181213,-0.649448,-0.760406,-0.000000
-3.502501,8.549856,4.756459,-0.382684,0.923879,0.000000
-0.856049,-9.200583,-7.503556,-0.078459,-0.996917,0.000000
5.872026,-5.797267,11.514516,-0.000000,0.000000,1.000000
-0.803910,2.315105,-31.456619,0.000000,0.000000,-1.000000
-10.260159,-1.624793,-16.443253,0.000000,-0.000000,1.000000
-8.919777,-1.919774,-31.456619,0.000000,0.000000,-1.000000
5.917938,0.375462,-18.164788,-1.000000,0.000000,0.000000
8.724987,-7.998066,-16.822496,0.760406,-0.649448,0.000000
4.018633,4.326375,30.583937,0.649448,0.760406,-0.000000
4.873173,-3.339016,17.252667,0.852640,-0.522499,0.000000
-8.927899,0.413610,-31.456619,0.000000,0.000000,-1.000000
-2.246441,-0.603695,-13.699908,0.956940,0.290284,-0.000000
-9.262986,7.368149,-22.227891,-0.760406,0.649448,0.000000
0.320613,-2.304625,-28.472994,-0.098018,0.995185,0.000000
-1.843706,-1.418282,7.189869,0.773010,0.634393,-0.000000
-8.237090,4.241374,2.667585,-0.852640,0.522498,0.000000
11.727355,-1.754515,-27.497249,0.996917,-0.078459,0.000000
7.514539,6.699061,-16.443253,0.000000,-0.000000,1.000000
3.057153,-1.898722,31.456619,-0.000000,0.000000,1.000000
-0.941075,9.193891,10.878064,-0.078459,0.996917,0.000000
-4.475260,-8.093764,-4.203518,-0.522498,-0.852640,0.000000
-3.419367,4.438043,31.456619,-0.000000,-0.000000,1.000000
2.011655,1.168510,-3.108912,-0.881921,-0.471397,0.000000
0.563949,-2.258497,1.417499,-0.290284,0.956940,0.000000
-11.520809,2.683164,-19.774716,-0.972370,0.233446,0.000000
1.191108,-9.174213,1.944969,0.078459,-0.996917,0.000000
0.810867,9.204139,-9.278305,0.078459,0.996917,0.000000
2.828960,-10.399970,-31.456619,0.000000,0.000000,-1.000000
8.866736,2.645752,-6.290259,0.972370,0.233445,-0.000000
-8.974872,2.195331,8.250912,-0.972370,0.233445,0.000000
-9.634020,6.917738,-28.701227,-0.852640,0.522498,0.000000
4.053907,1.035639,4.522601,0.000000,-1.000000,0.000000
4.543518,-3.764391,22.810574,0.760406,-0.649448,0.000000
8.992908,2.120206,-14.030679,0.972370,0.233445,0.000000
-2.583192,8.881755,7.753463,-0.233445,0.972370,0.000000
-1.631352,11.737048,-31.329465,-0.078459,0.996917,0.000000
-8.550072,-3.501978,-7.867015,-0.923879,-0.382684,-0.000000
-8.507104,-3.605713,-2.656884,-0.923879,-0.382684,0.000000
-6.089574,-6.949609,-14.170540,-0.649448,-0.760406,0.000000
1.192079,1.999057,-25.241569,-0.471397,-0.881921,0.000000
7.324258,-5.650917,-6.107921,0.760406,-0.649448,0.000000
8.084929,4.489678,9.301966,0.852640,0.522498,-0.000000
-2.694050,-5.268410,13.657611,-0.522499,-0.852640,0.000000
-1.571802,11.741734,-30.824919,-0.078459,0.996917,0.000000
5.917938,0.178939,-18.929707,-1.000000,0.000000,0.000000
-7.399655,-5.562637,-13.834671,-0.760406,-0.649448,-0.000000
3.991098,-1.035639,15.974161,0.000000,1.000000,-0.000000
2.211495,-0.718897,-24.233399,-0.956940,0.290284,0.000000
-2.220096,-0.690542,-25.080912,0.956940,0.290284,-0.000000
-2.313636,-8.946470,-10.410119,-0.233445,-0.972370,-0.000000
5.141102,-1.102789,31.456619,0.000000,-0.000000,1.000000
2.211702,-0.718213,-7.497081,-0.956940,0.290284,0.000000
-0.769208,-9.207418,-1.374440,-0.078459,-0.996917,0.000000
-3.914487,4.415324,18.712931,-0.649448,0.760406,0.000000
-5.808856,1.076647,20.472388,-0.972370,0.233445,0.000000
10.806100,4.822068,-19.776486,0.923879,0.382684,-0.000000
8.693318,3.156152,3.106750,0.923879,0.382684,0.000000
7.230261,5.760973,-16.310116,0.760406,0.649448,0.000000
-10.839919,2.109895,-31.456619,0.000000,0.000000,-1.000000
5.917938,0.489821,-27.452096,-1.000000,0.000000,0.000000
-1.991289,-9.023858,-4.244233,-0.233445,-0.972370,0.000000
8.389498,-8.390672,-30.973544,0.649448,-0.760406,0.000000
0.543189,2.264795,24.443375,-0.290284,-0.956940,0.000000
4.821642,-7.881501,7.511534,0.522498,-0.852640,0.000000
11.089742,4.137294,-20.553334,0.923879,0.382684,0.000000
-9.110852,7.546275,-25.572924,-0.760406,0.649448,0.000000
1.947736,-1.288093,-5.144925,-0.881921,0.471397,0.000000
-1.921425,-4.200990,31.456619,-0.000000,0.000000,1.000000
3.846660,0.731350,-2.058181,1.000000,0.000000,0.000000
1.500793,11.747323,-21.032344,0.078459,0.996917,0.000000
-8.314672,-6.468501,-31.456619,0.000000,-0.000000,-1.000000
-2.897628,5.143657,18.293878,-0.522499,0.852640,0.000000
-1.601798,1.693099,-15.714986,0.634393,-0.773010,0.000000
8.953284,-2.285252,2.151537,0.972370,-0.233445,0.000000
1.016562,-10.248978,-31.456619,0.000000,0.000000,-1.000000
4.796641,7.250133,-31.456619,0.000000,0.000000,-1.000000
-9.190678,0.981908,-16.042173,-0.996917,0.078459,0.000000
-3.478890,-10.363323,-31.456619,0.000000,-0.000000,-1.000000
0.660096,-2.229332,3.309837,-0.290284,0.956940,0.000000
4.996252,7.774500,-13.640027,0.522498,0.852640,0.000000
-2.934305,-9.411670,-16.443253,-0.000000,-0.000000,1.000000
10.994957,4.366126,-29.216056,0.923879,0.382684,0.000000
-5.389192,10.570713,-20.567645,-0.522498,0.852640,0.000000
-1.052981,2.073407,5.290184,0.471397,-0.881921,0.000000
-1.855305,-9.056505,-8.214524,-0.233445,-0.972370,0.000000
6.569906,-6.534148,-3.634184,0.760406,-0.649448,0.000000
2.019565,11.680125,-26.912495,0.233446,0.972370,-0.000000
11.317153,-3.531453,-29.199899,0.972370,-0.233446,0.000000
-3.272849,-8.644981,9.978395,-0.382684,-0.923879,0.000000
1.076329,-3.018313,-31.456619,0.000000,0.000000,-1.000000
1.229518,-1.979045,-16.396491,-0.471397,0.881921,0.000000
-7.027210,9.554176,-25.617034,-0.649448,0.760406,0.000000
-1.630935,9.110372,-0.395783,-0.233445,0.972370,0.000000
2.383425,5.398537,29.943833,0.382684,0.923879,-0.000000
8.417830,-8.357700,-26.826173,0.760406,-0.649448,0.000000
-5.508583,-7.445822,3.387842,-0.649448,-0.760406,0.000000
1.062380,-9.184344,9.878791,0.078459,-0.996917,0.000000
0.510338,-9.227791,2.364785,0.078459,-0.996917,0.000000
-3.258457,4.922540,27.883438,-0.522499,0.852640,0.000000
-0.411997,2.295624,-23.077690,0.098018,-0.995185,0.000000
4.568770,3.734826,11.592629,0.760406,0.649448,0.000000
3.700799,0.168878,31.456619,-0.000000,0.000000,1.000000
0.190396,2.317450,-27.342393,-0.098018,-0.995185,0.000000
2.317705,0.187810,14.188689,-0.995185,-0.098018,0.000000
9.045921,1.899391,-3.595834,0.972370,0.233445,0.000000
3.846660,0.609707,-23.866351,1.000000,0.000000,0.000000
-9.155739,-1.425845,5.298711,-0.996917,-0.078459,0.000000
3.846660,0.523555,14.274264,1.000000,0.000000,0.000000
5.615944,1.035639,-24.426487,0.000000,-1.000000,-0.000000
1.728452,1.558720,-20.840029,-0.773010,-0.634393,0.000000
-1.074233,2.062047,-10.176854,0.471397,-0.881921,0.000000
-1.082098,-2.057843,-9.429493,0.471397,0.881921,-0.000000
-2.312027,0.245458,-18.292531,0.995185,-0.098018,0.000000
4.491063,-1.035639,1.847888,0.000000,1.000000,-0.000000
2.494018,9.269180,-31.456619,0.000000,0.000000,-1.000000
1.663654,5.667928,14.378627,0.233445,0.972370,0.000000
0.779311,2.193168,6.809630,-0.290284,-0.956940,0.000000
-0.798042,-2.187486,3.172354,0.290284,0.956940,-0.000000
9.113648,1.617288,-15.447267,0.972370,0.233445,0.000000
2.891537,11.470783,-18.938379,0.233446,0.972370,-0.000000
-4.083028,8.309393,-6.112707,-0.382684,0.923879,0.000000
1.172699,5.785796,12.842247,0.233445,0.972370,0.000000
1.463114,9.150662,-0.726794,0.233445,0.972370,-0.000000
0.089874,-5.910865,11.772445,0.078459,-0.996917,0.000000
3.480296,-4.786158,22.007699,0.649448,-0.760406,0.000000
11.303836,-3.586919,-26.313528,0.972370,-0.233446,0.000000
-2.119963,0.965880,-9.646115,0.881921,-0.471397,0.000000
0.450122,-2.291869,-9.502756,-0.098018,0.995185,0.000000
-5.367749,2.457754,16.960763,-0.923879,0.382684,0.000000
-2.786198,-8.833018,-13.960944,-0.233445,-0.972370,-0.000000
8.070812,8.662855,-30.040801,0.649448,0.760406,0.000000
-3.517987,8.543441,8.013858,-0.382684,0.923879,0.000000
7.317386,-9.306342,-17.360951,0.649448,-0.760406,0.000000
-1.582001,-1.709346,-28.909196,0.634393,0.773010,-0.000000
-9.097568,1.684265,-15.659627,-0.972370,0.233445,0.000000
-10.653307,4.359618,-16.443253,0.000000,-0.000000,1.000000
-4.783254,-7.905026,0.420582,-0.522498,-0.852640,0.000000
-4.601242,3.696806,19.092178,-0.760406,0.649448,0.000000
9.231506,0.463137,0.989050,0.996917,0.078459,0.000000
0.512670,5.877590,30.329968,0.078459,0.996917,-0.000000
0.232721,2.313282,6.563130,-0.098018,-0.995185,0.000000
0.245452,-9.248638,-0.945996,0.078459,-0.996917,0.000000
5.571157,-1.966682,28.887695,0.923879,-0.382684,0.000000
-0.391892,-2.297604,-12.295158,0.098018,0.995185,-0.000000
-1.946821,-11.697590,-21.539131,-0.233446,-0.972370,0.000000
9.104536,1.405592,11.514516,0.000000,0.000000,1.000000
6.738188,-6.337115,-11.711163,0.760406,-0.649448,0.000000
-1.707929,-5.657299,30.447323,-0.233445,-0.972370,0.000000
-2.377537,-1.196091,-31.456619,0.000000,0.000000,-1.000000
11.698268,-1.943997,-18.393728,0.972370,-0.233446,0.000000
2.110793,0.983036,-0.819998,-0.881921,-0.471397,0.000000
-10.516470,-0.264908,-16.443253,0.000000,-0.000000,1.000000
-11.853220,-0.155237,-23.157161,-0.996917,-0.078459,-0.000000
4.497593,-10.940502,-27.278300,0.382684,-0.923879,0.000000
-1.093191,-11.779402,-30.513717,-0.078459,-0.996917,0.000000
1.327830,-11.760935,-18.979351,0.078459,-0.996917,0.000000
-11.176459,-3.927942,-20.341525,-0.923879,-0.382684,-0.000000
-7.031735,-9.550311,-27.852736,-0.649448,-0.760406,0.000000
3.492801,-10.364738,-31.456619,0.000000,0.000000,-1.000000
11.203468,3.862736,-25.148501,0.923879,0.382684,0.000000
2.331095,0.051863,18.657923,-0.995185,-0.098018,0.000000
8.619756,-8.121274,-27.150030,0.760406,-0.649448,0.000000
-2.238058,0.631327,19.652200,0.956940,-0.290284,0.000000
1.747661,-5.647760,25.201051,0.233445,-0.972370,0.000000
0.140757,-4.996525,-31.456619,0.000000,0.000000,-1.000000
-1.907971,-1.339975,-24.807699,0.773010,0.634393,-0.000000
4.465341,-8.099843,-2.568756,0.522498,-0.852640,0.000000
7.519481,-5.412406,1.632350,0.852640,-0.522498,0.000000
-3.295153,0.433907,31.456619,-0.000000,0.000000,1.000000
9.246145,-0.277134,2.494155,0.996917,-0.078459,0.000000
2.232829,0.648566,4.941426,-0.956940,-0.290284,0.000000
9.214270,-0.682136,-13.790049,0.996917,-0.078459,0.000000
4.319140,-8.189435,1.606858,0.522498,-0.852640,0.000000
-0.491322,-2.280529,23.680007,0.290284,0.956940,0.000000
10.647444,-4.484183,-16.443253,-0.000000,0.000000,1.000000
-1.923277,6.590035,11.514516,0.000000,-0.000000,1.000000
5.186405,1.035639,16.770815,0.000000,-1.000000,0.000000
1.470258,-9.148947,-13.985886,0.233445,-0.972370,0.000000
6.531153,9.870919,-18.795630,0.522498,0.852640,-0.000000
1.005594,-5.825914,28.654149,0.233445,-0.972370,0.000000
-0.397358,-2.297066,3.908314,0.098018,0.995185,-0.000000
-1.217428,-1.985508,11.802384,0.471397,0.881921,-0.000000
-3.143413,-11.223393,-31.456619,0.000000,-0.000000,-1.000000
-2.139253,0.929792,27.555310,0.881921,-0.471397,0.000000
0.776720,-2.193954,1.046972,-0.290284,0.956940,0.000000
-4.843804,3.386943,13.768620,-0.852640,0.522499,0.000000
2.842264,-5.177584,25.110811,0.522499,-0.852640,0.000000
5.167341,-2.858978,18.949110,0.852640,-0.522499,0.000000
9.192095,-0.963905,11.145701,0.996917,-0.078459,0.000000
2.067957,-9.005452,-16.191952,0.233445,-0.972370,0.000000
5.306961,1.035639,25.756150,0.000000,-1.000000,0.000000
-4.613824,-2.760519,-31.456619,0.000000,0.000000,-1.000000
1.541748,1.742381,0.398068,-0.634393,-0.773010,0.000000
8.531578,5.931157,-31.456619,0.000000,0.000000,-1.000000
-4.654023,4.902750,11.514516,-0.000000,-0.000000,1.000000
6.317345,10.001941,-18.052716,0.522498,0.852640,-0.000000
3.851337,4.469259,27.842188,0.649448,0.760406,-0.000000
-8.966825,2.228850,8.106633,-0.972370,0.233445,0.000000
2.394301,-5.394031,23.297551,0.382684,-0.923879,0.000000
7.201459,5.794695,4.803335,0.760406,0.649448,-0.000000
2.647693,-8.866270,10.550206,0.233445,-0.972370,0.000000
5.917938,0.483380,10.561246,-1.000000,0.000000,0.000000
5.917938,0.772411,10.221703,-1.000000,0.000000,0.000000
-0.108831,-2.325484,-7.859063,0.098018,0.995185,0.000000
-1.474590,9.147907,10.630461,-0.233445,0.972370,0.000000
-0.296561,9.244616,-1.750258,-0.078459,0.996917,0.000000
0.392087,5.887080,23.716502,0.078459,0.996917,-0.000000
1.383668,-1.872113,-20.200076,-0.634393,0.773010,0.000000
-10.512792,-5.483712,-30.023760,-0.852640,-0.522498,-0.000000
-9.007429,-2.059724,-12.734052,-0.972370,-0.233445,0.000000
-3.318271,-4.885886,30.969027,-0.522499,-0.852640,0.000000
3.846660,-0.319867,-0.471586,1.000000,0.000000,-0.000000
-8.836691,-2.770900,-10.067368,-0.972370,-0.233445,0.000000
3.754566,-4.551910,14.664200,0.649448,-0.760406,0.000000
2.333694,0.025475,-5.017764,-0.995185,-0.098018,0.000000
-2.304577,0.321097,-29.931481,0.995185,-0.098018,0.000000
-4.529557,3.780737,24.503386,-0.760406,0.649448,0.000000
-6.372761,0.542151,11.514516,-0.000000,0.000000,1.000000
5.917938,-0.106506,-30.527825,-1.000000,0.000000,0.000000
-5.607412,1.879155,23.554928,-0.923879,0.382684,0.000000
-1.654106,1.649311,25.118937,0.773010,-0.634393,0.000000
-7.895418,4.798932,-13.873046,-0.852640,0.522498,0.000000
-0.950467,-10.992268,-31.456619,0.000000,-0.000000,-1.000000
-1.892256,1.359124,26.835229,0.773010,-0.634393,0.000000
0.391068,2.297686,30.951520,-0.098018,-0.995185,0.000000
8.992525,-3.304443,-16.443253,0.000000,-0.000000,1.000000
-0.285056,2.308127,28.273865,0.098018,-0.995185,0.000000
-0.607012,-2.245434,29.946299,0.290284,0.956940,0.000000
-3.268072,4.916648,30.177382,-0.522499,0.852640,0.000000
4.324200,4.021180,22.616433,0.760406,0.649448,-0.000000
5.917938,0.877569,-6.295125,-1.000000,0.000000,0.000000
1.134767,9.178647,-5.696805,0.078459,0.996917,0.000000
2.167605,-0.863580,-14.314053,-0.956940,0.290284,0.000000
-6.532567,-6.571257,9.479446,-0.649448,-0.760406,0.000000
0.444276,-5.882972,20.287682,0.078459,-0.996917,0.000000
-6.807620,6.255821,-0.863116,-0.760406,0.649448,0.000000
4.909955,1.035639,-20.305003,0.000000,-1.000000,-0.000000
-0.480296,-2.283873,-8.005364,0.290284,0.956940,0.000000
4.786627,-10.820780,-21.965438,0.382684,-0.923879,0.000000
9.110248,5.188965,-16.443253,0.000000,-0.000000,1.000000
2.280972,0.489859,-29.735605,-0.956940,-0.290284,0.000000
11.114624,4.077225,-18.372951,0.923879,0.382684,-0.000000
10.376698,5.705796,-23.388220,0.852640,0.522498,0.000000
3.846660,-0.913473,11.154287,1.000000,0.000000,-0.000000
-5.872391,0.578721,26.743428,-0.996917,0.078459,0.000000
1.966428,1.253123,-2.336051,-0.881921,-0.471397,0.000000
-5.198265,2.808515,20.049545,-0.852640,0.522499,0.000000
-2.065223,1.068291,-26.125936,0.881921,-0.471397,0.000000
3.846660,0.854427,27.883195,1.000000,0.000000,-0.000000
-2.233833,-0.645257,-27.518934,0.956940,0.290284,-0.000000
0.880316,-2.162529,7.630639,-0.290284,0.956940,0.000000
-2.170933,-0.852610,-11.680601,0.956940,0.290284,0.000000
-7.546416,5.368452,-14.372514,-0.852640,0.522498,0.000000
1.835476,-11.720983,-16.762450,0.078459,-0.996917,0.000000
1.121899,-2.036569,-15.575298,-0.471397,0.881921,0.000000
7.901468,-8.807489,-23.189843,0.649448,-0.760406,0.000000
11.280744,3.676175,-20.013959,0.923879,0.382684,0.000000
1.486477,9.145053,4.321460,0.233445,0.972370,-0.000000
-9.115331,-7.541032,-20.384357,-0.760406,-0.649448,0.000000
7.956849,-1.369222,11.514516,0.000000,-0.000000,1.000000
-5.357459,2.482595,26.443773,-0.923879,0.382684,0.000000
7.386242,-5.578343,-9.699075,0.760406,-0.649448,0.000000
1.298219,-1.942240,-14.210685,-0.634393,0.773010,0.000000
-2.718190,11.512400,-21.090474,-0.233446,0.972370,0.000000
11.673860,2.045663,-18.334626,0.972370,0.233446,0.000000
2.333970,-0.022665,-5.514611,-0.995185,0.098018,0.000000
3.611845,-8.504564,-1.618413,0.382684,-0.923879,0.000000
2.140179,0.928059,20.040748,-0.881921,-0.471397,0.000000
2.500894,-5.349879,23.224774,0.382684,-0.923879,0.000000
2.240839,-0.622161,-12.259878,-0.956940,0.290284,0.000000
1.462232,-9.150874,5.029230,0.233445,-0.972370,0.000000
-2.167217,0.864861,9.297683,0.956940,-0.290284,0.000000
-3.308638,-8.514898,11.514516,-0.000000,0.000000,1.000000
-4.244166,9.074945,-16.443253,0.000000,-0.000000,1.000000
-7.518933,-5.413301,-0.312236,-0.852640,-0.522498,0.000000
3.846660,-0.658198,-23.520363,1.000000,0.000000,0.000000
-5.766703,-7.225367,2.699899,-0.649448,-0.760406,0.000000
5.570662,1.035639,-20.509452,0.000000,-1.000000,-0.000000
5.677617,1.035639,-21.280038,0.000000,-1.000000,-0.000000
-10.004987,-6.312374,-17.517986,-0.852640,-0.522498,0.000000
-4.214670,-4.149423,14.357122,-0.760406,-0.649448,0.000000
3.846660,-0.828408,23.880315,1.000000,0.000000,-0.000000
10.852424,2.943733,-31.456619,-0.000000,0.000000,-1.000000
0.962722,7.560982,-31.456619,0.000000,0.000000,-1.000000
0.882095,2.161989,29.270069,-0.290284,-0.956940,0.000000
8.512118,-3.593607,5.604268,0.923879,-0.382684,0.000000
-1.110363,-2.042735,19.080263,0.471397,0.881921,0.000000
-1.189984,-2.000177,25.047626,0.471397,0.881921,0.000000
5.495098,3.152095,11.514516,0.000000,-0.000000,1.000000
1.888712,-1.363443,-7.431561,-0.773010,0.634393,0.000000
-3.898882,-11.188496,-26.204691,-0.382684,-0.923879,0.000000
-4.345667,3.996045,20.466433,-0.760406,0.649448,0.000000
0.083162,-9.261411,2.866273,0.078459,-0.996917,0.000000
-7.318803,-5.657303,-1.344309,-0.760406,-0.649448,-0.000000
-2.937344,2.087467,31.456619,-0.000000,0.000000,1.000000
-1.054954,2.072352,12.057612,0.471397,-0.881921,0.000000
0.188614,-11.714976,-31.456619,0.000000,0.000000,-1.000000
-1.525644,-11.745367,-29.745457,-0.078459,-0.996917,0.000000
-8.501653,-3.618872,-15.611354,-0.923879,-0.382684,-0.000000
11.635217,-2.206623,-22.996319,0.972370,-0.233446,0.000000
-1.827272,1.438308,-4.937515,0.773010,-0.634393,0.000000
9.239470,7.395683,-23.026424,0.760406,0.649448,0.000000
-3.453610,11.335841,-17.098286,-0.233446,0.972370,0.000000
3.908369,-1.035639,-24.579534,0.000000,1.000000,-0.000000
-0.225763,2.313967,-22.179704,0.098018,-0.995185,-0.000000
-5.116382,2.942136,30.652943,-0.852640,0.522499,0.000000
1.065723,11.781563,-19.036540,0.078459,0.996917,-0.000000
-6.527590,-7.967478,-31.456619,0.000000,0.000000,-1.000000
-4.796653,-3.463886,29.585718,-0.852640,-0.522499,0.000000
4.005876,1.035639,-11.917273,0.000000,-1.000000,0.000000
-3.530886,-8.538098,-4.763838,-0.382684,-0.923879,0.000000
9.188749,1.006418,-10.739172,0.996917,0.078459,0.000000
2.315496,-0.210240,-5.299271,-0.995185,0.098018,0.000000
-2.002327,1.185961,14.343534,0.881921,-0.471397,0.000000
0.669115,3.791602,-31.456619,0.000000,-0.000000,-1.000000
-10.221196,5.959553,-30.950439,-0.852640,0.522498,0.000000
0.836947,9.202086,1.961990,0.078459,0.996917,-0.000000
11.498077,-2.777850,-30.850590,0.972370,-0.233446,0.000000
-1.802918,10.567783,-16.443253,0.000000,-0.000000,1.000000
2.252698,4.034132,31.456619,0.000000,-0.000000,1.000000
0.991355,8.022748,11.514516,-0.000000,0.000000,1.000000
9.154016,1.447737,-6.624142,0.996917,0.078459,-0.000000
3.319590,-4.885078,21.675308,0.522499,-0.852640,0.000000
1.336285,-9.904797,-31.456619,0.000000,0.000000,-1.000000
5.590115,7.376187,-9.179211,0.649448,0.760406,-0.000000
-10.174445,5.409574,-31.456619,0.000000,0.000000,-1.000000
-4.073318,8.313415,-2.751134,-0.382684,0.923879,0.000000
-6.206465,-6.849775,-3.274489,-0.649448,-0.760406,0.000000
-2.407970,-0.556834,31.456619,0.000000,-0.000000,1.000000
-4.809396,-3.443092,28.636672,-0.852640,-0.522499,0.000000
-1.612562,-1.684265,-8.502386,0.634393,0.773010,-0.000000
-1.066682,-9.184006,-2.107222,-0.078459,-0.996917,0.000000
9.142550,1.496901,10.208584,0.972370,0.233445,0.000000
10.600626,5.318125,-23.033207,0.923879,0.382684,-0.000000
-9.230142,-0.480465,-0.923602,-0.996917,-0.078459,-0.000000
1.847849,-1.413234,-2.150825,-0.773010,0.634393,0.000000
2.313117,0.234390,24.621196,-0.995185,-0.098018,0.000000
-4.226157,-8.617929,-16.443253,-0.000000,-0.000000,1.000000
-9.735246,-6.752552,-18.378790,-0.852640,-0.522498,0.000000
-5.217139,7.639141,-11.656003,-0.522498,0.852640,0.000000
-5.655941,1.713582,28.622736,-0.972370,0.233445,0.000000
-0.797471,-11.802675,-22.330230,-0.078459,-0.996917,0.000000
3.269866,8.646216,5.607082,0.382684,0.923879,-0.000000
4.836720,-7.872262,2.401213,0.522498,-0.852640,0.000000
-2.699677,-8.853790,-2.030090,-0.233445,-0.972370,-0.000000
2.732164,8.845991,10.098030,0.233445,0.972370,-0.000000
-1.991548,-11.686852,-26.553632,-0.233446,-0.972370,0.000000
-7.719800,-5.085515,1.914691,-0.852640,-0.522498,0.000000
-6.126178,-6.918346,-6.928945,-0.649448,-0.760406,0.000000
5.270455,-1.035639,15.805402,0.000000,1.000000,-0.000000
-4.530305,-8.721698,-31.456619,0.000000,-0.000000,-1.000000
8.339039,4.011456,3.336333,0.923879,0.382684,-0.000000
3.958906,-11.163633,-24.496700,0.382684,-0.923879,0.000000
9.187718,7.456276,-27.330608,0.760406,0.649448,0.000000
-2.237316,0.633776,-31.059450,0.956940,-0.290284,0.000000
11.569304,2.481168,-29.351972,0.972370,0.233446,0.000000
9.196326,-0.910137,-4.298320,0.996917,-0.078459,0.000000
11.463239,-2.922961,-27.975449,0.972370,-0.233446,0.000000
-8.427737,-5.629664,-16.443253,0.000000,-0.000000,1.000000
-0.508006,2.275467,-3.682682,0.290284,-0.956940,0.000000
-8.953036,-2.286288,-0.773220,-0.972370,-0.233445,0.000000
-8.731913,3.062975,-14.770420,-0.923879,0.382684,0.000000
5.004090,3.125379,17.791461,0.852640,0.522499,0.000000
-7.689891,5.134321,-7.031827,-0.852640,0.522498,0.000000
8.369286,8.407934,-29.225667,0.649448,0.760406,0.000000
-5.907262,-5.622715,11.514516,0.000000,-0.000000,1.000000
-4.783569,-8.641691,-16.443253,0.000000,-0.000000,1.000000
-2.302848,-0.338655,-28.277374,0.995185,0.098018,-0.000000
6.465264,6.628739,-9.341596,0.649448,0.760406,0.000000
9.213926,0.686517,-1.678901,0.996917,0.078459,-0.000000
-4.202715,-4.163421,27.638086,-0.760406,-0.649448,0.000000
0.987379,11.787729,-24.728228,0.078459,0.996917,0.000000
-9.650911,-4.966433,-16.443253,0.000000,-0.000000,1.000000
11.000325,-4.353167,-21.415552,0.923879,-0.382684,0.000000
-4.481014,8.090238,-7.306829,-0.522498,0.852640,0.000000
11.214013,-3.837278,-30.214229,0.923879,-0.382684,0.000000
8.888945,-2.553245,-8.094151,0.972370,-0.233445,0.000000
1.441741,-1.824454,29.375092,-0.634393,0.773010,0.000000
-5.783281,-10.329215,-29.465538,-0.522498,-0.852640,0.000000
8.692279,3.158662,-1.023285,0.923879,0.382684,0.000000
-8.306773,-4.089353,-10.541353,-0.923879,-0.382684,0.000000
1.192715,9.174087,-3.392642,0.078459,0.996917,0.000000
-5.932839,-7.083473,2.914148,-0.649448,-0.760406,0.000000
0.557132,11.821590,-24.687987,0.078459,0.996917,-0.000000
0.882855,-11.246435,-31.456619,0.000000,0.000000,-1.000000
5.917938,-0.805819,-14.990008,-1.000000,0.000000,0.000000
-1.885201,10.442623,-16.443253,0.000000,-0.000000,1.000000
-9.780541,-6.678636,-19.556758,-0.852640,-0.522498,0.000000
-0.638653,-2.235836,21.048894,0.290284,0.956940,0.000000
7.478615,-1.605170,-31.456619,0.000000,0.000000,-1.000000
11.730188,-1.718514,-29.308358,0.996917,-0.078459,0.000000
-1.269131,1.957872,-15.298794,0.471397,-0.881921,0.000000
3.846660,-0.172812,18.762146,1.000000,0.000000,-0.000000
-5.943232,-10.231197,-21.478511,-0.522498,-0.852640,0.000000
-3.270826,4.914961,29.864420,-0.522499,0.852640,0.000000
-8.839930,-2.757406,-7.762274,-0.972370,-0.233445,0.000000
-4.357267,-5.058525,-31.456619,0.000000,0.000000,-1.000000
1.379174,-1.875802,27.152221,-0.634393,0.773010,0.000000
11.628262,2.235591,-19.042492,0.972370,0.233446,-0.000000
9.245508,-0.285224,-4.196891,0.996917,-0.078459,0.000000
-6.155138,7.465999,-16.443253,-0.000000,0.000000,1.000000
4.054650,-4.295614,22.055982,0.649448,-0.760406,0.000000
10.075150,-6.197878,-26.148767,0.852640,-0.522498,0.000000
5.840248,-7.162553,-7.215992,0.649448,-0.760406,0.000000
-3.849027,4.471233,29.948319,-0.649448,0.760406,0.000000
0.864172,9.199944,-2.929889,0.078459,0.996917,0.000000
3.385648,4.844597,24.171896,0.522499,0.852640,0.000000
-0.593432,5.871234,18.147054,-0.078459,0.996917,0.000000
4.909531,-1.035639,-13.929840,0.000000,1.000000,0.000000
-2.531171,-9.773636,-16.443253,-0.000000,-0.000000,1.000000
-8.416106,3.825402,2.881908,-0.923879,0.382684,0.000000
-1.284262,-1.949784,14.246070,0.471397,0.881921,-0.000000
2.293175,-0.436869,-28.849648,-0.995185,0.098018,0.000000
6.834722,-9.684892,-24.864815,0.522498,-0.852640,0.000000
5.603078,-1.889619,16.283916,0.923879,-0.382684,0.000000
-2.323366,0.130327,-28.917796,0.995185,-0.098018,0.000000
-2.296831,0.399741,-13.562353,0.995185,-0.098018,0.000000
-2.319508,-0.169507,-3.631167,0.995185,0.098018,-0.000000
5.810398,1.070223,30.579845,0.972370,0.233445,0.000000
6.240581,-10.048982,-23.440377,0.522498,-0.852640,0.000000
7.715468,8.966348,-28.592773,0.649448,0.760406,0.000000
1.707841,1.583835,-7.638867,-0.773010,-0.634393,0.000000
2.335907,0.002998,7.924348,-0.995185,-0.098018,0.000000
0.076438,9.261940,-3.004185,0.078459,0.996917,-0.000000
-2.038624,1.118054,3.286991,0.881921,-0.471397,0.000000
11.811172,0.689504,-17.269923,0.996917,0.078459,-0.000000
1.901039,8.042942,11.514516,0.000000,-0.000000,1.000000
-3.665735,3.902268,-31.456619,0.000000,0.000000,-1.000000
-6.443897,-6.646988,3.216229,-0.649448,-0.760406,0.000000
1.127304,2.033680,13.234366,-0.471397,-0.881921,0.000000
0.935058,-5.842848,13.798059,0.233445,-0.972370,0.000000
8.509613,-3.599656,-5.101779,0.923879,-0.382684,0.000000
-8.029794,-8.697888,-30.009511,-0.649448,-0.760406,-0.000000
0.001311,-3.881864,-31.456619,0.000000,0.000000,-1.000000
-1.068647,2.065033,-9.251397,0.471397,-0.881921,0.000000
1.698049,1.595766,-6.065460,-0.773010,-0.634393,0.000000
-2.332761,-0.034943,-26.676867,0.995185,0.098018,-0.000000
-1.722103,-11.729905,-22.257858,-0.078459,-0.996917,0.000000
-11.824369,0.521822,-24.987342,-0.996917,0.078459,0.000000
0.785146,2.191398,21.970764,-0.290284,-0.956940,0.000000
6.842312,6.215202,2.041616,0.760406,0.649448,-0.000000
-2.269247,-0.528512,23.662160,0.956940,0.290284,0.000000
-3.855235,8.403748,-12.050031,-0.382684,0.923879,0.000000
3.846660,0.144936,4.741150,1.000000,0.000000,-0.000000
-8.839919,2.757452,2.036347,-0.972370,0.233445,0.000000
2.231438,-0.653153,-30.754260,-0.956940,0.290284,0.000000
0.164252,2.320025,1.099606,-0.098018,-0.995185,0.000000
-4.121410,-8.293495,-7.762326,-0.382684,-0.923879,0.000000
4.794697,3.467079,16.362540,0.852640,0.522499,-0.000000
5.917938,-0.975528,-3.642674,-1.000000,0.000000,0.000000
7.133744,-5.873980,2.289632,0.760406,-0.649448,0.000000
5.917938,0.352115,-23.771657,-1.000000,0.000000,0.000000
6.811363,6.251439,1.541584,0.760406,0.649448,-0.000000
2.297385,0.394122,-7.269438,-0.995185,-0.098018,0.000000
8.318556,4.060906,5.686804,0.923879,0.382684,-0.000000
-1.440489,1.825482,2.440278,0.634393,-0.773010,0.000000
2.254909,-0.575777,23.901813,-0.956940,0.290284,0.000000
-9.136328,-6.485008,-16.443253,0.000000,-0.000000,1.000000
-4.837765,10.799598,-20.046859,-0.382684,0.923879,0.000000
2.373004,11.595272,-17.278548,0.233446,0.972370,-0.000000
-1.345853,-1.903147,17.633055,0.634393,0.773010,0.000000
-8.369399,8.407838,-19.076044,-0.649448,0.760406,0.000000
-0.660015,-5.865993,25.017376,-0.078459,-0.996917,0.000000
-5.295065,2.633227,21.201563,-0.923879,0.382684,0.000000
8.889991,2.548888,3.397337,0.972370,0.233445,-0.000000
0.740692,2.204883,9.825561,-0.290284,-0.956940,0.000000
6.968847,6.067048,1.939351,0.760406,0.649448,-0.000000
0.797938,-9.205156,-8.039776,0.078459,-0.996917,0.000000
2.176945,-0.832791,17.375352,-0.956940,0.290284,0.000000
-2.899571,8.799598,2.473258,-0.382684,0.923879,0.000000
1.420955,-1.841513,-5.016621,-0.634393,0.773010,0.000000
-1.319674,1.924632,-26.472603,0.634393,-0.773010,0.000000
1.311573,-9.164732,4.572179,0.078459,-0.996917,0.000000
7.337139,-5.635835,10.709713,0.760406,-0.649448,0.000000
3.846660,-0.967068,3.730439,1.000000,0.000000,-0.000000
3.846660,-0.966273,19.825133,1.000000,0.000000,-0.000000
-10.491636,-5.518235,-25.101980,-0.852640,-0.522498,-0.000000
-10.982921,0.773427,-31.456619,0.000000,0.000000,-1.000000
7.578617,9.083230,-18.037541,0.649448,0.760406,-0.000000
1.169708,2.011015,12.657986,-0.471397,-0.881921,0.000000
-5.680517,1.611218,21.639563,-0.972370,0.233445,0.000000
1.065805,-2.066552,-15.327748,-0.471397,0.881921,0.000000
4.962313,7.795298,-5.233384,0.522498,0.852640,0.000000
-4.227938,9.935035,-31.456619,0.000000,0.000000,-1.000000
7.831439,-4.903336,-10.628730,0.852640,-0.522498,0.000000
-5.129811,-5.506549,11.514516,-0.000000,0.000000,1.000000
8.036058,4.569428,2.843142,0.852640,0.522498,0.000000
6.787642,4.585722,-31.456619,0.000000,0.000000,-1.000000
1.117623,2.038855,3.159365,-0.471397,-0.881921,0.000000
3.932062,-1.035639,21.163814,0.000000,1.000000,-0.000000
5.799778,-1.114460,13.261688,0.972370,-0.233445,0.000000
11.489009,2.815622,-21.734940,0.972370,0.233446,-0.000000
-2.837643,6.318853,11.514516,0.000000,-0.000000,1.000000
-11.370838,-3.307838,-18.037959,-0.972370,-0.233446,0.000000
5.917938,0.377768,-30.493272,-1.000000,0.000000,0.000000
4.734346,1.035639,31.186852,0.000000,-1.000000,0.000000
-3.766178,-4.541992,28.389127,-0.649448,-0.760406,0.000000
0.350099,-7.905323,11.514516,0.000000,-0.000000,1.000000
-2.085707,1.029969,13.632768,0.881921,-0.471397,0.000000
-9.904559,6.476257,-23.558607,-0.852640,0.522498,0.000000
5.175524,-1.035639,19.414695,0.000000,1.000000,-0.000000
1.673198,1.626047,-10.404433,-0.773010,-0.634393,0.000000
1.952699,-1.278809,23.227336,-0.881921,0.471397,0.000000
5.107617,10.687821,-28.477887,0.382684,0.923879,0.000000
-5.161282,6.163744,-31.456619,0.000000,0.000000,-1.000000
4.337056,11.006998,-21.470289,0.382684,0.923879,-0.000000
8.217666,-4.273071,-6.555411,0.852640,-0.522498,0.000000
-0.081636,9.261531,3.447625,-0.078459,0.996917,0.000000
-2.279134,0.495918,27.392539,0.956940,-0.290284,0.000000
1.696605,-1.597526,-11.070793,-0.773010,0.634393,0.000000
-8.550616,-8.202228,-25.800353,-0.760406,-0.649448,0.000000
1.187126,5.782332,24.578744,0.233445,0.972370,-0.000000
4.823020,7.880657,6.522905,0.522498,0.852640,-0.000000
1.652096,-1.651760,-11.344069,-0.773010,0.634393,0.000000
9.212392,-0.706005,7.548821,0.996917,-0.078459,0.000000
-9.225102,-0.544507,-2.285469,-0.996917,-0.078459,-0.000000
-0.561086,2.259366,-1.063283,0.290284,-0.956940,0.000000
-3.608155,-8.506092,1.814021,-0.382684,-0.923879,0.000000
5.909370,-7.103517,2.116948,0.649448,-0.760406,0.000000
10.557586,-1.291780,-31.456619,0.000000,0.000000,-1.000000
-2.317605,7.270420,11.514516,0.000000,-0.000000,1.000000
3.494092,-4.774375,23.532447,0.649448,-0.760406,0.000000
-3.529965,8.538480,-9.191645,-0.382684,0.923879,0.000000
9.186793,-1.031269,-15.565337,0.996917,-0.078459,0.000000
-7.077825,-5.939452,-13.280825,-0.760406,-0.649448,-0.000000
-5.801699,-1.106456,20.452779,-0.972370,-0.233445,-0.000000
-6.817743,-8.006424,-31.456619,0.000000,0.000000,-1.000000
0.620639,-2.241301,1.730941,-0.290284,0.956940,0.000000
1.011318,-9.188363,-9.773197,0.078459,-0.996917,0.000000
5.133482,7.690406,-0.048408,0.522498,0.852640,0.000000
-2.314047,-0.224948,-28.907725,0.995185,0.098018,-0.000000
-11.755581,-1.395860,-27.705766,-0.996917,-0.078459,0.000000
2.316407,0.200986,8.345931,-0.995185,-0.098018,0.000000
7.903964,6.431741,-16.443253,0.000000,-0.000000,1.000000
-8.064586,4.522875,4.035887,-0.852640,0.522498,0.000000
3.222583,-11.391306,-23.404101,0.233446,-0.972370,0.000000
3.846660,0.064463,-0.943321,1.000000,0.000000,0.000000
-2.457037,11.575097,-23.097835,-0.233446,0.972370,0.000000
3.827795,8.415114,-15.815555,0.382684,0.923879,0.000000
8.887758,2.558191,-0.081197,0.972370,0.233445,-0.000000
-11.505269,2.747895,-17.809989,-0.972370,0.233446,0.000000
-2.170048,-0.855530,-12.919624,0.956940,0.290284,0.000000
0.625926,2.239697,-10.665251,-0.290284,-0.956940,0.000000
8.665190,3.224061,8.152364,0.923879,0.382684,-0.000000
0.987507,-9.190237,3.267571,0.078459,-0.996917,0.000000
5.262498,-1.035639,1.509567,0.000000,1.000000,-0.000000
2.189735,0.790627,-31.354543,-0.956940,-0.290284,0.000000
11.562448,-2.509724,-17.683633,0.972370,-0.233446,0.000000
4.613192,-3.967159,-31.456619,0.000000,-0.000000,-1.000000
8.960492,7.722324,-20.264323,0.760406,0.649448,-0.000000
-1.748826,-1.533894,-8.517818,0.773010,0.634393,0.000000
-6.596860,9.830654,-20.766462,-0.522498,0.852640,0.000000
8.597053,3.388556,-15.922415,0.923879,0.382684,0.000000
3.846660,0.925156,-22.503708,1.000000,0.000000,0.000000
8.190311,-4.317710,-12.019621,0.852640,-0.522498,0.000000
8.551425,-8.201280,-29.298471,0.760406,-0.649448,0.000000
3.819935,-4.496079,15.813402,0.649448,-0.760406,0.000000
-3.289099,2.600436,31.456619,-0.000000,0.000000,1.000000
1.649132,1.654253,-4.916289,-0.634393,-0.773010,0.000000
-0.069500,2.329357,15.195258,0.098018,-0.995185,-0.000000
-4.590647,-3.709211,12.559920,-0.760406,-0.649448,0.000000
9.675353,-3.177066,-31.456619,0.000000,0.000000,-1.000000
5.693779,-1.035639,-5.056956,0.000000,1.000000,0.000000
-5.813733,1.056330,19.915935,-0.972370,0.233445,0.000000
-6.733216,-2.516817,-31.456619,0.000000,0.000000,-1.000000
0.353545,-11.837613,-30.820963,0.078459,-0.996917,0.000000
3.514708,-8.544800,4.681507,0.382684,-0.923879,0.000000
-11.767397,-1.245732,-23.146260,-0.996917,-0.078459,0.000000
7.553582,-4.704562,11.514516,-0.000000,0.000000,1.000000
2.298337,0.384454,-6.626441,-0.995185,-0.098018,0.000000
4.173836,1.035639,8.441733,0.000000,-1.000000,0.000000
7.203417,9.403681,-22.055855,0.649448,0.760406,-0.000000
8.697861,8.029826,-23.842539,0.760406,0.649448,-0.000000
1.588165,1.704287,18.648977,-0.634393,-0.773010,0.000000
1.949811,-1.284212,16.541718,-0.881921,0.471397,0.000000
3.848550,4.471640,29.845574,0.649448,0.760406,-0.000000
-5.525301,-2.077388,21.152513,-0.923879,-0.382684,-0.000000
10.067427,-6.210481,-23.450443,0.852640,-0.522498,0.000000
0.432857,9.233889,-9.246372,0.078459,0.996917,0.000000
-5.729585,-10.362121,-18.900677,-0.522498,-0.852640,0.000000
3.544658,4.731188,13.282484,0.649448,0.760406,0.000000
6.712761,6.366887,-3.223331,0.760406,0.649448,-0.000000
-11.852615,0.162923,-18.722164,-0.996917,0.078459,0.000000
4.344878,-1.035639,1.131242,0.000000,1.000000,-0.000000
-0.415368,6.241834,11.514516,0.000000,-0.000000,1.000000
4.420913,3.907943,13.247468,0.760406,0.649448,0.000000
5.432229,-1.035639,9.433796,0.000000,1.000000,-0.000000
-9.212113,-0.709548,-6.738204,-0.996917,-0.078459,-0.000000
-1.009197,5.825049,20.227622,-0.233445,0.972370,0.000000
-0.671720,-2.225806,-16.986040,0.290284,0.956940,-0.000000
5.240943,-2.738872,29.660092,0.852640,-0.522499,0.000000
1.566055,1.722433,28.206513,-0.634393,-0.773010,0.000000
