x,y,z,nx,ny,nz
36.145781,0.000000,-11.759332,0.000000,-1.000000,0.000000
33.860624,0.000000,-7.560685,-0.000000,-1.000000,0.000000
45.061237,2.874463,-7.935150,0.826524,0.557636,-0.076815
36.289546,4.865063,-6.214402,0.956940,-0.290284,0.000000
34.401457,2.834276,5.451861,-0.826524,0.557636,-0.076816
43.588662,3.069807,-7.281403,-0.995185,0.098018,0.000000
35.183799,3.892697,-3.098566,-0.831198,0.555388,0.025584
43.520081,2.622572,3.882026,-0.956940,0.290284,0.000000
43.613069,3.317612,-2.472507,-0.995185,0.098018,0.000000
33.677270,0.000000,5.330477,-0.000000,-1.000000,0.000000
43.584199,3.024493,-1.942544,-0.995185,0.098018,0.000000
44.070447,4.557870,-0.382846,0.555489,0.831348,-0.017098
33.832002,1.695868,6.743285,-0.976376,0.196102,-0.090743
35.485498,4.608614,8.761315,-0.551131,0.832845,-0.051221
36.147835,2.570760,9.877321,0.956940,0.290284,0.000000
35.719914,4.812319,9.551238,-0.551131,0.832845,-0.051221
35.458247,4.312163,-3.287950,-0.831198,0.555388,0.025584
32.969262,1.929357,-14.128821,-0.968286,0.198315,0.151962
44.500961,2.787853,14.408471,0.817052,0.562125,0.128228
33.810391,0.465117,2.327852,-0.980339,0.195002,-0.030174
37.909324,0.217018,-2.825566,0.471398,0.881920,-0.000000
43.571750,4.070567,3.168402,-0.995185,-0.098018,0.000000
42.229863,0.560510,11.691339,-0.634394,0.773010,0.000000
45.548069,0.435658,-10.547881,0.976376,0.196102,-0.090742
45.386113,2.646867,-4.015948,0.831198,0.555388,-0.025584
35.454062,1.405852,15.765394,0.000000,-0.000000,1.000000
37.795399,0.277912,-2.085353,0.471398,0.881920,-0.000000
36.025677,3.514465,9.841861,0.995185,-0.098018,0.000000
43.296583,1.947660,14.556560,-0.881921,0.471397,0.000000
44.956074,1.229242,-14.834242,0.968286,0.198316,-0.151962
43.640233,4.143538,13.949878,0.817052,0.562125,0.128228
36.089213,2.809108,13.465306,0.995185,0.098018,0.000000
45.058919,0.360496,15.312671,0.968286,0.198316,0.151962
36.565167,1.555618,-14.619788,0.881921,0.471397,-0.000000
43.369712,0.000000,6.281979,0.000000,-1.000000,0.000000
45.746620,0.809193,-7.604247,0.976376,0.196102,-0.090742
42.636858,0.000000,2.781798,0.000000,-1.000000,0.000000
35.914495,4.711543,-5.819007,-0.551130,0.832846,0.051221
45.308366,2.043467,-9.652437,0.976376,0.196102,-0.090742
41.678117,0.182403,7.552864,-0.471396,0.881922,0.000000
35.014015,4.854133,-15.168407,-0.542384,0.835807,0.085121
35.371022,4.251985,4.815446,-0.831197,0.555388,-0.025584
36.245453,2.248956,-13.529862,0.956940,0.290284,-0.000000
36.082319,4.089552,5.986477,0.995185,-0.098018,0.000000
37.267179,0.000000,14.639129,-0.000000,-1.000000,0.000000
34.884095,0.159898,15.765394,0.000000,-0.000000,1.000000
44.432202,4.121440,2.996895,0.831198,0.555388,0.025584
35.957047,4.846778,-7.560044,-0.551130,0.832846,0.051221
44.211478,3.050427,15.101950,0.817047,0.562129,0.128235
35.990560,0.000000,-12.033055,0.000000,-1.000000,0.000000
34.974861,1.770970,-15.765394,0.000000,0.000000,-1.000000
43.566021,2.839926,-14.719069,-0.995185,0.098018,0.000000
34.059494,1.666784,2.000518,-0.980339,0.195001,-0.030175
36.029218,3.550423,4.956045,0.995185,-0.098018,0.000000
36.437495,1.794475,14.800520,0.881921,0.471397,0.000000
36.052397,3.785756,-12.497278,0.995185,-0.098018,0.000000
33.908263,1.257162,4.266665,-0.980339,0.195001,-0.030175
45.061435,0.000000,-8.136102,0.000000,-1.000000,0.000000
33.639001,2.514981,-11.077125,-0.817052,0.562125,0.128228
44.065217,4.552046,0.835914,0.555489,0.831348,0.017098
45.604495,0.000000,9.815850,0.000000,-1.000000,0.000000
34.503908,3.133580,6.522267,-0.826524,0.557636,-0.076816
35.176931,3.850921,-2.414775,-0.831198,0.555388,0.025584
32.946059,1.284009,13.434472,-0.968286,0.198315,-0.151962
45.871229,0.000000,-7.052645,0.000000,-1.000000,0.000000
34.126071,0.000000,-15.337803,0.000000,-1.000000,0.000000
33.618491,1.613747,-8.863155,-0.976376,0.196102,0.090743
34.194390,0.000000,-1.614307,-0.000000,-1.000000,0.000000
37.276331,0.000000,-3.179486,0.000000,-1.000000,0.000000
34.204810,0.000000,-6.104550,0.000000,-1.000000,0.000000
44.299858,3.908155,8.623469,0.826524,0.557636,0.076816
33.731024,0.014378,1.993534,-0.980339,0.195002,-0.030174
36.052610,3.180749,8.378553,0.995185,0.098018,0.000000
38.153661,0.000000,9.940491,0.000000,-1.000000,0.000000
34.178854,2.892701,8.271151,-0.826524,0.557636,-0.076816
33.798060,1.721860,-7.164664,-0.976376,0.196102,0.090743
43.281080,1.918656,3.061919,-0.881921,0.471397,0.000000
36.338530,5.137999,-8.190564,-0.551130,0.832846,0.051221
36.001895,3.882936,-15.765394,0.000000,-0.000000,-1.000000
45.438070,2.373925,-7.514096,0.826524,0.557636,-0.076815
44.695293,0.000000,3.149713,0.000000,-1.000000,0.000000
35.009012,4.131789,-8.333834,-0.826524,0.557636,0.076816
34.611765,2.927922,0.739579,-0.831198,0.555388,-0.025584
45.650533,0.763588,-8.736693,0.976376,0.196102,-0.090742
37.538129,0.465483,-0.558180,0.634392,0.773012,0.000000
45.113937,0.000000,13.160016,0.000000,-1.000000,0.000000
33.203578,0.071534,9.994695,-0.976376,0.196102,-0.090743
36.632505,0.000000,7.532846,-0.000000,-1.000000,0.000000
38.103132,0.113425,12.191014,0.471398,0.881920,0.000000
42.309898,0.626193,-14.914137,-0.634394,0.773010,0.000000
34.083332,0.000000,-2.699249,-0.000000,-1.000000,0.000000
37.056489,0.892661,3.224547,0.773011,0.634393,0.000000
45.876185,0.000000,-0.218309,0.000000,-1.000000,0.000000
35.566004,4.893548,12.038220,-0.542385,0.835807,-0.085121
36.097755,4.232811,15.272609,0.956940,-0.290284,0.000000
42.230072,0.000000,-9.890950,0.000000,-1.000000,0.000000
43.224810,1.813382,2.944145,-0.881921,0.471397,0.000000
36.065855,3.922395,-5.039457,0.995185,-0.098018,0.000000
34.869141,0.000000,9.844436,-0.000000,-1.000000,0.000000
36.477322,5.248701,-14.302361,0.881921,-0.471397,0.000000
37.208828,0.000000,4.544890,0.000000,-1.000000,0.000000
33.400201,0.823665,-9.504484,-0.976376,0.196102,0.090743
36.252289,4.742243,-15.438319,0.956940,-0.290284,0.000000
37.642493,0.379834,3.551898,0.634392,0.773012,0.000000
33.792104,1.122093,5.932612,-0.976376,0.196102,-0.090743
38.149907,0.088423,12.146252,0.471398,0.881920,0.000000
33.591816,0.000000,6.952892,-0.000000,-1.000000,0.000000
36.989311,0.974518,0.937158,0.773011,0.634393,0.000000
33.766162,2.528249,10.065932,-0.826524,0.557636,-0.076816
42.533326,0.816647,-5.307902,-0.773011,0.634393,0.000000
36.827022,1.172269,-5.479729,0.773011,0.634393,-0.000000
36.822834,0.000000,7.025197,0.000000,-1.000000,0.000000
43.416675,4.686973,-1.201202,-0.956940,-0.290286,-0.000000
45.652963,1.866824,-4.634036,0.980339,0.195001,-0.030175
43.965926,4.265965,9.619036,0.826524,0.557636,0.076816
44.824211,3.484002,-4.098707,0.831197,0.555388,-0.025584
34.575280,2.870341,0.674973,-0.831198,0.555388,-0.025584
44.592754,0.000000,2.474862,0.000000,-1.000000,0.000000
43.592735,3.111159,0.619190,-0.995185,0.098018,0.000000
34.782669,0.000000,-11.388382,0.000000,-1.000000,0.000000
42.790468,0.000000,-14.715372,0.000000,-1.000000,0.000000
37.440240,0.000000,-15.507556,0.000000,-1.000000,0.000000
43.484117,4.464651,9.537240,-0.956932,-0.290311,-0.000001
38.030297,0.152356,-3.417039,0.471398,0.881920,-0.000000
43.618062,3.368308,11.986022,-0.995185,0.098018,0.000000
36.187338,0.000000,0.466399,0.000000,-1.000000,0.000000
34.527280,3.588964,-9.576594,-0.826524,0.557636,0.076816
42.796673,1.137536,5.166647,-0.773011,0.634393,0.000000
35.754571,0.000000,-10.809455,0.000000,-1.000000,0.000000
38.206255,0.000000,6.117101,0.000000,-1.000000,0.000000
42.988985,1.372185,-1.168803,-0.881921,0.471397,0.000000
45.916845,0.000000,4.530581,0.000000,-1.000000,0.000000
45.858021,0.569735,6.354289,0.980339,0.195001,0.030175
43.550396,2.722508,-5.647409,-0.956940,0.290284,0.000000
37.681885,0.347506,-2.368960,0.634392,0.773012,0.000000
36.142315,2.588956,-11.378414,0.956940,0.290284,-0.000000
41.872453,0.286277,15.293520,-0.471396,0.881922,0.000000
38.217375,0.052360,-8.465048,0.471398,0.881920,0.000000
37.498135,0.000000,-8.400373,0.000000,-1.000000,0.000000
41.941180,0.323593,1.541895,-0.634394,0.773010,0.000000
36.205629,4.588424,6.248450,0.956940,-0.290284,0.000000
44.305907,3.164822,13.954554,0.826524,0.557636,0.076815
37.455915,0.000000,-14.510942,0.000000,-1.000000,0.000000
36.120787,2.659926,0.405499,0.956940,0.290284,-0.000000
43.377264,4.816895,-6.287409,-0.956940,-0.290286,-0.000000
43.590666,3.878513,11.467397,-0.995185,-0.098018,0.000000
43.496325,4.424408,-8.052433,-0.956940,-0.290286,-0.000000
36.084434,4.111025,10.228129,0.995185,-0.098018,0.000000
34.794153,3.675339,-7.332122,-0.826524,0.557636,0.076816
43.602793,3.213279,13.143333,-0.995185,0.098018,0.000000
36.862244,0.000000,15.357614,-0.000000,-1.000000,0.000000
36.566816,5.443815,15.765394,0.000000,0.000000,1.000000
33.488501,0.014394,6.805496,-0.976376,0.196102,-0.090743
44.365841,4.304985,-1.168451,0.831197,0.555388,-0.025584
43.977249,3.803116,-12.857232,0.826524,0.557636,-0.076815
43.299295,5.015934,3.116876,-0.881930,-0.471381,-0.000000
35.858228,0.000000,1.975632,0.000000,-1.000000,0.000000
46.134099,0.109630,0.358320,0.980339,0.195001,0.030175
43.417099,4.685579,6.987770,-0.956941,-0.290283,0.000000
43.561315,4.176514,-6.321111,-0.995185,-0.098018,0.000000
45.748646,0.167654,-8.968873,0.976376,0.196102,-0.090742
34.710931,3.297226,-5.482711,-0.826524,0.557636,0.076816
43.221096,0.000000,2.274748,0.000000,-1.000000,0.000000
34.129616,2.976365,9.408289,-0.826524,0.557636,-0.076816
35.274331,4.973949,-14.686169,-0.542384,0.835807,0.085121
42.178285,0.000000,5.832143,0.000000,-1.000000,0.000000
41.439671,0.054951,-7.386803,-0.471396,0.881922,0.000000
35.687060,4.617006,-6.729010,-0.551130,0.832846,0.051221
36.074416,2.959346,11.301861,0.995185,0.098018,0.000000
35.145894,3.529123,15.765394,0.000000,-0.000000,1.000000
36.137055,2.606298,-11.443603,0.956940,0.290284,-0.000000
34.858906,0.000000,3.843037,-0.000000,-1.000000,0.000000
42.497315,0.000000,2.822921,0.000000,-1.000000,0.000000
45.492113,1.425663,-9.010477,0.976376,0.196102,-0.090742
45.906463,0.863246,2.883718,0.980339,0.195001,0.030175
42.077023,0.000000,14.586222,0.000000,-1.000000,0.000000
36.035557,3.353881,-8.802396,0.995185,0.098018,-0.000000
33.538393,0.000000,14.398434,-0.000000,-1.000000,0.000000
43.583134,3.013677,-5.510114,-0.995185,0.098018,0.000000
42.035565,0.000000,0.731406,0.000000,-1.000000,0.000000
43.312298,1.977061,-10.017848,-0.881921,0.471397,0.000000
34.820774,4.632468,-14.223185,-0.542385,0.835807,0.085122
43.013326,1.417723,4.743225,-0.881921,0.471397,0.000000
44.179509,4.297126,-7.094697,0.826524,0.557636,-0.076815
33.714468,3.090898,13.120966,-0.817052,0.562124,-0.128228
32.842422,0.214993,-15.765394,0.000000,0.000000,-1.000000
34.382498,0.000000,-6.836791,0.000000,-1.000000,0.000000
44.728630,3.678750,-2.976349,0.831197,0.555388,-0.025584
36.919993,1.058983,13.251306,0.773011,0.634393,0.000000
36.645830,1.404706,14.526964,0.881921,0.471397,0.000000
32.836496,0.221991,-15.765394,0.000000,0.000000,-1.000000
32.938829,0.190119,15.765394,0.000000,-0.000000,1.000000
46.094281,0.173216,-1.241030,0.980339,0.195002,-0.030175
45.655056,0.000000,-8.342414,0.000000,-1.000000,0.000000
35.789814,0.000000,8.669065,-0.000000,-1.000000,0.000000
36.239835,2.267477,-3.500706,0.956940,0.290284,0.000000
34.427374,4.044704,-15.765394,0.000000,0.000000,-1.000000
41.907731,0.000000,-12.636636,0.000000,-1.000000,0.000000
44.332799,3.460790,-11.516641,0.826524,0.557636,-0.076815
36.107634,4.265379,10.975019,0.956940,-0.290284,0.000000
44.346986,1.721807,15.765394,0.000000,0.000000,1.000000
35.491739,2.888778,-15.765394,0.000000,0.000000,-1.000000
36.610822,1.470202,-14.484505,0.881921,0.471397,-0.000000
44.908209,2.388360,13.110541,0.826524,0.557636,0.076815
37.072006,0.873754,-7.435162,0.773011,0.634393,0.000000
34.575543,4.158289,-12.313531,-0.817052,0.562124,0.128228
33.864170,1.688070,-6.380314,-0.976376,0.196102,0.090743
37.839546,0.000000,-9.597547,0.000000,-1.000000,0.000000
35.214417,0.000000,-10.170643,0.000000,-1.000000,0.000000
38.314056,0.000683,-10.947280,0.471398,0.881920,0.000000
43.277920,1.912743,3.752956,-0.881921,0.471397,0.000000
33.257466,0.000000,-12.411635,0.000000,-1.000000,0.000000
44.914233,0.000000,-10.584598,0.000000,-1.000000,0.000000
43.587071,3.915008,-3.927157,-0.995185,-0.098015,0.000000
36.053671,3.169975,14.505528,0.995185,0.098018,0.000000
42.441322,0.734050,7.439018,-0.634394,0.773010,0.000000
36.204509,5.617693,-15.765394,0.000000,0.000000,-1.000000
41.749449,0.220531,12.842122,-0.471396,0.881922,0.000000
45.112784,2.157455,-11.510537,0.976376,0.196102,-0.090742
34.436612,2.675574,0.952072,-0.831198,0.555388,-0.025584
35.589999,0.000000,1.498900,-0.000000,-1.000000,0.000000
42.191903,0.000000,14.069647,0.000000,-1.000000,0.000000
42.782900,1.120754,13.069138,-0.773011,0.634393,0.000000
36.204438,2.384166,-12.939022,0.956940,0.290284,-0.000000
43.404413,2.241268,-6.502203,-0.956940,0.290284,0.000000
35.240086,5.044308,-15.595233,-0.542384,0.835807,0.085121
44.521003,2.755244,-14.423712,0.817051,0.562125,-0.128229
36.055379,3.152635,9.826750,0.995185,0.098018,0.000000
45.244557,0.000000,-1.030729,0.000000,-1.000000,0.000000
44.979190,3.098084,-7.194600,0.826524,0.557636,-0.076815
44.348862,3.089417,14.039761,0.826524,0.557636,0.076815
42.549601,0.000000,8.108076,0.000000,-1.000000,0.000000
42.763577,1.097209,10.510796,-0.773011,0.634393,0.000000
42.121600,0.000000,-3.426729,0.000000,-1.000000,0.000000
37.549959,0.000000,4.337341,0.000000,-1.000000,0.000000
42.629689,0.934065,13.282340,-0.773011,0.634393,0.000000
34.278130,3.373572,-10.693791,-0.826524,0.557636,0.076816
44.100922,3.823198,-11.380747,0.826524,0.557636,-0.076815
35.790873,4.765776,-8.030971,-0.551130,0.832846,0.051221
37.741928,0.000000,10.184866,0.000000,-1.000000,0.000000
36.043009,3.690445,-10.734550,0.995185,-0.098018,0.000000
44.029510,1.346066,-15.765394,0.000000,0.000000,-1.000000
36.083149,2.870684,2.164312,0.995185,0.098018,0.000000
45.929438,1.167760,-0.169392,0.980339,0.195002,-0.030175
43.812160,0.000000,-15.410705,0.000000,-1.000000,0.000000
36.096965,2.738456,-7.789023,0.956940,0.290284,-0.000000
37.815548,0.000000,-1.265522,0.000000,-1.000000,0.000000
45.166522,0.000000,-7.735512,0.000000,-1.000000,0.000000
36.093184,2.768792,-12.939667,0.995185,0.098018,0.000000
35.378837,4.060094,0.395886,-0.831198,0.555388,-0.025584
36.094631,2.754104,-11.786793,0.995185,0.098018,0.000000
36.257889,2.207961,2.946319,0.956940,0.290284,0.000000
42.637124,0.943126,4.705389,-0.773011,0.634393,0.000000
45.300489,0.000000,12.794678,0.000000,-1.000000,0.000000
36.557461,1.570034,-13.956848,0.881921,0.471397,-0.000000
38.038573,0.000000,-0.607160,0.000000,-1.000000,0.000000
36.209197,2.368477,14.321098,0.956940,0.290284,0.000000
32.919799,0.000000,12.480656,-0.000000,-1.000000,0.000000
43.564175,4.147471,-13.708767,-0.995185,-0.098015,0.000000
36.946775,0.000000,-10.465394,0.000000,-1.000000,0.000000
34.416155,0.000000,-5.604195,0.000000,-1.000000,0.000000
34.223759,3.504008,11.686817,-0.817051,0.562125,-0.128228
33.536931,0.000000,11.710379,-0.000000,-1.000000,0.000000
44.758022,3.720661,-1.111642,0.831198,0.555388,-0.025584
43.522915,4.804962,-6.157052,0.555488,0.831348,-0.017098
33.786227,0.000000,11.529743,-0.000000,-1.000000,0.000000
41.876214,0.288288,-3.581516,-0.471396,0.881922,0.000000
36.036290,3.622223,11.807753,0.995185,-0.098018,0.000000
33.762337,0.182360,2.061771,-0.980339,0.195002,-0.030174
34.677908,3.659705,15.765394,0.000000,-0.000000,1.000000
37.628745,0.391116,8.068480,0.634392,0.773012,0.000000
34.428067,2.638137,0.416992,-0.831198,0.555388,-0.025584
36.703135,1.323226,-10.348266,0.773011,0.634393,-0.000000
45.393725,2.623279,4.280679,0.831197,0.555388,0.025584
43.471360,2.461963,-13.805879,-0.956940,0.290284,0.000000
42.724672,0.000000,8.367116,0.000000,-1.000000,0.000000
42.717362,0.000000,-3.676285,0.000000,-1.000000,0.000000
43.038828,0.000000,15.046009,0.000000,-1.000000,0.000000
42.970348,1.349160,-15.240654,-0.773011,0.634393,0.000000
44.179772,1.454456,15.765394,0.000000,0.000000,1.000000
45.932883,0.685055,-3.176913,0.980339,0.195002,-0.030175
45.020958,0.000000,0.341006,0.000000,-1.000000,0.000000
43.601817,3.765290,-9.643516,-0.995184,-0.098029,-0.000000
44.155287,4.378431,6.351209,0.555489,0.831348,0.017098
37.320288,0.644260,4.570254,0.634392,0.773012,-0.000000
45.167030,1.325470,12.724844,0.976376,0.196102,0.090742
43.571563,4.072457,-14.154799,-0.995185,-0.098015,0.000000
42.426226,0.721661,-8.252311,-0.634394,0.773010,0.000000
44.779855,0.000000,-6.955701,0.000000,-1.000000,0.000000
36.364577,0.000000,-2.076965,0.000000,-1.000000,0.000000
33.448229,1.123578,9.635845,-0.976376,0.196102,-0.090743
32.986090,2.601268,15.615666,-0.817052,0.562124,-0.128228
34.372524,0.000000,3.151890,-0.000000,-1.000000,0.000000
45.891673,1.129108,-1.646124,0.980339,0.195002,-0.030175
36.703878,0.000000,-0.664324,0.000000,-1.000000,0.000000
32.782055,1.080530,-14.213937,-0.968286,0.198316,0.151962
36.712603,5.781456,14.929349,-0.189593,0.981412,-0.029755
43.657561,4.465494,-10.683737,0.551130,0.832846,-0.051221
37.130345,0.802668,11.619793,0.773011,0.634393,0.000000
33.790120,0.516125,-3.316080,-0.980339,0.195001,0.030174
33.475568,0.697785,-8.421511,-0.976376,0.196102,0.090743
37.339777,0.628265,-7.051447,0.634392,0.773012,-0.000000
33.207432,1.271225,-11.752343,-0.968286,0.198316,0.151962
45.029271,2.094678,12.544790,0.976376,0.196102,0.090742
44.685454,3.597482,-6.143249,0.831197,0.555388,-0.025584
37.640322,0.381616,4.030128,0.634392,0.773012,0.000000
42.311416,0.000000,-6.657168,0.000000,-1.000000,0.000000
35.150347,3.910405,-4.569791,-0.831197,0.555388,0.025584
43.411331,4.704594,6.366591,-0.956941,-0.290283,0.000000
43.918848,4.062715,11.601071,0.826524,0.557636,0.076816
32.635742,0.897325,14.907143,-0.968286,0.198315,-0.151962
35.683781,0.000000,-12.695343,0.000000,-1.000000,0.000000
45.614470,1.158256,-8.271812,0.976376,0.196102,-0.090742
42.568722,0.859777,-9.190058,-0.773011,0.634393,0.000000
42.668143,0.980922,9.374106,-0.773011,0.634393,0.000000
44.261775,0.000000,-7.962983,0.000000,-1.000000,0.000000
43.049760,1.485887,11.266725,-0.881921,0.471397,0.000000
43.617807,3.365710,-14.992605,-0.995185,0.098018,0.000000
34.976565,0.000000,-15.174398,0.000000,-1.000000,0.000000
34.887569,3.738733,-6.787189,-0.826524,0.557636,0.076816
37.645460,0.377399,-7.066166,0.634392,0.773012,0.000000
45.687540,2.169829,-1.552555,0.980339,0.195001,-0.030175
43.597604,3.160592,11.907605,-0.995185,0.098018,0.000000
43.516631,2.611199,12.154433,-0.956940,0.290284,0.000000
41.891216,0.296306,-15.303953,-0.471396,0.881922,0.000000
36.218036,4.629327,-4.840858,0.956930,-0.290318,0.000001
42.555754,0.843976,-2.896935,-0.773011,0.634393,0.000000
34.094288,3.978485,14.591803,-0.817051,0.562125,-0.128228
36.095635,4.224755,-3.757378,0.995185,-0.098018,0.000000
34.500923,3.064682,-6.054221,-0.826524,0.557636,0.076816
42.296005,0.000000,-5.683393,0.000000,-1.000000,0.000000
43.573666,4.051108,-14.670271,-0.995185,-0.098015,0.000000
42.941803,1.314379,9.620823,-0.773011,0.634393,0.000000
36.729636,5.677731,-13.971008,0.773013,-0.634390,0.000000
35.088936,4.433949,-10.188243,-0.551130,0.832846,0.051221
44.787355,0.000000,1.365106,0.000000,-1.000000,0.000000
42.634907,0.940423,-1.392276,-0.773011,0.634393,0.000000
44.499835,3.333148,10.645961,0.826524,0.557636,0.076815
36.836522,0.000000,-6.451205,0.000000,-1.000000,0.000000
35.336624,0.000000,-10.632004,0.000000,-1.000000,0.000000
45.022314,0.000000,-9.622216,0.000000,-1.000000,0.000000
36.129015,2.632804,-15.436436,0.956940,0.290284,-0.000000
35.919018,4.904572,-8.908954,-0.551130,0.832846,0.051221
36.769166,1.242767,13.397668,0.773011,0.634393,0.000000
42.379445,0.000000,-12.438616,0.000000,-1.000000,0.000000
42.838742,1.188797,6.499273,-0.773011,0.634393,0.000000
34.763887,0.000000,3.484099,-0.000000,-1.000000,0.000000
38.065878,0.000000,-13.418123,0.000000,-1.000000,0.000000
43.325883,2.002477,6.793931,-0.881921,0.471397,0.000000
43.608390,3.270100,-4.225533,-0.995185,0.098018,0.000000
43.514280,2.603451,-14.490539,-0.956940,0.290284,0.000000
41.713423,0.000000,-7.322714,0.000000,-1.000000,0.000000
35.065010,0.000000,7.582242,-0.000000,-1.000000,0.000000
36.001358,0.000000,8.642392,-0.000000,-1.000000,0.000000
34.103121,2.242857,15.765394,-0.000000,-0.000000,1.000000
35.107626,0.000000,-12.025591,0.000000,-1.000000,0.000000
44.891474,1.911134,-14.355974,0.968286,0.198316,-0.151962
36.025050,3.460564,-15.101939,0.995185,0.098018,-0.000000
36.366676,0.000000,-10.050654,0.000000,-1.000000,0.000000
44.496384,2.899971,13.827708,0.826524,0.557636,0.076815
43.528987,2.651933,-8.194588,-0.956940,0.290284,0.000000
38.148559,0.000000,7.616346,0.000000,-1.000000,0.000000
36.340452,0.000000,2.543223,0.000000,-1.000000,0.000000
35.401851,4.150834,-1.618024,-0.831198,0.555388,0.025584
36.510769,5.446303,-11.350246,-0.551130,0.832846,0.051222
32.628306,0.000000,15.170296,-0.000000,-1.000000,0.000000
43.594349,3.841109,-13.462926,-0.995184,-0.098029,-0.000000
34.877235,4.607859,13.621800,-0.542384,0.835807,-0.085122
33.725630,2.515386,10.408670,-0.826524,0.557636,-0.076816
43.591944,3.865539,9.879920,-0.995185,-0.098019,-0.000000
33.751127,1.571301,-7.344281,-0.976376,0.196102,0.090743
43.579269,3.994225,1.058416,-0.995185,-0.098019,-0.000000
34.348464,2.797348,-5.753973,-0.826524,0.557636,0.076816
42.805610,0.000000,7.049717,0.000000,-1.000000,0.000000
34.062172,1.943064,3.698933,-0.980339,0.195001,-0.030175
36.170167,0.000000,-3.928120,0.000000,-1.000000,0.000000
36.029663,3.554938,2.253557,0.995185,-0.098018,0.000000
37.028994,0.926164,-8.997781,0.773011,0.634393,-0.000000
38.024121,0.000000,-11.391099,0.000000,-1.000000,0.000000
43.243897,0.000000,-6.536360,0.000000,-1.000000,0.000000
35.242761,3.955704,2.550695,-0.831197,0.555388,-0.025584
33.142131,1.910333,13.002490,-0.968286,0.198315,-0.151962
33.905403,0.843843,-1.688524,-0.980339,0.195002,0.030175
43.504254,4.862383,3.971441,0.555489,0.831348,0.017098
35.402950,4.101989,-0.521952,-0.831198,0.555388,0.025584
37.733030,0.311249,6.836269,0.471398,0.881920,-0.000000
34.754761,3.231824,15.765394,0.000000,-0.000000,1.000000
43.349929,4.907007,5.681494,-0.956937,-0.290294,0.000000
36.095486,2.745424,-0.974079,0.995185,0.098018,0.000000
43.628797,3.477301,12.006019,-0.995185,0.098018,0.000000
46.059303,0.493277,0.309058,0.980339,0.195002,0.030175
43.105134,1.589485,-1.336185,-0.881921,0.471397,0.000000
43.612478,3.657049,-13.393614,-0.995185,-0.098019,0.000000
43.107101,0.000000,0.099655,0.000000,-1.000000,0.000000
33.802582,1.425289,6.475090,-0.976376,0.196102,-0.090743
34.514235,0.000000,2.007864,-0.000000,-1.000000,0.000000
34.187838,2.332155,2.130677,-0.980339,0.195001,-0.030175
34.022181,2.678565,8.402427,-0.826524,0.557636,-0.076816
35.761155,4.721706,-7.634170,-0.551130,0.832846,0.051221
38.084274,0.123505,0.294337,0.471398,0.881920,0.000000
33.921047,3.533214,-15.765394,0.000000,0.000000,-1.000000
37.492421,0.502994,-0.324035,0.634392,0.773012,0.000000
33.575021,0.000000,5.979203,-0.000000,-1.000000,0.000000
34.513971,3.375333,8.168967,-0.826524,0.557636,-0.076816
35.382297,0.000000,8.559303,-0.000000,-1.000000,0.000000
43.826370,4.396315,-9.992214,0.551130,0.832846,-0.051221
41.375884,0.020856,15.055657,-0.471396,0.881922,0.000000
43.479220,4.480793,0.043710,-0.956940,-0.290286,-0.000000
43.828985,4.706149,-1.017830,0.555489,0.831348,-0.017098
43.618594,3.373707,3.362959,-0.995185,0.098018,0.000000
43.613040,3.651346,-14.569661,-0.995185,-0.098019,0.000000
42.648009,0.956388,4.461855,-0.773011,0.634393,0.000000
36.251480,4.739578,-5.671538,0.956938,-0.290292,0.000001
34.123202,2.389834,4.931447,-0.831198,0.555388,-0.025584
36.086331,4.130288,-11.871251,0.995185,-0.098018,0.000000
34.901939,0.000000,0.040037,-0.000000,-1.000000,0.000000
43.535857,4.294086,-5.281377,-0.956943,-0.290276,0.000000
42.607460,0.906979,15.293580,-0.773011,0.634393,0.000000
41.672744,0.000000,-5.537813,0.000000,-1.000000,0.000000
45.365830,2.237177,8.615511,0.976376,0.196102,0.090742
36.109498,4.271525,1.984786,0.956940,-0.290284,0.000000
36.487827,1.700311,14.254133,0.881921,0.471397,0.000000
45.181756,0.000000,-13.231596,0.000000,-1.000000,0.000000
38.280017,0.000000,-1.027105,0.000000,-1.000000,0.000000
43.686202,4.266933,12.621795,0.826524,0.557636,0.076816
35.086291,0.000000,-4.694242,0.000000,-1.000000,0.000000
34.631898,4.395193,13.096895,-0.542384,0.835807,-0.085122
43.576439,4.022962,-0.385701,-0.995185,-0.098019,-0.000000
43.559518,4.194762,-7.400185,-0.995185,-0.098018,0.000000
42.352745,0.661357,1.529824,-0.634394,0.773010,0.000000
44.964922,2.142904,13.132960,0.976376,0.196102,0.090742
34.870048,3.617395,-6.094868,-0.826524,0.557636,0.076816
34.676339,3.594514,8.013034,-0.826524,0.557636,-0.076816
43.623163,3.420094,2.634851,-0.995185,0.098018,0.000000
43.085843,0.243430,15.765394,-0.000000,-0.000000,1.000000
42.527763,0.809868,2.496528,-0.773011,0.634393,0.000000
36.249371,2.236042,-1.882644,0.956940,0.290284,0.000000
37.571138,0.438393,-2.437495,0.634392,0.773012,0.000000
42.975854,1.355869,-3.336961,-0.773011,0.634393,0.000000
42.108773,0.000000,-5.495978,0.000000,-1.000000,0.000000
35.631082,0.000000,2.373708,-0.000000,-1.000000,0.000000
45.850145,1.340126,1.631633,0.980339,0.195002,0.030175
34.546190,0.000000,4.832476,-0.000000,-1.000000,0.000000
45.757656,0.109630,-8.997322,0.976376,0.196102,-0.090742
42.479961,0.765760,15.500322,-0.634394,0.773010,0.000000
41.547850,0.112774,-12.433680,-0.471396,0.881922,0.000000
43.591961,3.103302,13.126969,-0.995185,0.098018,0.000000
35.135517,3.803338,-2.727330,-0.831198,0.555388,0.025584
34.773847,3.405892,-5.594591,-0.826524,0.557636,0.076816
43.715663,3.749595,15.196202,0.817051,0.562125,0.128228
33.524690,2.630116,15.765394,0.000000,-0.000000,1.000000
43.101719,0.000000,-11.775812,0.000000,-1.000000,0.000000
33.774631,0.262663,-2.181308,-0.980339,0.195001,0.030174
45.044507,0.790325,-14.843555,0.968286,0.198316,-0.151962
32.771622,0.874131,14.011063,-0.968286,0.198315,-0.151962
44.345184,0.519134,15.765394,-0.000000,-0.000000,1.000000
44.242368,4.224157,6.934500,0.831197,0.555388,0.025584
36.141337,4.376484,13.109103,0.956940,-0.290284,0.000000
42.772930,1.108606,6.342807,-0.773011,0.634393,0.000000
44.857552,0.000000,-10.133205,0.000000,-1.000000,0.000000
35.830428,0.000000,13.041413,-0.000000,-1.000000,0.000000
36.881246,1.106196,2.492085,0.773011,0.634393,0.000000
37.782668,0.284717,9.952505,0.471398,0.881920,-0.000000
44.917624,0.898387,15.511022,0.968286,0.198316,0.151962
33.881115,0.724457,-1.706097,-0.980339,0.195001,0.030174
43.613716,3.324181,-12.724055,-0.995185,0.098018,0.000000
38.051053,0.000000,-1.774869,0.000000,-1.000000,0.000000
45.050481,2.509702,-10.698836,0.826524,0.557636,-0.076815
43.686830,2.607802,-15.765394,0.000000,0.000000,-1.000000
34.914069,4.642310,-13.725361,-0.542385,0.835807,0.085122
44.388512,0.000000,11.472684,0.000000,-1.000000,0.000000
36.594976,1.499849,-10.326283,0.881921,0.471397,-0.000000
44.646005,0.000000,13.045732,0.000000,-1.000000,0.000000
36.943347,1.030525,-5.684313,0.773011,0.634393,-0.000000
43.820363,4.696679,-1.758409,0.555489,0.831348,-0.017098
33.139408,0.690594,15.765394,0.000000,-0.000000,1.000000
37.254272,0.698438,-3.630488,0.634392,0.773012,-0.000000
36.292859,2.092680,-7.514164,0.956940,0.290284,0.000000
34.583019,3.319044,7.017394,-0.826524,0.557636,-0.076816
33.946177,1.312948,3.395419,-0.980339,0.195001,-0.030175
36.076433,2.938866,8.911854,0.995185,0.098018,0.000000
45.808853,1.295526,-3.261358,0.980339,0.195002,-0.030175
44.809473,3.563493,-2.851900,0.831198,0.555388,-0.025584
44.645071,3.332052,9.091194,0.826524,0.557636,0.076816
37.243916,0.706936,3.200624,0.634392,0.773012,-0.000000
33.711838,1.218119,-7.003777,-0.976376,0.196102,0.090743
32.360104,0.113608,15.640707,-0.968286,0.198315,-0.151962
33.520258,1.592276,-9.873716,-0.976376,0.196102,0.090743
44.010876,3.363448,-15.007927,0.817051,0.562126,-0.128227
41.883350,0.000000,10.872702,0.000000,-1.000000,0.000000
33.619489,0.000000,-13.616734,0.000000,-1.000000,0.000000
43.456642,2.413443,15.347462,-0.956940,0.290284,0.000000
43.617306,3.360629,-0.786408,-0.995185,0.098018,0.000000
35.162256,4.520980,10.814437,-0.551131,0.832845,-0.051221
32.525011,0.000000,-14.458286,-0.000000,-1.000000,0.000000
34.701510,3.717762,8.636908,-0.826524,0.557636,-0.076816
35.498882,4.542752,-7.546420,-0.551130,0.832846,0.051221
34.756217,3.340289,-4.998334,-0.831197,0.555388,0.025584
35.101053,0.000000,8.655384,-0.000000,-1.000000,0.000000
35.358479,0.000000,-15.662509,0.000000,-1.000000,0.000000
44.689251,0.000000,-8.029153,0.000000,-1.000000,0.000000
35.142372,3.879509,4.158153,-0.831197,0.555388,-0.025584
36.136847,4.361683,-0.592626,0.956940,-0.290284,0.000000
34.024671,0.000000,-8.905292,0.000000,-1.000000,0.000000
43.246298,0.000000,0.420272,0.000000,-1.000000,0.000000
35.553824,4.533029,-6.797162,-0.551130,0.832846,0.051221
41.727820,0.208970,-15.038736,-0.471396,0.881922,0.000000
37.354557,0.000000,-3.856633,0.000000,-1.000000,0.000000
36.044527,3.262816,8.850299,0.995185,0.098018,0.000000
42.462607,0.751518,-0.821804,-0.634394,0.773010,0.000000
45.802701,1.288115,-3.509111,0.980339,0.195001,-0.030175
42.743833,1.073151,-1.103120,-0.773011,0.634393,0.000000
45.267615,0.000000,-3.041190,0.000000,-1.000000,0.000000
36.107254,4.264125,13.514075,0.956940,-0.290284,0.000000
35.130143,3.706293,0.795225,-0.831198,0.555388,-0.025584
36.334761,4.981988,10.756055,0.881923,-0.471393,0.000000
43.356761,2.084179,6.693085,-0.956940,0.290284,0.000000
42.037285,0.402465,-8.320705,-0.634394,0.773010,0.000000
42.368470,0.674262,12.063304,-0.634394,0.773010,0.000000
42.628533,0.932657,-12.754933,-0.773011,0.634393,0.000000
44.764647,2.010732,-15.034120,0.968286,0.198316,-0.151962
45.467812,1.612672,8.867805,0.976376,0.196102,0.090742
33.011055,2.422411,-15.765394,0.000000,0.000000,-1.000000
36.522931,1.634634,-5.939795,0.881921,0.471397,-0.000000
45.133333,2.725126,8.243506,0.826524,0.557636,0.076816
45.955176,0.000000,-6.195828,0.000000,-1.000000,0.000000
42.593358,0.889796,-14.308532,-0.773011,0.634393,0.000000
36.033421,3.593092,9.792785,0.995185,-0.098018,0.000000
42.056646,0.000000,8.496500,0.000000,-1.000000,0.000000
43.152872,0.000000,-6.002541,0.000000,-1.000000,0.000000
36.308894,4.928844,-13.311807,0.956940,-0.290284,0.000000
33.809863,3.771717,-15.497699,-0.817052,0.562124,0.128228
42.734890,1.062254,-12.192555,-0.773011,0.634393,0.000000
41.383037,0.000000,6.018609,0.000000,-1.000000,0.000000
36.384219,5.728224,15.266021,-0.189593,0.981412,-0.029755
36.152907,2.554039,6.117701,0.956940,0.290284,-0.000000
43.395089,2.210530,3.949014,-0.956940,0.290284,0.000000
36.585941,0.000000,-9.155230,0.000000,-1.000000,0.000000
36.765070,0.000000,-5.633212,0.000000,-1.000000,0.000000
33.636881,0.000000,10.626175,-0.000000,-1.000000,0.000000
37.413203,0.568006,-9.898152,0.634392,0.773012,-0.000000
33.606327,0.166158,5.865690,-0.976376,0.196102,-0.090743
35.970761,1.766952,-15.765394,0.000000,0.000000,-1.000000
43.119929,1.617163,2.942883,-0.881921,0.471397,0.000000
34.415040,3.881619,12.123370,-0.817051,0.562125,-0.128228
42.305498,0.000000,8.183833,0.000000,-1.000000,0.000000
34.613251,0.000000,-1.959522,-0.000000,-1.000000,0.000000
35.020096,3.541843,-0.800606,-0.831198,0.555388,0.025584
38.262810,0.000000,5.174413,0.000000,-1.000000,0.000000
33.121306,1.982027,-13.228748,-0.968286,0.198315,0.151962
32.654178,0.091617,13.738192,-0.968286,0.198316,-0.151962
43.498822,2.552490,-4.730486,-0.956940,0.290284,0.000000
37.432946,0.000000,8.727706,0.000000,-1.000000,0.000000
33.838390,1.061324,-5.271180,-0.980339,0.195001,0.030174
45.216307,0.000000,-13.685190,0.000000,-1.000000,0.000000
44.677626,0.644140,15.765394,0.000000,0.000000,1.000000
44.236730,2.980308,15.248429,0.817051,0.562125,0.128228
32.955052,0.000000,13.515573,-0.000000,-1.000000,0.000000
41.415782,0.042182,-7.052808,-0.471396,0.881922,0.000000
44.273177,0.000000,-0.270067,0.000000,-1.000000,0.000000
44.327249,4.219170,-4.285111,0.831197,0.555388,-0.025584
44.450648,3.460063,10.253879,0.826524,0.557636,0.076816
34.564883,0.000000,-8.144777,0.000000,-1.000000,0.000000
41.604345,0.142971,1.113893,-0.471396,0.881922,0.000000
34.664182,3.352506,6.387018,-0.826524,0.557636,-0.076816
36.848222,0.000000,0.310044,0.000000,-1.000000,0.000000
41.462222,0.000000,14.707730,0.000000,-1.000000,0.000000
36.339213,0.000000,-12.255861,0.000000,-1.000000,0.000000
37.589344,0.000000,6.647554,0.000000,-1.000000,0.000000
32.844098,0.521605,-13.089192,-0.968287,0.198315,0.151962
36.414281,1.837906,-2.506646,0.881921,0.471397,-0.000000
32.841273,0.472373,13.042944,-0.968286,0.198316,-0.151962
34.473801,0.000000,-1.679123,-0.000000,-1.000000,0.000000
43.860626,4.268306,10.735047,0.826524,0.557636,0.076816
36.722801,1.299262,-13.500566,0.773011,0.634393,-0.000000
44.404178,3.695386,9.045578,0.826524,0.557636,0.076816
34.035029,3.000187,-10.598963,-0.826524,0.557636,0.076816
42.912620,1.278818,1.481058,-0.773011,0.634393,0.000000
36.010121,5.555958,15.712543,-0.542384,0.835807,-0.085122
35.550398,0.000000,-8.662030,0.000000,-1.000000,0.000000
46.063766,0.481652,0.239178,0.980339,0.195002,0.030175
36.050451,3.202666,10.459831,0.995185,0.098018,0.000000
35.286636,3.980384,-1.661020,-0.831198,0.555388,0.025584
42.081606,0.000000,1.189907,0.000000,-1.000000,0.000000
41.494723,0.084377,-8.921713,-0.471396,0.881922,0.000000
34.428524,4.306956,-13.902043,-0.817052,0.562124,0.128228
45.502224,1.280021,9.216427,0.976376,0.196102,0.090742
34.678842,3.242465,-5.388572,-0.831197,0.555388,0.025584
45.143369,2.908903,6.214039,0.831197,0.555388,0.025584
43.277279,1.911545,6.889207,-0.881921,0.471397,0.000000
44.771790,2.595966,-13.071281,0.826524,0.557636,-0.076815
36.235159,4.685774,-13.503406,0.956940,-0.290284,0.000000
36.305872,4.924643,3.810024,-0.555489,0.831348,-0.017097
43.794591,3.616272,-15.277736,0.817051,0.562126,-0.128227
42.794127,1.134434,2.227849,-0.773011,0.634393,0.000000
44.194526,3.657072,-11.579548,0.826524,0.557636,-0.076815
32.848184,1.164582,13.902262,-0.968286,0.198315,-0.151962
45.121852,2.465544,10.251446,0.826524,0.557636,0.076815
36.226199,4.656235,-4.811646,0.956944,-0.290272,-0.000001
45.781999,0.000000,2.915675,0.000000,-1.000000,0.000000
42.081923,0.439098,-11.383817,-0.634394,0.773010,0.000000
35.274085,0.000000,-15.542759,0.000000,-1.000000,0.000000
42.524723,0.806164,8.985354,-0.773011,0.634393,0.000000
42.260565,0.000000,5.787490,0.000000,-1.000000,0.000000
44.972287,1.127101,14.864234,0.968286,0.198316,0.151962
33.980640,2.972138,-10.904334,-0.817052,0.562125,0.128228
34.296462,1.293957,-15.765394,0.000000,0.000000,-1.000000
37.851503,0.000000,11.569583,0.000000,-1.000000,0.000000
45.750308,1.526446,-3.671089,0.980339,0.195001,-0.030175
33.817743,0.167764,0.167368,-0.980339,0.195002,-0.030174
36.148517,4.400150,1.443470,0.956940,-0.290284,0.000000
33.188167,2.628796,-14.448739,-0.817052,0.562125,0.128228
43.309554,1.971927,14.961524,-0.881921,0.471397,0.000000
44.077514,4.464177,4.708794,0.555489,0.831348,0.017098
36.855228,1.137899,2.765324,0.773011,0.634393,-0.000000
45.657623,0.000000,9.688893,0.000000,-1.000000,0.000000
43.376572,0.858641,-15.765394,0.000000,0.000000,-1.000000
44.869430,0.000000,8.335319,0.000000,-1.000000,0.000000
45.704933,1.716128,-3.919471,0.980339,0.195001,-0.030175
37.230746,0.717745,10.900673,0.634392,0.773012,0.000000
44.660578,0.000000,-1.435756,0.000000,-1.000000,0.000000
36.072808,3.992992,-1.353725,0.995185,-0.098018,0.000000
43.822291,0.000000,-6.397664,0.000000,-1.000000,0.000000
37.500033,0.496748,6.507856,0.634392,0.773012,0.000000
36.033404,0.000000,15.159917,-0.000000,-1.000000,0.000000
34.063723,2.203769,5.333337,-0.980339,0.195001,-0.030175
44.092977,4.518902,1.545558,0.555489,0.831348,0.017098
45.132655,3.024895,-4.044166,0.831198,0.555388,-0.025584
37.625448,0.393822,-13.350874,0.634392,0.773012,-0.000000
45.112662,1.557748,12.807874,0.976376,0.196102,0.090742
41.628530,0.000000,8.536247,0.000000,-1.000000,0.000000
35.133018,3.783002,2.367070,-0.831197,0.555388,-0.025584
43.612173,3.308516,-14.028131,-0.995185,0.098018,0.000000
45.098313,1.780485,12.480906,0.976376,0.196102,0.090742
36.090312,2.797951,14.891442,0.995185,0.098018,0.000000
45.471158,1.317827,-9.468988,0.976376,0.196102,-0.090742
32.646134,1.324297,-15.398139,-0.968286,0.198315,0.151962
44.337155,0.000000,10.435911,0.000000,-1.000000,0.000000
45.723012,1.946949,1.840468,0.980339,0.195002,0.030175
35.447852,2.707790,-15.765394,0.000000,0.000000,-1.000000
35.767334,4.893226,10.356547,-0.551131,0.832845,-0.051221
45.356947,2.031622,-9.155311,0.976376,0.196102,-0.090742
36.040054,3.308231,-2.625186,0.995185,0.098018,-0.000000
36.031430,3.572882,-9.557054,0.995185,-0.098018,0.000000
35.952975,0.000000,15.226291,-0.000000,-1.000000,0.000000
45.673668,2.094699,-2.488768,0.980339,0.195001,-0.030175
36.402305,5.355757,11.045026,-0.551131,0.832845,-0.051221
36.414005,1.838421,-8.040890,0.881921,0.471397,-0.000000
42.892548,1.254360,7.767164,-0.773011,0.634393,0.000000
34.098909,2.288732,4.739241,-0.980339,0.195001,-0.030175
33.249726,0.660789,-10.686207,-0.968286,0.198316,0.151962
36.524510,5.357482,9.758171,-0.551131,0.832845,-0.051221
36.031730,3.392745,13.652685,0.995185,0.098018,0.000000
41.633618,0.000000,-9.641772,0.000000,-1.000000,0.000000
45.869055,1.379069,0.765602,0.980339,0.195002,0.030175
43.973344,1.940882,-15.765394,0.000000,0.000000,-1.000000
36.076654,2.936623,-12.895561,0.995185,0.098018,-0.000000
42.411030,0.709190,-7.624924,-0.634394,0.773010,0.000000
36.443488,0.000000,-13.522562,0.000000,-1.000000,0.000000
37.324132,0.641105,5.817259,0.634392,0.773012,0.000000
37.619293,0.000000,-1.906973,0.000000,-1.000000,0.000000
35.692217,4.521620,-4.150753,-0.555490,0.831347,0.017098
45.110990,2.290515,-11.242292,0.976376,0.196102,-0.090742
43.219821,0.000000,-7.972012,0.000000,-1.000000,0.000000
45.916224,0.000000,0.034369,0.000000,-1.000000,0.000000
42.809172,1.152766,3.737579,-0.773011,0.634393,0.000000
44.065607,4.566983,-0.096945,0.555489,0.831348,-0.017098
36.046843,3.729369,7.323639,0.995185,-0.098018,0.000000
44.260628,0.000000,-11.157606,0.000000,-1.000000,0.000000
43.602584,4.801168,3.753235,0.555489,0.831348,0.017098
36.031160,3.398527,-10.830888,0.995185,0.098018,-0.000000
44.507588,0.000000,-6.625842,0.000000,-1.000000,0.000000
37.890873,0.000000,11.690417,0.000000,-1.000000,0.000000
35.018491,0.000000,10.292493,-0.000000,-1.000000,0.000000
33.337983,0.419115,9.299674,-0.976376,0.196102,-0.090743
34.534247,2.999170,-4.804762,-0.831197,0.555388,0.025584
43.627519,3.504342,-15.384230,-0.995185,-0.098019,0.000000
45.315604,0.230321,13.492928,0.976376,0.196102,0.090742
33.917745,2.147144,-6.795940,-0.976376,0.196102,0.090743
43.601104,3.772535,3.405212,-0.995185,-0.098015,0.000000
42.263412,0.588043,-3.140834,-0.634394,0.773010,0.000000
35.499327,0.000000,9.942667,-0.000000,-1.000000,0.000000
35.318358,0.000000,5.288629,-0.000000,-1.000000,0.000000
45.229817,1.507893,-11.655034,0.976376,0.196102,-0.090742
32.489468,0.408520,-15.201278,-0.968287,0.198315,0.151962
33.979254,2.905303,10.510288,-0.826524,0.557636,-0.076816
36.300905,2.066155,15.619976,0.956940,0.290284,0.000000
43.437443,2.350153,-6.431399,-0.956940,0.290284,0.000000
43.173631,1.717632,-8.402034,-0.881921,0.471397,0.000000
33.875186,0.457182,0.171476,-0.980339,0.195002,-0.030174
44.867004,3.426821,3.949668,0.831197,0.555388,0.025584
42.479851,0.000000,-0.952963,0.000000,-1.000000,0.000000
44.192668,0.000000,14.409785,0.000000,-1.000000,0.000000
42.970036,1.348780,4.386457,-0.773011,0.634393,0.000000
36.099254,2.730910,15.077927,0.956940,0.290284,-0.000000
33.278754,1.094761,11.067594,-0.968286,0.198316,-0.151962
35.973831,5.362476,15.765394,0.000000,-0.000000,1.000000
45.643643,2.301759,-2.126125,0.980339,0.195001,-0.030175
33.447992,0.000000,-7.500831,-0.000000,-1.000000,0.000000
36.186721,2.442569,1.664734,0.956940,0.290284,-0.000000
37.374240,0.599982,-7.647662,0.634392,0.773012,-0.000000
43.560460,4.185197,-13.555233,-0.995185,-0.098015,0.000000
32.832061,1.042342,-15.765394,0.000000,0.000000,-1.000000
43.395079,2.210497,9.323567,-0.956940,0.290284,0.000000
44.534269,0.000000,-5.610976,0.000000,-1.000000,0.000000
45.301742,2.286318,9.198888,0.976376,0.196102,0.090742
35.563459,0.000000,-1.264589,0.000000,-1.000000,0.000000
37.306074,0.655925,-8.712252,0.634392,0.773012,-0.000000
36.436251,0.000000,13.682208,-0.000000,-1.000000,0.000000
45.072107,2.712470,-8.994153,0.826524,0.557636,-0.076815
43.990283,0.000000,7.293170,0.000000,-1.000000,0.000000
34.723132,4.104754,11.138423,-0.817051,0.562125,-0.128228
44.193646,3.981428,-9.234376,0.826524,0.557636,-0.076815
32.696862,0.000000,-14.125067,0.000000,-1.000000,0.000000
37.513168,0.485967,4.500177,0.634392,0.773012,0.000000
36.254194,4.748523,-14.872069,0.956940,-0.290284,0.000000
45.479507,2.661156,-0.671510,0.831198,0.555388,-0.025584
45.621875,0.000000,-0.845293,0.000000,-1.000000,0.000000
45.744077,1.515550,3.943960,0.980339,0.195002,0.030175
45.567187,1.577817,7.873865,0.976376,0.196102,0.090742
45.668909,0.000000,7.864647,0.000000,-1.000000,0.000000
43.980231,4.515376,-5.379945,0.555489,0.831348,-0.017098
44.931384,2.608985,11.259562,0.826524,0.557636,0.076815
44.065643,0.000000,15.050496,0.000000,-1.000000,0.000000
33.666584,0.000000,14.906878,-0.000000,-1.000000,0.000000
36.625021,5.525027,14.182199,0.881923,-0.471394,-0.000000
33.747400,3.448009,-14.476631,-0.817052,0.562124,0.128228
43.012727,0.000000,10.522024,0.000000,-1.000000,0.000000
33.989255,1.199932,-1.265457,-0.980339,0.195002,0.030175
43.210003,1.785680,-7.144424,-0.881921,0.471397,0.000000
45.563625,0.458114,-10.331967,0.976376,0.196102,-0.090742
45.904710,0.000000,5.395918,0.000000,-1.000000,0.000000
36.350319,5.680896,-14.771611,-0.542384,0.835807,0.085121
37.808026,0.271163,-8.656470,0.471398,0.881920,-0.000000
45.774853,1.306660,-4.294023,0.980339,0.195001,-0.030175
36.394414,5.093589,-7.896628,0.881921,-0.471398,-0.000000
43.469117,4.514097,-7.780867,-0.956940,-0.290286,-0.000000
34.924618,3.710619,-6.184454,-0.826524,0.557636,0.076816
34.822687,0.000000,-7.048567,0.000000,-1.000000,0.000000
35.810627,1.909529,-15.765394,0.000000,0.000000,-1.000000
36.624912,5.746050,14.320293,-0.189593,0.981412,-0.029755
44.375375,4.241915,-2.227839,0.831197,0.555388,-0.025584
45.828317,1.175390,3.405391,0.980339,0.195002,0.030175
43.597937,3.804685,-6.141925,-0.995185,-0.098015,0.000000
43.712198,0.000000,0.294694,0.000000,-1.000000,0.000000
45.900021,1.266690,-0.485784,0.980339,0.195002,-0.030175
35.349930,0.000000,-14.928656,0.000000,-1.000000,0.000000
43.627934,3.468537,1.227222,-0.995185,0.098018,0.000000
37.555574,0.451166,-0.425752,0.634392,0.773012,0.000000
36.064746,3.911136,-7.250306,0.995185,-0.098018,0.000000
34.918142,3.949312,-15.765394,0.000000,0.000000,-1.000000
41.916389,0.309761,-6.042503,-0.471396,0.881922,0.000000
34.112217,0.000000,11.661313,-0.000000,-1.000000,0.000000
33.573030,1.678755,-9.492788,-0.976376,0.196102,0.090743
45.239469,0.000000,9.024629,0.000000,-1.000000,0.000000
36.880669,1.106900,-13.357175,0.773011,0.634393,-0.000000
45.152291,0.000000,10.784653,0.000000,-1.000000,0.000000
34.195530,2.104875,-0.411989,-0.980339,0.195002,0.030175
36.610164,1.471433,-13.962603,0.881921,0.471397,-0.000000
36.318902,2.016347,-13.979256,0.881921,0.471397,-0.000000
45.507741,2.414412,5.110574,0.831197,0.555388,0.025584
34.818963,3.762628,-7.698835,-0.826524,0.557636,0.076816
36.596577,1.496853,9.822138,0.881921,0.471397,0.000000
44.879956,3.481703,-2.337531,0.831198,0.555388,-0.025584
43.874904,0.000000,11.608290,0.000000,-1.000000,0.000000
45.158914,2.928690,-5.279482,0.831197,0.555388,-0.025584
36.103855,2.715745,-1.885006,0.956940,0.290284,-0.000000
35.499038,4.916790,12.693128,-0.542385,0.835807,-0.085121
43.343236,2.039592,4.305822,-0.956940,0.290284,0.000000
34.230989,3.761074,-12.767678,-0.817052,0.562124,0.128228
43.624561,3.534375,-6.763303,-0.995185,-0.098019,0.000000
36.295723,2.083238,9.850988,0.956940,0.290284,0.000000
42.440460,0.733342,9.354052,-0.634394,0.773010,0.000000
41.739035,0.000000,-1.479885,0.000000,-1.000000,0.000000
43.774037,0.000000,-7.809536,0.000000,-1.000000,0.000000
37.452761,0.535542,7.141847,0.634392,0.773012,0.000000
45.976440,0.000000,1.510406,0.000000,-1.000000,0.000000
32.813673,0.208296,12.874177,-0.968286,0.198316,-0.151962
34.757793,3.314050,4.377527,-0.831197,0.555388,-0.025584
45.510658,0.000000,8.588261,0.000000,-1.000000,0.000000
36.179220,4.501366,11.777195,0.956940,-0.290284,0.000000
35.167592,0.000000,13.185873,-0.000000,-1.000000,0.000000
42.011235,0.000000,-2.785913,0.000000,-1.000000,0.000000
44.165713,0.000000,-13.625598,0.000000,-1.000000,0.000000
42.310142,0.626393,5.744888,-0.634394,0.773010,0.000000
36.297349,4.890787,13.375965,0.956940,-0.290284,0.000000
36.435614,1.797995,6.222743,0.881921,0.471397,0.000000
38.267088,0.000000,-0.497659,0.000000,-1.000000,0.000000
35.235200,0.000000,1.923918,-0.000000,-1.000000,0.000000
36.022534,0.000000,-13.400523,0.000000,-1.000000,0.000000
45.455871,2.539986,-4.069802,0.831198,0.555388,-0.025584
34.297000,3.078280,15.765394,0.000000,-0.000000,1.000000
44.341783,3.189198,-13.391586,0.826524,0.557636,-0.076815
32.565321,0.000000,15.198684,-0.000000,-1.000000,0.000000
36.422426,5.640207,-15.765394,0.000000,0.000000,-1.000000
33.382912,2.279885,-11.950539,-0.968286,0.198315,0.151962
41.903231,0.000000,6.933237,0.000000,-1.000000,0.000000
44.102984,4.428998,5.591817,0.555489,0.831348,0.017098
44.206052,0.000000,-13.663273,0.000000,-1.000000,0.000000
33.761003,0.000000,9.236046,-0.000000,-1.000000,0.000000
46.007323,0.106372,-4.498135,0.980339,0.195002,-0.030175
34.680995,0.000000,-8.117400,0.000000,-1.000000,0.000000
36.079830,4.064288,1.797827,0.995185,-0.098018,0.000000
33.543276,0.305103,6.844376,-0.976376,0.196102,-0.090743
32.543999,0.341044,-14.765757,-0.968287,0.198315,0.151962
36.029205,4.734696,3.562792,-0.555490,0.831348,-0.017098
34.925141,3.401169,-0.831801,-0.831198,0.555388,0.025584
32.955209,1.534338,-13.702856,-0.968286,0.198316,0.151962
36.282385,4.841458,-13.459602,0.956940,-0.290284,0.000000
43.886966,4.058214,-11.976794,0.826524,0.557636,-0.076815
36.290126,4.866974,-12.558396,0.956940,-0.290284,0.000000
33.236497,0.400551,10.351521,-0.976376,0.196102,-0.090743
38.016282,0.159847,-8.675104,0.471398,0.881920,-0.000000
36.568114,0.000000,-1.199653,0.000000,-1.000000,0.000000
44.405124,2.190910,-15.765394,0.000000,0.000000,-1.000000
37.430640,0.553697,-13.423796,0.634392,0.773012,-0.000000
36.393608,5.092084,10.314530,0.881923,-0.471393,0.000000
34.774292,4.527428,15.765394,-0.000000,0.000000,1.000000
36.086266,4.129627,9.399998,0.995185,-0.098018,0.000000
43.457426,2.416027,10.990005,-0.956940,0.290284,0.000000
42.266780,0.590807,10.508954,-0.634394,0.773010,0.000000
44.873103,0.000000,-14.403014,0.000000,-1.000000,0.000000
45.813587,0.163869,8.278294,0.976376,0.196102,0.090742
37.975831,0.181469,-10.114354,0.471398,0.881920,-0.000000
34.575510,3.626156,9.327642,-0.826524,0.557636,-0.076816
42.324708,0.000000,-2.536436,0.000000,-1.000000,0.000000
35.272120,3.905317,0.503052,-0.831198,0.555388,-0.025584
36.036561,3.624971,7.318921,0.995185,-0.098018,0.000000
45.822219,0.388089,-7.700861,0.976376,0.196102,-0.090742
36.028250,3.428074,6.949281,0.995185,0.098018,-0.000000
35.776721,4.596960,5.068608,-0.555489,0.831348,-0.017097
32.950408,0.084282,11.841075,-0.968286,0.198316,-0.151962
43.654420,0.000000,-11.793353,0.000000,-1.000000,0.000000
36.348452,1.961063,-11.368859,0.881921,0.471397,-0.000000
33.876992,2.642992,9.706395,-0.826524,0.557636,-0.076816
43.555479,2.739264,3.957629,-0.956940,0.290284,0.000000
36.040385,3.663799,7.880234,0.995185,-0.098018,0.000000
35.125042,0.000000,-7.321492,0.000000,-1.000000,0.000000
34.739776,3.210026,2.704680,-0.831198,0.555388,-0.025584
36.826758,1.172591,11.015058,0.773011,0.634393,0.000000
37.716154,0.000000,1.371213,0.000000,-1.000000,0.000000
44.634695,2.726839,13.596347,0.826524,0.557636,0.076815
