x,y,z,nx,ny,nz
37.114957,7.581393,20.084359,0.189615,0.981524,0.025639
36.455028,7.788039,-12.123124,-0.193259,0.981026,0.015475
39.518773,5.098673,-18.107854,-0.773013,-0.634391,0.000000
28.772561,4.244526,26.923925,0.000000,-0.000000,1.000000
41.018805,6.681977,-7.029841,0.555510,0.831380,-0.014732
33.818834,0.000000,-24.680028,0.000000,-1.000000,0.000000
39.716960,0.000000,11.577967,0.000000,-1.000000,0.000000
33.235644,6.979387,12.727923,-0.542892,0.836588,-0.073408
29.684261,2.723173,8.230063,-0.977413,0.196310,-0.078265
37.181683,0.000000,-9.447020,0.000000,-1.000000,0.000000
39.800653,1.835597,-21.259352,-0.881920,0.471400,0.000000
37.803761,7.306976,-24.310347,0.184182,0.982248,-0.035575
42.033324,0.000000,22.753239,0.000000,-1.000000,0.000000
35.142346,7.550469,13.255224,-0.189615,0.981524,-0.025639
30.666123,4.538293,9.609377,-0.827153,0.558060,-0.066234
42.666494,4.767869,14.731521,0.827153,0.558061,0.066233
39.232736,0.000000,-7.131522,0.000000,-1.000000,0.000000
29.498844,0.000000,17.114486,0.000000,-1.000000,0.000000
28.483965,0.000000,-18.526036,0.000000,-1.000000,0.000000
30.528948,6.457112,23.962306,-0.513026,0.848321,-0.130983
36.520109,0.381414,-22.276565,0.290285,0.956940,-0.000000
32.363023,5.610258,-26.923925,0.000000,0.000000,-1.000000
39.304059,1.153518,-12.072795,-0.634394,0.773010,0.000000
39.396343,5.247856,-6.399425,-0.773013,-0.634391,0.000000
45.034459,0.701364,-1.008248,0.980454,0.195024,-0.026001
41.158942,5.412065,-22.995236,0.818788,0.563320,-0.110714
33.444448,7.443907,-20.913481,-0.184182,0.982248,0.035575
40.089182,2.569484,12.775734,-0.956940,0.290285,0.000000
34.142435,7.037202,26.923925,0.000000,-0.000000,1.000000
35.683172,0.000000,-3.322129,0.000000,-1.000000,0.000000
40.148360,3.564878,-18.895845,-0.995185,-0.098015,0.000000
37.286010,7.462656,22.692449,0.184182,0.982248,0.035575
37.775203,6.166239,1.800784,-0.098017,-0.995185,0.000000
34.398147,2.366626,18.881104,0.956940,0.290285,0.000000
27.768082,2.098676,-20.597946,-0.961436,0.202870,0.185700
42.240740,5.574249,12.977144,0.551317,0.833127,0.044146
37.096971,0.301210,15.975235,0.098017,0.995185,0.000000
44.708915,0.992793,-9.140714,0.977413,0.196311,-0.078266
34.497862,4.437697,7.781649,0.881920,-0.471400,0.000000
37.570722,6.186378,-15.974774,-0.098017,-0.995185,0.000000
29.546717,5.716112,23.010305,-0.513026,0.848321,-0.130983
27.799753,0.000000,23.197439,0.000000,-1.000000,0.000000
39.944052,4.407537,16.192265,-0.881920,-0.471400,0.000000
38.569225,0.000000,-8.352114,0.000000,-1.000000,0.000000
40.977045,5.717776,21.712224,0.542892,0.836588,0.073408
35.674068,0.731408,-10.218593,0.471397,0.881921,-0.000000
29.884638,2.429592,-4.073158,-0.980454,0.195024,0.026001
43.094398,2.266929,-22.056043,0.971180,0.198908,-0.131320
34.467525,0.000000,0.583636,0.000000,-1.000000,0.000000
40.482515,6.066222,21.398501,0.542892,0.836588,0.073408
35.806336,5.850705,22.176068,0.471397,-0.881921,0.000000
36.722606,6.173331,-10.342649,0.098017,-0.995185,0.000000
37.241158,0.292576,4.425413,-0.098017,0.995185,0.000000
42.175173,0.000000,7.769624,0.000000,-1.000000,0.000000
30.850200,4.186444,-1.792837,-0.831268,0.555435,0.022045
36.476062,0.394775,8.015371,0.290285,0.956940,0.000000
28.045969,3.991779,23.298670,-0.788060,0.581789,-0.201203
33.076062,0.000000,17.475131,0.000000,-1.000000,0.000000
34.537080,4.511068,-20.204719,0.881920,-0.471400,0.000000
31.213098,4.742472,2.118181,-0.831267,0.555435,-0.022045
40.045914,0.000000,6.113411,0.000000,-1.000000,0.000000
35.747857,0.691967,-23.795018,0.471397,0.881921,-0.000000
43.460300,4.082623,-10.591793,0.827153,0.558060,-0.066234
37.941012,7.633871,10.644932,0.193259,0.981026,0.015475
36.702911,6.171392,-10.964737,0.098017,-0.995185,0.000000
35.850725,0.636983,1.120041,0.471397,0.881921,0.000000
39.979528,2.208003,-10.833850,-0.956940,0.290285,0.000000
38.538857,7.088238,-23.437386,0.530162,0.841690,-0.102400
41.821406,0.000000,-25.733772,0.000000,-1.000000,0.000000
43.806887,0.000000,-8.186333,0.000000,-1.000000,0.000000
34.420268,4.217710,-11.069914,0.956940,-0.290285,0.000000
35.069901,5.297146,13.210112,0.773013,-0.634391,0.000000
34.159239,0.000000,16.405252,0.000000,-1.000000,0.000000
40.447150,7.076167,6.340092,0.555510,0.831380,0.014732
40.118347,3.845785,7.854191,-0.956940,-0.290285,0.000000
35.551502,0.800818,14.941049,0.634391,0.773013,0.000000
39.253626,5.399285,3.047894,-0.634394,-0.773010,0.000000
35.495251,7.774612,-23.350436,0.184182,0.982248,-0.035575
35.648093,6.323765,26.923925,0.000000,-0.000000,1.000000
38.505561,5.911585,-0.022575,-0.471397,-0.881921,0.000000
42.678790,4.566823,16.055806,0.818788,0.563320,0.110714
31.620242,6.189408,15.671766,-0.542892,0.836588,-0.073408
40.451038,0.000000,-17.010328,0.000000,-1.000000,0.000000
34.431279,4.254007,-23.390182,0.956940,-0.290285,0.000000
37.922585,0.386540,19.529080,-0.290285,0.956940,0.000000
39.235514,0.000000,4.181202,0.000000,-1.000000,0.000000
36.602394,6.154960,8.138547,0.290285,-0.956940,0.000000
41.738302,6.042771,10.409874,0.551317,0.833127,0.044146
41.931329,0.000000,-10.017544,0.000000,-1.000000,0.000000
40.274786,7.200772,-5.807621,0.555510,0.831380,-0.014732
30.193131,0.000000,-24.930064,0.000000,-1.000000,0.000000
34.488731,0.000000,-6.557899,0.000000,-1.000000,0.000000
29.563790,3.664272,-13.984293,-0.818788,0.563319,0.110714
29.626407,4.951312,-19.116035,-0.805898,0.571226,0.155659
41.272847,6.448884,8.558504,0.551316,0.833127,0.044146
35.164595,5.393070,0.825282,0.634390,-0.773013,0.000000
38.513715,0.604187,21.422549,-0.471397,0.881921,0.000000
38.173210,0.462566,5.909133,-0.290285,0.956940,0.000000
29.026370,3.660685,-17.486364,-0.805898,0.571226,0.155659
36.788791,0.331563,6.791996,0.098017,0.995185,-0.000000
34.267073,3.459691,22.710056,0.995185,-0.098015,0.000000
41.359557,0.000000,-18.578796,0.000000,-1.000000,0.000000
27.598996,3.514018,-23.667880,-0.788060,0.581789,0.201203
33.187374,6.903467,12.213625,-0.551317,0.833127,-0.044146
37.802845,0.000000,0.794399,0.000000,-1.000000,0.000000
39.847539,1.923313,-19.619642,-0.881920,0.471400,0.000000
44.674267,2.275186,2.785817,0.980454,0.195024,0.026001
42.098151,3.422645,25.470594,0.805897,0.571227,0.155658
34.911397,5.104008,-17.739626,0.773013,-0.634391,0.000000
36.595712,6.152933,-0.836079,0.290285,-0.956940,0.000000
39.863603,5.881412,26.498326,0.530163,0.841690,0.102400
35.648157,7.792138,-18.766152,-0.189615,0.981524,0.025639
36.933546,0.000000,13.902753,-0.000000,-1.000000,0.000000
36.932072,0.317451,7.896472,0.098017,0.995185,0.000000
44.368033,0.000000,11.803304,0.000000,-1.000000,0.000000
32.626679,2.999836,26.923925,0.000000,0.000000,1.000000
44.514026,1.158612,11.158654,0.977413,0.196311,0.078265
29.743023,2.395564,-6.674480,-0.977413,0.196310,0.078265
43.710624,4.246527,-2.321820,0.831268,0.555435,-0.022045
30.150272,0.000000,-12.610120,0.000000,-1.000000,0.000000
39.047340,7.493382,-2.969227,0.195088,0.980772,-0.005174
39.168244,0.000000,18.438973,0.000000,-1.000000,0.000000
40.270304,0.000000,-4.095617,0.000000,-1.000000,0.000000
36.295075,7.667489,-6.192657,-0.195088,0.980772,0.005174
27.688525,0.000000,-26.463400,0.000000,-1.000000,0.000000
34.448212,2.201583,21.858292,0.956940,0.290285,0.000000
29.466579,0.258640,-3.553909,-0.980454,0.195024,0.026001
42.079686,6.013908,4.728008,0.555510,0.831380,0.014732
44.332686,3.260000,3.721325,0.831268,0.555435,0.022045
35.434127,0.897145,-21.965553,0.634391,0.773013,-0.000000
37.896275,0.000000,10.983901,0.000000,-1.000000,0.000000
31.982763,0.000000,14.352373,-0.000000,-1.000000,0.000000
35.362442,0.955975,-8.567854,0.634391,0.773013,-0.000000
39.704952,1.656555,5.744301,-0.881920,0.471400,0.000000
40.051792,2.446228,21.029663,-0.956940,0.290285,0.000000
31.753522,0.798478,26.923925,0.000000,-0.000000,1.000000
40.824512,1.830738,26.923925,-0.000000,-0.000000,1.000000
27.172693,0.000000,-22.037715,0.000000,-1.000000,0.000000
35.950403,7.586192,-3.777988,-0.195088,0.980772,0.005174
38.064998,7.422284,19.149389,0.189615,0.981524,0.025639
41.760212,5.005281,20.618270,0.818788,0.563320,0.110714
28.516211,0.000000,18.446999,0.000000,-1.000000,0.000000
40.043864,4.091322,-2.272763,-0.956940,-0.290285,0.000000
34.697575,1.700082,23.594533,0.881920,0.471400,0.000000
39.769493,7.360505,-0.927916,0.195088,0.980772,-0.005174
31.565135,6.153805,15.673566,-0.542892,0.836588,-0.073408
29.524352,0.581560,3.797526,-0.980454,0.195024,-0.026001
38.728287,7.080080,22.523692,0.530163,0.841690,0.102400
44.304523,0.000000,13.050361,0.000000,-1.000000,0.000000
39.729343,6.785722,-18.768920,0.542892,0.836588,-0.073408
36.462389,6.112490,24.686986,0.290285,-0.956940,0.000000
30.508631,1.433430,26.923925,0.000000,-0.000000,1.000000
40.555997,1.076249,-26.923925,0.000000,0.000000,-1.000000
41.461697,6.383886,-7.151737,0.555510,0.831380,-0.014732
42.830133,4.178273,-16.913514,0.818788,0.563320,-0.110714
39.318736,1.168993,-20.032766,-0.773013,0.634391,0.000000
29.438312,2.159139,-9.886835,-0.977413,0.196310,0.078266
40.160697,3.071798,8.354393,-0.995185,0.098015,0.000000
34.372816,2.450131,19.551871,0.956940,0.290285,0.000000
33.944156,5.209075,26.923925,0.000000,-0.000000,1.000000
28.237663,0.182444,-16.073360,-0.961436,0.202870,0.185701
39.956304,2.131443,-23.655296,-0.956940,0.290285,0.000000
35.518885,0.000000,24.649337,0.000000,-1.000000,0.000000
38.449740,7.521820,11.395146,0.193259,0.981026,0.015475
38.901622,0.000000,-17.308733,0.000000,-1.000000,0.000000
27.975282,4.231962,-24.270036,-0.788060,0.581789,0.201203
43.296672,4.788532,-4.274942,0.831268,0.555435,-0.022045
30.202638,0.000000,-5.160276,0.000000,-1.000000,0.000000
31.803400,0.000000,21.499041,0.000000,-1.000000,0.000000
40.103232,0.000000,12.709018,0.000000,-1.000000,0.000000
37.052424,0.000000,-26.899914,0.000000,-1.000000,0.000000
28.655596,0.000000,17.828159,0.000000,-1.000000,0.000000
44.203280,1.960177,-13.028836,0.977413,0.196310,-0.078265
39.841497,7.105121,14.049312,0.551317,0.833127,0.044146
41.582901,0.000000,-20.828968,0.000000,-1.000000,0.000000
38.699953,7.386556,15.821288,0.189614,0.981524,0.025639
33.217725,6.583520,5.270796,-0.555510,0.831379,-0.014732
34.134552,7.666827,-23.495616,-0.184182,0.982248,0.035575
37.761678,6.167571,-7.904232,-0.098017,-0.995185,0.000000
34.572386,1.934292,-4.169614,0.881920,0.471400,-0.000000
40.322870,6.549694,17.069337,0.542892,0.836588,0.073408
31.732630,0.000000,6.063249,0.000000,-1.000000,0.000000
36.399691,0.417942,11.752322,0.290285,0.956940,0.000000
38.758608,0.000000,-26.910865,0.000000,-1.000000,0.000000
34.281484,2.905398,0.509970,0.995185,0.098015,0.000000
39.038824,0.000000,-8.828865,0.000000,-1.000000,0.000000
29.348443,0.000000,14.236013,-0.000000,-1.000000,0.000000
32.421167,6.189404,8.306541,-0.551317,0.833127,-0.044146
38.093465,7.603672,-10.655504,0.193259,0.981026,-0.015475
36.474481,0.395255,3.485158,0.290285,0.956940,0.000000
35.374959,5.565711,-23.342710,0.634390,-0.773013,0.000000
36.094248,0.000000,-9.285509,0.000000,-1.000000,0.000000
38.090693,0.220389,26.923925,0.000000,-0.000000,1.000000
41.847841,2.440489,26.923925,-0.000000,-0.000000,1.000000
41.817938,0.000000,17.420378,0.000000,-1.000000,0.000000
42.308043,0.000000,-0.565515,0.000000,-1.000000,0.000000
44.063014,2.772875,-12.742082,0.977413,0.196310,-0.078265
26.445128,1.019066,25.000680,-0.947671,0.208273,-0.241954
35.392195,5.579856,-20.595517,0.634390,-0.773013,0.000000
36.857310,0.324815,2.876863,0.098017,0.995185,-0.000000
32.263533,7.178610,-21.056633,-0.530162,0.841690,0.102400
42.302400,4.681830,-18.254244,0.818788,0.563320,-0.110714
29.238725,2.459296,12.198067,-0.971180,0.198908,-0.131320
40.024336,4.155697,11.278304,-0.956940,-0.290285,-0.000000
42.913916,5.308134,-5.616184,0.831268,0.555435,-0.022045
39.284019,1.137071,-21.117058,-0.634394,0.773010,0.000000
44.760981,1.812144,-2.989092,0.980454,0.195024,-0.026001
35.375118,0.000000,0.220125,0.000000,-1.000000,0.000000
43.467343,2.501749,18.942241,0.971180,0.198908,0.131320
44.679613,1.047160,-9.370284,0.977413,0.196311,-0.078266
43.402967,1.754051,20.550853,0.971180,0.198908,0.131320
41.427868,0.000000,26.355602,0.000000,-1.000000,0.000000
26.588383,2.215303,-26.923925,0.000000,0.000000,-1.000000
39.187522,5.453535,22.293493,-0.634394,-0.773010,0.000000
28.433999,2.147229,17.203311,-0.961436,0.202870,-0.185700
35.162727,1.119876,13.066399,0.634391,0.773013,-0.000000
37.909934,6.128711,-3.137798,-0.290285,-0.956940,0.000000
37.997771,0.000000,21.136145,0.000000,-1.000000,0.000000
36.959692,0.314731,0.756605,0.098017,0.995185,0.000000
41.934135,6.163804,1.757164,0.555510,0.831380,0.014732
33.338625,7.583815,-25.324340,-0.184182,0.982248,0.035575
29.649770,5.588151,-21.516052,-0.530162,0.841690,0.102400
43.328538,0.000000,13.769025,0.000000,-1.000000,0.000000
36.143659,0.000000,-18.247275,0.000000,-1.000000,0.000000
39.994620,4.253659,-15.997684,-0.956940,-0.290285,0.000000
40.200732,6.329532,-20.481665,0.542892,0.836588,-0.073408
40.061784,2.479164,26.394489,-0.956940,0.290285,0.000000
39.344450,6.564777,-23.569186,0.530162,0.841690,-0.102400
44.841933,1.533208,-2.028743,0.980454,0.195024,-0.026001
39.033649,6.462381,-26.019963,0.530163,0.841690,-0.102400
41.548942,5.529958,19.511130,0.818788,0.563320,0.110714
28.706483,0.478310,13.133701,-0.971180,0.198908,-0.131320
42.833570,5.370445,7.075921,0.831268,0.555435,0.022045
29.645754,1.297614,4.590516,-0.980454,0.195024,-0.026001
30.624626,0.000000,-2.560387,0.000000,-1.000000,0.000000
40.126451,3.787328,-23.595648,-0.995185,-0.098015,0.000000
33.751697,7.512886,-21.227320,-0.184182,0.982248,0.035575
28.183156,1.657706,-17.967227,-0.961436,0.202870,0.185701
30.831568,0.000000,25.395899,0.000000,-1.000000,0.000000
44.614745,2.271260,-5.059753,0.980454,0.195025,-0.026001
36.967811,0.313931,22.630008,0.098017,0.995185,0.000000
44.123656,2.171192,-13.493940,0.977413,0.196310,-0.078265
44.540327,0.000000,-4.755284,0.000000,-1.000000,0.000000
44.635357,0.108540,12.277268,0.977413,0.196310,0.078266
37.152251,0.295765,-9.634047,0.098017,0.995185,0.000000
36.909334,6.191723,11.879487,0.098017,-0.995185,0.000000
32.764669,6.293474,5.980767,-0.551317,0.833127,-0.044146
40.136816,3.682093,16.053687,-0.995185,-0.098015,0.000000
42.968128,0.000000,18.940551,0.000000,-1.000000,0.000000
43.269097,2.814044,-19.935346,0.971180,0.198908,-0.131320
31.624136,5.492152,-5.507476,-0.831268,0.555435,0.022045
42.947352,3.149000,-21.283625,0.818788,0.563320,-0.110714
34.262140,3.101803,-23.239433,0.995185,0.098015,-0.000000
41.653637,6.365419,0.956268,0.555510,0.831380,0.014732
31.261554,7.265154,26.581481,-0.177002,0.983172,-0.045191
30.062458,0.000000,11.377558,-0.000000,-1.000000,0.000000
39.904939,4.480711,-7.359884,-0.881920,-0.471400,0.000000
43.710073,0.000000,-20.728236,0.000000,-1.000000,0.000000
38.972691,0.881571,23.121544,-0.634394,0.773010,0.000000
31.960313,6.210490,13.397012,-0.542892,0.836588,-0.073408
34.130648,1.997756,-26.923925,0.000000,0.000000,-1.000000
29.653920,0.000000,14.660658,-0.000000,-1.000000,0.000000
31.449063,7.033828,24.083371,-0.530162,0.841690,-0.102400
30.099622,0.000000,6.348685,0.000000,-1.000000,0.000000
35.552257,0.000000,-15.477235,0.000000,-1.000000,0.000000
34.249664,3.228479,5.192344,0.995185,0.098015,-0.000000
38.225006,0.478278,-23.837312,-0.290285,0.956940,0.000000
29.229405,3.421869,15.223887,-0.818788,0.563319,-0.110714
38.387274,0.000000,16.946945,0.000000,-1.000000,0.000000
34.254569,3.178683,14.724896,0.995185,0.098015,-0.000000
42.831581,0.000000,8.636845,0.000000,-1.000000,0.000000
35.947587,5.926205,-23.339777,0.471397,-0.881921,0.000000
44.048198,0.904987,-17.065093,0.971180,0.198908,-0.131320
34.068486,0.000000,13.902120,-0.000000,-1.000000,0.000000
36.715394,0.338792,16.853751,0.098017,0.995185,-0.000000
40.083286,2.550049,11.653517,-0.956940,0.290285,0.000000
42.966217,5.232332,-5.553905,0.831268,0.555435,-0.022045
28.397535,3.676765,-26.923925,0.000000,0.000000,-1.000000
43.619623,0.000000,-13.809451,0.000000,-1.000000,0.000000
31.625446,0.000000,-25.437339,0.000000,-1.000000,0.000000
32.667845,6.178238,3.133951,-0.555510,0.831379,-0.014732
36.141451,6.015135,9.232595,0.290285,-0.956940,0.000000
37.811691,7.738746,-3.049343,0.195088,0.980772,-0.005174
35.689034,0.723408,3.398930,0.471397,0.881921,-0.000000
29.583898,5.395287,20.965391,-0.805897,0.571226,-0.155659
27.510574,1.081544,-20.819981,-0.961436,0.202870,0.185700
30.462138,6.062459,21.208759,-0.530162,0.841690,-0.102401
38.384575,0.000000,5.433653,0.000000,-1.000000,0.000000
41.035049,6.522491,10.139132,0.551316,0.833127,0.044146
43.691158,0.220149,20.742902,0.971180,0.198908,0.131320
35.746718,5.818838,-23.679494,0.471397,-0.881921,0.000000
41.580061,1.948716,26.923925,-0.000000,-0.000000,1.000000
35.563420,0.791037,-6.172264,0.634391,0.773013,0.000000
44.636197,0.592356,11.053254,0.977413,0.196310,0.078266
40.168990,7.251802,6.470671,0.195088,0.980772,0.005174
42.773229,2.502970,-24.063263,0.961436,0.202870,-0.185700
34.018980,7.267938,-9.574239,-0.193259,0.981026,0.015475
40.111149,3.869513,5.666757,-0.956940,-0.290285,0.000000
38.505832,7.520864,-10.755248,0.193259,0.981026,-0.015475
36.520566,0.381275,7.034058,0.290285,0.956940,0.000000
43.046328,0.000000,2.465932,0.000000,-1.000000,0.000000
28.585114,5.475531,-26.923925,0.000000,0.000000,-1.000000
31.429004,3.117183,26.923925,0.000000,0.000000,1.000000
39.158699,5.477190,12.773274,-0.634394,-0.773010,0.000000
39.093446,0.980672,18.880140,-0.634394,0.773010,0.000000
36.578243,6.147634,20.232380,0.290285,-0.956940,0.000000
39.523733,1.418783,15.981629,-0.773013,0.634391,0.000000
39.407504,1.277157,-18.047512,-0.773013,0.634391,0.000000
40.133321,2.793833,8.975644,-0.995185,0.098015,0.000000
41.789461,4.822774,21.330569,0.818788,0.563320,0.110714
37.145911,6.215023,24.744287,0.098017,-0.995185,0.000000
39.584035,1.492263,15.716408,-0.773013,0.634391,0.000000
38.391699,5.972445,-17.317642,-0.471397,-0.881921,0.000000
36.249078,6.047783,-22.559838,0.290285,-0.956940,0.000000
33.043559,0.000000,-1.500620,0.000000,-1.000000,0.000000
35.521322,0.825586,-5.796479,0.634391,0.773013,0.000000
39.676514,0.000000,-3.127377,0.000000,-1.000000,0.000000
28.540171,0.000000,24.053934,0.000000,-1.000000,0.000000
41.423650,3.553306,26.923925,0.000000,0.000000,1.000000
39.526940,1.422691,-17.080368,-0.773013,0.634391,0.000000
35.745745,5.818318,-5.362460,0.471397,-0.881921,0.000000
29.263695,0.000000,-26.481360,0.000000,-1.000000,0.000000
29.595270,3.636493,13.610148,-0.818788,0.563319,-0.110714
42.661850,2.130016,25.047348,0.961436,0.202870,0.185700
40.123975,0.000000,11.783353,0.000000,-1.000000,0.000000
37.712315,0.338980,10.246713,-0.098017,0.995185,0.000000
41.109993,6.446041,-10.645924,0.551316,0.833127,-0.044146
29.558442,6.100435,-25.453490,-0.513026,0.848321,0.130982
35.815661,5.855689,-16.632295,0.471397,-0.881921,0.000000
44.396151,2.828568,-8.442031,0.977413,0.196311,-0.078266
31.189959,5.009442,-7.037229,-0.827153,0.558060,0.066234
32.209486,7.263767,22.333449,-0.184182,0.982248,-0.035575
34.865451,0.000000,-23.935391,0.000000,-1.000000,0.000000
41.601758,0.000000,-2.500004,0.000000,-1.000000,0.000000
43.827021,2.308191,16.575410,0.971180,0.198908,0.131320
36.961270,0.029197,26.923925,0.000000,-0.000000,1.000000
29.387706,0.644751,6.720339,-0.977413,0.196310,-0.078266
35.078109,0.000000,-8.377909,0.000000,-1.000000,0.000000
32.763708,6.451760,-8.979929,-0.551317,0.833127,0.044146
38.554601,0.626041,5.583453,-0.471397,0.881921,0.000000
37.933734,6.121491,-25.385903,-0.290285,-0.956940,0.000000
40.516023,6.121681,-20.518671,0.542892,0.836588,-0.073408
36.259453,6.050930,-19.016434,0.290285,-0.956940,0.000000
42.403479,0.000000,-0.284435,0.000000,-1.000000,0.000000
28.983712,1.760785,13.025992,-0.971180,0.198908,-0.131320
29.210762,5.534629,23.197705,-0.788060,0.581789,-0.201203
39.767352,4.738117,1.706749,-0.881920,-0.471400,0.000000
41.177389,6.185380,-14.723456,0.551317,0.833127,-0.044146
35.278843,7.445275,-2.387352,-0.195088,0.980772,0.005174
43.368233,1.681744,-20.917259,0.971180,0.198908,-0.131320
36.328201,0.439629,9.537673,0.290285,0.956940,0.000000
32.504025,0.000000,-18.617084,0.000000,-1.000000,0.000000
30.945209,6.418710,-21.635979,-0.530162,0.841690,0.102400
36.382028,0.423301,-4.343355,0.290285,0.956940,-0.000000
33.998349,7.263520,-9.551790,-0.193259,0.981026,0.015475
33.666741,7.499656,21.301879,-0.184182,0.982248,-0.035575
36.154168,6.018992,4.735850,0.290285,-0.956940,0.000000
35.508179,7.484494,1.174388,-0.195088,0.980772,-0.005174
34.336097,2.571177,-2.647454,0.956940,0.290285,-0.000000
27.768672,0.754043,19.125945,-0.961436,0.202870,-0.185700
35.291357,7.675057,16.922749,-0.189615,0.981524,-0.025639
33.057584,6.888182,-13.005368,-0.542892,0.836588,0.073408
34.972608,7.553867,14.640613,-0.189615,0.981524,-0.025639
42.953487,5.150296,-7.925268,0.827153,0.558060,-0.066234
32.240773,0.000000,-9.113099,0.000000,-1.000000,0.000000
42.467374,0.000000,-8.744340,0.000000,-1.000000,0.000000
39.718551,1.681997,20.349155,-0.881920,0.471400,0.000000
29.522863,0.000000,9.117507,0.000000,-1.000000,0.000000
42.753388,4.937498,12.217134,0.827153,0.558060,0.066234
44.185000,3.436662,4.839121,0.831268,0.555435,0.022045
34.708646,1.679370,22.865452,0.881920,0.471400,0.000000
35.874144,0.000000,-17.157254,0.000000,-1.000000,0.000000
33.051286,6.986431,-14.171620,-0.542892,0.836588,0.073408
29.444024,3.296985,13.001245,-0.818788,0.563319,-0.110714
41.605129,6.009195,-12.706615,0.551316,0.833127,-0.044146
42.880394,5.321495,6.543624,0.831268,0.555435,0.022045
39.048259,6.672465,24.217521,0.530163,0.841690,0.102400
33.240222,0.000000,23.749188,0.000000,-1.000000,0.000000
39.994173,0.000000,8.105759,0.000000,-1.000000,0.000000
37.635846,6.179964,15.892006,-0.098017,-0.995185,0.000000
28.210893,3.608265,21.515995,-0.805897,0.571226,-0.155659
39.697921,0.000000,11.900111,0.000000,-1.000000,0.000000
33.508111,0.000000,14.466608,-0.000000,-1.000000,0.000000
33.894725,7.344509,14.597421,-0.189615,0.981524,-0.025639
35.751956,0.000000,-8.680518,0.000000,-1.000000,0.000000
38.870920,0.000000,15.226464,-0.000000,-1.000000,0.000000
41.417053,6.017339,14.901711,0.551317,0.833127,0.044146
35.007407,1.290416,-11.002550,0.773013,0.634391,0.000000
41.689327,0.000000,3.560411,0.000000,-1.000000,0.000000
34.258207,3.141736,-8.495584,0.995185,0.098015,-0.000000
30.001260,3.448033,8.726321,-0.827153,0.558060,-0.066233
40.165172,3.394183,12.007875,-0.995185,-0.098015,0.000000
27.848609,2.323580,20.426729,-0.961436,0.202870,-0.185701
30.254167,6.032899,22.042532,-0.530162,0.841690,-0.102400
36.724467,0.000000,-4.382185,0.000000,-1.000000,0.000000
37.384238,0.000000,-12.576572,0.000000,-1.000000,0.000000
31.615780,7.213484,24.604172,-0.513026,0.848321,-0.130983
29.930806,4.117469,13.575914,-0.818788,0.563319,-0.110714
35.735584,0.000000,14.731337,-0.000000,-1.000000,0.000000
40.124307,3.809100,4.977145,-0.995185,-0.098015,0.000000
39.593109,6.493135,22.870661,0.530162,0.841690,0.102400
37.938092,0.391244,-12.784942,-0.290285,0.956940,0.000000
35.717595,7.747238,16.533748,-0.189615,0.981524,-0.025639
28.751602,0.757641,-13.223122,-0.971180,0.198908,0.131320
40.145817,2.920715,14.853631,-0.995185,0.098015,0.000000
35.574261,0.000000,26.706227,0.000000,-1.000000,0.000000
42.972138,5.144241,7.550187,0.831268,0.555435,0.022045
30.027216,0.000000,14.147709,-0.000000,-1.000000,0.000000
44.771730,1.690603,3.495365,0.980454,0.195024,0.026001
34.431137,4.253542,-3.186320,0.956940,-0.290285,0.000000
42.502950,5.764730,2.829665,0.555510,0.831380,0.014732
41.518900,0.000000,11.026741,0.000000,-1.000000,0.000000
44.918182,0.901901,-3.888716,0.980454,0.195024,-0.026001
37.212505,7.768798,11.189277,0.193259,0.981026,0.015475
33.716948,0.000000,2.373320,0.000000,-1.000000,0.000000
38.586872,0.643290,-24.412713,-0.471397,0.881921,0.000000
40.049321,2.438081,-26.863682,-0.956940,0.290285,0.000000
31.839017,0.000000,5.742003,0.000000,-1.000000,0.000000
42.419851,0.000000,17.828096,0.000000,-1.000000,0.000000
38.113124,0.444339,-23.785792,-0.290285,0.956940,0.000000
34.565189,4.563656,-17.068675,0.881920,-0.471400,0.000000
35.966573,0.575061,25.838194,0.471397,0.881921,0.000000
29.800195,2.337244,-5.814210,-0.977413,0.196310,0.078265
32.200822,7.163159,-21.254309,-0.530162,0.841690,0.102400
31.757332,6.744643,20.110373,-0.530162,0.841690,-0.102400
42.770228,2.286308,-24.315495,0.961436,0.202870,-0.185700
39.934984,4.424503,19.548997,-0.881920,-0.471400,0.000000
30.788652,0.000000,-9.925996,0.000000,-1.000000,0.000000
42.418747,4.804337,-16.770472,0.818788,0.563320,-0.110714
42.101469,3.142230,26.482466,0.805897,0.571227,0.155658
35.203016,1.086812,-3.357302,0.634391,0.773013,-0.000000
37.795415,7.175087,-26.572574,0.530162,0.841690,-0.102400
37.714023,7.442365,-20.976276,0.189615,0.981524,-0.025639
38.171184,0.461951,-19.967874,-0.290285,0.956940,0.000000
35.096316,7.521374,-12.186340,-0.193259,0.981026,0.015475
35.906047,0.607412,-2.904404,0.471397,0.881921,0.000000
27.748541,3.417330,-22.802571,-0.788060,0.581789,0.201203
38.413245,0.000000,-22.839627,0.000000,-1.000000,0.000000
40.177381,3.270218,-19.259923,-0.995185,-0.098015,0.000000
32.206153,0.000000,-11.075721,0.000000,-1.000000,0.000000
31.920458,0.000000,-15.626385,0.000000,-1.000000,0.000000
38.166360,0.460488,-20.322063,-0.290285,0.956940,0.000000
35.894568,7.269696,26.923925,0.000000,-0.000000,1.000000
30.847222,0.000000,-8.857783,0.000000,-1.000000,0.000000
44.827092,0.897938,7.353291,0.980454,0.195025,0.026001
34.678642,4.775910,-12.994233,0.881920,-0.471400,0.000000
38.479923,7.513642,11.536599,0.193259,0.981026,0.015475
39.708997,1.664122,13.696660,-0.881920,0.471400,0.000000
34.802337,7.351938,2.661585,-0.195088,0.980772,-0.005174
28.382485,3.339093,-19.639817,-0.805897,0.571227,0.155659
29.595208,3.779527,26.923925,0.000000,-0.000000,1.000000
40.670962,0.000000,21.756475,0.000000,-1.000000,0.000000
40.221512,7.275071,0.078869,0.195088,0.980772,0.005174
34.329452,2.593085,-11.525191,0.956940,0.290285,-0.000000
34.849903,5.029077,3.567150,0.773013,-0.634391,0.000000
42.225276,5.512763,-13.965431,0.827153,0.558061,-0.066234
44.240090,0.000000,13.428031,0.000000,-1.000000,0.000000
37.390922,7.824935,2.576606,0.195088,0.980772,0.005174
42.727800,1.056781,-25.878365,0.961436,0.202870,-0.185700
42.462629,0.000000,-7.268040,0.000000,-1.000000,0.000000
42.439931,0.000000,20.050085,0.000000,-1.000000,0.000000
34.444290,7.277802,2.108667,-0.195088,0.980772,-0.005174
41.491402,6.485265,-0.310407,0.555510,0.831380,-0.014732
42.698870,0.466154,26.673384,0.961436,0.202870,0.185700
37.282812,0.296678,-2.486681,-0.098017,0.995185,0.000000
36.165883,0.488867,-0.801943,0.290285,0.956940,-0.000000
31.881019,5.742792,-6.623692,-0.551317,0.833127,0.044146
39.567996,1.472718,5.446654,-0.773013,0.634391,0.000000
36.961531,0.314550,26.424681,0.098017,0.995185,0.000000
32.256204,7.379437,-25.172032,-0.177002,0.983172,0.045191
40.502030,0.000000,10.069949,0.000000,-1.000000,0.000000
29.751775,6.425276,-26.800115,-0.513026,0.848321,0.130983
31.732474,0.000000,-22.996654,0.000000,-1.000000,0.000000
31.828692,0.000000,-16.422058,0.000000,-1.000000,0.000000
34.977675,1.326645,23.825114,0.773013,0.634391,0.000000
43.296083,3.199755,-18.446330,0.818788,0.563320,-0.110714
33.327264,2.281895,-26.923925,0.000000,0.000000,-1.000000
30.736457,4.664907,9.797822,-0.827153,0.558060,-0.066234
33.581668,0.000000,-13.734246,0.000000,-1.000000,0.000000
39.032181,5.581021,5.272711,-0.634394,-0.773010,0.000000
33.762253,7.362972,-16.283938,-0.189615,0.981524,0.025639
34.253407,3.190477,15.199883,0.995185,0.098015,-0.000000
31.651810,5.358812,-1.104351,-0.831268,0.555435,0.022045
37.942213,0.000000,22.579276,0.000000,-1.000000,0.000000
44.345455,0.000000,2.880347,0.000000,-1.000000,0.000000
30.939609,5.512475,13.213160,-0.818788,0.563319,-0.110714
34.704753,7.711739,-21.783545,-0.184182,0.982248,0.035575
35.161070,5.390178,-23.647256,0.634390,-0.773013,0.000000
34.779180,7.818779,25.838292,0.184182,0.982248,0.035575
34.247696,3.262949,8.464072,0.995185,-0.098015,0.000000
37.685195,7.335337,24.141134,0.184182,0.982248,0.035575
40.333333,6.852837,12.668173,0.551316,0.833127,0.044146
31.953778,5.937616,26.923925,0.000000,-0.000000,1.000000
29.622648,1.160935,-4.436607,-0.980454,0.195024,0.026001
39.348997,5.305548,8.032293,-0.773013,-0.634391,0.000000
37.421587,0.310346,6.356291,-0.098017,0.995185,0.000000
36.135351,0.498129,-17.819481,0.290285,0.956940,-0.000000
28.902712,1.239616,-12.835629,-0.971180,0.198908,0.131320
33.702234,0.291837,26.923925,0.000000,-0.000000,1.000000
37.042259,7.583374,-20.546163,0.189615,0.981524,-0.025639
34.274824,2.973025,8.202827,0.995185,0.098015,0.000000
40.678402,0.000000,-9.253385,0.000000,-1.000000,0.000000
39.481524,0.000000,-24.487911,0.000000,-1.000000,0.000000
27.720183,4.263514,-25.360431,-0.788060,0.581789,0.201203
41.103268,4.499176,26.670850,0.805897,0.571227,0.155658
26.972983,0.304021,-22.317699,-0.947671,0.208273,0.241954
38.648676,7.394982,-15.877947,0.189614,0.981524,-0.025639
45.094787,0.008172,-3.932766,0.980454,0.195024,-0.026001
33.946323,7.710857,-25.685855,-0.184182,0.982248,0.035575
31.728916,5.792426,9.459901,-0.551317,0.833127,-0.044146
39.297094,5.363611,-25.844159,-0.634394,-0.773010,0.000000
34.151129,4.359096,26.923925,0.000000,0.000000,1.000000
35.428386,0.901856,-24.758416,0.634391,0.773013,-0.000000
37.725202,0.340250,20.442525,-0.098017,0.995185,0.000000
36.073417,0.517951,-16.317456,0.471397,0.881921,0.000000
29.091043,0.000000,-22.068568,0.000000,-1.000000,0.000000
43.634980,1.144495,19.758284,0.971180,0.198908,0.131320
35.318775,0.991811,-1.736075,0.634391,0.773013,-0.000000
34.298771,2.729873,-3.522617,0.995185,0.098015,0.000000
35.665268,0.736111,13.171346,0.471397,0.881921,-0.000000
36.264328,0.170125,-26.923925,0.000000,0.000000,-1.000000
44.157299,3.566690,2.607558,0.831268,0.555435,0.022045
32.136857,6.855925,19.060136,-0.530162,0.841690,-0.102401
40.162044,3.085472,-22.622690,-0.995185,0.098015,0.000000
40.074579,7.293799,-2.069248,0.195088,0.980772,-0.005174
35.434363,0.000000,16.281603,0.000000,-1.000000,0.000000
30.720364,0.000000,-20.117963,0.000000,-1.000000,0.000000
38.110122,0.000000,16.006152,-0.000000,-1.000000,0.000000
34.783476,7.744101,22.269498,-0.184182,0.982248,-0.035575
43.507027,0.000000,4.717605,0.000000,-1.000000,0.000000
31.167543,5.067931,7.809970,-0.827153,0.558060,-0.066234
40.658136,0.000000,-21.906644,0.000000,-1.000000,0.000000
30.691169,5.977055,19.321007,-0.530162,0.841690,-0.102401
29.783615,5.747350,22.131645,-0.530162,0.841690,-0.102400
39.733105,1.709224,20.375855,-0.881920,0.471400,0.000000
40.044254,2.421377,19.905773,-0.956940,0.290285,0.000000
39.316005,1.165664,-5.609114,-0.773013,0.634391,0.000000
36.288533,6.059752,-4.254131,0.290285,-0.956940,0.000000
37.857103,6.144737,7.370111,-0.290285,-0.956940,0.000000
42.304462,3.522897,24.034550,0.805897,0.571227,0.155658
36.266927,6.053197,-1.422345,0.290285,-0.956940,0.000000
29.879334,2.553806,5.204850,-0.980454,0.195024,-0.026001
35.300638,1.006696,-4.628649,0.634391,0.773013,-0.000000
31.539023,0.000000,-21.049619,0.000000,-1.000000,0.000000
38.699082,0.000000,-4.110360,0.000000,-1.000000,0.000000
41.663180,6.318848,3.224612,0.555510,0.831380,0.014732
34.172074,7.262742,7.332943,-0.193259,0.981026,-0.015475
37.899897,7.734381,-0.550686,0.195088,0.980772,-0.005174
28.004337,2.784897,-20.124442,-0.961436,0.202870,0.185701
43.229561,0.000000,14.157195,0.000000,-1.000000,0.000000
30.745338,5.581654,15.215943,-0.542892,0.836588,-0.073408
32.206336,0.000000,14.028639,-0.000000,-1.000000,0.000000
40.135960,0.000000,-10.662034,0.000000,-1.000000,0.000000
32.211229,6.543477,-15.336213,-0.542892,0.836588,0.073408
34.335916,7.312365,8.432622,-0.193259,0.981026,-0.015475
43.221887,3.034813,19.834292,0.818788,0.563320,0.110714
31.721671,0.000000,-25.925035,0.000000,-1.000000,0.000000
39.675397,6.479829,-22.553994,0.530162,0.841690,-0.102400
36.682795,7.479236,25.357726,0.184182,0.982248,0.035575
39.996645,7.289194,5.881016,0.195088,0.980772,0.005174
33.590733,0.000000,-11.116204,0.000000,-1.000000,0.000000
37.133699,0.000000,10.074394,0.000000,-1.000000,0.000000
35.553599,7.488476,-0.216578,-0.195088,0.980772,0.005174
39.885577,6.650648,-19.152833,0.542892,0.836588,-0.073408
29.157418,0.704784,-9.746849,-0.977413,0.196310,0.078266
40.022280,2.348938,6.751330,-0.956940,0.290285,0.000000
34.752306,1.601260,25.319163,0.773013,0.634391,-0.000000
28.116621,0.163956,16.679840,-0.961436,0.202870,-0.185700
29.613220,1.062982,4.057437,-0.980454,0.195024,-0.026001
43.855482,4.084504,-0.941770,0.831268,0.555435,-0.022045
40.084105,2.552748,-5.555852,-0.956940,0.290285,0.000000
31.602760,0.000000,-16.374119,0.000000,-1.000000,0.000000
39.056757,7.300039,-16.494613,0.189614,0.981524,-0.025639
35.156991,7.767124,-20.971371,-0.184182,0.982248,0.035575
42.235200,5.413990,-14.673720,0.827153,0.558061,-0.066234
32.562233,6.968664,-17.585957,-0.542892,0.836588,0.073408
34.493430,0.000000,-2.754920,0.000000,-1.000000,0.000000
33.470903,0.000000,24.037228,0.000000,-1.000000,0.000000
41.840004,5.169872,19.190715,0.818788,0.563320,0.110714
38.003793,7.467783,-17.860218,0.189614,0.981524,-0.025639
44.202471,1.814053,-13.405456,0.977413,0.196310,-0.078265
35.988490,7.580738,1.307886,-0.195088,0.980772,-0.005174
41.626247,6.301578,-5.591888,0.555510,0.831380,-0.014732
39.173484,0.000000,14.950578,-0.000000,-1.000000,0.000000
41.977804,0.000000,-8.752476,0.000000,-1.000000,0.000000
30.871469,0.000000,13.304230,-0.000000,-1.000000,0.000000
35.982235,7.810582,19.687563,0.189614,0.981524,0.025639
35.430264,7.525286,-8.263836,-0.193259,0.981026,0.015475
31.890138,7.266627,24.065817,-0.184182,0.982248,-0.035575
35.722588,6.848724,-26.923925,0.000000,0.000000,-1.000000
42.255828,5.891698,4.982844,0.555510,0.831380,0.014732
37.210024,0.290075,5.206147,0.098017,0.995185,0.000000
39.956822,4.378260,-24.401505,-0.956940,-0.290285,-0.000000
37.626743,0.330552,-5.461960,-0.098017,0.995185,0.000000
38.456356,0.573528,-26.619732,-0.471397,0.881921,0.000000
38.287609,0.497269,-23.662576,-0.290285,0.956940,0.000000
42.235276,0.000000,14.086897,0.000000,-1.000000,0.000000
40.164141,3.106769,19.430606,-0.995185,0.098015,0.000000
37.881720,6.137270,-18.596288,-0.290285,-0.956940,0.000000
33.206761,4.128821,26.923925,0.000000,0.000000,1.000000
41.077044,6.076062,-16.889519,0.542892,0.836588,-0.073408
28.281635,0.115939,-26.923925,0.000000,0.000000,-1.000000
34.391093,0.000000,-25.585918,0.000000,-1.000000,0.000000
43.659744,0.000000,-1.217538,0.000000,-1.000000,0.000000
40.597480,0.000000,-14.018578,0.000000,-1.000000,0.000000
38.971505,5.630816,-6.655141,-0.634394,-0.773010,0.000000
36.226715,0.000000,0.723482,0.000000,-1.000000,0.000000
36.733963,7.684726,18.946187,0.189615,0.981524,0.025639
44.568739,2.337430,6.298172,0.980454,0.195024,0.026001
35.230286,1.064432,8.715725,0.634391,0.773013,-0.000000
33.722519,0.000000,-16.389873,0.000000,-1.000000,0.000000
37.473015,7.785666,6.866648,0.193259,0.981026,0.015475
40.125761,3.794341,19.558917,-0.995185,-0.098015,0.000000
38.967817,0.000000,-3.074864,0.000000,-1.000000,0.000000
34.291255,2.806193,15.121346,0.995185,0.098015,0.000000
42.442024,2.899641,-25.344681,0.961436,0.202870,-0.185700
37.044718,7.740138,14.526673,0.189614,0.981524,0.025639
27.500150,0.444941,-20.178490,-0.961436,0.202870,0.185700
27.891919,0.000000,-25.819007,0.000000,-1.000000,0.000000
39.973887,4.322005,-8.304285,-0.956940,-0.290285,-0.000000
34.282758,2.892464,7.304214,0.995185,0.098015,0.000000
32.267389,5.935564,-4.539320,-0.555510,0.831379,0.014732
35.604133,7.789935,-19.007417,-0.189615,0.981524,0.025639
31.013575,6.997050,-25.561101,-0.513026,0.848321,0.130983
40.499235,0.000000,17.343260,0.000000,-1.000000,0.000000
38.877937,5.707605,7.619580,-0.634394,-0.773010,0.000000
27.729635,1.710443,20.372875,-0.961436,0.202870,-0.185701
39.995754,2.261495,8.888161,-0.956940,0.290285,0.000000
28.442516,3.136611,26.923925,0.000000,-0.000000,1.000000
43.514489,0.000000,-10.061599,0.000000,-1.000000,0.000000
26.569967,1.199621,-24.667143,-0.947671,0.208273,0.241954
44.061947,2.351178,-13.813139,0.977413,0.196310,-0.078265
40.385733,5.715039,-25.162601,0.530163,0.841690,-0.102400
41.517997,5.873628,-15.935454,0.542892,0.836588,-0.073408
39.657406,4.929747,-24.702811,-0.773013,-0.634391,0.000000
37.603036,0.328217,-7.420870,-0.098017,0.995185,0.000000
30.595588,3.753360,-0.481898,-0.831268,0.555435,0.022045
35.343389,5.539801,26.766899,0.634390,-0.773013,0.000000
43.057440,2.920235,21.339816,0.971180,0.198908,0.131320
29.497269,3.989315,16.130092,-0.818788,0.563319,-0.110714
29.155672,0.000000,-26.711761,0.000000,-1.000000,0.000000
34.518195,4.475737,-16.522061,0.881920,-0.471400,0.000000
34.265024,3.072521,2.905729,0.995185,0.098015,-0.000000
32.928614,0.000000,-6.011275,0.000000,-1.000000,0.000000
40.057578,4.046114,-6.811210,-0.956940,-0.290285,0.000000
30.160578,3.190259,2.697555,-0.831268,0.555435,-0.022045
39.290319,5.369172,-12.399603,-0.634394,-0.773010,0.000000
35.606342,7.540446,-7.025969,-0.193259,0.981026,0.015475
29.212964,2.978804,-26.923925,0.000000,0.000000,-1.000000
37.505559,0.318617,-23.442803,-0.098017,0.995185,0.000000
31.408365,0.000000,-0.360162,0.000000,-1.000000,0.000000
36.432027,6.103280,-12.100314,0.290285,-0.956940,0.000000
41.583357,6.061557,11.990354,0.551317,0.833127,0.044146
35.267357,0.979744,26.923925,0.000000,-0.000000,1.000000
35.243147,5.457536,-18.693516,0.634390,-0.773013,0.000000
29.640086,1.316142,-4.943222,-0.980454,0.195024,0.026001
37.150717,0.000000,24.179282,0.000000,-1.000000,0.000000
38.032726,7.463339,-17.816368,0.189614,0.981524,-0.025639
43.602010,0.000000,6.757113,0.000000,-1.000000,0.000000
42.611919,0.000000,5.219471,0.000000,-1.000000,0.000000
44.145719,0.000000,-1.847657,0.000000,-1.000000,0.000000
30.384652,0.000000,-22.839986,0.000000,-1.000000,0.000000
38.630800,7.241580,-21.698082,0.542892,0.836588,-0.073408
34.647211,1.794306,-10.182800,0.881920,0.471400,-0.000000
38.245721,0.484562,13.437609,-0.290285,0.956940,0.000000
29.354010,0.927198,-7.849609,-0.977413,0.196310,0.078266
39.947083,7.249982,9.928601,0.193259,0.981026,0.015475
40.508337,6.402691,-17.373013,0.542892,0.836588,-0.073408
37.666850,0.334503,24.282645,-0.098017,0.995185,0.000000
31.760372,0.206816,26.923925,0.000000,-0.000000,1.000000
36.687086,6.169833,14.010025,0.098017,-0.995185,0.000000
29.647041,1.534940,-5.714474,-0.977413,0.196310,0.078265
38.704993,0.706427,-12.115655,-0.471397,0.881921,0.000000
36.443728,6.106829,7.452464,0.290285,-0.956940,0.000000
36.065259,0.522312,11.086262,0.471397,0.881921,0.000000
39.970659,4.332648,22.851751,-0.956940,-0.290285,-0.000000
31.711772,5.907813,11.785687,-0.542892,0.836588,-0.073408
36.787178,0.331722,-9.538913,0.098017,0.995185,-0.000000
37.449635,6.430658,-26.923925,0.000000,0.000000,-1.000000
43.061700,0.000000,-12.798039,0.000000,-1.000000,0.000000
32.376060,6.061230,6.450971,-0.551317,0.833127,-0.044146
40.030341,4.135903,20.182021,-0.956940,-0.290285,-0.000000
42.533578,4.999364,14.440937,0.827153,0.558061,0.066233
35.583133,0.780013,-1.192101,0.471397,0.881921,-0.000000
37.781953,7.681119,-9.636166,0.193259,0.981026,-0.015475
34.299723,2.720212,3.712259,0.995185,0.098015,0.000000
43.333380,3.118450,18.584191,0.818788,0.563320,0.110714
37.212158,0.289865,25.284259,0.098017,0.995185,0.000000
36.193544,0.480476,-22.532559,0.290285,0.956940,-0.000000
34.321735,2.618522,-17.840936,0.956940,0.290285,-0.000000
28.394418,2.919958,-18.252411,-0.961436,0.202870,0.185701
44.831178,1.752326,0.790748,0.980454,0.195024,0.026001
37.232808,6.219660,-22.087979,-0.098017,-0.995185,0.000000
35.885805,0.618232,8.471602,0.471397,0.881921,0.000000
34.297686,3.770521,16.285568,0.995185,-0.098015,0.000000
39.854095,4.575833,11.565850,-0.881920,-0.471400,0.000000
35.756984,5.824325,-7.996341,0.471397,-0.881921,0.000000
43.348137,0.712135,22.534526,0.971180,0.198908,0.131320
42.182407,0.000000,17.947925,0.000000,-1.000000,0.000000
30.685757,4.048423,4.516142,-0.831267,0.555435,-0.022045
40.183104,0.807164,-26.923925,0.000000,0.000000,-1.000000
41.848112,5.754707,14.474828,0.551317,0.833127,0.044146
39.674805,4.908547,-6.640895,-0.773013,-0.634391,0.000000
38.675906,0.690879,-18.994599,-0.471397,0.881921,0.000000
31.024147,0.000000,-24.780293,0.000000,-1.000000,0.000000
38.396248,5.970014,-7.134717,-0.471397,-0.881921,0.000000
39.693999,4.875349,-11.842454,-0.881920,-0.471400,0.000000
36.142582,0.495935,-19.325204,0.290285,0.956940,-0.000000
34.129877,0.000000,12.893376,-0.000000,-1.000000,0.000000
39.655964,0.000000,-11.114383,0.000000,-1.000000,0.000000
33.200611,6.856010,11.152712,-0.551317,0.833127,-0.044146
41.451138,0.000000,12.068163,0.000000,-1.000000,0.000000
36.725251,7.739605,-3.642713,-0.195088,0.980772,0.005174
39.395477,7.375904,-8.834568,0.193259,0.981026,-0.015475
38.648308,7.583969,0.843256,0.195088,0.980772,0.005174
31.745098,2.428554,26.923925,0.000000,0.000000,1.000000
26.802579,0.000000,24.065329,0.000000,-1.000000,0.000000
26.396809,0.765337,-24.971527,-0.947671,0.208273,0.241954
39.913190,4.465276,3.558931,-0.881920,-0.471400,0.000000
37.701040,0.000000,15.259059,-0.000000,-1.000000,0.000000
28.695093,0.044451,12.560775,-0.971180,0.198908,-0.131320
35.570262,0.000000,9.199914,0.000000,-1.000000,0.000000
39.826051,6.344350,22.887592,0.530162,0.841690,0.102400
33.848215,0.000000,6.172290,0.000000,-1.000000,0.000000
29.288766,2.695835,12.186267,-0.971180,0.198908,-0.131320
37.833413,0.359490,-23.895421,-0.290285,0.956940,0.000000
29.501543,0.311375,-2.631033,-0.980454,0.195024,0.026001
39.366046,0.000000,-11.286865,0.000000,-1.000000,0.000000
38.065229,6.081603,-18.596313,-0.290285,-0.956940,0.000000
35.846620,0.639177,-12.937418,0.471397,0.881921,-0.000000
35.585383,5.732603,20.889957,0.471397,-0.881921,0.000000
31.603474,0.000000,0.389659,0.000000,-1.000000,0.000000
29.715670,1.267984,1.731869,-0.980454,0.195024,-0.026001
36.759629,6.176978,-20.270813,0.098017,-0.995185,0.000000
34.568629,4.570093,-0.369121,0.881920,-0.471400,0.000000
40.161601,3.430434,-22.001101,-0.995185,-0.098015,0.000000
32.899023,0.000000,-1.491447,0.000000,-1.000000,0.000000
32.273940,6.407021,26.923925,0.000000,-0.000000,1.000000
34.951693,5.153108,22.577671,0.773013,-0.634391,0.000000
32.383521,6.754689,-16.469068,-0.542892,0.836588,0.073408
43.677314,0.000000,-8.310082,0.000000,-1.000000,0.000000
34.369674,2.460489,-10.011868,0.956940,0.290285,-0.000000
34.299616,3.790120,7.606803,0.995185,-0.098015,0.000000
36.943844,7.834720,10.365395,0.193259,0.981026,0.015475
33.070921,0.000000,1.170304,0.000000,-1.000000,0.000000
38.805132,0.759952,-23.779880,-0.471397,0.881921,0.000000
40.134276,2.803537,-10.788138,-0.995185,0.098015,0.000000
43.790781,0.000000,14.073295,0.000000,-1.000000,0.000000
35.043461,5.264929,-25.524477,0.773013,-0.634391,0.000000
34.393879,4.130717,-24.674968,0.956940,-0.290285,0.000000
42.399258,0.000000,24.621134,0.000000,-1.000000,0.000000
28.228898,0.000000,26.899703,0.000000,-1.000000,0.000000
36.023085,5.966559,-26.821576,0.471397,-0.881921,0.000000
34.394762,4.133628,-23.707129,0.956940,-0.290285,0.000000
36.866243,0.000000,25.253866,0.000000,-1.000000,0.000000
35.940121,5.922214,15.801134,0.471397,-0.881921,0.000000
40.047563,2.432284,-11.937194,-0.956940,0.290285,0.000000
40.048618,2.435763,16.057644,-0.956940,0.290285,0.000000
29.423308,0.000000,-16.741748,0.000000,-1.000000,0.000000
38.001415,7.648025,8.993359,0.193259,0.981026,0.015475
37.914454,7.483611,-17.914995,0.189614,0.981524,-0.025639
37.710349,6.172626,-26.445947,-0.098017,-0.995185,0.000000
43.078634,0.000000,16.597225,0.000000,-1.000000,0.000000
32.771893,0.000000,-23.522921,0.000000,-1.000000,0.000000
28.979124,0.697062,11.448720,-0.971180,0.198908,-0.131320
35.566991,7.614927,-12.239004,-0.193259,0.981026,0.015475
35.739659,7.693440,-14.311074,-0.189615,0.981524,0.025639
44.315748,0.000000,5.495909,0.000000,-1.000000,0.000000
40.177413,3.241521,13.284632,-0.995185,0.098015,0.000000
39.276961,1.131279,-22.341377,-0.634394,0.773010,0.000000
34.327123,2.600762,-15.990779,0.956940,0.290285,-0.000000
34.817337,1.522020,-25.316222,0.773013,0.634391,-0.000000
36.864689,6.187325,10.315206,0.098017,-0.995185,0.000000
40.144167,2.903958,23.752463,-0.995185,0.098015,0.000000
30.404554,4.510942,12.074318,-0.818788,0.563319,-0.110714
29.313607,4.703007,19.824290,-0.805897,0.571226,-0.155659
38.350796,7.555467,10.497774,0.193259,0.981026,0.015475
41.490583,0.000000,16.703188,0.000000,-1.000000,0.000000
40.466793,0.000000,-1.090254,0.000000,-1.000000,0.000000
35.735818,7.821963,-19.259613,-0.189615,0.981524,0.025639
43.491276,0.000000,2.745237,0.000000,-1.000000,0.000000
31.715422,2.281734,-26.923925,0.000000,0.000000,-1.000000
39.033210,0.000000,23.534182,0.000000,-1.000000,0.000000
42.459436,0.000000,-6.449576,0.000000,-1.000000,0.000000
44.854056,1.066387,5.073037,0.980454,0.195025,0.026001
35.133164,1.144137,7.403649,0.634391,0.773013,-0.000000
35.601595,0.000000,-26.777537,0.000000,-1.000000,0.000000
43.719531,3.133250,-15.353484,0.827153,0.558060,-0.066234
26.561545,2.165164,-25.531263,-0.947671,0.208273,0.241954
33.547251,0.000000,11.471151,0.000000,-1.000000,0.000000
39.944230,2.104208,-12.775851,-0.881920,0.471400,0.000000
38.871313,0.798372,10.668913,-0.634394,0.773010,0.000000
34.296009,7.166371,-26.923925,0.000000,0.000000,-1.000000
41.776647,0.000000,-9.339652,0.000000,-1.000000,0.000000
40.131811,2.778504,-18.309958,-0.995185,0.098015,0.000000
36.504929,6.125395,20.045551,0.290285,-0.956940,0.000000
37.718461,0.000000,-22.573822,0.000000,-1.000000,0.000000
34.802357,0.000000,-4.774639,0.000000,-1.000000,0.000000
44.743764,2.106411,-1.431131,0.980454,0.195024,-0.026001
34.290306,0.000000,-14.843617,0.000000,-1.000000,0.000000
40.160228,3.444376,2.688765,-0.995185,-0.098015,0.000000
40.105749,3.887314,-2.981651,-0.956940,-0.290285,0.000000
34.260650,3.116934,11.213712,0.995185,0.098015,-0.000000
45.096300,0.225401,-2.246356,0.980454,0.195024,-0.026001
41.815248,0.000000,-13.865619,0.000000,-1.000000,0.000000
31.009824,6.467699,-21.704117,-0.530162,0.841690,0.102400
40.150300,2.966236,-17.627906,-0.995185,0.098015,0.000000
32.886807,4.704203,-26.923925,0.000000,0.000000,-1.000000
42.271062,5.776469,-8.782182,0.551316,0.833127,-0.044146
33.680147,6.807127,-26.923925,0.000000,0.000000,-1.000000
29.699620,1.649997,5.202422,-0.980454,0.195024,-0.026001
37.309585,6.212098,-13.804809,-0.098017,-0.995185,0.000000
39.561075,0.000000,26.231338,0.000000,-1.000000,0.000000
30.038772,0.000000,24.372116,0.000000,-1.000000,0.000000
34.958639,1.349841,-6.095419,0.773013,0.634391,-0.000000
34.378775,0.000000,10.178517,0.000000,-1.000000,0.000000
33.277157,0.000000,23.318016,0.000000,-1.000000,0.000000
37.840196,0.000000,20.214999,0.000000,-1.000000,0.000000
39.407641,1.277324,-25.457983,-0.773013,0.634391,0.000000
38.686784,5.814719,8.983630,-0.471397,-0.881921,0.000000
38.321615,7.625137,-5.357982,0.195088,0.980772,-0.005174
44.880636,1.544506,-0.484539,0.980454,0.195024,-0.026001
43.432450,4.517797,-5.976362,0.831268,0.555435,-0.022045
38.986500,5.618510,-26.830477,-0.634394,-0.773010,0.000000
41.415585,0.000000,-15.261621,0.000000,-1.000000,0.000000
34.940400,0.000000,7.657620,0.000000,-1.000000,0.000000
29.714999,4.824235,-18.191022,-0.805898,0.571226,0.155659
37.947419,0.000000,15.614225,-0.000000,-1.000000,0.000000
32.073902,0.000000,0.791886,0.000000,-1.000000,0.000000
43.551762,3.680641,12.836527,0.827153,0.558061,0.066233
31.046570,5.861598,16.178525,-0.542892,0.836588,-0.073408
38.535164,5.895762,-1.250024,-0.471397,-0.881921,0.000000
28.838054,5.108198,-23.424460,-0.788060,0.581789,0.201203
29.926414,1.012115,-26.923925,0.000000,0.000000,-1.000000
34.821158,1.505115,-26.923925,0.000000,0.000000,-1.000000
44.053926,0.000000,-1.630722,0.000000,-1.000000,0.000000
44.430497,2.444757,-8.975807,0.977413,0.196311,-0.078266
34.392368,2.385678,25.228144,0.956940,0.290285,0.000000
