x,y,z,nx,ny,nz
3.353809,25.086263,-3.775251,0.000000,-0.000000,-1.000000
-6.171486,-5.570003,3.775251,0.000000,0.000000,1.000000
-40.406826,1.509350,-3.775251,0.000000,0.000000,-1.000000
-2.293314,18.277697,-3.775251,0.000000,-0.000000,-1.000000
2.812318,31.121468,0.615274,0.000000,1.000000,0.000000
-1.805922,11.527886,3.775251,0.000000,0.000000,1.000000
56.789014,-28.727303,-3.775251,0.000000,0.000000,-1.000000
35.008464,-2.191029,3.775251,0.000000,0.000000,1.000000
67.082932,-23.139810,-2.489780,1.000000,0.000000,-0.000000
-41.473110,31.121468,1.602483,0.000000,1.000000,0.000000
-34.971601,7.962652,-3.775251,0.000000,0.000000,-1.000000
-63.114327,-24.905567,-3.775251,0.000000,0.000000,-1.000000
33.956097,18.260447,-3.775251,0.000000,-0.000000,-1.000000
-45.722069,22.060646,3.775251,0.000000,0.000000,1.000000
-24.032256,5.325950,-2.491864,0.956940,0.290286,-0.000000
-11.806511,14.701428,3.775251,0.000000,0.000000,1.000000
35.516117,-18.989434,-3.775251,0.000000,0.000000,-1.000000
17.760231,-31.121468,1.619715,0.000000,-1.000000,0.000000
-48.343014,19.172582,-3.775251,0.000000,0.000000,-1.000000
-56.237520,21.260249,3.775251,0.000000,-0.000000,1.000000
47.660587,-11.859461,-3.775251,0.000000,0.000000,-1.000000
-26.070705,0.398305,-3.775251,0.000000,0.000000,-1.000000
67.082932,-23.542449,2.138339,1.000000,0.000000,-0.000000
-4.053488,25.061245,3.775251,-0.000000,0.000000,1.000000
37.187941,-18.762906,3.775251,0.000000,0.000000,1.000000
-40.291042,-5.956778,3.775251,0.000000,-0.000000,1.000000
13.868993,-0.602037,-3.775251,0.000000,0.000000,-1.000000
6.680008,31.121468,0.434472,0.000000,1.000000,0.000000
-18.482771,27.998279,3.775251,-0.000000,0.000000,1.000000
35.257012,-8.677451,-3.775251,0.000000,0.000000,-1.000000
-62.942460,-15.507819,-3.775251,0.000000,0.000000,-1.000000
-66.810785,15.381123,3.775251,0.000000,-0.000000,1.000000
56.474369,-21.857360,-3.775251,0.000000,0.000000,-1.000000
-13.742022,26.711765,-3.775251,0.000000,-0.000000,-1.000000
-36.392046,-1.578225,-3.775251,0.000000,0.000000,-1.000000
17.985283,-9.902107,3.775251,-0.000000,-0.000000,1.000000
-23.961843,30.556418,3.775251,-0.000000,0.000000,1.000000
49.809280,7.708802,-3.775251,0.000000,0.000000,-1.000000
3.782108,3.644317,3.775251,0.000000,-0.000000,1.000000
-51.191273,13.062470,3.775251,0.000000,-0.000000,1.000000
-9.956767,1.807035,-0.390114,0.471397,-0.881921,0.000000
36.382867,26.291363,3.775251,-0.000000,0.000000,1.000000
-48.156278,24.885730,3.775251,0.000000,0.000000,1.000000
-65.604702,-23.673260,3.775251,0.000000,-0.000000,1.000000
-54.129880,17.237046,-3.775251,0.000000,0.000000,-1.000000
-0.294579,-8.815661,-3.415967,0.471396,0.881922,-0.000000
-5.049296,0.195621,-3.499457,-0.881921,-0.471397,0.000000
62.456971,-21.050900,-3.775251,0.000000,0.000000,-1.000000
-46.026844,18.374152,3.775251,-0.000000,-0.000000,1.000000
-40.120804,31.121468,-0.195047,0.000000,1.000000,0.000000
-27.144237,-30.733294,3.775251,0.000000,-0.000000,1.000000
19.772090,-31.121468,0.598763,0.000000,-1.000000,0.000000
-60.604064,-1.580109,3.775251,0.000000,-0.000000,1.000000
44.832268,11.291059,3.775251,0.000000,-0.000000,1.000000
48.698173,-17.697880,3.775251,-0.000000,-0.000000,1.000000
4.786480,31.121468,-3.673846,-0.000000,1.000000,0.000000
26.478477,7.327236,3.775251,0.000000,0.000000,1.000000
-2.167196,-13.738508,-3.775251,0.000000,0.000000,-1.000000
-13.062727,17.780563,3.775251,-0.000000,0.000000,1.000000
-63.119887,20.653164,-3.775251,0.000000,0.000000,-1.000000
-44.360133,22.737193,3.775251,0.000000,0.000000,1.000000
-15.146059,-14.977477,-3.775251,0.000000,0.000000,-1.000000
-17.668862,4.241106,-0.737665,-0.773010,0.634394,0.000000
3.863966,31.121468,0.956208,0.000000,1.000000,0.000000
-10.579862,27.842124,-3.775251,0.000000,-0.000000,-1.000000
26.612624,-18.224096,-3.775251,0.000000,0.000000,-1.000000
60.181403,-26.029059,3.775251,-0.000000,-0.000000,1.000000
1.522428,-18.372393,-3.775251,0.000000,0.000000,-1.000000
-6.368780,1.670707,-0.751740,-0.471397,-0.881921,0.000000
-41.721862,-2.130215,-3.775251,0.000000,0.000000,-1.000000
-47.220304,30.776279,-3.775251,0.000000,-0.000000,-1.000000
-26.840958,-4.760080,-3.775251,0.000000,0.000000,-1.000000
52.673777,-23.073962,-3.775251,0.000000,0.000000,-1.000000
-35.777317,-10.393369,-3.775251,0.000000,0.000000,-1.000000
-38.642698,25.243112,3.775251,-0.000000,0.000000,1.000000
-23.987186,-29.056197,3.775251,0.000000,-0.000000,1.000000
-37.470666,17.615650,3.775251,-0.000000,0.000000,1.000000
46.275177,-2.794450,3.775251,0.000000,-0.000000,1.000000
28.834888,-12.133884,3.775251,-0.000000,-0.000000,1.000000
67.082932,-18.771879,2.074808,1.000000,0.000000,-0.000000
-46.609454,-20.392873,3.775251,0.000000,-0.000000,1.000000
6.331875,31.121468,-3.173875,-0.000000,1.000000,0.000000
49.078256,-28.546154,3.775251,0.000000,-0.000000,1.000000
46.715098,1.283176,3.775251,0.000000,-0.000000,1.000000
-27.695713,-26.926166,-3.775251,0.000000,0.000000,-1.000000
-38.794800,-0.107666,3.775251,0.000000,-0.000000,1.000000
1.773302,31.121468,2.222941,0.000000,1.000000,0.000000
-57.719746,-31.121468,0.900572,0.000000,-1.000000,0.000000
54.115232,-15.507004,3.775251,0.000000,-0.000000,1.000000
5.549226,29.619317,-3.775251,0.000000,-0.000000,-1.000000
-47.952557,-21.649239,-3.775251,0.000000,0.000000,-1.000000
7.075324,-16.735464,3.775251,0.000000,-0.000000,1.000000
-43.281718,31.121468,1.871189,0.000000,1.000000,0.000000
61.413593,-30.802110,3.775251,0.000000,-0.000000,1.000000
-50.748486,-28.061801,-3.775251,0.000000,0.000000,-1.000000
-39.810142,-18.192518,3.775251,0.000000,-0.000000,1.000000
-37.446641,14.936634,3.775251,-0.000000,0.000000,1.000000
38.915791,-29.841514,3.775251,0.000000,-0.000000,1.000000
-24.303227,-31.121468,0.174754,0.000000,-1.000000,0.000000
14.677080,-21.445073,3.775251,0.000000,-0.000000,1.000000
-63.980191,-6.877245,-3.775251,0.000000,0.000000,-1.000000
-23.027756,-31.121468,1.200170,0.000000,-1.000000,0.000000
-49.042388,4.397689,3.775251,0.000000,-0.000000,1.000000
46.019479,26.853426,3.775251,-0.000000,0.000000,1.000000
65.038285,-17.509885,-3.775251,0.000000,0.000000,-1.000000
24.198693,12.897687,0.224233,-0.290285,-0.956940,0.000000
28.506137,3.037533,-3.775251,0.000000,0.000000,-1.000000
-19.895359,9.932698,-1.520576,-0.098018,-0.995185,0.000000
39.983998,4.817931,-3.775251,0.000000,0.000000,-1.000000
-13.871510,29.563380,-3.775251,0.000000,-0.000000,-1.000000
67.082932,9.294994,2.590601,1.000000,-0.000000,0.000000
-58.277181,-15.926498,3.775251,0.000000,-0.000000,1.000000
-37.705865,25.291038,3.775251,-0.000000,0.000000,1.000000
-35.287603,14.240897,3.775251,-0.000000,0.000000,1.000000
-49.445816,-24.337550,-3.775251,0.000000,0.000000,-1.000000
-17.039071,7.120748,1.517927,-0.956941,-0.290283,0.000000
-58.337156,26.376111,-3.775251,0.000000,-0.000000,-1.000000
-59.947439,-6.967539,-3.775251,0.000000,0.000000,-1.000000
-33.299030,16.386994,3.775251,0.000000,0.000000,1.000000
-67.082932,-14.393128,-0.348682,-1.000000,0.000000,0.000000
26.421274,-6.467177,-3.775251,0.000000,0.000000,-1.000000
67.082932,-25.918530,-0.775912,1.000000,0.000000,-0.000000
-0.257369,28.628999,3.775251,-0.000000,0.000000,1.000000
47.734756,-19.626081,-3.775251,0.000000,0.000000,-1.000000
-58.226548,-9.200373,3.775251,0.000000,-0.000000,1.000000
-60.586718,-21.884096,3.775251,0.000000,-0.000000,1.000000
-42.007913,-12.105525,-3.775251,0.000000,0.000000,-1.000000
-36.595891,-23.035551,3.775251,0.000000,-0.000000,1.000000
-22.427672,-28.587416,3.775251,0.000000,-0.000000,1.000000
1.367842,-9.375485,-3.040435,0.098018,0.995185,-0.000000
16.707943,21.230666,3.775251,-0.000000,0.000000,1.000000
-67.082932,-18.593561,2.307271,-1.000000,0.000000,0.000000
-47.116311,2.219336,-3.775251,0.000000,0.000000,-1.000000
14.898296,20.365505,-3.775251,0.000000,-0.000000,-1.000000
45.979019,-17.373489,3.775251,-0.000000,-0.000000,1.000000
32.975770,-24.068108,-3.775251,0.000000,0.000000,-1.000000
13.896612,1.544850,-3.775251,0.000000,0.000000,-1.000000
62.163129,-2.712509,3.775251,0.000000,-0.000000,1.000000
-41.366213,-6.573238,3.775251,0.000000,-0.000000,1.000000
-64.366353,-24.821718,-3.775251,0.000000,0.000000,-1.000000
11.325919,-0.191588,3.775251,0.000000,-0.000000,1.000000
-67.082932,-18.270669,-3.675532,-1.000000,0.000000,0.000000
58.306440,21.445535,-3.775251,0.000000,0.000000,-1.000000
34.443952,6.197406,3.775251,0.000000,-0.000000,1.000000
-13.026878,10.215869,3.775251,0.000000,0.000000,1.000000
42.260581,-27.682250,-3.775251,0.000000,0.000000,-1.000000
-47.497904,-16.699316,-3.775251,0.000000,0.000000,-1.000000
-13.964901,29.034451,-3.775251,0.000000,-0.000000,-1.000000
17.892755,28.307230,3.775251,-0.000000,0.000000,1.000000
52.164173,11.742141,3.775251,0.000000,-0.000000,1.000000
33.141966,25.541510,3.775251,-0.000000,0.000000,1.000000
65.437388,31.121468,2.200143,-0.000000,1.000000,0.000000
16.305371,-7.910691,-3.775251,0.000000,0.000000,-1.000000
56.953106,25.059770,-3.775251,0.000000,0.000000,-1.000000
-61.316568,19.295791,-3.775251,0.000000,0.000000,-1.000000
-42.327469,-21.595630,-3.775251,0.000000,0.000000,-1.000000
5.526888,24.418464,3.775251,-0.000000,0.000000,1.000000
-4.984006,-2.856717,-1.996704,-0.881921,0.471397,0.000000
67.082932,29.048842,1.409230,1.000000,-0.000000,0.000000
-9.883539,17.606130,-3.775251,0.000000,-0.000000,-1.000000
-6.193822,-25.018522,3.775251,0.000000,-0.000000,1.000000
67.082932,-9.003318,0.791952,1.000000,0.000000,-0.000000
-0.700924,-3.071828,0.881493,0.634393,-0.773010,0.000000
-6.012470,-7.908568,3.775251,0.000000,-0.000000,1.000000
66.325864,9.694839,-3.775251,0.000000,0.000000,-1.000000
-23.479348,16.145496,-3.775251,-0.000000,-0.000000,-1.000000
-7.704241,10.938877,3.775251,0.000000,0.000000,1.000000
0.001269,12.856653,-3.775251,0.000000,0.000000,-1.000000
61.500091,-31.121468,-0.490213,0.000000,-1.000000,0.000000
0.447895,-31.121468,-2.277010,0.000000,-1.000000,0.000000
-29.088487,5.745214,-3.775251,0.000000,0.000000,-1.000000
35.818964,-18.623313,-3.775251,0.000000,0.000000,-1.000000
47.029688,23.818059,3.775251,-0.000000,0.000000,1.000000
44.888486,-9.272853,3.775251,0.000000,0.000000,1.000000
-14.324233,19.557459,-3.775251,0.000000,-0.000000,-1.000000
-13.495596,31.121468,2.833561,0.000000,1.000000,0.000000
-1.306727,14.341716,3.775251,0.000000,0.000000,1.000000
-37.708184,4.707687,-3.775251,0.000000,0.000000,-1.000000
14.856655,9.337368,-3.775251,0.000000,0.000000,-1.000000
5.666271,0.065970,-3.775251,0.000000,0.000000,-1.000000
32.453917,-11.526380,3.775251,-0.000000,-0.000000,1.000000
-54.979776,-0.055235,-3.775251,0.000000,0.000000,-1.000000
-60.296992,13.788381,-3.775251,0.000000,0.000000,-1.000000
44.399979,-1.150349,-3.775251,0.000000,0.000000,-1.000000
61.162723,19.622802,3.775251,0.000000,-0.000000,1.000000
-18.446438,15.681039,-3.775251,-0.000000,-0.000000,-1.000000
-34.017256,-25.576251,3.775251,0.000000,-0.000000,1.000000
22.967494,0.985452,3.775251,-0.000000,-0.000000,1.000000
63.618404,-31.121468,-2.826202,0.000000,-1.000000,0.000000
-48.981303,0.380101,3.775251,0.000000,-0.000000,1.000000
-11.701571,-18.673799,-3.775251,0.000000,0.000000,-1.000000
-24.652637,-28.991527,3.775251,0.000000,-0.000000,1.000000
-43.395976,-5.597047,3.775251,0.000000,-0.000000,1.000000
43.596910,16.161553,-3.775251,0.000000,0.000000,-1.000000
44.845303,17.297312,-3.775251,0.000000,0.000000,-1.000000
47.050060,25.604216,3.775251,-0.000000,0.000000,1.000000
30.908321,10.109409,3.775251,0.000000,-0.000000,1.000000
1.895095,-2.179451,-2.895879,-0.098017,-0.995185,0.000000
43.382331,-8.715003,-3.775251,0.000000,0.000000,-1.000000
-5.112621,24.530294,-3.775251,0.000000,-0.000000,-1.000000
52.647541,-2.423337,-3.775251,0.000000,0.000000,-1.000000
63.573897,15.573549,-3.775251,0.000000,0.000000,-1.000000
-25.706960,28.077339,3.775251,-0.000000,0.000000,1.000000
29.801139,-31.121468,-0.788360,0.000000,-1.000000,0.000000
-38.304196,-7.855276,-3.775251,0.000000,0.000000,-1.000000
31.514800,5.882283,3.775251,0.000000,-0.000000,1.000000
7.522295,-16.886990,3.775251,0.000000,-0.000000,1.000000
-54.942275,20.042936,3.775251,0.000000,-0.000000,1.000000
32.064330,20.072224,3.775251,-0.000000,0.000000,1.000000
-50.496837,9.263251,3.775251,0.000000,-0.000000,1.000000
-37.110602,9.827733,-3.775251,0.000000,0.000000,-1.000000
-6.456158,1.717412,1.800750,-0.471397,-0.881921,0.000000
-16.530782,-18.165978,-3.775251,0.000000,0.000000,-1.000000
-29.201346,7.711910,3.775251,0.000000,-0.000000,1.000000
-50.192892,-0.762941,3.775251,0.000000,-0.000000,1.000000
27.026079,6.298159,-3.775251,0.000000,0.000000,-1.000000
-56.083590,-31.121468,-1.595201,0.000000,-1.000000,0.000000
56.056081,-0.821558,3.775251,0.000000,-0.000000,1.000000
-60.255271,-26.797744,3.775251,0.000000,-0.000000,1.000000
41.737485,10.123743,3.775251,0.000000,-0.000000,1.000000
-24.632983,31.121468,1.589468,0.000000,1.000000,0.000000
17.503182,-23.119848,-3.775251,0.000000,0.000000,-1.000000
-65.872676,-1.734717,3.775251,0.000000,-0.000000,1.000000
-50.979834,28.525917,3.775251,-0.000000,0.000000,1.000000
-9.187883,-25.779058,3.775251,0.000000,-0.000000,1.000000
-33.447905,0.917085,-3.775251,0.000000,0.000000,-1.000000
28.694839,13.675434,-3.775251,0.000000,0.000000,-1.000000
-57.014195,-31.121468,-2.278030,0.000000,-1.000000,0.000000
-63.708922,12.981697,3.775251,0.000000,-0.000000,1.000000
-31.932622,17.181796,-3.775251,-0.000000,-0.000000,-1.000000
25.933528,6.987866,2.308996,-0.773011,0.634393,0.000000
-11.452417,10.207572,-3.775251,-0.000000,-0.000000,-1.000000
-67.082932,13.931186,0.189971,-1.000000,0.000000,0.000000
-48.182083,-9.474403,3.775251,0.000000,-0.000000,1.000000
29.531402,26.758477,-3.775251,0.000000,-0.000000,-1.000000
61.380446,16.940480,-3.775251,0.000000,0.000000,-1.000000
3.538616,6.979439,-3.775251,0.000000,0.000000,-1.000000
-5.125659,20.713578,3.775251,-0.000000,0.000000,1.000000
4.397092,30.749241,3.775251,-0.000000,0.000000,1.000000
4.899496,-7.412239,-2.328649,-0.881921,0.471397,0.000000
-48.502471,-19.002878,-3.775251,0.000000,0.000000,-1.000000
65.014291,6.145777,3.775251,0.000000,-0.000000,1.000000
27.022431,-14.815315,-3.775251,0.000000,0.000000,-1.000000
-21.325246,-12.630391,3.775251,0.000000,0.000000,1.000000
57.820861,31.121468,1.947794,-0.000000,1.000000,0.000000
-63.973505,-17.579718,3.775251,0.000000,-0.000000,1.000000
59.600096,3.523872,-3.775251,0.000000,0.000000,-1.000000
5.836096,23.689416,3.775251,-0.000000,0.000000,1.000000
-45.388900,-7.046095,3.775251,0.000000,-0.000000,1.000000
-11.641727,-0.015679,2.938032,0.956940,-0.290285,0.000000
33.819885,-31.121468,-2.467154,0.000000,-1.000000,0.000000
59.221514,-12.718255,-3.775251,0.000000,0.000000,-1.000000
1.172235,30.427311,-3.775251,0.000000,-0.000000,-1.000000
-30.997687,24.344601,-3.775251,0.000000,-0.000000,-1.000000
49.292427,-8.300384,-3.775251,0.000000,0.000000,-1.000000
6.996086,20.458111,3.775251,-0.000000,0.000000,1.000000
-4.420430,-5.180371,-3.775251,0.000000,0.000000,-1.000000
-0.424264,15.413082,-3.775251,0.000000,-0.000000,-1.000000
59.790359,-17.689263,-3.775251,0.000000,0.000000,-1.000000
7.651341,-27.551274,-3.775251,0.000000,0.000000,-1.000000
-67.082932,27.838842,1.154752,-1.000000,0.000000,0.000000
-54.191022,-14.522984,3.775251,0.000000,-0.000000,1.000000
-60.345528,-8.892620,3.775251,0.000000,-0.000000,1.000000
67.082932,-6.221081,2.892170,1.000000,-0.000000,0.000000
-29.143243,-19.625135,3.775251,0.000000,-0.000000,1.000000
47.347244,11.849095,-3.775251,0.000000,0.000000,-1.000000
63.914791,-0.269924,3.775251,0.000000,-0.000000,1.000000
18.958044,31.121468,-3.691865,-0.000000,1.000000,0.000000
16.893098,9.836912,-3.775251,0.000000,0.000000,-1.000000
41.043146,-16.903450,-3.775251,0.000000,0.000000,-1.000000
-65.946541,14.063898,3.775251,0.000000,-0.000000,1.000000
35.117411,14.571614,3.775251,0.000000,-0.000000,1.000000
28.939227,2.559927,3.775251,0.000000,0.000000,1.000000
-56.468860,-1.809862,-3.775251,0.000000,0.000000,-1.000000
-24.551087,-20.618540,3.775251,0.000000,-0.000000,1.000000
0.549537,9.977161,3.775251,0.000000,0.000000,1.000000
23.488592,-22.642219,3.775251,0.000000,-0.000000,1.000000
-10.116772,31.075126,-3.775251,0.000000,-0.000000,-1.000000
-55.718618,-6.527609,-3.775251,0.000000,0.000000,-1.000000
40.393949,16.179857,-3.775251,0.000000,0.000000,-1.000000
-65.873640,0.286824,3.775251,0.000000,-0.000000,1.000000
-54.709656,18.337407,-3.775251,0.000000,0.000000,-1.000000
44.653758,-22.392340,3.775251,-0.000000,-0.000000,1.000000
-65.163534,-5.961037,-3.775251,0.000000,0.000000,-1.000000
38.760053,-3.503942,3.775251,0.000000,0.000000,1.000000
-34.794048,-3.205497,3.775251,0.000000,-0.000000,1.000000
-47.537689,13.166212,3.775251,0.000000,-0.000000,1.000000
30.258677,6.228446,3.775251,0.000000,0.000000,1.000000
-12.715825,-17.194101,3.775251,0.000000,-0.000000,1.000000
31.340937,31.121468,1.510699,-0.000000,1.000000,0.000000
60.442687,7.176693,-3.775251,0.000000,0.000000,-1.000000
12.521173,-31.121468,-1.654428,0.000000,-1.000000,0.000000
-37.436920,-23.984945,3.775251,0.000000,-0.000000,1.000000
-55.929693,-15.601913,3.775251,0.000000,-0.000000,1.000000
67.082932,17.039321,-0.257830,1.000000,-0.000000,0.000000
60.448001,7.791138,3.775251,0.000000,-0.000000,1.000000
29.156453,-24.449787,-3.775251,0.000000,0.000000,-1.000000
31.141253,-13.145890,-3.775251,0.000000,0.000000,-1.000000
13.168374,0.346215,3.775251,0.000000,-0.000000,1.000000
-20.788071,10.193553,-3.775251,-0.000000,-0.000000,-1.000000
-6.639613,-20.277859,-3.775251,0.000000,0.000000,-1.000000
-60.637658,-23.011648,3.775251,0.000000,-0.000000,1.000000
-45.102845,-5.172986,-3.775251,0.000000,0.000000,-1.000000
25.099288,6.308191,-3.247874,-0.471396,0.881921,0.000000
20.830138,-7.843412,3.775251,-0.000000,-0.000000,1.000000
0.255670,3.655768,-3.775251,0.000000,0.000000,-1.000000
64.042401,14.063861,3.775251,0.000000,-0.000000,1.000000
16.986333,-27.159784,3.775251,0.000000,-0.000000,1.000000
64.086654,-31.121468,-0.050091,0.000000,-1.000000,0.000000
-21.635075,-31.121468,-0.544474,0.000000,-1.000000,0.000000
-38.267884,-17.871228,-3.775251,0.000000,0.000000,-1.000000
-24.687877,-11.051389,3.775251,0.000000,-0.000000,1.000000
-24.744720,7.885842,-3.775251,0.000000,-0.000000,-1.000000
22.306724,-6.100828,-3.775251,0.000000,0.000000,-1.000000
-52.548543,-5.127351,-3.775251,0.000000,0.000000,-1.000000
-31.937443,-29.218867,3.775251,0.000000,-0.000000,1.000000
-10.482696,18.869106,-3.775251,0.000000,-0.000000,-1.000000
29.892081,30.193631,-3.775251,0.000000,-0.000000,-1.000000
-67.033083,9.174651,-3.775251,0.000000,0.000000,-1.000000
24.324841,27.698342,3.775251,-0.000000,0.000000,1.000000
51.432087,12.373009,3.775251,0.000000,-0.000000,1.000000
1.260325,22.092166,3.775251,-0.000000,0.000000,1.000000
62.484943,-4.559812,3.775251,0.000000,-0.000000,1.000000
2.186196,7.664749,3.775251,0.000000,-0.000000,1.000000
17.422537,18.161941,-3.775251,0.000000,-0.000000,-1.000000
56.674837,31.121468,-2.304195,-0.000000,1.000000,0.000000
-9.955636,28.404883,-3.775251,0.000000,-0.000000,-1.000000
-62.322749,27.133774,-3.775251,0.000000,0.000000,-1.000000
-17.522633,11.037446,-3.775251,-0.000000,-0.000000,-1.000000
-52.749075,-12.283971,3.775251,0.000000,-0.000000,1.000000
19.946556,31.121468,-0.326392,-0.000000,1.000000,0.000000
58.770897,-0.493936,3.775251,0.000000,-0.000000,1.000000
-7.170557,16.813911,-3.775251,0.000000,-0.000000,-1.000000
37.767469,12.804419,-3.775251,0.000000,0.000000,-1.000000
23.400533,30.508103,3.775251,-0.000000,0.000000,1.000000
-32.057089,9.056567,3.775251,0.000000,-0.000000,1.000000
47.551808,7.119653,-3.775251,0.000000,0.000000,-1.000000
36.569143,17.002259,-3.775251,0.000000,0.000000,-1.000000
1.888628,28.346399,3.775251,-0.000000,0.000000,1.000000
12.079747,-14.643176,-3.775251,0.000000,0.000000,-1.000000
-67.082932,-22.751609,-1.866540,-1.000000,0.000000,0.000000
39.207382,-31.121468,-1.743880,0.000000,-1.000000,0.000000
39.188748,-18.378341,3.775251,-0.000000,-0.000000,1.000000
-21.253832,31.121468,3.019786,0.000000,1.000000,0.000000
-6.931373,1.964967,1.512827,-0.290285,-0.956940,0.000000
45.231458,21.495826,-3.775251,0.000000,-0.000000,-1.000000
46.517215,31.121468,-3.580787,-0.000000,1.000000,0.000000
34.485852,17.171578,3.775251,-0.000000,0.000000,1.000000
29.318127,-25.809134,-3.775251,0.000000,0.000000,-1.000000
64.796598,21.148480,3.775251,0.000000,-0.000000,1.000000
-55.490071,-31.121468,0.125788,0.000000,-1.000000,0.000000
-21.310968,27.410123,-3.775251,0.000000,-0.000000,-1.000000
-36.039971,-4.426918,3.775251,0.000000,-0.000000,1.000000
13.145840,-15.894326,3.775251,0.000000,-0.000000,1.000000
2.708521,-16.361088,-3.775251,0.000000,0.000000,-1.000000
49.365910,18.022376,3.775251,0.000000,-0.000000,1.000000
-37.093016,-1.005323,-3.775251,0.000000,0.000000,-1.000000
-65.394969,10.280744,3.775251,0.000000,-0.000000,1.000000
-61.154786,-20.382759,-3.775251,0.000000,0.000000,-1.000000
42.771857,-30.171401,3.775251,0.000000,-0.000000,1.000000
-67.082932,-4.829139,-1.355737,-1.000000,0.000000,0.000000
12.772457,-19.011284,-3.775251,0.000000,0.000000,-1.000000
-67.082932,29.501737,-1.828338,-1.000000,0.000000,0.000000
55.117350,-27.304967,-3.775251,0.000000,0.000000,-1.000000
57.538983,-26.578376,3.775251,-0.000000,-0.000000,1.000000
9.682891,2.236696,3.775251,0.000000,-0.000000,1.000000
20.372421,-9.272270,3.775251,-0.000000,-0.000000,1.000000
31.919648,3.571416,-3.775251,0.000000,0.000000,-1.000000
-15.814076,-18.707547,-3.775251,0.000000,0.000000,-1.000000
-6.191184,9.910231,3.775251,0.000000,0.000000,1.000000
50.604570,-18.426696,3.775251,-0.000000,-0.000000,1.000000
-4.771653,-0.566927,-2.207586,-0.956940,-0.290285,0.000000
18.943001,20.028514,3.775251,-0.000000,0.000000,1.000000
26.913894,-25.933455,3.775251,0.000000,-0.000000,1.000000
24.155135,-30.401745,3.775251,0.000000,-0.000000,1.000000
66.527371,-17.882756,3.775251,0.000000,-0.000000,1.000000
38.378817,31.121468,-3.746487,-0.000000,1.000000,0.000000
-43.430914,-1.595661,3.775251,0.000000,-0.000000,1.000000
-35.062551,31.121468,-0.116633,0.000000,1.000000,0.000000
-51.832794,-19.479043,-3.775251,0.000000,0.000000,-1.000000
16.279406,-16.134421,-3.775251,0.000000,0.000000,-1.000000
-41.056265,-20.751897,3.775251,0.000000,0.000000,1.000000
19.856452,-27.568303,3.775251,0.000000,-0.000000,1.000000
15.390361,-26.591759,3.775251,0.000000,-0.000000,1.000000
-37.646313,7.725657,-3.775251,0.000000,0.000000,-1.000000
44.845965,-7.430555,-3.775251,0.000000,0.000000,-1.000000
-66.807863,23.251823,3.775251,0.000000,-0.000000,1.000000
35.671710,-7.326980,3.775251,-0.000000,-0.000000,1.000000
62.692095,-21.181101,-3.775251,0.000000,0.000000,-1.000000
54.301848,1.031876,3.775251,0.000000,-0.000000,1.000000
44.181882,18.910724,-3.775251,0.000000,0.000000,-1.000000
57.953161,18.941145,3.775251,0.000000,-0.000000,1.000000
59.871785,12.928287,3.775251,0.000000,-0.000000,1.000000
7.725896,-12.984310,3.775251,0.000000,-0.000000,1.000000
9.232106,23.063676,-3.775251,0.000000,-0.000000,-1.000000
8.309855,25.635532,-3.775251,0.000000,-0.000000,-1.000000
-55.654539,5.386316,-3.775251,0.000000,0.000000,-1.000000
-40.479770,2.246924,-3.775251,0.000000,0.000000,-1.000000
51.602750,-24.157739,-3.775251,0.000000,0.000000,-1.000000
26.191537,11.525608,3.378188,-0.773011,-0.634392,0.000000
-60.031265,11.762601,3.775251,0.000000,-0.000000,1.000000
-23.167723,30.452453,3.775251,-0.000000,0.000000,1.000000
31.601494,-31.121468,-1.292399,0.000000,-1.000000,0.000000
67.082932,29.257489,-0.312277,1.000000,-0.000000,0.000000
32.562168,-26.843855,-3.775251,0.000000,0.000000,-1.000000
-0.330080,9.642271,3.775251,0.000000,0.000000,1.000000
62.550528,27.324623,3.775251,0.000000,-0.000000,1.000000
-60.956863,23.233628,-3.775251,0.000000,0.000000,-1.000000
-67.082932,20.160979,-1.579830,-1.000000,0.000000,0.000000
62.544488,-29.506244,-3.775251,0.000000,0.000000,-1.000000
-62.958828,-25.156236,3.775251,0.000000,-0.000000,1.000000
-38.315604,-5.217436,-3.775251,0.000000,0.000000,-1.000000
-62.108045,24.648115,-3.775251,0.000000,0.000000,-1.000000
33.456340,-1.754617,3.775251,-0.000000,-0.000000,1.000000
-35.709665,16.913611,-3.775251,-0.000000,-0.000000,-1.000000
-60.138622,25.062302,-3.775251,0.000000,0.000000,-1.000000
-33.238103,-31.121468,-3.459410,0.000000,-1.000000,0.000000
54.134910,-14.496869,-3.775251,0.000000,0.000000,-1.000000
34.903569,3.651172,-3.775251,0.000000,0.000000,-1.000000
46.440955,-25.572288,3.775251,0.000000,-0.000000,1.000000
-14.872359,-31.121468,-0.057083,0.000000,-1.000000,0.000000
52.764502,-4.854197,-3.775251,0.000000,0.000000,-1.000000
-60.519430,-20.353408,-3.775251,0.000000,0.000000,-1.000000
-44.290386,-25.323451,-3.775251,0.000000,0.000000,-1.000000
-15.650187,-1.588622,3.775251,0.000000,-0.000000,1.000000
-47.045803,-21.817930,-3.775251,0.000000,0.000000,-1.000000
-8.407692,9.970369,-3.775251,-0.000000,-0.000000,-1.000000
-23.070091,-20.188944,3.775251,0.000000,-0.000000,1.000000
24.595840,6.050646,2.545136,-0.290285,0.956940,0.000000
-10.367014,-27.978668,-3.775251,0.000000,0.000000,-1.000000
41.321378,-17.179664,3.775251,-0.000000,-0.000000,1.000000
-53.827617,-27.077253,3.775251,0.000000,-0.000000,1.000000
0.596504,21.812889,3.775251,-0.000000,0.000000,1.000000
-33.490096,-5.239321,3.775251,0.000000,-0.000000,1.000000
-53.893557,21.351926,-3.775251,0.000000,0.000000,-1.000000
-4.978122,22.189252,-3.775251,0.000000,-0.000000,-1.000000
38.059968,31.121468,1.345496,-0.000000,1.000000,0.000000
-6.337300,-8.016920,3.775251,0.000000,-0.000000,1.000000
32.875097,16.982527,-3.775251,0.000000,-0.000000,-1.000000
23.697468,-25.286579,-3.775251,0.000000,0.000000,-1.000000
31.259004,-20.334360,-3.775251,0.000000,0.000000,-1.000000
-33.783078,17.031999,-3.775251,-0.000000,-0.000000,-1.000000
3.229269,30.649211,-3.775251,0.000000,-0.000000,-1.000000
26.044172,-16.048316,3.775251,-0.000000,-0.000000,1.000000
19.433320,-19.976238,-3.775251,0.000000,0.000000,-1.000000
-3.437182,-3.702043,-3.775251,0.000000,0.000000,-1.000000
-59.119649,24.129455,3.775251,0.000000,-0.000000,1.000000
8.449426,-13.921127,-3.775251,0.000000,0.000000,-1.000000
34.190546,21.803867,3.775251,-0.000000,0.000000,1.000000
-42.500116,-24.199790,-3.775251,0.000000,0.000000,-1.000000
-46.802942,-31.121468,0.619522,0.000000,-1.000000,0.000000
4.846815,2.896158,-3.775251,0.000000,0.000000,-1.000000
-25.469037,19.916343,-3.775251,0.000000,0.000000,-1.000000
44.565504,-18.137779,-3.775251,0.000000,0.000000,-1.000000
1.851144,-17.714683,-3.775251,0.000000,0.000000,-1.000000
-43.367889,-3.387802,3.775251,0.000000,-0.000000,1.000000
-18.647874,9.431903,2.080668,-0.471397,-0.881921,0.000000
9.946393,-31.121468,0.885496,0.000000,-1.000000,0.000000
-31.839425,-15.250882,3.775251,0.000000,-0.000000,1.000000
26.278319,7.411981,3.282849,-0.881921,0.471397,0.000000
-53.427536,31.121468,-0.163357,0.000000,1.000000,0.000000
28.129470,18.953749,3.775251,-0.000000,0.000000,1.000000
-60.055446,31.121468,-1.811925,0.000000,1.000000,0.000000
67.082932,30.072703,2.218207,1.000000,-0.000000,0.000000
-55.116860,-31.121468,-1.021569,0.000000,-1.000000,0.000000
-33.150938,-3.177040,3.775251,0.000000,-0.000000,1.000000
-6.291166,-4.412466,0.338587,-0.471397,0.881921,0.000000
53.486420,21.516568,-3.775251,0.000000,0.000000,-1.000000
-27.749331,-22.228731,-3.775251,0.000000,0.000000,-1.000000
67.082932,-14.528503,-1.340197,1.000000,0.000000,-0.000000
-21.720786,18.854966,-3.775251,0.000000,0.000000,-1.000000
43.398068,13.623382,-3.775251,0.000000,0.000000,-1.000000
-40.276151,22.707256,3.775251,0.000000,0.000000,1.000000
-64.109464,-24.803146,3.775251,0.000000,-0.000000,1.000000
-22.871287,-30.522033,3.775251,0.000000,-0.000000,1.000000
-66.465415,-8.703712,3.775251,0.000000,-0.000000,1.000000
-11.632719,-30.177767,-3.775251,0.000000,0.000000,-1.000000
-49.735800,17.850390,3.775251,0.000000,-0.000000,1.000000
47.843726,24.019168,-3.775251,0.000000,-0.000000,-1.000000
-27.109049,-31.121468,0.731755,0.000000,-1.000000,0.000000
-36.640315,-5.209288,-3.775251,0.000000,0.000000,-1.000000
40.845918,30.530651,3.775251,-0.000000,0.000000,1.000000
52.721643,-1.996587,3.775251,0.000000,-0.000000,1.000000
-51.371067,-20.095358,-3.775251,0.000000,0.000000,-1.000000
-38.813625,8.937865,-3.775251,0.000000,0.000000,-1.000000
-13.450347,15.250049,3.775251,0.000000,0.000000,1.000000
-5.299332,-6.013920,3.775251,0.000000,0.000000,1.000000
55.980940,-30.670851,-3.775251,0.000000,0.000000,-1.000000
-67.082932,28.478430,-2.482169,-1.000000,0.000000,0.000000
-15.080803,30.827407,3.775251,-0.000000,0.000000,1.000000
-34.613030,22.230573,3.775251,0.000000,0.000000,1.000000
13.502303,-0.900222,3.775251,-0.000000,-0.000000,1.000000
-7.589841,-29.353437,-3.775251,0.000000,0.000000,-1.000000
30.597859,25.049802,-3.775251,0.000000,-0.000000,-1.000000
36.363868,20.003777,3.775251,-0.000000,0.000000,1.000000
49.676839,-3.547584,-3.775251,0.000000,0.000000,-1.000000
-49.159991,-25.623158,-3.775251,0.000000,0.000000,-1.000000
-5.784282,31.121468,2.755798,0.000000,1.000000,0.000000
59.268674,-12.489147,3.775251,0.000000,-0.000000,1.000000
2.689752,10.027959,3.775251,0.000000,0.000000,1.000000
-47.426266,-0.138070,-3.775251,0.000000,0.000000,-1.000000
60.033840,-18.209851,-3.775251,0.000000,0.000000,-1.000000
47.012894,-15.134784,-3.775251,0.000000,0.000000,-1.000000
-67.082932,-28.964166,-3.442410,-1.000000,0.000000,0.000000
19.257733,-26.394795,3.775251,0.000000,-0.000000,1.000000
-16.587758,-17.159648,3.775251,0.000000,-0.000000,1.000000
54.190893,-31.121468,-3.174912,0.000000,-1.000000,0.000000
-67.082932,3.789398,-0.681812,-1.000000,0.000000,0.000000
-37.522322,-22.966006,-3.775251,0.000000,0.000000,-1.000000
62.020468,-12.707060,3.775251,0.000000,-0.000000,1.000000
-6.437410,1.707391,-1.810030,-0.471397,-0.881921,0.000000
-1.079856,28.260358,-3.775251,0.000000,-0.000000,-1.000000
-6.253239,-25.588756,3.775251,0.000000,-0.000000,1.000000
24.409513,14.133841,-3.775251,0.000000,-0.000000,-1.000000
-31.582889,16.972602,3.775251,0.000000,0.000000,1.000000
-66.947740,-8.490654,3.775251,0.000000,-0.000000,1.000000
1.028992,-22.667608,3.775251,0.000000,-0.000000,1.000000
13.064709,14.001393,3.775251,-0.000000,0.000000,1.000000
-67.082932,10.551810,-1.271854,-1.000000,0.000000,0.000000
28.516458,22.604654,3.775251,-0.000000,0.000000,1.000000
22.445838,5.891779,0.497239,0.290285,0.956940,0.000000
-48.518820,10.943605,3.775251,0.000000,-0.000000,1.000000
36.897992,21.388525,-3.775251,0.000000,-0.000000,-1.000000
-45.847481,-0.733963,-3.775251,0.000000,0.000000,-1.000000
46.670119,-25.511081,3.775251,0.000000,-0.000000,1.000000
-28.831470,20.307002,-3.775251,-0.000000,-0.000000,-1.000000
-27.833401,22.792398,3.775251,-0.000000,0.000000,1.000000
67.082932,20.116249,1.347829,1.000000,-0.000000,0.000000
-25.006758,9.571566,3.775251,-0.000000,0.000000,1.000000
12.598414,8.878499,3.775251,0.000000,-0.000000,1.000000
-36.525352,-3.373687,3.775251,0.000000,-0.000000,1.000000
5.986697,-22.149170,-3.775251,0.000000,0.000000,-1.000000
57.018394,-10.732430,3.775251,0.000000,-0.000000,1.000000
5.436303,-1.650855,-3.775251,0.000000,0.000000,-1.000000
4.649032,-22.348412,3.775251,0.000000,-0.000000,1.000000
-42.140998,-8.228452,3.775251,0.000000,-0.000000,1.000000
-9.520261,20.872490,3.775251,-0.000000,0.000000,1.000000
51.278831,-16.644267,-3.775251,0.000000,0.000000,-1.000000
-21.651747,-28.333739,3.775251,0.000000,-0.000000,1.000000
-22.407775,-31.121468,-2.127954,0.000000,-1.000000,0.000000
45.286775,3.047652,-3.775251,0.000000,0.000000,-1.000000
28.685748,14.369692,-3.775251,0.000000,-0.000000,-1.000000
15.771117,-10.771396,3.775251,-0.000000,-0.000000,1.000000
28.986380,-10.066371,3.775251,-0.000000,-0.000000,1.000000
26.212730,18.875168,-3.775251,0.000000,-0.000000,-1.000000
10.010704,16.103653,3.775251,-0.000000,0.000000,1.000000
-10.718581,-9.569298,-3.775251,0.000000,0.000000,-1.000000
-65.389387,-8.671334,3.775251,0.000000,-0.000000,1.000000
-60.776003,23.183426,-3.775251,0.000000,0.000000,-1.000000
18.815076,31.121468,1.488505,0.000000,1.000000,0.000000
-3.650860,19.219548,3.775251,-0.000000,0.000000,1.000000
-2.293481,31.121468,0.260725,0.000000,1.000000,0.000000
18.711254,11.673675,3.775251,-0.000000,0.000000,1.000000
6.304416,-21.503344,-3.775251,0.000000,0.000000,-1.000000
50.069607,9.342322,3.775251,0.000000,-0.000000,1.000000
54.970857,-29.317406,3.775251,0.000000,-0.000000,1.000000
-21.423529,23.688305,3.775251,-0.000000,0.000000,1.000000
-45.874854,23.546524,3.775251,0.000000,0.000000,1.000000
49.406588,8.390022,3.775251,0.000000,-0.000000,1.000000
39.619368,-11.493645,-3.775251,0.000000,0.000000,-1.000000
-8.361762,-12.883449,3.775251,0.000000,-0.000000,1.000000
-2.049540,0.716216,3.775251,0.000000,-0.000000,1.000000
12.953093,22.815732,3.775251,-0.000000,0.000000,1.000000
-32.141935,4.154025,-3.775251,0.000000,0.000000,-1.000000
11.178079,18.890975,-3.775251,0.000000,-0.000000,-1.000000
35.562437,-29.486480,-3.775251,0.000000,0.000000,-1.000000
-9.760255,-6.762164,-3.775251,0.000000,0.000000,-1.000000
-31.709032,-0.099396,3.775251,0.000000,-0.000000,1.000000
-41.263201,4.431875,3.775251,0.000000,-0.000000,1.000000
-9.655131,-18.566148,3.775251,0.000000,-0.000000,1.000000
-19.298908,2.996782,-2.603959,-0.290285,0.956940,0.000000
-58.973402,31.121468,-2.160974,0.000000,1.000000,0.000000
-25.518789,-11.309208,3.775251,0.000000,-0.000000,1.000000
-8.284806,27.134747,3.775251,-0.000000,0.000000,1.000000
-66.839479,-5.342562,-3.775251,0.000000,0.000000,-1.000000
-44.248955,-31.121468,-2.252836,0.000000,-1.000000,0.000000
12.330001,-16.640621,-3.775251,0.000000,0.000000,-1.000000
-36.669740,-4.334050,-3.775251,0.000000,0.000000,-1.000000
21.413333,31.121468,1.883703,0.000000,1.000000,0.000000
-51.678684,11.493292,3.775251,0.000000,-0.000000,1.000000
-55.459175,17.628877,3.775251,0.000000,-0.000000,1.000000
56.487636,-26.796070,-3.775251,0.000000,0.000000,-1.000000
57.569754,9.656980,3.775251,0.000000,-0.000000,1.000000
65.692518,-31.121468,-2.007531,0.000000,-1.000000,0.000000
16.780319,2.268059,3.775251,0.000000,-0.000000,1.000000
-48.478987,-4.170862,3.775251,0.000000,-0.000000,1.000000
-35.950119,-20.332761,-3.775251,0.000000,0.000000,-1.000000
33.127230,12.380638,3.775251,0.000000,-0.000000,1.000000
62.603728,7.088605,-3.775251,0.000000,0.000000,-1.000000
-14.294859,-7.344155,-3.775251,0.000000,0.000000,-1.000000
-19.967938,-30.411081,3.775251,0.000000,-0.000000,1.000000
40.465141,-14.516849,-3.775251,0.000000,0.000000,-1.000000
-42.691160,-27.444601,-3.775251,0.000000,0.000000,-1.000000
-0.515266,4.774921,-3.775251,0.000000,0.000000,-1.000000
-4.981162,4.434799,-3.775251,0.000000,0.000000,-1.000000
-61.207037,31.121468,0.606075,0.000000,1.000000,0.000000
-67.082932,-15.884802,2.898748,-1.000000,0.000000,0.000000
-3.255391,0.400686,3.775251,0.000000,-0.000000,1.000000
-51.297797,-29.964086,3.775251,0.000000,-0.000000,1.000000
60.791159,-10.794543,3.775251,0.000000,-0.000000,1.000000
-4.451352,31.121468,2.470459,0.000000,1.000000,0.000000
9.883501,-31.121468,1.216161,0.000000,-1.000000,0.000000
-12.665004,28.563184,-3.775251,0.000000,-0.000000,-1.000000
-49.662086,-28.880527,-3.775251,0.000000,0.000000,-1.000000
-2.506042,-19.426368,3.775251,0.000000,-0.000000,1.000000
15.067738,-28.494189,3.775251,0.000000,-0.000000,1.000000
54.376203,8.569322,3.775251,0.000000,-0.000000,1.000000
-11.109364,-14.233894,3.775251,0.000000,-0.000000,1.000000
-33.134611,-31.121468,-0.761313,0.000000,-1.000000,0.000000
-21.369214,31.121468,-2.767219,-0.000000,1.000000,0.000000
-34.961593,5.256216,3.775251,0.000000,-0.000000,1.000000
-38.052780,31.121468,2.720058,0.000000,1.000000,0.000000
54.170695,23.787770,3.775251,0.000000,-0.000000,1.000000
4.373244,-27.611219,-3.775251,0.000000,0.000000,-1.000000
-3.504599,-7.223846,3.775251,0.000000,-0.000000,1.000000
-26.605685,13.954583,-3.775251,-0.000000,-0.000000,-1.000000
-26.492469,31.121468,0.032282,0.000000,1.000000,0.000000
55.600026,-21.992566,3.775251,-0.000000,-0.000000,1.000000
-63.106238,29.608378,-3.775251,-0.000000,-0.000000,-1.000000
-0.133067,10.295311,3.775251,0.000000,0.000000,1.000000
-35.995495,23.618212,3.775251,-0.000000,0.000000,1.000000
-47.934777,6.939318,-3.775251,0.000000,0.000000,-1.000000
4.809104,-24.078966,-3.775251,0.000000,0.000000,-1.000000
-19.586010,19.318010,-3.775251,0.000000,-0.000000,-1.000000
34.569308,30.183044,-3.775251,0.000000,-0.000000,-1.000000
-63.222259,-17.274477,3.775251,0.000000,-0.000000,1.000000
62.459304,-3.816676,3.775251,0.000000,-0.000000,1.000000
5.275672,-6.082750,1.330956,-0.995185,0.098017,0.000000
40.500043,19.221795,3.775251,0.000000,-0.000000,1.000000
19.704602,11.550867,3.775251,-0.000000,0.000000,1.000000
39.305637,15.916907,-3.775251,0.000000,0.000000,-1.000000
8.753622,31.121468,0.929615,0.000000,1.000000,0.000000
-51.552287,15.184001,-3.775251,0.000000,0.000000,-1.000000
11.918840,-13.679176,3.775251,0.000000,-0.000000,1.000000
16.214029,31.121468,2.217792,0.000000,1.000000,0.000000
4.283399,-1.196743,-3.775251,0.000000,0.000000,-1.000000
-13.230310,-31.121468,-2.785084,0.000000,-1.000000,0.000000
-40.919314,-22.876924,-3.775251,0.000000,0.000000,-1.000000
10.238320,5.492557,3.775251,0.000000,-0.000000,1.000000
51.663383,31.121468,1.633338,-0.000000,1.000000,0.000000
-4.661986,-14.758125,-3.775251,0.000000,0.000000,-1.000000
67.082932,-28.636821,3.301760,1.000000,0.000000,-0.000000
67.082932,-25.825283,-0.705602,1.000000,0.000000,-0.000000
6.057253,-11.651820,3.775251,0.000000,-0.000000,1.000000
-49.338207,23.377258,-3.775251,-0.000000,-0.000000,-1.000000
8.488304,-11.526061,-3.775251,0.000000,0.000000,-1.000000
-21.963766,31.078982,3.775251,-0.000000,0.000000,1.000000
-25.507715,-17.669207,-3.775251,0.000000,0.000000,-1.000000
65.932716,-11.216961,-3.775251,0.000000,0.000000,-1.000000
9.669221,20.181603,3.775251,-0.000000,0.000000,1.000000
-21.756922,-22.382995,3.775251,0.000000,-0.000000,1.000000
34.265642,31.121468,2.423598,0.000000,1.000000,0.000000
24.378119,-26.071422,3.775251,0.000000,-0.000000,1.000000
-38.428581,31.121468,-1.408095,0.000000,1.000000,0.000000
39.284283,11.320175,3.775251,0.000000,-0.000000,1.000000
-54.602889,-31.121468,-2.599619,0.000000,-1.000000,0.000000
39.520189,23.790440,-3.775251,0.000000,-0.000000,-1.000000
-17.030753,25.143401,-3.775251,0.000000,-0.000000,-1.000000
-1.178160,23.770689,3.775251,-0.000000,0.000000,1.000000
1.092535,6.207008,3.775251,0.000000,-0.000000,1.000000
14.741330,-18.265873,-3.775251,0.000000,0.000000,-1.000000
-28.152077,2.034686,-3.775251,0.000000,0.000000,-1.000000
-30.774816,29.893697,3.775251,-0.000000,0.000000,1.000000
23.258036,4.970877,3.775251,-0.000000,-0.000000,1.000000
-43.497164,24.145174,3.775251,0.000000,0.000000,1.000000
62.529569,6.972348,-3.775251,0.000000,0.000000,-1.000000
30.954829,-31.121468,2.624135,0.000000,-1.000000,0.000000
2.774953,29.137334,-3.775251,0.000000,-0.000000,-1.000000
-30.919527,1.324076,-3.775251,0.000000,0.000000,-1.000000
13.646139,9.957512,3.775251,0.000000,0.000000,1.000000
4.607816,10.543816,3.775251,0.000000,0.000000,1.000000
-30.570712,31.121468,1.538323,0.000000,1.000000,0.000000
-59.225889,-14.341630,3.775251,0.000000,-0.000000,1.000000
-8.734844,-4.971820,-2.193066,0.098017,0.995185,-0.000000
51.986283,26.727228,-3.775251,0.000000,-0.000000,-1.000000
50.438921,-13.364826,3.775251,0.000000,-0.000000,1.000000
50.552629,-11.187932,-3.775251,0.000000,0.000000,-1.000000
-15.299623,-9.862460,3.775251,0.000000,0.000000,1.000000
46.752741,9.685315,3.775251,0.000000,-0.000000,1.000000
62.914802,-18.719902,-3.775251,0.000000,0.000000,-1.000000
-2.259021,8.914834,3.775251,0.000000,0.000000,1.000000
-55.480753,26.641450,-3.775251,-0.000000,-0.000000,-1.000000
60.817638,4.174374,-3.775251,0.000000,0.000000,-1.000000
19.571975,6.162604,3.775251,0.000000,-0.000000,1.000000
37.293017,-0.322024,-3.775251,0.000000,0.000000,-1.000000
53.314673,27.201496,-3.775251,0.000000,-0.000000,-1.000000
33.925264,-31.121468,-0.573177,0.000000,-1.000000,0.000000
-26.467567,27.864723,3.775251,-0.000000,0.000000,1.000000
47.462034,-2.936389,-3.775251,0.000000,0.000000,-1.000000
55.805071,16.162282,-3.775251,0.000000,0.000000,-1.000000
49.661506,14.128915,3.775251,0.000000,-0.000000,1.000000
-20.871225,-13.354952,3.775251,0.000000,-0.000000,1.000000
-35.308466,-25.866156,3.775251,0.000000,-0.000000,1.000000
38.948859,31.121468,1.609716,-0.000000,1.000000,0.000000
-49.157587,-9.947733,3.775251,0.000000,-0.000000,1.000000
34.873089,-11.043405,-3.775251,0.000000,0.000000,-1.000000
-22.767178,-28.886438,3.775251,0.000000,-0.000000,1.000000
25.049634,4.599618,-3.775251,0.000000,0.000000,-1.000000
12.928422,-7.124888,-3.775251,0.000000,0.000000,-1.000000
31.185243,-14.093150,3.775251,-0.000000,-0.000000,1.000000
-18.585397,31.121468,-2.158038,-0.000000,1.000000,0.000000
-60.956292,-19.650193,3.775251,0.000000,-0.000000,1.000000
23.418718,2.335284,-3.775251,0.000000,0.000000,-1.000000
-14.024445,-26.332991,-3.775251,0.000000,0.000000,-1.000000
67.082932,-14.778502,1.054196,1.000000,0.000000,-0.000000
-67.082932,14.293555,2.537824,-1.000000,0.000000,0.000000
-35.529816,22.924762,-3.775251,0.000000,0.000000,-1.000000
-10.501512,5.570169,3.775251,0.000000,-0.000000,1.000000
-4.745285,-6.258413,3.775251,0.000000,0.000000,1.000000
-60.542351,-23.371880,3.775251,0.000000,-0.000000,1.000000
-27.512434,10.495828,3.775251,-0.000000,0.000000,1.000000
7.676317,9.947988,-3.775251,-0.000000,-0.000000,-1.000000
27.046384,-24.026011,3.775251,0.000000,-0.000000,1.000000
41.841623,-6.318032,-3.775251,0.000000,0.000000,-1.000000
34.584339,26.866686,3.775251,-0.000000,0.000000,1.000000
1.440233,9.397709,-3.775251,-0.000000,-0.000000,-1.000000
67.082932,-12.095255,-1.294121,1.000000,0.000000,-0.000000
49.768762,19.316554,-3.775251,0.000000,0.000000,-1.000000
32.740562,28.806645,-3.775251,0.000000,-0.000000,-1.000000
6.143175,31.121468,2.025621,0.000000,1.000000,0.000000
58.317888,-12.453894,3.775251,0.000000,-0.000000,1.000000
44.410187,21.671530,-3.775251,0.000000,-0.000000,-1.000000
19.028587,31.121468,3.452301,0.000000,1.000000,0.000000
65.455520,-31.121468,-2.503277,0.000000,-1.000000,0.000000
29.623532,-29.716315,-3.775251,0.000000,0.000000,-1.000000
-11.885787,30.239099,-3.775251,0.000000,-0.000000,-1.000000
10.923961,-21.404277,3.775251,0.000000,-0.000000,1.000000
-45.016299,-28.907815,-3.775251,0.000000,0.000000,-1.000000
44.615343,24.773178,3.775251,-0.000000,0.000000,1.000000
-39.361704,0.761340,-3.775251,0.000000,0.000000,-1.000000
-29.967027,-12.920744,3.775251,0.000000,-0.000000,1.000000
-45.991413,17.088804,-3.775251,0.000000,0.000000,-1.000000
-23.367832,0.388160,3.775251,0.000000,-0.000000,1.000000
-8.315231,28.045589,3.775251,-0.000000,0.000000,1.000000
-29.298138,-9.107708,-3.775251,0.000000,0.000000,-1.000000
-42.267390,-22.987491,3.775251,0.000000,-0.000000,1.000000
-53.511657,-31.121468,-1.513832,0.000000,-1.000000,0.000000
-53.730619,-30.478050,3.775251,0.000000,-0.000000,1.000000
32.915057,2.795904,3.775251,0.000000,0.000000,1.000000
-67.082932,-4.110264,1.906970,-1.000000,0.000000,0.000000
10.850994,-10.364335,-3.775251,0.000000,0.000000,-1.000000
-17.409635,22.793110,3.775251,-0.000000,0.000000,1.000000
19.260663,9.802414,3.775251,-0.000000,0.000000,1.000000
37.854794,-28.737841,-3.775251,0.000000,0.000000,-1.000000
47.421268,-27.619795,-3.775251,0.000000,0.000000,-1.000000
11.220119,-31.121468,-2.809028,0.000000,-1.000000,0.000000
55.589233,31.121468,-3.631233,-0.000000,1.000000,0.000000
28.309058,-22.225135,-3.775251,0.000000,0.000000,-1.000000
-59.229733,-3.597639,-3.775251,0.000000,0.000000,-1.000000
67.082932,17.004440,-3.413826,1.000000,0.000000,-0.000000
-55.033847,-8.826035,-3.775251,0.000000,0.000000,-1.000000
-51.518035,31.121468,1.868059,0.000000,1.000000,0.000000
-63.446594,31.121468,-0.190983,0.000000,1.000000,0.000000
-54.877471,-1.857403,3.775251,0.000000,-0.000000,1.000000
9.569453,-15.209628,3.775251,0.000000,-0.000000,1.000000
64.242509,-11.852426,3.775251,0.000000,-0.000000,1.000000
-66.596276,24.216133,3.775251,0.000000,-0.000000,1.000000
-49.481228,-2.425938,3.775251,0.000000,-0.000000,1.000000
47.342856,29.758948,3.775251,-0.000000,0.000000,1.000000
0.326429,30.721641,3.775251,-0.000000,0.000000,1.000000
-12.298584,28.991066,3.775251,-0.000000,0.000000,1.000000
-50.505731,25.619418,3.775251,0.000000,0.000000,1.000000
61.927358,24.313894,-3.775251,0.000000,0.000000,-1.000000
-40.278176,25.525170,-3.775251,0.000000,-0.000000,-1.000000
23.124763,19.001017,3.775251,-0.000000,0.000000,1.000000
-2.111828,-1.191190,3.775251,0.000000,-0.000000,1.000000
47.856745,-29.186770,3.775251,0.000000,-0.000000,1.000000
56.023831,-5.864596,-3.775251,0.000000,0.000000,-1.000000
-62.160253,0.245041,-3.775251,0.000000,0.000000,-1.000000
-13.819330,-0.407055,-3.775251,0.000000,0.000000,-1.000000
31.262366,-4.578402,3.775251,-0.000000,-0.000000,1.000000
45.282788,26.836141,-3.775251,0.000000,-0.000000,-1.000000
36.319373,-23.168713,-3.775251,0.000000,0.000000,-1.000000
-55.710760,3.706431,-3.775251,0.000000,0.000000,-1.000000
37.379187,27.116371,-3.775251,0.000000,-0.000000,-1.000000
-2.922337,-26.275292,3.775251,0.000000,-0.000000,1.000000
67.082932,19.536787,-0.811209,1.000000,-0.000000,0.000000
-45.940353,8.108650,3.775251,0.000000,-0.000000,1.000000
-20.807322,23.407798,3.775251,-0.000000,0.000000,1.000000
17.875001,-5.642414,3.775251,-0.000000,-0.000000,1.000000
-3.278737,15.205315,3.775251,-0.000000,0.000000,1.000000
-51.104351,-3.680687,-3.775251,0.000000,0.000000,-1.000000
-47.640774,20.692821,-3.775251,0.000000,-0.000000,-1.000000
53.321222,31.121468,-3.243622,-0.000000,1.000000,0.000000
-67.082932,8.834077,1.018269,-1.000000,0.000000,0.000000
67.082932,1.406392,-0.248015,1.000000,0.000000,-0.000000
-15.272057,-21.584751,-3.775251,0.000000,0.000000,-1.000000
-39.770698,-8.334854,3.775251,0.000000,-0.000000,1.000000
0.560683,-9.211261,-2.761168,0.290285,0.956940,-0.000000
-9.254701,31.121468,2.336425,0.000000,1.000000,0.000000
55.973140,29.380911,-3.775251,0.000000,-0.000000,-1.000000
67.082932,-13.346111,-2.731788,1.000000,0.000000,-0.000000
-43.919397,-2.303943,3.775251,0.000000,-0.000000,1.000000
6.491872,22.572863,-3.775251,0.000000,-0.000000,-1.000000
25.478069,6.569522,2.169686,-0.634393,0.773010,0.000000
26.117787,29.509940,-3.775251,0.000000,-0.000000,-1.000000
-63.217885,-23.770037,-3.775251,0.000000,0.000000,-1.000000
-37.078764,23.922971,3.775251,-0.000000,0.000000,1.000000
-33.213965,-8.614678,-3.775251,0.000000,0.000000,-1.000000
41.407939,31.121468,2.806103,0.000000,1.000000,0.000000
-40.797249,22.331715,3.775251,0.000000,0.000000,1.000000
2.162677,19.557941,-3.775251,0.000000,-0.000000,-1.000000
19.483038,-31.121468,-0.509628,0.000000,-1.000000,0.000000
66.187020,-31.121468,-0.594115,0.000000,-1.000000,0.000000
-61.474166,8.336734,3.775251,0.000000,-0.000000,1.000000
22.508171,-7.074377,3.775251,-0.000000,-0.000000,1.000000
43.993219,10.986860,-3.775251,0.000000,0.000000,-1.000000
-16.225704,-7.913653,3.775251,0.000000,-0.000000,1.000000
-26.917329,-13.885547,3.775251,0.000000,0.000000,1.000000
-29.324962,28.222581,-3.775251,0.000000,-0.000000,-1.000000
-64.516401,11.916985,-3.775251,0.000000,0.000000,-1.000000
23.404593,-4.778702,-3.775251,0.000000,0.000000,-1.000000
13.677631,-29.813182,-3.775251,0.000000,0.000000,-1.000000
-56.592208,-18.434391,-3.775251,0.000000,0.000000,-1.000000
-3.635075,-1.895535,-3.775251,0.000000,0.000000,-1.000000
33.356571,-24.093772,3.775251,0.000000,-0.000000,1.000000
-49.220277,20.494003,3.775251,-0.000000,-0.000000,1.000000
54.480216,-22.223358,-3.775251,0.000000,0.000000,-1.000000
-50.356020,-10.453709,-3.775251,0.000000,0.000000,-1.000000
-50.227866,10.935229,-3.775251,0.000000,0.000000,-1.000000
32.109849,-18.648043,3.775251,-0.000000,-0.000000,1.000000
16.509869,28.934510,-3.775251,0.000000,-0.000000,-1.000000
28.586332,30.595738,-3.775251,0.000000,-0.000000,-1.000000
54.143996,-31.121468,1.053880,0.000000,-1.000000,0.000000
-32.212341,-31.121468,3.755412,0.000000,-1.000000,0.000000
