x,y,z,nx,ny,nz
-29.876262,-12.921423,1.904420,-0.934172,-0.356822,0.000000
29.965716,12.687229,-0.464967,0.934172,0.356822,-0.000000
-12.038850,21.769229,7.571177,0.881921,0.000000,-0.471397
-26.300282,19.172144,-1.583490,-0.801768,0.597636,0.000000
-14.030000,-2.284332,21.173882,0.995185,0.098017,0.000000
-1.578637,-23.708048,-22.264870,-0.080531,-0.723272,-0.685852
11.284417,8.611966,29.137998,-0.773011,-0.634393,-0.000000
-25.525424,-6.277480,-19.280614,-0.759246,-0.161444,-0.630461
-31.696505,-7.292871,-1.383300,-0.971231,-0.223786,-0.081425
-8.610362,18.095513,-11.285733,0.634393,0.000000,0.773011
10.760405,-12.846228,27.940632,0.306798,-0.364801,0.879088
-21.821201,-6.887384,23.168884,-0.670528,-0.239219,0.702258
-25.297015,15.325482,-13.677578,-0.802678,0.457622,-0.382479
20.567495,-17.557370,18.127701,0.635472,-0.503751,0.585159
26.117707,12.146654,-15.185646,0.801686,0.395175,-0.448482
-5.705871,13.035877,29.083594,0.471397,-0.881921,0.000000
11.294445,-8.599747,24.130441,-0.773011,0.634393,0.000000
11.928088,-13.307973,-7.778398,-0.881921,0.000000,0.471397
-25.449408,20.307353,-0.316770,-0.762305,0.647218,0.000000
26.880843,-13.951512,-11.997625,0.802678,-0.457622,-0.382479
21.362247,-23.018614,-8.789188,0.638727,-0.738104,-0.217328
19.760991,10.898109,23.520878,0.641557,0.296210,0.707576
-30.604701,10.429375,-3.665671,-0.946807,0.311335,-0.081408
17.764894,0.167641,27.349242,0.597636,-0.000000,0.801768
25.070495,19.483374,-7.536623,0.809504,0.538762,-0.233320
18.687500,-19.493072,-18.146113,0.577350,-0.577350,-0.577350
14.219797,-0.357300,-24.439097,-0.995185,0.098017,-0.000000
-11.025321,13.377503,-8.927676,0.773011,0.000000,0.634392
31.655376,-7.543509,-1.185040,0.971231,-0.223786,-0.081425
6.924872,-13.215180,28.948810,0.214847,-0.371628,0.903180
-27.605760,-4.504973,16.729493,-0.819635,-0.132793,0.557284
-19.635226,-25.099615,-6.797268,-0.638727,-0.738104,-0.217328
-13.904614,-7.895857,-3.033093,0.956940,0.000000,0.290284
14.049875,3.506940,-2.082540,-0.995185,0.000000,0.098016
-25.904868,18.836253,-5.838750,-0.791679,0.589578,-0.160129
15.660970,27.596801,-7.295909,0.500142,0.839788,-0.211221
13.486311,-4.412051,10.228137,-0.956940,0.290285,0.000000
-9.794806,-23.352957,10.313686,0.634393,0.000000,-0.773011
27.074131,-17.917693,2.345103,0.830387,-0.551642,0.078417
-7.547669,-12.051415,21.979608,0.471397,0.881921,-0.000000
11.035764,8.914951,-10.943569,-0.773011,-0.634393,-0.000000
24.408471,-21.320887,-3.327487,0.723272,-0.685852,-0.080531
13.202095,9.930489,5.348987,-0.956940,0.000000,-0.290285
21.835747,20.520974,-12.778699,0.648687,0.620644,-0.440461
27.427800,-11.245834,-13.490196,0.829480,-0.337457,-0.445068
-31.831896,2.591004,-6.369698,-0.977326,0.049608,-0.205849
14.216471,-15.600964,-0.391067,-0.995185,-0.000000,0.098017
-26.444510,18.343042,4.986701,-0.791679,0.589578,0.160129
13.525135,11.794291,-27.220818,0.457622,0.382479,-0.802678
14.640002,1.588351,29.041852,0.443056,0.000000,0.896494
-8.781580,-11.145219,-22.039545,0.634393,0.773011,0.000000
22.218186,18.333193,-15.154980,0.708443,0.546563,-0.446517
15.859818,21.713791,-18.411156,0.446517,0.708443,-0.546563
-11.339917,19.760095,-8.544339,0.773011,0.000000,0.634392
12.322910,-7.039739,19.990576,-0.881921,0.471397,-0.000000
-29.103555,-3.557139,14.165630,-0.901705,-0.082070,0.424492
24.190698,-3.845490,-21.485921,0.728344,-0.080541,-0.680461
14.034975,18.274344,-2.233825,-0.995185,0.000000,0.098017
-9.012522,-16.914354,-26.309643,-0.267099,-0.508425,-0.818634
-16.782337,-27.730869,3.239002,-0.546249,-0.833680,0.081178
4.140546,15.026970,-28.644965,0.082070,0.424492,-0.901705
22.884752,23.171745,1.241832,0.680461,0.728344,0.080541
4.819154,28.607006,14.728045,0.161879,0.884358,0.437842
-24.020729,-1.599357,-21.933709,-0.728344,-0.080541,-0.680461
-14.058914,-5.188854,1.990766,0.995185,-0.000000,-0.098017
-15.581662,26.853519,9.882384,-0.508425,0.818634,0.267099
0.055748,18.708571,26.649439,0.000000,0.596420,0.802672
7.217475,-15.670761,-12.227908,-0.471397,0.000000,0.881921
-8.462917,-17.657093,11.406738,0.634393,-0.000000,-0.773011
-11.836764,27.470885,13.021726,-0.302377,0.852184,0.427026
9.997917,-10.146997,10.832950,-0.634393,0.773011,-0.000000
10.351481,-9.748753,-21.844483,-0.773011,0.634393,0.000000
-12.152853,-25.693801,15.900694,-0.382234,-0.759514,0.526342
0.556527,14.200175,-15.579941,-0.098017,-0.995185,0.000000
12.580170,6.558438,-22.797734,-0.881921,-0.471397,0.000000
13.336702,4.905247,-25.237783,-0.956940,-0.290284,0.000000
-26.835056,-11.755149,-14.208732,-0.829480,-0.337457,-0.445068
5.382939,25.159571,-13.191796,-0.290284,0.000000,0.956940
6.340475,25.179719,19.673708,0.160129,0.791679,0.589578
-14.023745,20.883195,20.632976,-0.440461,0.648687,0.620644
-19.904701,-18.433436,-17.988549,-0.577350,-0.577350,-0.577350
-28.944441,-14.837108,0.926989,-0.896494,-0.443056,0.000000
31.978579,-5.592759,-2.691282,0.971231,-0.223786,-0.081425
23.356484,9.808615,-20.539886,0.759176,0.293108,-0.581154
-9.336106,29.227602,10.905286,-0.312401,0.885789,0.343197
9.434325,10.609524,-25.284452,-0.634393,-0.773011,0.000000
9.777347,-19.836117,23.907295,0.293108,-0.581154,0.759176
14.190362,9.601243,-0.656158,-0.995185,-0.000000,0.098017
-27.648713,16.279230,5.750885,-0.851639,0.469405,0.233171
7.633723,-12.375203,29.125812,0.214847,-0.371628,0.903180
24.266680,15.075878,-15.704781,0.699011,0.488894,-0.521887
-17.620786,6.257438,26.678826,-0.538762,0.233320,0.809504
14.149659,-10.211758,-27.482278,0.427026,-0.302377,-0.852184
14.182235,17.761459,0.738666,-0.995185,0.000000,-0.098017
-7.611088,-21.244712,-12.017517,0.471397,-0.000000,0.881921
-18.195045,-26.922931,-2.030182,-0.546249,-0.833680,-0.081178
-27.595256,12.026996,12.585817,-0.829480,0.337457,0.445068
2.391345,-26.767974,18.371978,0.078417,-0.830387,0.551642
12.213616,7.244213,26.598788,-0.881921,-0.471397,0.000000
-29.556747,-1.886027,-13.526049,-0.901705,-0.082070,-0.424492
-11.961889,7.715161,11.600528,0.881921,-0.471397,0.000000
-2.990641,-13.917491,28.538982,0.290285,0.956940,0.000000
-1.290842,-17.700919,-14.127851,0.098017,0.000000,0.995185
13.363217,-25.348786,15.497418,0.382479,-0.802678,0.457622
-31.412215,7.205019,4.757672,-0.971850,0.181286,0.150476
1.701350,-14.087419,-18.777544,-0.098017,0.995185,0.000000
14.101532,-19.107313,1.558054,-0.995185,0.000000,-0.098017
-14.038833,-8.937359,2.194647,0.995185,-0.000000,-0.098017
27.166670,-10.427898,-14.597041,0.829480,-0.337457,-0.445068
23.493199,14.103555,-17.596661,0.742100,0.420208,-0.522219
13.102602,-29.154433,6.182459,0.419241,-0.889788,0.180319
29.883969,9.755632,-8.515993,0.923386,0.308167,-0.228893
12.548860,7.118567,29.250566,0.350589,0.159793,0.922797
-15.201487,-26.331687,11.683115,-0.445068,-0.829480,0.337457
12.436792,6.826680,-11.604895,-0.881921,-0.471397,-0.000000
-3.636254,17.518769,-27.209657,-0.081178,0.546249,-0.833680
-0.887950,-27.616332,-17.308655,-0.078417,-0.830387,-0.551642
-5.234959,13.236685,22.321189,0.290284,-0.956940,0.000000
-11.491787,28.429916,-8.359285,0.773011,0.000000,0.634393
30.388886,-10.424975,-5.204635,0.922797,-0.350587,-0.159793
16.546409,-24.808723,13.085517,0.522219,-0.742100,0.420208
-8.446889,16.724815,-26.611911,-0.267099,0.508425,-0.818634
-7.072978,-25.423155,12.305143,0.471397,-0.000000,-0.881921
21.850043,-0.929180,24.139620,0.647218,0.000000,0.762305
9.366296,-10.665355,-27.338795,-0.634393,0.773011,0.000000
31.714173,-7.385369,-0.918350,0.971231,-0.223786,-0.081425
13.699451,15.006700,-3.709422,-0.956940,-0.000000,0.290285
24.351988,-7.988145,-20.093975,0.738104,-0.217328,-0.638727
-2.043048,-27.978799,14.053765,0.098017,0.000000,-0.995185
0.432475,-25.260622,20.529709,0.000000,-0.762305,0.647218
-24.782659,-15.047155,15.005000,-0.742100,-0.420208,0.522219
8.067731,11.731059,-25.608045,-0.634393,-0.773011,-0.000000
-32.328605,3.670090,-0.042395,-0.995747,0.092126,0.000000
18.622952,11.691755,24.039333,0.526342,0.382234,0.759514
14.079596,-18.500175,-1.780776,-0.995185,0.000000,0.098017
-14.586251,-28.955924,3.003572,-0.424491,-0.901705,0.082071
26.018727,-6.348404,18.624385,0.819635,-0.132793,0.557284
-20.375584,1.837342,-25.391478,-0.647218,0.000000,-0.762305
3.153403,-16.280019,-28.068336,0.081178,-0.546249,-0.833680
9.581151,-15.438739,10.489028,-0.634393,-0.000000,-0.773011
-26.848672,12.080695,-13.936523,-0.829480,0.337457,-0.445068
23.693753,15.117913,-16.432778,0.699011,0.488894,-0.521887
-13.425575,-4.612272,11.632589,0.956940,0.290285,-0.000000
29.571302,-12.996577,-4.234307,0.884358,-0.437842,-0.161879
-8.937140,-24.324616,19.779934,-0.296210,-0.707576,0.641557
28.342665,-13.391171,8.858106,0.852184,-0.427026,0.302377
16.514527,-10.893873,25.902013,0.526342,-0.382234,0.759514
5.462429,-23.807128,-21.538520,0.158952,-0.751866,-0.639868
14.038834,2.194644,13.574183,-0.995185,-0.098017,-0.000000
16.755951,12.817884,-24.766424,0.526342,0.382234,-0.759514
-27.565472,-2.035793,-17.213572,-0.833680,-0.081178,-0.546249
-24.798371,-17.145515,12.217970,-0.759514,-0.526342,0.382234
-31.598076,6.865296,-3.732479,-0.971231,0.223786,-0.081425
-4.260937,-17.118395,-27.380876,-0.132793,-0.557284,-0.819635
2.158532,-25.910430,14.042391,-0.098017,0.000000,-0.995185
17.497023,-14.289806,23.408592,0.546563,-0.446517,0.708443
-9.223090,-26.703997,-10.782881,0.634393,0.000000,0.773011
-18.278844,-3.507727,26.724420,-0.551642,-0.078417,0.830387
-12.213837,7.243799,14.161216,0.881921,-0.471397,0.000000
-11.337583,8.547184,-23.292589,0.773011,-0.634393,0.000000
-23.631110,-19.648349,10.859042,-0.759999,-0.569358,0.313422
20.602966,14.127102,-20.841728,0.620644,0.440461,-0.648687
-24.143081,19.056123,10.693421,-0.759999,0.569358,0.313422
-11.972139,7.695984,21.103962,0.881921,-0.471397,0.000000
26.098133,17.214151,9.211114,0.809504,0.538762,0.233320
-13.680798,-3.770915,11.212632,0.956940,0.290285,-0.000000
5.421714,16.790407,27.395548,0.211221,0.500142,0.839788
-2.775192,-28.456265,15.517144,-0.078367,-0.872474,0.482336
-16.865309,-27.698938,-3.008612,-0.546249,-0.833680,-0.081178
30.557614,4.635128,-10.309828,0.940327,0.181151,-0.288045
9.199842,-27.038248,-15.673566,0.233171,-0.851639,-0.469405
-14.174121,22.626526,-18.605228,-0.446517,0.708443,-0.546563
-13.383649,4.750484,15.143057,0.956940,-0.290285,0.000000
-0.468362,-25.489680,-20.259619,0.000000,-0.801768,-0.597636
14.997043,28.119794,6.788639,0.500142,0.839788,0.211221
-19.552279,24.230883,-9.502001,-0.581154,0.759176,-0.293108
22.680052,-0.382974,23.434920,0.647218,0.000000,0.762305
3.729318,20.547802,13.693416,-0.290284,-0.000000,-0.956940
12.839073,-6.074066,18.973927,-0.881921,0.471397,-0.000000
-3.413286,15.937234,28.246567,-0.050171,0.465072,0.883850
-31.789142,4.395962,5.707494,-0.971850,0.181286,0.150476
-14.075387,1.823516,18.232541,0.995185,-0.098018,0.000000
-30.652876,10.598959,-2.456815,-0.946807,0.311335,-0.081408
-14.114882,1.422516,-16.588159,0.995185,-0.098017,0.000000
-26.288206,9.181206,16.860255,-0.818634,0.267099,0.508425
-9.778008,11.958280,28.651963,-0.306798,0.364801,0.879088
14.032692,-2.257006,14.804571,-0.995185,0.098017,0.000000
14.987854,-16.839178,23.481296,0.488894,-0.521887,0.699011
12.223282,11.068918,7.226128,-0.881922,-0.000000,-0.471396
-13.651956,-3.865992,19.408739,0.956940,0.290285,-0.000000
-12.163684,-18.480605,7.337628,0.881921,-0.000000,-0.471397
29.487246,-2.904967,13.476684,0.901705,-0.082070,0.424492
6.638666,-23.126898,21.953907,0.239219,-0.702258,0.670528
23.913310,-13.889398,-17.171987,0.742100,-0.420208,-0.522219
3.917946,17.919155,-26.891995,0.132793,0.557284,-0.819635
28.099737,-0.329448,-16.548956,0.883850,-0.050171,-0.465072
20.473980,25.305633,2.125451,0.639355,0.768912,-0.000000
25.472402,-20.280270,-0.922808,0.762305,-0.647218,0.000000
-13.135382,24.884293,5.519710,0.881921,0.000000,-0.471396
1.177349,-14.139029,15.119336,-0.098017,0.995185,-0.000000
-6.691369,-18.258507,12.509117,0.471397,0.000000,-0.881921
-13.011358,-19.567303,5.751742,0.881921,-0.000000,-0.471397
8.018552,11.771419,26.518187,-0.634393,-0.773011,-0.000000
-5.539947,-19.553481,13.124565,0.471397,0.000000,-0.881921
24.051227,9.020491,-20.029820,0.759176,0.293108,-0.581154
12.872792,6.010982,10.936140,-0.881921,-0.471397,-0.000000
4.161429,27.763050,-13.562336,-0.290284,0.000000,0.956940
14.118019,-9.636503,1.390667,-0.995185,0.000000,-0.098018
-4.548727,-19.340974,13.444851,0.290285,0.000000,-0.956940
-18.165977,-0.003161,-27.050276,-0.597636,0.000000,-0.801768
-29.174222,-13.581770,-4.820793,-0.884358,-0.437842,-0.161879
-1.020002,17.985081,14.154526,0.098017,-0.000000,-0.995185
-27.480028,8.884918,-15.096909,-0.818634,0.267099,-0.508425
19.791198,18.817200,17.718287,0.577350,0.577350,0.577350
-11.643138,-8.174864,-9.184862,0.773010,0.634394,0.000000
-1.316743,-20.558929,14.125300,0.098017,0.000000,-0.995185
-11.314411,28.719809,10.349206,-0.364801,0.879088,0.306798
9.718621,-28.455346,10.376210,-0.634393,0.000000,-0.773011
10.962273,9.004500,25.831564,-0.773011,-0.634393,-0.000000
21.558737,17.176099,17.364329,0.699011,0.488894,0.521887
-14.178838,-23.914419,-0.773162,0.995185,0.000000,0.098017
21.354854,-4.557050,24.154842,0.639868,-0.158952,0.751866
8.443317,26.971677,-16.170141,0.233171,0.851639,-0.469405
12.090806,-7.584363,-7.473975,-0.881921,0.000000,0.471397
5.654925,28.905066,-13.817018,0.161879,0.884358,-0.437842
6.847514,-23.045370,-21.964784,0.239219,-0.702258,-0.670528
9.637458,-28.610845,-10.442818,-0.634393,-0.000000,0.773011
-4.195436,-28.958994,-14.247697,-0.161879,-0.884358,-0.437842
23.397377,-21.834199,6.180179,0.702258,-0.670528,0.239219
-17.668189,-19.896334,18.762162,-0.577350,-0.577350,0.577350
14.299054,-9.463962,-27.672754,0.427026,-0.302377,-0.852184
-29.421428,-13.788280,2.670747,-0.872474,-0.482337,0.078367
6.530888,28.737527,-13.831554,0.161879,0.884358,-0.437842
32.115819,2.561343,4.644039,0.984754,0.084103,0.152272
-10.147034,-9.997872,-12.944291,0.773011,0.634393,0.000000
-21.560693,-23.940631,-4.826497,-0.630461,-0.759246,-0.161444
-25.155316,-17.636066,10.818564,-0.759999,-0.569358,0.313422
4.304082,13.519063,19.496237,-0.290285,-0.956940,0.000000
-17.595151,-27.424948,0.911295,-0.546249,-0.833680,0.081178
19.924101,-24.656192,-7.454247,0.638727,-0.738104,-0.217328
10.288094,-9.825990,11.420870,-0.773011,0.634393,0.000000
21.168975,16.749744,18.169774,0.635472,0.503751,0.585159
4.792521,-24.498353,13.370897,-0.290284,-0.000000,-0.956940
12.794575,23.624488,-6.157316,-0.881921,-0.000000,0.471397
-13.811612,-4.576470,3.339679,0.956940,0.000000,-0.290284
-5.254002,21.216057,13.230908,0.290284,0.000000,-0.956940
-11.271549,-8.627646,-14.113146,0.773011,0.634393,-0.000000
9.918048,-10.212544,26.196576,-0.634393,0.773011,0.000000
-21.440079,-24.268931,3.525322,-0.680461,-0.728344,0.080541
-30.373453,9.614445,6.731437,-0.923386,0.308167,0.228893
3.206641,-14.113733,-29.159887,0.082070,-0.424492,-0.901705
16.080623,3.215229,-28.105228,0.482336,0.078367,-0.872474
6.384860,12.672950,-27.345298,-0.471397,-0.881921,0.000000
21.209293,-13.507642,-20.682229,0.620644,-0.440461,-0.648687
5.103199,-13.276654,19.860030,-0.290284,0.956940,0.000000
18.526815,14.032194,-22.776475,0.546563,0.446517,-0.708443
8.510722,-15.199268,-27.538547,0.267099,-0.508425,-0.818634
10.349776,9.750830,-17.912601,-0.773011,-0.634393,-0.000000
14.545066,-29.004462,2.683319,0.424491,-0.901705,0.082071
-27.909517,16.358386,3.684530,-0.872474,0.482337,0.078367
9.824338,-10.289450,-10.611036,-0.634393,0.773011,0.000000
-24.086615,-19.445355,-10.123267,-0.759999,-0.569358,-0.313422
-10.200121,13.339339,-27.931539,-0.306798,0.364801,-0.879088
3.115709,13.879552,-16.710327,-0.290285,-0.956940,-0.000000
12.746513,-6.247233,16.122318,-0.881921,0.471397,-0.000000
26.831634,13.490704,12.652238,0.802678,0.457622,0.382479
24.849764,1.715248,21.022224,0.768912,-0.000000,0.639355
7.594231,-26.367653,-17.509410,0.233320,-0.809504,-0.538762
9.138648,-26.938862,10.852181,-0.634393,0.000000,-0.773011
13.022542,-5.730820,7.574910,-0.881921,0.471396,0.000000
14.116060,-8.792466,-1.410554,-0.995185,0.000000,0.098017
15.552208,0.888268,-28.591031,0.443056,0.000000,-0.896494
-13.034670,-18.046901,5.708129,0.881921,-0.000000,-0.471397
-11.166324,23.539045,-19.602086,-0.313422,0.759999,-0.569358
-7.143971,12.267196,-24.938827,0.471397,-0.881921,-0.000000
-17.664286,26.756639,5.822994,-0.557284,0.819635,0.132793
-13.688599,-18.712424,-3.745197,0.956940,-0.000000,0.290285
-14.229858,-0.255142,25.490144,0.995185,0.098017,0.000000
8.077291,-11.723214,13.375002,-0.634393,0.773011,0.000000
-20.427735,-3.966838,25.068634,-0.639868,-0.158952,0.751866
-10.128615,10.020315,24.332036,0.773011,-0.634393,0.000000
7.227027,-21.862749,23.045463,0.217328,-0.638727,0.738104
13.582080,-4.096343,-22.321482,-0.956940,0.290284,0.000000
14.045854,18.217121,2.123372,-0.995185,-0.000000,-0.098017
20.395101,24.255567,7.430607,0.638727,0.738104,0.217328
12.295293,7.091405,23.501409,-0.881921,-0.471397,0.000000
4.431198,-24.469463,-21.016426,0.158952,-0.751866,-0.639868
-28.725115,-10.023471,11.575565,-0.879088,-0.306798,0.364801
-26.001847,-5.316872,18.895010,-0.819635,-0.132793,0.557284
-11.328061,8.558786,-25.584150,0.773010,-0.634394,0.000000
-20.238786,4.524430,25.111556,-0.639868,0.158952,0.751866
31.395846,-0.846474,-8.775912,0.952951,-0.084545,-0.291097
14.142278,-1.144354,-10.223599,-0.995185,0.098017,-0.000000
13.346086,-7.029877,-4.874311,-0.956940,-0.000000,0.290285
-9.661886,-10.422770,17.368504,0.634393,0.773011,-0.000000
17.065659,-17.613442,-21.430827,0.503751,-0.585159,-0.635472
-4.085866,26.341724,-13.585258,0.290284,-0.000000,0.956940
14.031999,20.722697,2.264035,-0.995185,-0.000000,-0.098017
-12.807161,13.098856,-26.959525,-0.395175,0.448482,-0.801686
10.912402,29.295511,9.177621,0.364802,0.879087,0.306798
-12.886883,5.984619,-22.038158,0.881922,-0.471396,-0.000000
-18.930348,2.579060,26.379311,-0.551642,0.078417,0.830387
13.291533,22.953090,18.902976,0.446517,0.708443,0.546563
12.605986,-6.510139,-13.529016,-0.881921,0.471397,0.000000
4.619203,-13.423472,-19.874637,-0.290285,0.956940,0.000000
25.421773,19.330018,-6.409187,0.791679,0.589578,-0.160129
-19.578235,18.574332,18.174117,-0.577350,0.577350,0.577350
32.467651,0.821720,-2.303961,0.996384,0.049505,-0.069057
-14.015375,20.754075,-20.773870,-0.440461,0.648687,-0.620644
-4.860896,-23.426886,-22.134745,-0.158952,-0.751866,-0.639868
28.599712,-8.966144,-12.766970,0.879088,-0.306798,-0.364801
-6.784638,-24.879525,-12.459263,0.471397,-0.000000,0.881921
-29.527781,10.458733,8.975545,-0.885789,0.343197,0.312401
14.122231,1.347903,9.388858,-0.995185,-0.098017,0.000000
13.626598,-3.949587,-23.765677,-0.956940,0.290284,0.000000
22.463580,19.129929,-13.790385,0.708443,0.546563,-0.446517
32.142360,4.489144,-3.313965,0.971850,0.181286,-0.150476
11.654205,-24.647377,-17.772811,0.382234,-0.759514,-0.526342
-1.023673,-23.440409,14.154165,0.098017,0.000000,-0.995185
-28.687692,8.343668,13.029541,-0.903180,0.214847,0.371628
18.620763,-26.685696,1.601868,0.546249,-0.833680,0.081178
-17.114286,-27.570999,2.647130,-0.546249,-0.833680,0.081178
13.631880,-18.275171,23.282811,0.420208,-0.522219,0.742100
-30.801571,-10.498929,0.762681,-0.934172,-0.356822,0.000000
17.460531,14.921051,-23.038884,0.546563,0.446517,-0.708443
14.100693,1.566577,-20.790021,-0.995185,-0.098017,0.000000
21.388551,23.510241,7.042186,0.638727,0.738104,0.217328
-8.974709,-24.865636,-10.986722,0.634393,0.000000,0.773011
1.328448,-25.942455,-14.124147,-0.098017,0.000000,0.995185
-16.672628,15.435707,23.322375,-0.546563,0.446517,0.708443
2.406075,26.667853,-18.520596,0.078417,0.830387,-0.551642
22.484766,1.177152,23.544231,0.685852,0.080531,0.723272
30.423332,3.826143,11.094181,0.952951,0.084545,0.291097
10.659801,-9.373063,29.277350,-0.773011,0.634393,0.000000
27.490240,11.605138,13.101396,0.829480,0.337457,0.445068
-12.258924,-8.514980,-7.159447,0.881921,0.000000,0.471397
6.752723,28.147870,-14.875963,0.233171,0.851639,-0.469405
-5.121353,23.652747,13.271147,0.290284,0.000000,-0.956940
27.915620,14.267566,8.823967,0.852184,0.427026,0.302377
30.176610,9.506146,7.671332,0.923386,0.308167,0.228893
30.697514,5.182515,9.508874,0.940327,0.181151,0.288045
-17.843846,-3.958730,-26.970807,-0.551642,-0.078417,-0.830387
-31.334709,6.857497,5.676927,-0.971850,0.181286,0.150476
3.186445,24.042593,-21.723288,0.080531,0.723272,-0.685852
10.219760,-20.136705,23.491349,0.349826,-0.585563,0.731257
-12.512003,-9.694098,-28.478826,-0.343197,-0.312401,-0.885789
-6.337262,25.469189,-19.285883,-0.160129,0.791679,-0.589578
3.256287,19.779087,-13.836908,-0.290285,0.000000,0.956940
-14.847484,-25.537040,13.708424,-0.448482,-0.801686,0.395175
-13.533822,-8.918893,-4.255427,0.956940,0.000000,0.290285
-23.710380,-21.115337,-7.276277,-0.702258,-0.670528,-0.239219
6.300607,-12.717984,24.289059,-0.471397,0.881921,0.000000
10.678181,-12.965106,9.350668,-0.773011,0.000000,-0.634393
-7.479441,12.087884,-20.475009,0.471397,-0.881921,0.000000
-16.631664,-8.335123,-26.738288,-0.538762,-0.233320,-0.809504
-26.635137,-14.384229,11.995540,-0.802678,-0.457622,0.382479
14.020739,4.627492,-2.378359,-0.995185,0.000000,0.098016
-16.144810,5.532898,-27.774923,-0.437842,0.161879,-0.884358
7.090973,22.157275,-12.295524,-0.471397,0.000000,0.881921
-7.908850,-26.920794,11.858360,0.471397,0.000000,-0.881921
4.224658,25.358040,20.008912,0.160129,0.791679,0.589578
-2.347728,-14.023756,-22.982381,0.098017,0.995185,-0.000000
24.671547,12.084916,-17.546485,0.742100,0.420208,-0.522219
23.614669,-10.512709,19.807688,0.731257,-0.349826,0.585563
22.049238,-6.662079,23.027899,0.670528,-0.239219,0.702258
-12.483037,-6.740161,19.646694,0.881921,0.471397,-0.000000
-14.194720,-4.768069,-0.611906,0.995185,0.000000,0.098017
-18.232154,-4.814715,-26.561877,-0.589578,-0.160129,-0.791679
15.538415,28.431153,3.844345,0.424491,0.901705,0.082071
3.037426,26.060389,-13.903299,-0.290285,0.000000,0.956940
22.061353,-8.828049,-22.278509,0.670528,-0.239219,-0.702258
-6.836978,-27.009380,-12.431288,0.471397,-0.000000,0.881921
-12.053180,-23.086909,-19.706315,-0.296210,-0.707576,-0.641557
13.436692,-27.846131,4.575623,-0.956940,0.000000,-0.290284
22.641516,22.938098,-5.302876,0.638727,0.738104,-0.217328
20.692240,2.645077,25.080574,0.685852,0.080531,0.723272
-1.606767,-14.096735,20.796519,0.098017,0.995185,-0.000000
-11.220189,-8.690228,-26.474704,0.773011,0.634393,-0.000000
-5.382719,16.022148,13.191862,0.290284,0.000000,-0.956940
25.914564,-6.248954,18.801282,0.819635,-0.132793,0.557284
9.389475,-20.630150,-10.646333,-0.634393,0.000000,0.773011
13.685940,28.168684,-9.108486,0.364801,0.879088,-0.306798
9.033139,19.655292,-10.938770,-0.634393,0.000000,0.773011
6.428993,-13.245739,12.649360,-0.471397,0.000000,-0.881921
-15.970600,14.048828,-24.691184,-0.526342,0.382234,-0.759514
14.008747,-6.465781,-2.500123,-0.995185,0.000000,0.098017
31.867970,-6.574297,-0.838504,0.984405,-0.175916,0.000000
-22.874944,-9.026295,-21.434147,-0.670528,-0.239219,-0.702258
-16.347703,26.097968,-10.739914,-0.508425,0.818634,-0.267099
2.592923,13.999607,14.712705,-0.098017,-0.995185,0.000000
-14.030162,-2.282693,23.517451,0.995185,0.098017,0.000000
-1.510254,21.249955,24.660405,-0.000000,0.639355,0.768912
-27.329453,-10.240126,-14.436031,-0.829480,-0.337457,-0.445068
-21.102854,-17.797729,17.339391,-0.635472,-0.503751,0.585159
-9.722637,-14.190527,-10.372913,0.634393,0.000000,0.773011
-20.556799,24.936417,-4.063812,-0.630461,0.759246,-0.161444
-23.398324,8.627640,20.978426,-0.738104,0.217328,0.638727
-13.994966,2.640040,7.208768,0.995185,-0.098017,0.000000
-23.857788,-1.843512,-22.079217,-0.728344,-0.080541,-0.680461
-13.317295,-6.180442,-29.056282,-0.437842,-0.161879,-0.884358
-29.753211,0.804602,-13.317802,-0.901705,0.082070,-0.424492
-13.277744,-6.970051,5.099607,0.956940,0.000000,-0.290285
-21.280502,1.885651,-24.607304,-0.685852,0.080531,-0.723272
6.831126,-28.629227,12.434415,-0.471397,-0.000000,-0.881921
-20.689788,-18.840913,16.759290,-0.585159,-0.635472,0.503751
4.090270,-13.583922,-24.923376,-0.290284,0.956940,0.000000
-12.242993,-27.261699,13.078406,-0.382479,-0.802678,0.457622
13.667733,-28.610739,-7.551398,0.419241,-0.889788,-0.180319
14.157664,0.988144,1.875372,-0.995185,-0.098017,0.000000
-14.029560,-2.288801,-23.638151,0.995185,0.098017,0.000000
-11.814110,-7.966533,9.262300,0.773011,0.634393,-0.000000
13.995829,-2.631281,-12.254594,-0.995185,0.098017,0.000000
-29.917407,-11.331343,5.938828,-0.922797,-0.350587,0.159793
12.487250,-18.253004,-23.915002,0.349826,-0.585563,-0.731257
7.165043,-12.255933,-14.702119,-0.471397,0.881921,0.000000
-13.714232,3.660696,28.415158,0.956940,-0.290284,-0.000000
15.351846,-28.681028,1.185870,0.465072,-0.883850,0.050171
8.128724,15.050828,-27.750708,0.211221,0.500142,-0.839788
2.626860,22.288830,-23.575332,0.080541,0.680461,-0.728344
-32.216033,-1.110193,-4.797451,-0.984754,-0.084103,-0.152272
18.948125,-26.471440,-0.251509,0.596420,-0.802672,0.000000
-13.217345,-5.298712,-17.547087,0.956940,0.290284,0.000000
-4.782794,24.780499,20.563609,-0.158952,0.751866,0.639868
26.643908,-18.620487,1.956937,0.830387,-0.551642,0.078417
26.181648,17.403627,-8.483837,0.809504,0.538762,-0.233320
22.723115,23.171626,-2.608523,0.680461,0.728344,-0.080541
-0.974374,-14.159020,17.953111,0.098017,0.995185,-0.000000
2.562247,24.029249,-21.810652,0.080531,0.723272,-0.685852
-17.892023,27.256170,-0.211812,-0.596420,0.802672,0.000000
30.596618,8.924563,-6.759969,0.923386,0.308167,-0.228893
18.071128,1.112689,-27.088584,0.551642,0.078417,-0.830387
-13.964173,2.836751,-6.802071,0.956940,-0.290284,0.000000
-14.143609,1.130850,-24.791761,0.995185,-0.098017,0.000000
-6.152323,17.836046,-12.797243,0.471397,0.000000,0.881921
-17.122516,-13.057180,-24.391967,-0.526342,-0.382234,-0.759514
-4.325139,-28.560006,13.512676,0.290284,0.000000,-0.956940
-12.662176,-11.357621,-27.821067,-0.427026,-0.302377,-0.852184
-9.620551,-10.456693,-22.720205,0.634393,0.773011,0.000000
8.814488,-11.118212,-23.028485,-0.634393,0.773011,0.000000
-14.234481,18.726371,-0.208207,0.995185,0.000000,0.098018
-25.677373,1.488777,20.016794,-0.802672,0.000000,0.596420
-10.074771,-11.466543,-10.083925,0.634393,0.000000,0.773011
-22.349944,23.453572,3.211617,-0.680461,0.728344,0.080541
0.824677,-14.173764,-16.665298,-0.098017,0.995185,0.000000
-4.470773,-27.053785,13.468498,0.290284,0.000000,-0.956940
10.751078,9.261842,-20.828108,-0.773011,-0.634393,-0.000000
-6.416849,24.709245,20.241411,-0.158952,0.751866,0.639868
18.186252,-24.533188,11.306763,0.585563,-0.731257,0.349826
-18.777660,19.186445,-18.362581,-0.577350,0.577350,-0.577350
30.385088,-5.627478,-10.248955,0.940327,-0.181151,-0.288045
-9.887581,10.237547,-21.700676,0.634393,-0.773011,0.000000
0.736033,27.744649,17.135659,0.078367,0.872474,0.482336
-13.486902,4.410104,-10.873615,0.956940,-0.290285,0.000000
23.086418,22.181974,-6.118230,0.702258,0.670528,-0.239219
2.923863,-18.377341,26.716465,0.081178,-0.546249,0.833680
-5.878643,-12.943529,23.304648,0.471397,0.881921,0.000000
-14.084366,9.111092,-1.732350,0.995185,-0.000000,0.098017
31.648937,-7.125700,-2.410133,0.971231,-0.223786,-0.081425
-14.083368,-24.649217,-1.742475,0.995185,-0.000000,0.098017
12.748258,-10.637604,6.243969,-0.881921,0.000000,-0.471397
-30.471428,-8.056649,-8.196767,-0.947461,-0.216204,-0.235738
0.820016,22.103209,14.174223,-0.098017,0.000000,-0.995185
9.552876,-10.512233,-13.562478,-0.634393,0.773011,0.000000
4.269109,25.289585,20.088760,0.160129,0.791679,0.589578
-15.716288,16.794673,-23.005050,-0.488894,0.521887,-0.699011
0.451556,20.044880,-25.656503,0.000000,0.596420,-0.802672
16.448399,-10.411656,-26.190520,0.526342,-0.382234,-0.759514
-20.933399,19.383848,-15.709928,-0.648687,0.620644,-0.440461
14.380221,-16.890716,23.833317,0.420208,-0.522219,0.742100
3.412268,-13.789592,23.264148,-0.290285,0.956940,0.000000
-10.038991,-14.865571,10.113289,0.634393,0.000000,-0.773011
9.677729,-10.409769,19.161642,-0.634393,0.773011,-0.000000
-10.118377,21.675965,10.032791,0.773011,0.000000,-0.634393
-27.559139,10.721475,13.642996,-0.829480,0.337457,0.445068
4.738548,-26.161714,18.790176,0.160129,-0.791679,0.589578
1.504788,-15.864405,-28.393222,0.050171,-0.465072,-0.883850
23.040516,-1.774537,-22.950720,0.685852,-0.080531,-0.723272
25.595439,1.504519,-20.125448,0.768912,0.000000,-0.639355
-21.630152,7.155921,-23.259824,-0.670528,0.239219,-0.702258
-14.118823,-1.382507,24.932544,0.995185,0.098017,-0.000000
13.735660,13.896252,-3.590059,-0.956940,-0.000000,0.290285
-12.242356,10.897783,-7.190442,0.881922,-0.000000,0.471396
13.841228,28.374826,-8.254903,0.371628,0.903180,-0.214847
8.247909,24.886567,-19.409905,0.313422,0.759999,-0.569358
14.142807,1.138991,-5.813978,-0.995185,-0.098017,0.000000
-25.887351,12.137781,-15.605239,-0.801686,0.395175,-0.448482
-12.973530,13.089398,26.882807,-0.395175,0.448482,0.801686
-11.729352,-8.124863,-29.322223,-0.308168,-0.228893,-0.923385
-14.015522,-3.569088,-2.431332,0.995185,-0.000000,0.098016
25.895474,7.787307,-18.224886,0.818634,0.267099,-0.508425
13.151531,8.643143,5.489498,-0.881921,-0.000000,-0.471397
17.510851,25.951371,-8.975159,0.508425,0.818634,-0.267099
8.581017,24.826514,-19.306695,0.313422,0.759999,-0.569358
17.250663,-20.900458,-18.156116,0.585159,-0.635472,-0.503751
19.706217,22.360276,-13.231141,0.649101,0.663683,-0.371744
5.798036,-28.772008,-14.032859,0.161879,-0.884358,-0.437842
-14.014804,21.992194,2.438626,0.995185,0.000000,-0.098017
8.794799,11.134370,-28.882345,-0.634393,-0.773011,0.000000
13.803317,17.143164,-23.982335,0.420208,0.522219,-0.742100
-6.092801,25.459535,12.829058,0.471397,-0.000000,-0.881921
-10.949908,-23.409759,9.019567,0.773011,0.000000,-0.634393
-14.177379,0.787971,21.132087,0.995185,-0.098017,-0.000000
28.080192,-10.897261,12.394826,0.879088,-0.306798,0.364801
-24.099561,-13.739215,17.028161,-0.742100,-0.420208,0.522219
11.671439,10.847704,28.397645,0.343197,0.312401,0.885789
-19.330195,-5.503358,-25.604858,-0.589578,-0.160129,-0.791679
-0.226343,-14.232695,21.962871,0.098017,0.995185,0.000000
10.320355,-28.495028,11.900123,0.312401,-0.885789,0.343197
7.155827,27.339047,16.143167,0.233171,0.851639,0.469405
13.928520,-2.954283,26.539486,-0.956940,0.290286,-0.000000
9.860238,-12.594269,-10.259987,-0.634393,0.000000,0.773011
-9.552598,-10.512461,23.209392,0.634393,0.773011,-0.000000
-19.002559,-14.285589,22.249729,-0.546563,-0.446517,0.708443
-8.647321,-18.514941,-11.255402,0.634393,-0.000000,0.773011
-28.215314,-14.610546,7.040707,-0.851639,-0.469405,0.233171
13.930923,12.005687,-2.946361,-0.956940,0.000000,0.290284
10.466060,-17.375257,-9.609137,-0.773011,-0.000000,0.634393
14.170399,0.858841,13.708860,-0.995185,-0.098017,0.000000
-30.123167,5.396985,-11.244409,-0.903180,0.214847,-0.371628
-9.304705,10.715901,12.910620,0.634393,-0.773011,0.000000
-2.769837,-19.476615,-26.011190,-0.081178,-0.546249,-0.833680
-13.272154,-5.118033,-8.794887,0.956940,0.290284,0.000000
-11.649983,27.939060,-12.124756,-0.312401,0.885789,-0.343197
14.738283,12.326821,26.275428,0.457622,0.382479,0.802678
6.075576,12.838265,23.764140,-0.471397,-0.881921,0.000000
6.412379,24.321879,20.697690,0.158952,0.751866,0.639868
-12.912048,5.937538,-8.378260,0.881921,-0.471397,0.000000
-14.380840,14.429210,25.439578,-0.395175,0.448482,0.801686
20.513574,-25.170836,-3.130172,0.630461,-0.759246,-0.161444
16.484708,28.118872,-0.587910,0.465072,0.883850,-0.050171
13.095289,5.594718,7.760505,-0.881921,-0.471397,0.000000
28.596408,3.999482,-15.157388,0.901705,0.082070,-0.424492
24.525048,2.012959,21.344947,0.728344,0.080541,0.680461
-16.896653,27.897310,-0.672508,-0.465072,0.883850,-0.050171
-14.103378,1.539319,-12.805707,0.995185,-0.098017,-0.000000
-5.783166,23.436839,-21.893945,-0.158952,0.751866,-0.639868
13.316953,21.867550,-20.105744,0.440461,0.648687,-0.620644
17.345622,1.824644,27.503319,0.551642,0.078417,0.830387
-1.420265,14.115104,-16.459752,0.098017,-0.995185,0.000000
4.054612,18.696730,-13.594739,-0.290285,0.000000,0.956940
14.040844,-12.075418,-2.174231,-0.995185,-0.000000,0.098017
-32.446614,-2.260162,-1.576302,-0.996384,-0.049505,-0.069057
-9.176459,-26.542778,-10.821150,0.634393,0.000000,0.773011
-1.991779,24.129566,14.058814,0.098017,-0.000000,-0.995185
-9.310936,-10.710787,-15.509759,0.634393,0.773011,0.000000
14.019472,2.391232,13.341076,-0.995185,-0.098017,-0.000000
-17.158197,-20.930755,-18.225305,-0.585159,-0.635472,-0.503751
-15.295079,-28.053790,6.345355,-0.500142,-0.839788,0.211221
-9.182714,18.641367,-25.051465,-0.293108,0.581154,-0.759176
-12.923586,-7.765966,-5.915953,0.881921,-0.000000,0.471396
-2.249090,23.501712,-22.403741,-0.080531,0.723272,-0.685852
-31.996169,-5.768436,-1.998650,-0.971231,-0.223786,-0.081425
9.103116,24.267596,-10.881341,-0.634393,0.000000,0.773011
13.218031,-7.207239,28.917476,0.437842,-0.161879,0.884358
-8.739591,16.753975,-11.179678,0.634393,0.000000,0.773011
-12.545097,-27.970450,11.033030,-0.364801,-0.879088,0.306798
27.430265,10.643194,-13.942533,0.829480,0.337457,-0.445068
14.123341,1.336632,7.657278,-0.995185,-0.098017,0.000000
-14.283072,-15.995426,-24.518346,-0.420208,-0.522219,-0.742100
14.246805,2.019176,0.083075,-0.995185,-0.000000,-0.098018
16.333654,27.256307,-7.056846,0.500142,0.839788,-0.211221
10.377870,16.165519,-9.716597,-0.773011,-0.000000,0.634393
30.164870,12.137531,-2.248427,0.946807,0.311335,-0.081408
-13.015148,-5.744652,-19.994713,0.881921,0.471396,-0.000000
14.245406,-0.097287,-26.913480,-0.995185,0.098017,-0.000000
8.246477,-24.145405,11.584366,-0.634393,0.000000,-0.773011
14.443962,-28.838433,-4.623117,0.419240,-0.889788,-0.180319
-2.480540,27.752585,-16.837867,-0.078367,0.872474,-0.482336
23.115196,-9.445465,21.027338,0.738104,-0.217328,0.638727
-9.055284,10.920596,-21.959557,0.634393,-0.773011,0.000000
-8.358584,11.492362,-27.589617,0.634393,-0.773011,0.000000
-12.942176,11.936870,-5.881174,0.881921,0.000000,0.471397
-12.496989,15.572714,6.714059,0.881921,-0.000000,-0.471397
0.454665,-27.410272,14.210207,-0.098017,0.000000,-0.995185
-19.729777,25.521285,4.542903,-0.630461,0.759246,0.161444
10.695537,-16.684146,9.329519,-0.773011,0.000000,-0.634393
18.386842,18.400382,19.539460,0.577350,0.577350,0.577350
16.572461,5.595006,27.529769,0.469405,0.233171,0.851639
26.240103,9.890636,-16.565010,0.818634,0.267099,-0.508425
11.362000,-15.475997,-26.315034,0.337457,-0.445068,-0.829480
2.064202,15.792305,-14.051681,-0.098017,-0.000000,0.995185
-10.763665,-14.647008,-27.003259,-0.337457,-0.445068,-0.829480
12.941546,5.882352,8.723048,-0.881921,-0.471397,-0.000000
17.646512,-25.997629,-8.575151,0.508425,-0.818634,-0.267099
14.184582,-0.714841,5.389123,-0.995185,0.098017,-0.000000
-30.166366,9.227468,8.087853,-0.923386,0.308167,0.228893
13.173867,25.218114,-5.442041,-0.956940,0.000000,0.290284
-32.418287,2.017623,2.158894,-0.996384,0.049505,0.069057
17.348175,-11.144035,-25.198398,0.526342,-0.382234,-0.759514
-3.042787,-21.414798,-24.345909,-0.080541,-0.680461,-0.728344
4.043598,27.509502,-17.020885,0.078417,0.830387,-0.551642
-31.099034,-9.458661,1.628751,-0.946807,-0.311335,0.081408
9.989039,16.461583,10.154284,-0.634393,-0.000000,-0.773011
6.284156,-12.726777,16.246506,-0.471397,0.881921,0.000000
5.619255,-14.456015,13.082174,-0.471397,0.000000,-0.881921
13.093547,5.597977,10.395739,-0.881921,-0.471397,0.000000
10.569748,16.991840,-25.753439,0.267099,0.508425,-0.818634
4.303036,-20.778496,-13.519381,-0.290285,0.000000,0.956940
-12.568300,21.118377,-6.580644,0.881921,0.000000,0.471397
17.098089,-26.121845,-9.238365,0.508425,-0.818634,-0.267099
6.268012,21.784252,-12.735406,-0.471397,-0.000000,0.881921
27.828098,-13.030570,10.817549,0.852184,-0.427026,0.302377
13.347933,-20.956023,21.036470,0.440461,-0.648687,0.620644
-13.659835,-3.840020,19.854721,0.956940,0.290285,-0.000000
20.209073,-20.603746,-15.057743,0.648687,-0.620644,-0.440461
-8.736811,14.514508,-27.890060,-0.267099,0.508425,-0.818634
2.719924,20.946056,-13.987098,-0.098017,0.000000,0.995185
0.151078,-24.262926,14.240108,-0.098017,0.000000,-0.995185
11.729947,26.029464,-15.668573,0.382479,0.802678,-0.457622
17.341936,13.818459,23.825322,0.546563,0.446517,0.708443
-19.156490,-13.510916,-22.619231,-0.546563,-0.446517,-0.708443
-23.444493,-17.076378,-14.747741,-0.708443,-0.546563,-0.446517
28.227862,6.245191,15.042157,0.889788,0.180319,0.419240
1.575239,-18.442398,26.805158,0.081178,-0.546249,0.833680
-21.188910,-11.481032,-21.906195,-0.663683,-0.371744,-0.649101
-15.427199,28.573013,-2.390246,-0.465072,0.883850,-0.050171
-19.158211,-26.239799,2.564614,-0.546249,-0.833680,0.081178
-18.033860,23.925191,-12.797310,-0.522219,0.742100,-0.420208
27.214178,16.636410,-6.618939,0.851639,0.469405,-0.233171
-3.384781,23.323387,13.797930,0.290285,0.000000,-0.956940
20.111196,23.370663,10.514733,0.585563,0.731257,0.349826
24.759380,1.849012,21.113530,0.728344,0.080541,0.680461
25.603910,16.179597,-11.947416,0.759514,0.526342,-0.382234
-21.373132,17.722481,-17.101085,-0.699011,0.488894,-0.521887
7.704753,24.275360,-20.370758,0.239219,0.702258,-0.670528
-27.903340,-16.796672,1.055721,-0.872474,-0.482337,0.078367
13.794009,19.841661,3.397708,-0.956940,-0.000000,-0.290285
21.588858,-23.763267,-5.550626,0.630461,-0.759246,-0.161444
14.107688,15.800356,1.495551,-0.995185,-0.000000,-0.098017
-12.463390,-6.776918,22.706581,0.881921,0.471397,0.000000
30.003648,-10.621979,6.866799,0.923386,-0.308167,0.228893
14.224707,-0.307448,-25.038274,-0.995185,0.098017,-0.000000
22.491114,21.902149,8.650164,0.702258,0.670528,0.239219
16.146344,-5.100659,27.853284,0.437842,-0.161879,0.884358
30.962555,-8.464546,-5.848767,0.947461,-0.216204,-0.235738
24.408264,-5.513855,-20.821522,0.759246,-0.161444,-0.630461
-9.433180,21.756492,10.610464,0.634393,0.000000,-0.773011
29.727822,7.978087,-10.713029,0.903180,0.214847,-0.371628
-10.710101,16.792214,-9.311773,0.773009,0.000000,0.634394
5.094661,-28.499106,14.844121,0.161879,-0.884358,0.437842
24.984947,19.140244,8.499215,0.759999,0.569358,0.313422
3.930347,18.857650,-26.251886,0.132793,0.557284,-0.819635
-10.184440,27.716556,-9.952293,0.773011,0.000000,0.634393
-14.148229,1.083945,11.999072,0.995185,-0.098017,-0.000000
3.476300,-25.731713,13.770168,-0.290286,0.000000,-0.956940
24.621003,-0.847182,-21.297342,0.768912,0.000000,-0.639355
16.354573,21.179346,-18.669294,0.440461,0.648687,-0.620644
-13.190347,-28.608948,5.387715,0.956940,0.000000,-0.290284
-4.377550,13.496777,15.711310,0.290285,-0.956940,0.000000
14.222217,3.026739,-0.332727,-0.995185,0.000000,0.098017
-14.143352,-10.649512,-27.330111,-0.427026,-0.302377,-0.852184
-11.575667,-24.258905,18.390412,-0.382234,-0.759514,0.526342
7.981177,-17.576240,26.235070,0.267099,-0.508425,0.818634
-13.982678,-5.620806,-2.764808,0.995185,-0.000000,0.098017
18.120313,-23.169289,-14.024815,0.522219,-0.742100,-0.420208
31.212688,2.639825,-8.854651,0.952951,0.084545,-0.291097
-5.139655,22.518465,-23.078730,-0.161444,0.630461,-0.759246
3.937296,-13.630326,-22.853013,-0.290284,0.956940,0.000000
-23.673266,-22.162684,-2.761301,-0.723272,-0.685852,-0.080531
-26.200726,-11.919168,15.237694,-0.801686,-0.395175,0.448482
6.539778,-29.179744,12.935071,0.161879,-0.884358,0.437842
-9.932178,12.649369,28.311372,-0.306798,0.364801,0.879088
-14.966868,-8.434164,-27.637401,-0.469405,-0.233171,-0.851639
-3.208280,28.025742,16.225529,-0.078367,0.872474,0.482336
-13.609025,-20.428974,4.007518,0.956940,0.000000,-0.290285
23.045138,14.245569,18.118724,0.699011,0.488894,0.521887
14.007208,-2.515747,-26.648093,-0.995185,0.098017,0.000000
-19.131685,-10.131366,-24.318263,-0.569358,-0.313422,-0.759999
4.041024,-29.221833,13.773900,0.161879,-0.884358,0.437842
7.559755,12.044955,-26.931921,-0.471397,-0.881921,0.000000
8.610026,11.286009,-28.748808,-0.634393,-0.773011,0.000000
13.633850,-20.425427,3.925679,-0.956940,-0.000000,-0.290285
1.620883,14.095345,15.558441,-0.098017,-0.995185,0.000000
-8.911750,25.291329,-18.504181,-0.313422,0.759999,-0.569358
32.346583,-1.948991,-3.242666,0.996384,-0.049505,-0.069057
2.247238,26.972167,18.085091,0.078417,0.830387,0.551642
2.900095,22.219344,13.944958,-0.290286,0.000000,-0.956940
11.699610,28.779120,-9.721231,0.364801,0.879088,-0.306798
10.957755,9.010005,18.901571,-0.773011,-0.634392,0.000000
-7.783862,11.925167,22.913839,0.471397,-0.881921,0.000000
-0.367991,14.884635,-28.973295,-0.050171,0.465072,-0.883850
14.102007,-17.650472,-1.553231,-0.995185,0.000000,0.098017
-6.481077,12.621520,15.176638,0.471397,-0.881921,0.000000
14.241624,24.221237,0.135680,-0.995185,-0.000000,-0.098018
-13.910944,-7.295171,3.012223,0.956940,0.000000,-0.290284
9.248202,27.095550,-15.545582,0.233171,0.851639,-0.469405
3.563167,26.245049,13.743817,-0.290284,-0.000000,-0.956940
-14.178187,-0.779774,-1.328155,0.995185,0.098017,0.000000
14.140840,1.158961,5.334793,-0.995185,-0.098017,0.000000
-26.041611,18.011258,7.566611,-0.809504,0.538762,0.233320
-11.981639,-7.678211,-22.562575,0.881921,0.471397,0.000000
-25.909186,-13.812572,14.090485,-0.801686,-0.395175,0.448482
-12.501825,6.705012,-16.627249,0.881921,-0.471397,0.000000
-19.978447,-19.480176,16.779169,-0.585159,-0.635472,0.503751
-31.533087,-7.928341,1.586032,-0.971231,-0.223786,0.081425
-19.578971,-18.442530,18.305184,-0.577350,-0.577350,0.577350
26.546259,18.781786,1.856286,0.830387,0.551642,0.078417
-9.498033,-10.557241,-26.922978,0.634393,0.773011,0.000000
14.778877,27.714344,8.772137,0.508425,0.818634,0.267099
-13.514462,27.639497,-10.693474,-0.445068,0.829480,-0.337457
-4.685414,-15.181929,13.403387,0.290285,0.000000,-0.956940
14.147235,-25.497687,-1.094023,-0.995185,-0.000000,0.098017
-22.478090,10.812803,20.970752,-0.663683,0.371744,0.649101
7.166071,28.715196,13.641341,0.233171,0.851639,0.469405
30.454000,6.516884,9.464646,0.940327,0.181151,0.288045
18.881536,-24.721848,-9.560261,0.581154,-0.759176,-0.293108
-5.753513,13.010412,20.471545,0.471397,-0.881921,0.000000
-16.774815,14.228572,24.004370,-0.546563,0.446517,0.708443
14.222203,27.147662,-10.968988,0.445068,0.829480,-0.337457
-30.380442,0.029890,-11.819683,-0.939566,0.050000,-0.338698
27.384822,-6.343797,-16.419002,0.839788,-0.211221,-0.500142
-22.267426,-21.617456,9.871420,-0.707576,-0.641557,0.296210
-6.514904,-17.212623,-26.869139,-0.211221,-0.500142,-0.839788
11.060135,8.885255,-21.101969,-0.773011,-0.634393,-0.000000
25.207047,-14.699445,-14.564137,0.801686,-0.395175,-0.448482
-13.525594,-4.323389,-4.282553,0.956940,0.000000,0.290285
13.707415,-3.683168,16.347255,-0.956940,0.290284,-0.000000
13.001270,-26.268141,5.770616,-0.881921,0.000000,-0.471397
11.844150,-23.016807,-19.880140,0.296210,-0.707576,-0.641557
-13.108791,-28.862711,7.470841,-0.371628,-0.903180,0.214847
13.237038,23.130476,18.717574,0.446517,0.708443,0.546563
-19.868763,14.949264,-20.985941,-0.620644,0.440461,-0.648687
10.511073,13.586078,-9.554289,-0.773011,-0.000000,0.634393
-24.513597,-21.409567,0.148016,-0.762305,-0.647218,0.000000
-1.860533,22.785602,-14.071741,0.098017,0.000000,0.995185
5.352777,26.443974,-18.244337,0.160129,0.791679,-0.589578
-0.050843,16.784235,-14.249980,0.098017,0.000000,0.995185
-9.746998,-10.352921,-19.735064,0.634393,0.773011,0.000000
11.892986,20.623617,22.212563,0.371744,0.649101,0.663683
-2.130075,-28.664439,15.245403,-0.078367,-0.872474,0.482336
-17.519728,-21.071514,17.627784,-0.585159,-0.635472,0.503751
-9.670942,-27.002077,15.490911,-0.302377,-0.852184,0.427026
-30.098911,-0.045912,-12.598299,-0.939566,-0.050000,-0.338698
-2.963493,24.109258,21.679164,-0.080531,0.723272,0.685852
12.501342,28.055382,-6.705915,-0.881921,0.000000,0.471397
13.228912,24.005317,5.260583,-0.956940,0.000000,-0.290285
-2.323018,14.026190,17.774651,0.098017,-0.995185,-0.000000
-17.116897,24.310178,-13.256981,-0.522219,0.742100,-0.420208
13.372903,-4.785907,28.479578,-0.956940,0.290284,-0.000000
-14.240466,18.935559,22.438852,-0.488894,0.521887,0.699011
-15.174714,-11.832139,26.262328,-0.457622,-0.382479,0.802678
-21.443720,-24.410549,2.213893,-0.680461,-0.728344,0.080541
-22.108557,23.887984,1.322562,-0.680461,0.728344,0.080541
-9.733979,-10.363605,21.715647,0.634393,0.773011,-0.000000
18.403107,7.707103,-25.740325,0.538762,0.233320,-0.809504
-13.886478,6.003933,3.092878,0.956940,0.000000,-0.290284
11.417378,-17.303199,8.449953,-0.773011,-0.000000,-0.634393
22.801966,21.459781,8.936036,0.707576,0.641557,0.296210
5.364839,14.875728,28.484686,0.180319,0.419240,0.889788
-26.340094,16.463763,10.075250,-0.759999,0.569358,0.313422
11.653441,-27.814550,12.442966,0.312401,-0.885789,0.343197
6.967730,-26.416878,-17.706765,0.233320,-0.809504,-0.538762
13.358325,-11.285514,4.833963,-0.956940,-0.000000,-0.290284
11.884040,7.860806,25.168953,-0.881921,-0.471397,-0.000000
-9.072764,10.906250,15.921741,0.634393,-0.773011,0.000000
-14.254725,-0.002669,24.913374,0.995185,0.098018,-0.000000
-14.822374,-19.897971,-21.095943,-0.440461,-0.648687,-0.620644
-30.257989,-6.764889,-9.948557,-0.940327,-0.181151,-0.288045
14.058926,1.990645,16.683109,-0.995185,-0.098017,-0.000000
-20.423874,-25.347296,0.505869,-0.639355,-0.768912,0.000000
14.144178,-14.980200,1.125067,-0.995185,0.000000,-0.098017
-23.695617,22.144290,-2.717228,-0.723272,0.685852,-0.080531
6.886433,12.404853,13.865128,-0.471397,-0.881921,0.000000
8.850819,26.458408,16.828861,0.233320,0.809504,0.538762
-0.516796,20.400246,-25.366943,0.000000,0.639355,-0.768912
10.285346,15.355179,9.829338,-0.773010,0.000000,-0.634393
-13.550637,-28.176725,-9.246330,-0.364801,-0.879088,-0.306798
13.492319,4.392246,-10.388256,-0.956940,-0.290285,-0.000000
-15.073925,14.169679,25.205945,-0.457622,0.382479,0.802678
20.932033,24.914536,-1.979320,0.680461,0.728344,-0.080541
2.832615,-22.372296,23.474600,0.080541,-0.680461,0.728344
-11.857956,29.007187,7.909605,0.881921,0.000000,-0.471397
19.202424,0.939584,26.277711,0.597636,-0.000000,0.801768
19.791442,9.193141,-24.207013,0.641557,0.296210,-0.707576
22.922249,-20.935201,9.784888,0.707576,-0.641557,0.296210
1.089168,-15.076733,14.147714,-0.098017,0.000000,-0.995185
-3.349807,-27.334630,17.382744,-0.078417,-0.830387,0.551642
7.907990,16.775456,-26.756288,0.267099,0.508425,-0.818634
1.332461,22.341399,-14.123752,-0.098017,-0.000000,0.995185
-29.755045,-11.796705,5.855454,-0.922797,-0.350587,0.159793
-10.259105,-9.861313,-27.589909,0.773011,0.634393,-0.000000
16.611645,27.319260,6.148311,0.500142,0.839788,0.211221
-24.261648,15.991665,-14.778997,-0.708443,0.546563,-0.446517
-7.462853,26.886110,-16.787310,-0.233320,0.809504,-0.538762
-22.380203,-13.295382,19.649050,-0.663683,-0.371744,0.649101
-0.921567,-17.707035,-27.350638,-0.081178,-0.546249,-0.833680
-27.177103,-13.752111,11.614464,-0.802678,-0.457622,0.382479
17.373240,-22.333128,16.059379,0.521887,-0.699011,0.488894
-12.915501,-5.931078,-25.671774,0.881921,0.471397,0.000000
-10.960973,9.006084,9.727344,0.773011,-0.634393,0.000000
19.354658,23.603435,11.294507,0.585563,0.731257,0.349826
-3.447511,-26.705138,-18.316428,-0.078417,-0.830387,-0.551642
-12.063369,-17.546714,-24.683353,-0.349826,-0.585563,-0.731257
-6.231715,19.599455,-25.270398,-0.161444,0.630461,-0.759246
20.775620,-25.054817,-0.689677,0.639355,-0.768912,0.000000
22.157727,23.829966,-1.431814,0.680461,0.728344,-0.080541
-18.379255,11.124691,-24.472306,-0.569358,0.313422,-0.759999
-15.785422,26.252665,11.107209,-0.445068,0.829480,0.337457
-12.344183,-19.504535,-6.999939,0.881921,-0.000000,0.471397
14.022016,2.365398,28.099298,-0.995185,-0.098017,-0.000000
30.265320,2.491187,11.775689,0.939566,0.050000,0.338698
-21.012791,-18.891398,-16.286904,-0.648687,-0.620644,-0.440461
-19.800926,3.333037,25.693274,-0.589578,0.160129,0.791679
8.435840,-29.258209,11.428960,-0.634393,0.000000,-0.773011
11.209426,8.703344,28.729651,-0.773011,-0.634393,-0.000000
20.909869,5.765693,-24.278022,0.639868,0.158952,-0.751866
-1.235921,29.261782,14.133260,0.098017,0.000000,-0.995185
14.069842,1.879812,10.349079,-0.995185,-0.098017,0.000000
-30.416185,0.495431,-11.651803,-0.939566,0.050000,-0.338698
14.911496,12.462208,26.112164,0.457622,0.382479,0.802678
-7.932715,-15.687505,11.841864,0.634393,0.000000,-0.773011
17.689891,16.996513,-21.474001,0.488894,0.521887,-0.699011
13.745237,-10.366065,-3.558487,-0.956940,0.000000,0.290285
