x,y,z,nx,ny,nz
-20.044555,0.549986,21.125268,-0.647218,0.000000,0.762305
9.948480,1.988968,-0.486078,-0.995185,0.000000,0.098017
-12.820714,-22.075471,14.054007,-0.382234,-0.759513,0.526342
-3.111822,9.451901,11.815037,0.290284,-0.956940,0.000000
15.329800,-18.899067,-16.035437,0.585159,-0.635472,-0.503751
18.381559,16.160383,-15.784240,0.635472,0.503751,-0.585159
-27.184664,3.163552,9.980322,-0.952951,0.084545,0.291097
-0.316338,9.965198,24.609191,0.098017,-0.995185,0.000000
22.685466,13.625225,-12.127722,0.802678,0.457622,-0.382479
-24.531883,-15.522717,-1.900304,-0.830386,-0.551642,-0.078417
7.033235,22.918322,-7.097423,-0.634393,0.000000,0.773010
27.193940,-10.011278,-2.380397,0.946807,-0.311336,-0.081408
-3.939498,-9.174462,22.077319,0.471397,0.881921,-0.000000
26.062963,12.254108,4.005829,0.884359,0.437842,0.161879
3.792537,24.327139,15.561934,0.078417,0.830386,0.551642
-9.837406,-1.613828,19.151264,0.995185,0.098016,0.000000
-15.841493,-13.776118,20.119015,-0.546564,-0.446517,0.708443
-3.629865,-9.294754,24.423229,0.290284,0.956940,-0.000000
-17.359891,22.665152,-5.754582,-0.630461,0.759246,-0.161444
6.673273,-8.480343,-7.392837,-0.634393,0.000000,0.773010
13.907640,25.041205,5.194146,0.500142,0.839788,0.211221
-4.250184,-9.008397,12.775572,0.471397,0.881921,-0.000000
2.719868,-9.570799,11.762870,-0.290284,0.956940,0.000000
-0.791244,-23.304559,17.390703,0.000000,-0.801768,0.597636
-10.722023,-0.063410,-27.008345,-0.356823,0.000000,-0.934172
8.336801,12.188442,-5.506653,-0.881921,0.000000,0.471397
-0.596761,9.937578,9.981883,0.098017,-0.995185,0.000000
-24.481821,-8.576612,-13.214513,-0.829480,-0.337457,-0.445068
-21.646611,-12.767881,14.656358,-0.742100,-0.420208,0.522219
-9.639026,26.826070,5.899325,-0.371628,0.903180,0.214847
-9.717566,-5.963081,-2.236042,0.956940,-0.000000,0.290284
-9.667733,6.518369,-2.400320,0.956940,-0.000000,0.290284
25.240357,-8.696337,-11.585140,0.879088,-0.306798,-0.364801
9.870098,1.281906,6.888312,-0.995185,-0.098017,0.000000
13.112210,-18.794707,-17.880000,0.440461,-0.648687,-0.620644
1.953591,-15.463659,-9.803246,-0.290284,0.000000,0.956940
-6.981746,-7.139679,19.203942,0.634393,0.773010,-0.000000
-7.068276,7.086707,-7.068666,0.634393,0.000000,0.773010
26.872905,-0.834703,11.194668,0.939566,-0.050000,0.338698
-11.675954,8.133865,-25.390650,-0.427026,0.302377,-0.852184
-9.947729,-20.355759,0.493704,0.995185,-0.000000,-0.098017
-5.561288,-8.305419,-21.566450,0.634393,0.773010,0.000000
28.146446,-1.502451,7.286904,0.977326,-0.049608,0.205849
-13.169752,0.247757,25.904376,-0.443056,0.000000,0.896494
7.498117,-6.544988,-11.289529,-0.773010,0.634393,-0.000000
7.440667,26.759709,-8.665102,0.228893,0.923386,-0.308167
5.143898,25.541976,-12.885638,0.161879,0.884359,-0.437842
7.897332,23.892633,-6.058544,-0.773010,0.000000,0.634393
20.897264,13.174522,15.359750,0.699011,0.488895,0.521887
-16.163970,19.307199,-14.551612,-0.585159,0.635472,-0.503751
-7.382386,10.760371,-6.686007,0.773010,-0.000000,0.634393
15.474242,-5.467854,24.052042,0.538762,-0.233320,0.809504
23.265612,-5.547634,16.643366,0.819634,-0.132793,0.557284
21.440478,4.698651,19.105126,0.759246,0.161444,0.630461
6.646619,24.046909,-14.971469,0.233320,0.809504,-0.538762
2.517340,12.977951,-25.912513,0.082070,0.424492,-0.901705
-9.819436,1.796287,8.626682,0.995185,-0.098017,0.000000
-9.954309,25.382078,-0.426890,0.995185,0.000000,0.098017
-18.492266,5.436235,21.793853,-0.639868,0.158952,0.751866
19.853373,21.229485,1.370460,0.680461,0.728345,0.080541
-7.855098,-6.110006,-22.004303,0.773010,0.634393,0.000000
-1.119804,-23.479925,17.155439,0.000000,-0.801768,0.597636
-9.902286,-19.522374,-0.955093,0.995185,-0.000000,0.098017
1.528009,-9.845859,-21.284809,-0.098017,0.995185,0.000000
23.366955,7.963391,-15.385432,0.818634,0.267099,-0.508425
-9.936109,-9.259348,-0.611677,0.995185,0.000000,0.098017
-9.927991,-0.694108,-3.757690,0.995185,0.098017,0.000000
-20.564404,14.253379,14.794925,-0.699011,0.488895,0.521887
-8.441287,-21.212595,-18.037155,-0.296210,-0.707576,-0.641557
25.284350,9.290281,-10.979619,0.879088,0.306798,-0.364801
6.696484,7.373788,-22.232729,-0.634394,-0.773010,0.000000
-18.865291,-19.897304,9.770098,-0.649101,-0.663683,0.371743
-8.266153,5.609135,25.711030,0.773010,-0.634393,-0.000000
-9.832182,-1.666869,-6.344818,0.995185,0.098017,0.000000
6.283415,-7.712785,19.091620,-0.634393,0.773010,0.000000
5.804855,-8.105529,23.560324,-0.634393,0.773010,0.000000
-12.321282,-19.160448,-18.059042,-0.440461,-0.648687,-0.620644
25.280218,-13.487030,-4.947291,0.884359,-0.437842,-0.161879
-10.720224,-25.419720,9.210833,-0.364801,-0.879088,0.306798
8.638674,7.665505,4.941888,-0.881921,-0.000000,-0.471397
-9.815062,-1.840690,4.813835,0.995185,0.098017,-0.000000
4.160770,-9.056189,20.840928,-0.471397,0.881921,-0.000000
23.756270,-9.850439,13.600898,0.829480,-0.337457,0.445068
1.175306,-16.780005,-23.763150,0.000000,-0.596421,-0.802672
-9.821903,1.771232,14.471021,0.995185,-0.098017,0.000000
-16.434932,1.492197,-23.964421,-0.551642,0.078417,-0.830386
-0.366499,19.385312,21.702061,-0.000000,0.639355,0.768912
-24.287192,-13.757135,-8.246080,-0.851639,-0.469405,-0.233171
-9.508328,-2.925807,22.762029,0.956940,0.290284,0.000000
20.624662,0.722127,20.565890,0.685852,0.080531,0.723272
0.189090,19.286982,21.783823,-0.000000,0.639355,0.768912
13.002553,-25.155933,6.881121,0.500142,-0.839788,0.211221
20.313131,16.513587,-12.645451,0.708443,0.546564,-0.446517
7.643501,-19.321773,6.367838,-0.773010,-0.000000,-0.634393
9.705509,-2.275789,10.675356,-0.956940,0.290284,0.000000
-7.581474,6.443418,16.788277,0.773010,-0.634393,-0.000000
5.094099,8.557315,-26.391871,-0.471397,-0.881921,0.000000
-16.977762,-19.229141,-13.704778,-0.585159,-0.635472,-0.503751
5.038902,-8.586818,-21.118932,-0.471397,0.881921,0.000000
8.052633,9.870379,26.176594,0.306798,0.364801,0.879088
-22.847335,-7.099785,16.606527,-0.759176,-0.293108,0.581154
20.623915,-9.158474,-18.431629,0.731257,-0.349826,-0.585564
-9.634305,21.687342,2.510516,0.956940,0.000000,-0.290284
25.301738,-10.927544,9.345349,0.885789,-0.343197,0.312401
20.166916,-1.911315,20.867546,0.685852,-0.080531,0.723272
3.731051,-9.264060,-19.347359,-0.290284,0.956940,0.000000
-9.971428,-0.253082,2.210269,0.995185,0.098017,-0.000000
8.194539,5.696396,18.348118,-0.773010,-0.634394,0.000000
27.497672,6.529908,6.843913,0.947462,0.216204,0.235738
26.347371,-3.836795,-11.799126,0.901705,-0.082070,-0.424492
25.199287,0.807418,-14.554862,0.883850,0.050171,-0.465071
7.077034,-7.058079,15.889608,-0.773011,0.634393,0.000000
-9.805492,-3.721987,-1.937861,0.995185,-0.000000,0.098017
5.622168,14.528826,24.563597,0.211221,0.500142,0.839788
-9.146539,-3.991738,26.931634,0.881921,0.471397,0.000000
1.581137,-9.840626,-14.404638,-0.098017,0.995185,0.000000
-9.176633,3.935436,-9.307185,0.881921,-0.471397,-0.000000
-23.553007,-16.521731,4.337153,-0.791679,-0.589579,0.160129
-14.101104,22.150053,12.568837,-0.522219,0.742100,0.420208
9.139570,26.797098,6.880772,0.288045,0.940327,0.181151
-13.436357,4.406986,-25.404207,-0.437842,0.161879,-0.884359
9.881042,-1.170783,-7.322359,-0.995185,0.098017,0.000000
25.455834,3.005573,-13.830171,0.883850,0.050171,-0.465071
11.503824,4.258378,26.388099,0.350587,0.159792,0.922797
7.536081,-25.253257,-12.357092,0.233171,-0.851639,-0.469405
11.059086,-26.152995,-6.272492,0.371628,-0.903180,-0.214847
6.880772,13.503299,24.857797,0.211221,0.500142,0.839788
8.431347,19.399611,-5.329769,-0.881921,0.000000,0.471397
17.631096,12.306978,19.579605,0.620644,0.440461,0.648687
-9.940573,3.301944,0.566361,0.995185,-0.000000,-0.098017
0.827023,16.800394,-9.914900,-0.098017,-0.000000,0.995185
-4.096656,23.262375,-9.090460,0.471397,0.000000,0.881921
8.788542,-4.661504,23.511126,-0.881921,0.471397,0.000000
3.972850,19.257157,-21.468567,0.161444,0.630461,-0.759246
18.229810,-22.646249,-2.275337,0.680461,-0.728345,-0.080541
-6.244486,26.857389,-9.260884,-0.228893,0.923386,-0.308167
-8.744696,-26.468668,4.743533,0.881921,0.000000,-0.471397
-12.663912,15.351446,21.216346,-0.420208,0.522219,0.742100
-23.004149,-8.126676,-15.883759,-0.759176,-0.293108,-0.581154
-16.963830,22.370222,7.627114,-0.581154,0.759176,0.293108
9.609256,-9.419045,-2.593092,-0.956940,0.000000,0.290284
-18.974854,-11.971364,18.521822,-0.620644,-0.440461,0.648687
9.304112,-11.492155,-3.599019,-0.956940,0.000000,0.290285
-7.514157,-6.525444,-23.368178,0.773010,0.634393,0.000000
3.811743,-15.083583,9.239583,-0.290284,0.000000,-0.956940
13.594615,-8.329105,-24.354038,0.469405,-0.233171,-0.851639
-3.243822,9.411859,14.361222,0.290284,-0.956940,0.000000
8.898759,-4.455303,13.058314,-0.881921,0.471397,0.000000
6.871932,7.229801,-17.535558,-0.634394,-0.773010,0.000000
-7.300683,-7.676306,6.785562,0.773010,0.000000,-0.634393
21.410143,-13.020180,14.789375,0.742100,-0.420208,0.522219
6.033270,-7.918074,19.575138,-0.634393,0.773010,0.000000
-6.307946,19.670776,-20.516365,-0.217328,0.638726,-0.738104
-28.475958,5.860410,-0.858063,-0.984405,0.175916,0.000000
-27.480893,-2.659111,9.157077,-0.952951,-0.084545,0.291097
23.823381,-15.013750,-7.324516,0.809504,-0.538762,-0.233320
-9.328705,-3.517944,-24.789662,0.956940,0.290284,-0.000000
2.751558,-23.881142,16.381270,0.078417,-0.830386,0.551642
-7.215695,-26.166605,-10.609365,-0.228893,-0.923386,-0.308167
7.964615,23.477800,-15.255789,0.233320,0.809504,-0.538762
-9.194469,-3.902067,12.793894,0.881921,0.471397,0.000000
-7.071941,22.487584,-17.130204,-0.233320,0.809504,-0.538762
21.784844,9.490814,16.783306,0.731257,0.349826,0.585564
6.604724,7.449093,-22.590820,-0.634394,-0.773010,0.000000
6.803298,7.286127,8.726971,-0.634393,-0.773010,0.000000
-4.978464,8.619123,11.349414,0.471397,-0.881921,-0.000000
-1.281823,-25.997729,-12.980859,0.000000,-0.896494,-0.443056
19.111589,12.655917,-17.926185,0.620644,0.440461,-0.648687
7.680465,13.840599,-6.322797,-0.773010,0.000000,0.634393
17.349052,0.976925,-23.335606,0.597636,0.000000,-0.801768
-6.351507,-7.656903,-15.731291,0.634393,0.773010,0.000000
3.045821,-9.471922,-26.990562,-0.290285,0.956940,-0.000000
9.667340,-11.918264,-24.733599,0.337457,-0.445068,-0.829480
-9.982164,6.695848,26.504786,-0.308167,0.228893,0.923386
-8.452804,13.050123,-5.289626,0.881921,-0.000000,0.471397
4.877251,8.673222,-19.711424,-0.471397,-0.881921,0.000000
18.957180,-18.327174,12.242825,0.648687,-0.620644,0.440461
3.757458,21.101678,9.256050,-0.290284,-0.000000,-0.956940
-14.078255,-17.154440,18.770388,-0.503751,-0.585159,0.635472
9.669360,25.401585,-2.394954,-0.956940,0.000000,0.290284
11.464128,-17.086599,20.597966,0.349826,-0.585564,0.731257
16.045888,-15.946255,18.323135,0.503751,-0.585159,0.635472
3.308415,-27.059701,-10.169047,0.159792,-0.922797,-0.350587
3.732127,-9.263734,-13.451426,-0.290284,0.956940,0.000000
20.436220,3.313656,-20.456036,0.685852,0.080531,-0.723272
19.249662,10.812550,-18.930464,0.663683,0.371743,-0.649101
-28.257289,-0.178195,7.079780,-0.977326,-0.049608,0.205849
0.025335,24.074671,-16.357548,0.000000,0.801768,-0.597636
9.473246,-11.065695,-3.041459,-0.956940,0.000000,0.290285
-18.009570,-13.306795,-18.538615,-0.620644,-0.440461,-0.648687
6.746915,-15.424171,7.332400,-0.634393,0.000000,-0.773010
-6.947042,-16.297591,23.132053,-0.267099,-0.508425,0.818634
21.866415,-0.175107,19.187654,0.768912,-0.000000,0.639355
-11.579660,-17.083828,-20.544915,-0.349826,-0.585564,-0.731257
-3.130965,-9.446094,17.869426,0.290284,0.956940,-0.000000
-27.183793,-7.311505,-7.388603,-0.947462,-0.216204,-0.235738
-21.415591,-15.569636,12.044874,-0.759513,-0.526342,0.382234
19.046189,-21.805395,2.982017,0.680461,-0.728345,0.080541
-28.268590,5.621968,3.927095,-0.971850,0.181285,0.150476
6.354073,19.787130,-20.382579,0.239219,0.702258,-0.670528
-14.157949,17.068286,18.786546,-0.503751,0.585159,0.635472
9.743889,2.939049,27.233831,0.311335,0.081407,0.946807
-1.728790,16.247619,-9.826084,0.098017,0.000000,0.995185
-2.852639,-9.530523,-24.948587,0.290285,0.956940,-0.000000
9.505630,-2.934700,10.084751,-0.956940,0.290284,0.000000
-2.993697,9.487734,18.445168,0.290284,-0.956940,0.000000
28.332144,6.665176,0.161936,0.984405,0.175916,0.000000
4.439788,-14.585772,24.827072,0.211221,-0.500142,0.839788
-9.900980,5.134427,0.968353,0.995185,-0.000000,-0.098017
-1.995408,-9.790561,-18.220698,0.290284,0.956940,0.000000
-21.790919,-17.731390,-7.722059,-0.707576,-0.641557,-0.296210
10.875304,20.936845,17.109820,0.382234,0.759513,0.526342
10.870612,4.829560,-26.529761,0.350587,0.159792,-0.922797
-7.078830,-22.467900,-7.055891,0.773010,-0.000000,0.634394
-24.531843,11.934807,10.188660,-0.852184,0.427026,0.302377
-3.240384,-10.058154,9.412902,0.290284,0.000000,-0.956940
-3.929252,-11.345426,-9.179939,0.471397,-0.000000,0.881921
-15.492868,-9.304627,22.823276,-0.569358,-0.313422,0.759999
-15.920125,-12.009465,-21.171836,-0.546564,-0.446517,-0.708443
28.982459,0.425600,2.667483,0.996384,0.049505,0.069057
10.971377,10.527866,24.867703,0.343197,0.312401,0.885789
28.286423,2.296758,-6.430905,0.977326,0.049608,-0.205849
6.498641,-26.268531,-10.797468,0.159792,-0.922797,-0.350587
-9.435513,3.165846,-16.763716,0.956940,-0.290284,0.000000
26.585813,-9.247937,7.357495,0.923386,-0.308167,0.228893
-9.168228,4.985674,3.951162,0.881921,0.000000,-0.471397
9.568268,-2.728211,26.843622,-0.956940,0.290284,0.000000
-9.493693,21.201401,17.553725,-0.313422,0.759999,0.569358
-18.267389,-22.293670,-3.957697,-0.630461,-0.759246,-0.161444
-9.474439,-3.037526,-22.178018,0.956940,0.290284,-0.000000
-4.091134,-9.093411,-11.722130,0.471397,0.881921,0.000000
18.459927,-16.286243,-15.580826,0.577350,-0.577350,-0.577350
-8.031518,10.247566,5.895038,0.773010,-0.000000,-0.634394
13.959928,-1.695289,-25.442812,0.482336,-0.078367,-0.872474
28.300851,4.017314,5.651937,0.971850,0.181285,0.150476
-13.470041,-22.242521,-13.181996,-0.448482,-0.801686,-0.395175
-14.761486,-2.695878,-24.909806,-0.482336,-0.078367,-0.872474
28.110322,-4.609125,6.143213,0.947462,-0.216204,0.235738
-1.278278,-9.870455,23.891477,0.098017,0.995185,0.000000
7.293394,6.794444,16.553830,-0.773010,-0.634393,-0.000000
21.233844,-5.322738,19.176887,0.738104,-0.217328,0.638726
6.294463,22.157402,-7.703718,-0.634393,-0.000000,0.773010
10.620980,0.757024,-27.046940,0.356823,0.000000,-0.934172
14.590973,-25.116534,1.930520,0.465071,-0.883850,0.050171
-9.869795,1.284980,-17.528862,0.995185,-0.098017,0.000000
-6.012600,26.929469,-9.217141,-0.228893,0.923386,-0.308167
-5.751645,8.149197,-11.289756,0.634394,-0.773010,-0.000000
3.376656,13.134654,25.760531,0.082070,0.424492,0.901705
20.875867,-1.959608,-20.162142,0.728345,-0.080541,-0.680461
21.625804,-18.686964,5.447365,0.751866,-0.639868,0.158952
9.399268,-6.762393,3.285328,-0.956941,-0.000000,-0.290284
-25.683003,-7.330864,-11.589456,-0.903180,-0.214847,-0.371628
6.629500,-25.106918,13.072928,0.233171,-0.851639,0.469405
-6.922452,-24.692624,-13.679058,-0.233171,-0.851639,-0.469405
28.024673,6.833809,-3.889152,0.971231,0.223786,-0.081425
28.987057,0.438004,2.592238,0.996384,0.049505,0.069057
-8.390109,5.406920,-18.195280,0.881921,-0.471397,0.000000
-16.548033,-15.176055,18.602909,-0.577350,-0.577350,0.577350
26.207242,5.585078,11.324660,0.903180,0.214847,0.371628
-26.745756,4.151874,-10.818361,-0.889788,0.180319,-0.419240
9.937877,-0.593732,22.684771,-0.995185,0.098017,0.000000
28.904760,2.661161,-2.185933,0.996384,0.049505,-0.069057
-28.295794,2.191356,6.411816,-0.977326,0.049608,0.205849
-19.422486,16.147888,-14.506184,-0.708443,0.546564,-0.446517
18.671681,-4.221245,-21.898025,0.639868,-0.158952,-0.751866
-6.896689,-14.998601,-7.209484,0.634393,0.000000,0.773010
5.478316,23.970336,-8.351947,-0.471397,0.000000,0.881921
17.909156,13.766780,-18.322356,0.620644,0.440461,-0.648687
10.093894,20.837938,-17.687347,0.296210,0.707576,-0.641557
-2.212972,24.728527,15.167852,-0.078367,0.872474,0.482336
-7.403227,-16.524150,6.660612,0.773010,-0.000000,-0.634394
-13.896437,-25.548047,-0.766813,-0.465071,-0.883850,-0.050171
13.160911,-10.085306,23.923397,0.457622,-0.382479,0.802678
-0.454834,9.951557,18.148532,0.098017,-0.995185,0.000000
12.992034,-24.499478,8.826635,0.445068,-0.829480,0.337457
-23.035784,-17.719535,-2.289038,-0.830386,-0.551642,-0.078417
14.276757,12.362941,22.151485,0.526342,0.382234,0.759513
4.649917,25.597033,12.957067,0.161879,0.884359,0.437842
-9.429815,-26.972730,3.184631,0.956940,0.000000,-0.290285
-18.916012,22.092287,-0.359534,-0.639355,0.768912,0.000000
-25.504254,-5.969933,12.671343,-0.889788,-0.180319,0.419240
6.641601,-12.831523,25.292666,0.180319,-0.419240,0.889788
-5.361580,-21.833837,18.463829,-0.158952,-0.751866,0.639868
5.660771,8.223776,-24.497619,-0.634393,-0.773010,-0.000000
-25.378404,10.769668,9.301409,-0.885789,0.343197,0.312401
13.095294,-1.804442,25.911010,0.482336,-0.078367,0.872474
-21.726733,19.200991,-2.421133,-0.723272,0.685852,-0.080531
-16.630630,21.181612,-11.007337,-0.585564,0.731257,-0.349826
-7.578546,-17.325247,-6.446986,0.773010,-0.000000,0.634393
-8.788392,4.661784,5.817830,0.881921,-0.471397,0.000000
9.417761,-12.248896,3.224368,-0.956941,-0.000000,-0.290284
-9.963976,0.522004,0.328743,0.995185,-0.000000,-0.098017
9.280306,3.677496,-6.295696,-0.956941,-0.290284,-0.000000
-10.240436,16.459860,-21.685236,-0.349826,0.585564,-0.731257
26.636758,-11.538599,-2.746084,0.922797,-0.350587,-0.159792
-3.901154,25.190390,-14.055242,-0.161879,0.884359,-0.437842
18.031759,12.813714,-18.852188,0.620644,0.440461,-0.648687
27.843820,7.759205,-3.434835,0.946807,0.311336,-0.081408
8.730853,-24.893915,12.244522,0.302377,-0.852184,0.427026
9.791113,-14.486567,-1.993589,-0.956941,0.000000,0.290284
5.082046,-8.563758,-20.249655,-0.471397,0.881921,0.000000
19.838647,-10.676752,-18.406020,0.663683,-0.371743,-0.649101
17.723885,10.325079,-20.708030,0.641557,0.296210,-0.707576
14.797628,-19.348341,15.989195,0.521887,-0.699011,0.488895
-28.738129,4.204090,-2.602758,-0.971850,0.181285,-0.150476
22.509491,13.670170,-12.443255,0.802678,0.457622,-0.382479
-8.945252,-23.968286,-4.368321,0.881921,-0.000000,0.471397
12.675044,6.722475,-25.300767,0.469405,0.233171,-0.851639
9.992888,25.806306,-0.035191,-0.995185,0.000000,0.098017
-25.090092,-13.914250,4.830443,-0.884359,-0.437842,0.161879
-27.213083,9.781533,3.036395,-0.946807,0.311336,0.081408
-13.883870,24.560349,7.162249,-0.500142,0.839788,0.211221
-9.891449,-1.065125,9.351749,0.995185,0.098017,-0.000000
6.622298,7.434671,9.055651,-0.634393,-0.773010,0.000000
8.258610,-5.618326,-18.893939,-0.773010,0.634394,0.000000
-21.369125,2.713543,19.544936,-0.728345,0.080541,0.680461
23.801099,16.467597,2.991878,0.830386,0.551642,0.078417
5.907337,8.021424,17.446660,-0.634394,-0.773010,0.000000
-3.557853,17.048954,9.316599,0.290284,0.000000,-0.956940
-17.897007,-22.247213,-5.622573,-0.630461,-0.759246,-0.161444
10.677048,15.418376,22.294292,0.420208,0.522219,0.742100
9.895180,-1.027238,6.092323,-0.995185,0.098017,0.000000
23.671285,15.683580,-6.305503,0.809504,0.538762,-0.233320
16.857763,21.625199,9.699895,0.585564,0.731257,0.349826
9.192008,-3.906673,22.711865,-0.881921,0.471397,0.000000
-27.983620,-7.286775,-3.133909,-0.971231,-0.223786,-0.081425
17.210599,-22.815034,-5.632710,0.630461,-0.759246,-0.161444
20.546466,4.390371,-20.227011,0.728345,0.080541,-0.680461
9.970834,-12.052726,-24.537981,0.337457,-0.445068,-0.829480
26.851689,-4.860933,-10.177084,0.903180,-0.214847,-0.371628
-7.436669,-21.629511,-6.619864,0.773010,-0.000000,0.634394
-5.188014,17.696327,-22.506257,-0.161444,0.630461,-0.759246
11.534080,23.602027,-12.513721,0.382479,0.802678,-0.457622
-11.386009,25.427789,8.396055,-0.364801,0.879088,0.306798
-9.984094,-8.163215,-26.084192,-0.343197,-0.312401,-0.885789
19.226100,21.376821,4.525604,0.630461,0.759246,0.161444
9.665179,20.412903,-2.408738,-0.956940,0.000000,0.290284
-25.544634,-0.162054,-13.968162,-0.883850,-0.050171,-0.465071
-7.465188,6.585113,-15.020665,0.773010,-0.634393,0.000000
8.754907,19.308576,19.992306,0.296210,0.707576,0.641557
27.039773,5.661748,-9.113997,0.940327,0.181151,-0.288045
-5.278967,8.458501,-13.151048,0.471397,-0.881921,0.000000
-5.383884,-9.130272,27.088317,-0.181151,-0.288045,0.940327
-4.265000,9.000478,-20.334554,0.471397,-0.881921,0.000000
16.272821,-1.443171,-24.076743,0.551642,-0.078417,-0.830386
-23.086208,11.068939,-13.823801,-0.801686,0.395175,-0.448482
-8.830194,4.583578,22.966645,0.881921,-0.471397,0.000000
9.819002,19.908739,-18.839085,0.296210,0.707576,-0.641557
9.606316,-5.438746,-2.602785,-0.956940,0.000000,0.290284
1.317744,25.685805,-9.866568,-0.098017,-0.000000,0.995185
0.744198,9.923057,-22.819466,-0.098017,-0.995185,0.000000
28.012528,7.534449,2.108406,0.971231,0.223786,0.081425
21.550476,14.479417,13.172230,0.708443,0.546564,0.446517
0.139011,-12.135771,9.982663,-0.098017,0.000000,-0.995185
-25.875317,11.478493,-7.032798,-0.851639,0.469405,-0.233171
-13.722571,-23.089854,-11.176429,-0.448482,-0.801686,-0.395175
2.389155,9.671120,22.962457,-0.290284,-0.956940,-0.000000
-13.609583,-19.535769,16.733534,-0.446517,-0.708443,0.546564
-12.224406,9.903005,-24.488084,-0.427026,0.302377,-0.852184
3.487529,23.097675,17.363903,0.160129,0.791679,0.589579
-18.947719,18.919029,11.372708,-0.649101,0.663683,0.371743
-8.140707,20.653038,18.793072,-0.296210,0.707576,0.641557
2.221794,-26.229429,-12.451512,0.078367,-0.872474,-0.482336
5.680280,-8.207766,-23.465112,-0.634393,0.773010,0.000000
9.883233,7.916102,-1.148541,-0.995185,0.000000,0.098017
7.774785,25.734664,-6.207867,-0.773010,0.000000,0.634393
-9.997986,2.910305,27.152748,-0.311335,0.081407,0.946807
18.505412,21.279447,-7.141319,0.638726,0.738104,-0.217328
9.987836,-0.086491,-8.172445,-0.995185,0.098017,0.000000
-23.930299,4.551604,15.903106,-0.819634,0.132793,0.557284
8.759627,24.470629,4.715599,-0.881921,0.000000,-0.471397
21.137045,3.631051,19.684748,0.728345,0.080541,0.680461
-18.916738,20.657699,-8.044054,-0.638726,0.738104,-0.217328
4.282321,8.991219,26.023117,-0.471397,-0.881921,-0.000000
20.254436,4.730081,-20.443463,0.639868,0.158952,-0.751866
-22.798252,15.382041,9.555799,-0.759513,0.526342,0.382234
-9.142733,-24.849365,12.041774,-0.302377,-0.852184,0.427026
-9.971872,-5.007384,0.248568,0.995185,-0.000000,-0.098017
9.689648,12.587190,24.365603,0.337457,0.445068,0.829480
-19.871456,-20.647951,5.271249,-0.638726,-0.738104,0.217328
-0.410153,-14.951051,9.955958,0.098016,0.000000,-0.995185
-22.584273,5.648789,-17.484382,-0.759246,0.161444,-0.630461
24.000653,-10.743127,-12.468588,0.829480,-0.337457,-0.445068
-14.889811,-15.840111,19.337320,-0.503751,-0.585159,0.635472
9.976821,0.198327,11.555835,-0.995185,-0.098017,0.000000
9.835291,-18.712039,-1.635308,-0.995185,0.000000,0.098017
28.646597,0.991845,5.035351,0.977326,0.049608,0.205849
-14.673293,-21.806918,-12.463727,-0.522219,-0.742100,-0.420208
-15.246937,2.962996,24.614734,-0.551642,0.078417,0.830386
17.498192,-21.604131,-8.551860,0.581154,-0.759176,-0.293108
9.947669,-2.385205,-0.494309,-0.995185,0.000000,0.098017
1.206556,-26.965959,-10.832992,-0.000000,-0.934172,-0.356823
-14.495833,-17.130453,18.461454,-0.503751,-0.585159,0.635472
5.569325,25.337096,8.298824,-0.634393,0.000000,-0.773010
1.312235,24.539795,-15.594403,0.078417,0.830386,-0.551642
-8.891662,16.167353,22.491704,-0.293108,0.581154,0.759176
-9.895763,1.021317,-7.282704,0.995185,-0.098017,0.000000
1.467974,-9.851772,16.763881,-0.098017,0.995185,0.000000
-7.681747,-27.221542,6.826451,-0.235738,-0.947462,0.216204
-14.598093,-17.682391,-17.872151,-0.503751,-0.585159,-0.635472
16.340553,22.255906,9.158990,0.581154,0.759176,0.293108
1.030499,-9.894859,26.803487,-0.098017,0.995185,0.000000
-7.666822,22.072185,6.339421,0.773010,0.000000,-0.634393
26.933073,8.720678,6.666466,0.923386,0.308167,0.228893
17.155046,-8.701423,-21.826805,0.569358,-0.313422,-0.759999
6.509926,7.526892,9.191774,-0.634393,-0.773010,0.000000
-8.803998,-17.070655,21.834066,-0.293108,-0.581154,0.759176
5.837004,-8.079145,-14.876871,-0.634394,0.773010,-0.000000
-7.090134,17.616057,-22.064131,-0.217328,0.638726,-0.738104
11.016034,-5.387430,26.377912,0.350587,-0.159792,0.922797
-3.315437,11.136042,26.706980,-0.082070,0.424492,0.901705
9.945399,-1.414452,-0.517359,-0.995185,0.000000,0.098017
-9.843966,-1.547224,5.905949,0.995185,0.098017,-0.000000
-0.039025,26.383891,-12.199485,0.000000,0.896494,-0.443056
-9.264885,8.185374,3.728332,0.956940,0.000000,-0.290285
-27.154268,-10.339991,-1.485637,-0.934172,-0.356822,0.000000
-9.518476,-26.294552,8.133073,-0.364801,-0.879088,0.306798
9.447823,-3.125264,5.768197,-0.956940,0.290286,0.000000
-2.290330,-9.701098,19.005220,0.290285,0.956940,0.000000
9.937446,-26.276436,0.598103,-0.995185,0.000000,-0.098017
4.452414,16.409483,8.900303,-0.471397,0.000000,-0.881921
-27.091621,8.354109,6.520390,-0.923386,0.308167,0.228893
4.163846,14.604383,9.054546,-0.471397,0.000000,-0.881921
-24.177467,3.184617,-15.865314,-0.819634,0.132793,-0.557284
-8.541927,-26.454836,-5.122888,0.881921,-0.000000,0.471397
-14.131843,23.474053,9.843881,-0.445068,0.829480,0.337457
-11.793773,-4.927543,26.122156,-0.437842,-0.161879,0.884359
-25.042181,12.778975,7.457711,-0.851639,0.469405,0.233171
-8.662852,-4.896653,6.994744,0.881921,0.471397,0.000000
-9.726066,2.208021,18.448726,0.956940,-0.290284,0.000000
2.218968,-9.722745,12.960220,-0.290284,0.956940,0.000000
-21.860707,-2.453147,19.049583,-0.728345,-0.080541,0.680461
2.889448,-10.291090,-27.089285,0.050000,-0.338698,-0.939566
-4.076198,17.041786,-9.101394,0.471397,0.000000,0.881921
3.073278,9.463593,-21.029463,-0.290285,-0.956940,0.000000
21.810112,-4.776605,-18.640025,0.759246,-0.161444,-0.630461
-8.891760,4.468396,-26.154881,0.881921,-0.471397,-0.000000
0.459362,13.394779,-25.829465,0.050171,0.465071,-0.883850
8.928107,11.614781,4.400395,-0.881921,-0.000000,-0.471397
-24.062509,15.042278,-6.428991,-0.809504,0.538762,-0.233320
-4.164547,-25.079816,14.181199,-0.161879,-0.884359,0.437842
-23.572998,11.205928,12.832934,-0.801686,0.395175,0.448482
26.554083,11.855113,-2.255094,0.896494,0.443056,0.000000
-5.337983,19.560216,20.897637,-0.217328,0.638726,0.738104
4.780276,8.725057,-9.413253,-0.471397,-0.881921,0.000000
-13.738254,25.567726,1.886447,-0.465071,0.883850,0.050171
-7.242665,-6.856257,7.298170,0.773010,0.634393,0.000000
19.796240,-17.045870,12.812558,0.648687,-0.620644,0.440461
-4.251413,-18.272004,22.227383,-0.161444,-0.630461,0.759246
-7.525930,19.065143,-20.681832,-0.217328,0.638726,-0.738104
16.158550,-6.051462,-23.428393,0.538762,-0.233320,-0.809504
10.957255,-8.799102,-25.482878,0.343197,-0.312401,-0.885789
27.002389,8.779335,6.307866,0.923386,0.308167,0.228893
-11.273398,-12.943375,23.477956,-0.395175,-0.448482,0.801686
-10.745736,-13.546787,23.400493,-0.395175,-0.448482,0.801686
3.338111,-11.422592,9.383257,-0.290284,0.000000,-0.956940
-7.071707,7.064570,11.539611,0.773011,-0.634393,0.000000
-25.139792,3.014403,-14.423307,-0.833679,0.081178,-0.546250
1.583221,-13.963184,-25.466583,0.050171,-0.465071,-0.883850
-7.917542,14.464652,-23.953779,-0.267099,0.508425,-0.818634
16.693533,18.657467,14.756093,0.585159,0.635472,0.503751
21.878478,18.272404,-5.921012,0.751866,0.639868,-0.158952
-9.304749,-10.198976,-3.596917,0.956940,-0.000000,0.290285
-11.826987,11.987507,23.739811,-0.395175,0.448482,0.801686
-27.600080,-7.625329,-5.427673,-0.947462,-0.216204,-0.235738
-6.936227,18.149928,21.647456,-0.217328,0.638726,0.738104
9.314560,16.735377,3.564575,-0.956941,-0.000000,-0.290284
-20.853460,12.339267,16.128353,-0.742100,0.420208,0.522219
-26.003509,2.492321,-12.789494,-0.901705,0.082070,-0.424492
11.962053,25.844310,-5.941009,0.419240,0.889788,-0.180319
-10.010090,18.355626,20.261346,-0.371743,0.649101,0.663683
-24.845571,-13.720630,6.280133,-0.851639,-0.469405,0.233171
9.600541,2.621822,20.903684,-0.956940,-0.290284,-0.000000
6.440922,26.070015,11.339564,0.161879,0.884359,0.437842
-7.094958,7.036238,-26.541586,0.773010,-0.634393,0.000000
23.640270,15.833590,6.066720,0.809504,0.538762,0.233320
19.787861,16.929176,12.970137,0.708443,0.546564,0.446517
-10.593902,-26.814633,4.295725,-0.371628,-0.903180,0.214847
12.761010,-17.610395,19.367065,0.440461,-0.648687,0.620644
-1.006225,-9.897250,11.505940,0.098017,0.995185,-0.000000
8.195570,5.695139,-14.723232,-0.773011,-0.634393,-0.000000
-2.673259,13.713506,25.536086,-0.050171,0.465071,0.883850
7.318075,-10.667546,-6.764370,-0.773010,0.000000,0.634393
-6.194016,19.533804,7.786153,0.634393,-0.000000,-0.773010
27.686796,-4.951784,7.448278,0.940327,-0.181151,0.288045
-10.115810,-22.466647,-15.453863,-0.382234,-0.759513,-0.526342
8.770705,-4.694874,-10.170506,-0.881921,0.471397,-0.000000
-10.687223,-18.690811,19.554248,-0.371743,-0.649101,0.663683
9.699892,2.294304,-27.123474,-0.956940,-0.290284,-0.000000
11.615543,7.630801,25.599422,0.427026,0.302377,0.852184
8.433510,-14.531118,5.325721,-0.881921,0.000000,-0.471397
-17.680225,-22.759570,4.059599,-0.630461,-0.759246,0.161444
-9.685033,-2.343289,19.909637,0.956941,0.290284,0.000000
-8.704759,-4.818251,-27.166831,0.881921,0.471397,-0.000000
10.008924,24.459957,-12.205537,0.302377,0.852184,-0.427026
-9.931500,0.658473,-10.934533,0.995185,-0.098017,0.000000
-25.765546,-0.079292,13.557256,-0.883850,-0.050171,0.465071
5.561749,-20.556716,19.859247,0.239219,-0.702258,0.670528
17.869788,0.129689,-22.947450,0.597636,0.000000,-0.801768
9.234169,11.556226,25.064655,0.306798,0.364801,0.879088
26.569277,3.845890,11.324525,0.889788,0.180319,0.419240
13.125246,7.038365,24.966137,0.469405,0.233171,0.851639
-18.937960,-15.706990,-15.570316,-0.635472,-0.503751,-0.585159
16.095361,16.177882,18.053753,0.577350,0.577350,0.577350
-24.076204,4.817396,15.625181,-0.819634,0.132793,0.557284
-2.636786,9.596001,15.022968,0.290284,-0.956940,0.000000
-16.565878,-23.123485,6.462616,-0.508425,-0.818634,0.267099
-7.978328,-12.745239,24.977016,-0.337457,-0.445068,0.829480
-3.422105,-13.868189,-9.357778,0.290284,0.000000,0.956940
-4.145342,22.263576,9.064437,0.471397,0.000000,-0.881921
-27.699938,-8.127902,3.698201,-0.946807,-0.311336,0.081408
-5.603448,19.431600,-8.270820,0.634393,0.000000,0.773010
-23.923880,9.979801,-13.190437,-0.829480,0.337457,-0.445068
-9.684260,-2.345837,18.935243,0.956941,0.290284,0.000000
-2.576740,21.047479,9.614216,0.290284,0.000000,-0.956940
-26.887840,11.037509,-0.832158,-0.934172,0.356822,0.000000
9.119968,-11.986312,4.041449,-0.881921,0.000000,-0.471397
15.787237,-5.441163,-23.851422,0.538762,-0.233320,-0.809504
9.362502,-3.406531,-10.759399,-0.956940,0.290284,0.000000
-21.765959,-4.481093,-18.768870,-0.759246,-0.161444,-0.630461
-1.798314,-9.819236,18.526534,0.098017,0.995185,-0.000000
9.686450,-15.416074,2.338616,-0.956940,-0.000000,-0.290284
20.000048,18.829264,-9.622157,0.707576,0.641557,-0.296210
18.903052,6.906791,-21.011527,0.670528,0.239219,-0.702258
-9.981593,-15.006804,-0.149875,0.995185,0.000000,0.098017
-25.353244,12.434727,7.014596,-0.851639,0.469405,0.233171
9.498665,19.978080,-2.957661,-0.956940,0.000000,0.290285
9.915122,-2.748225,0.824766,-0.995185,0.000000,-0.098017
2.971440,9.494486,-12.064303,-0.290284,-0.956940,0.000000
-25.520560,8.749001,10.865625,-0.879088,0.306798,0.364801
9.892699,1.427616,1.052429,-0.995185,-0.000000,-0.098017
7.284082,-6.805791,7.675699,-0.773011,0.634393,0.000000
7.701814,20.058521,6.296783,-0.773010,0.000000,-0.634394
-6.839128,-24.467356,-14.129151,-0.233171,-0.851639,-0.469405
-19.254145,-21.698847,2.188610,-0.680461,-0.728345,0.080541
9.208747,8.737677,-26.181996,0.343197,0.312401,-0.885789
-22.358328,-11.087929,-14.996758,-0.742100,-0.420208,-0.522219
-11.348941,9.034554,25.234926,-0.427026,0.302377,0.852184
-28.104998,-3.446285,-6.885347,-0.952951,-0.084545,-0.291097
-14.546439,21.118118,-13.726946,-0.521887,0.699011,-0.488895
9.831405,-1.674761,-7.407013,-0.995185,0.098017,0.000000
0.734192,20.654996,9.924042,-0.098017,0.000000,-0.995185
-6.492024,-7.541584,16.744191,0.634393,0.773010,-0.000000
6.807836,-7.282404,11.472048,-0.634393,0.773010,0.000000
-2.142142,21.543953,-9.746050,0.290284,-0.000000,0.956940
-8.009960,5.921306,-17.097184,0.773010,-0.634393,-0.000000
8.542031,22.932774,15.766502,0.313422,0.759999,0.569358
8.556989,5.094709,-21.963113,-0.881921,-0.471397,-0.000000
24.942248,12.165558,8.706153,0.852184,0.427026,0.302377
-4.416774,-8.919353,-13.052303,0.471397,0.881921,0.000000
0.774861,11.245148,26.857893,0.050000,0.338698,0.939566
-7.376863,-19.451608,20.369085,-0.239219,-0.702258,0.670528
-9.200607,18.188082,-3.890584,0.881921,0.000000,0.471397
5.996155,-9.044277,26.996707,0.181151,-0.288045,0.940327
16.047385,23.794865,-4.782057,0.557284,0.819634,-0.132793
17.444252,-9.692811,21.201298,0.569358,-0.313422,0.759999
17.059961,17.031554,16.235480,0.577350,0.577350,0.577350
5.682878,-8.205633,-12.697072,-0.634393,0.773010,0.000000
25.432088,11.549569,8.195563,0.852184,0.427026,0.302377
-6.786309,9.632521,26.617753,-0.214847,0.371628,0.903180
-9.563613,2.743558,9.083229,0.956940,-0.290284,0.000000
-0.983830,-13.574235,25.705267,-0.050171,-0.465071,0.883850
-15.476936,1.515241,-24.598660,-0.551642,0.078417,-0.830386
-14.358270,-19.758467,15.833237,-0.446517,-0.708443,0.546564
9.880167,-1.179675,-8.041037,-0.995185,0.098017,0.000000
-19.559522,11.951951,-17.961102,-0.663683,0.371743,-0.649101
6.721589,-26.414549,10.233433,0.228893,-0.923386,0.308167
28.021050,-7.082268,3.249511,0.971231,-0.223786,0.081425
-2.895737,-23.246050,-17.316779,-0.078417,-0.830386,-0.551642
-23.509802,3.355984,16.806457,-0.819634,0.132793,0.557284
-23.563634,-16.350300,-4.915806,-0.791679,-0.589579,-0.160129
9.653746,-2.446429,-25.772894,-0.956940,0.290284,0.000000
-9.904954,-0.928000,24.207161,0.995185,0.098017,-0.000000
-7.136518,23.247353,6.985597,0.773010,0.000000,-0.634394
3.325484,-18.925460,-9.387088,-0.290284,0.000000,0.956940
-22.913379,6.457666,16.844107,-0.759176,0.293108,0.581154
19.184621,21.221730,5.341149,0.638726,0.738104,0.217328
-22.225648,-1.325019,-18.755627,-0.768912,0.000000,-0.639355
6.899418,7.207244,17.690568,-0.634393,-0.773010,0.000000
0.812367,-20.507173,20.675987,0.080531,-0.723272,0.685852
8.822342,4.598268,-22.293514,-0.881921,-0.471397,-0.000000
7.181372,13.525809,6.930943,-0.773010,0.000000,-0.634393
15.473280,-16.054468,18.677406,0.503751,-0.585159,0.635472
2.670531,-9.585765,14.676154,-0.290284,0.956940,0.000000
16.183459,-13.140664,-20.255702,0.546564,-0.446517,-0.708443
-5.458175,-8.362712,17.819604,0.471397,0.881921,-0.000000
9.760308,-23.707131,-13.811880,0.382479,-0.802678,-0.457622
-9.938998,0.582343,18.507882,0.995185,-0.098017,0.000000
4.429334,-19.589917,-8.912640,-0.471397,-0.000000,0.881921
-25.570708,13.534020,2.892789,-0.872474,0.482336,0.078367
9.993126,25.089254,0.032775,-0.995185,-0.000000,-0.098017
9.849988,-22.309593,15.873534,0.382234,-0.759513,0.526342
17.120792,21.710303,9.025147,0.581154,0.759176,0.293108
-26.274842,-8.826814,8.894004,-0.885789,-0.343197,0.312401
22.851963,-14.542765,-10.604767,0.759513,-0.526342,-0.382234
-9.845610,-1.530536,-21.089535,0.995185,0.098017,0.000000
-3.520116,-15.481195,-9.328047,0.290284,0.000000,0.956940
-19.674688,-20.638722,5.880890,-0.638726,-0.738104,0.217328
9.890912,1.070575,-4.052116,-0.995185,-0.098017,0.000000
7.863532,-17.843609,-6.099730,-0.773010,-0.000000,0.634394
-11.805990,-25.915202,5.954034,-0.419240,-0.889788,0.180319
-2.654339,-27.198002,9.590677,0.290284,0.000000,-0.956940
2.285940,-26.369355,9.702429,-0.290284,0.000000,-0.956940
28.054026,-3.917332,-6.900013,0.940327,-0.181151,-0.288045
-12.645697,-23.788268,10.981706,-0.448482,-0.801686,0.395175
-4.370317,-8.944185,10.999482,0.471397,0.881921,-0.000000
21.902015,18.274746,5.800244,0.751866,0.639868,0.158952
21.228770,14.557014,13.587663,0.708443,0.546564,0.446517
7.756880,-24.493272,13.626250,0.233171,-0.851639,0.469405
-9.657203,-2.435031,7.546203,0.956940,0.290284,-0.000000
7.937361,-19.499191,-6.009769,-0.773010,-0.000000,0.634393
-9.962537,-0.343348,-6.168895,0.995185,0.098016,0.000000
-1.075846,26.570557,-11.821778,0.000000,0.896494,-0.443056
-8.212643,11.398668,-25.486546,-0.306798,0.364801,-0.879088
15.567264,-18.176604,-16.583128,0.577350,-0.577350,-0.577350
-15.328242,9.695183,22.765388,-0.526342,0.382234,0.759513
-1.157041,-20.120087,-9.882396,0.098017,0.000000,0.995185
-4.628100,18.889493,-21.634537,-0.161444,0.630461,-0.759246
-25.755894,-5.126159,12.500181,-0.889788,-0.180319,0.419240
12.070115,15.245875,-21.626869,0.420208,0.522219,-0.742100
7.209137,10.605150,-26.116967,0.214847,0.371628,-0.903180
-28.485996,-3.836854,4.645661,-0.984754,-0.084103,0.152273
-7.320420,7.605435,-27.127809,-0.216205,0.235738,-0.947461
2.992333,-27.183635,-9.882606,0.081407,-0.946807,-0.311335
9.205563,3.881314,-24.167499,-0.881921,-0.471397,-0.000000
1.839288,19.199087,21.788913,0.080541,0.680461,0.728345
-5.194873,-22.985899,-8.503450,0.471397,-0.000000,0.881921
22.923753,-11.705807,-13.553030,0.801686,-0.395175,-0.448482
-9.649531,2.460323,-9.059826,0.956940,-0.290284,0.000000
20.728650,-6.262317,-19.440988,0.738104,-0.217328,-0.638726
-4.883988,-8.669622,22.000932,0.471397,0.881921,-0.000000
5.470928,25.906018,8.355896,-0.471397,-0.000000,-0.881921
7.176821,13.577717,-24.739016,0.211221,0.500142,-0.839788
-19.216148,-14.961140,15.910296,-0.635472,-0.503751,0.585159
-4.132197,9.071462,11.079908,0.471397,-0.881921,-0.000000
-20.760008,-20.231784,2.324691,-0.723272,-0.685852,0.080531
-5.717283,17.021635,-22.953963,-0.161444,0.630461,-0.759246
-7.248910,6.848648,19.406578,0.773010,-0.634394,0.000000
15.436491,-23.981141,-5.788714,0.500142,-0.839788,-0.211221
-24.445522,10.502667,11.821799,-0.829480,0.337457,0.445068
25.006211,11.425562,-9.570930,0.852184,0.427026,-0.302377
0.027111,-11.817262,26.684071,0.050171,-0.465071,0.883850
-9.820510,-14.805963,1.785382,0.995185,0.000000,-0.098017
9.926320,-19.886742,-0.711071,-0.995185,0.000000,0.098017
11.918695,-20.837583,16.427530,0.446517,-0.708443,0.546564
-4.815075,17.306203,-22.909507,-0.161444,0.630461,-0.759246
13.352274,-18.093963,-18.442038,0.440461,-0.648687,-0.620644
-3.344089,9.381444,24.225367,0.290285,-0.956940,0.000000
13.010138,-12.721756,22.745844,0.395175,-0.448482,0.801686
25.909763,-12.047421,5.401810,0.884359,-0.437842,0.161879
-0.460121,-14.259152,-25.374600,-0.050171,-0.465071,-0.883850
-15.633116,-15.276123,19.240138,-0.488895,-0.521887,0.699011
-2.994708,25.063914,-14.434174,-0.078367,0.872474,-0.482336
-26.512843,-10.616480,-5.484834,-0.922797,-0.350587,-0.159792
19.389771,0.592789,-21.681198,0.647218,0.000000,-0.762305
-6.949761,7.165928,24.505073,0.634394,-0.773010,0.000000
1.054308,9.892514,-21.818607,-0.098017,-0.995185,0.000000
-9.273310,23.727284,3.700559,0.956940,0.000000,-0.290285
-3.896607,-9.197388,23.179291,0.471397,0.881921,-0.000000
1.967751,9.798951,-26.748331,-0.290284,-0.956940,0.000000
-3.759311,22.122783,-18.522333,-0.158952,0.751866,-0.639868
27.004986,6.344854,8.797956,0.940327,0.181151,0.288045
-12.339763,-3.612020,26.092641,-0.437842,-0.161879,0.884359
-6.663067,-7.401212,-12.888232,0.634393,0.773010,-0.000000
20.392015,-19.174398,-7.938322,0.707576,-0.641557,-0.296210
-24.750217,-6.246006,13.952013,-0.839788,-0.211221,0.500142
-6.272149,-7.722031,8.988690,0.634393,0.773010,-0.000000
2.885777,-9.520471,26.645857,-0.290285,0.956940,0.000000
-1.804259,-26.646172,-11.668777,0.000000,-0.896494,-0.443056
1.203565,17.629192,-23.132167,0.000000,0.596421,-0.802672
11.765175,2.689146,26.546045,0.437842,0.161879,0.884359
14.747597,18.647046,16.865357,0.503751,0.585159,0.635472
6.886708,-11.121364,7.217675,-0.634393,0.000000,-0.773010
-7.022599,20.833333,7.106152,0.634393,0.000000,-0.773010
-7.272132,-12.167110,-25.459289,-0.214847,-0.371628,-0.903180
-9.669554,-5.771984,-2.394317,0.956940,-0.000000,0.290284
-9.294792,-3.629741,19.329629,0.956940,0.290284,0.000000
11.176441,21.563902,15.986287,0.382234,0.759513,0.526342
-0.279980,-9.968779,-15.286038,0.098017,0.995185,0.000000
10.318414,8.423349,25.862916,0.343197,0.312401,0.885789
-24.349193,8.101491,13.731345,-0.818634,0.267099,0.508425
9.363194,-3.404251,10.429321,-0.956941,0.290284,0.000000
2.430104,20.911768,-9.658698,-0.290284,0.000000,0.956940
-1.568239,9.841896,-10.695190,0.098017,-0.995185,0.000000
-17.824884,9.645163,20.901086,-0.641557,0.296210,0.707576
-7.875943,6.084606,-25.772124,0.773010,-0.634393,0.000000
2.748777,-23.020710,-17.667894,0.160129,-0.791679,-0.589579
24.181052,8.141824,-13.980885,0.818634,0.267099,-0.508425
16.455115,-1.677758,-23.933489,0.551642,-0.078417,-0.830386
9.732349,5.988827,-2.187308,-0.956940,0.000000,0.290284
8.366808,-19.573673,-5.450513,-0.881921,0.000000,0.471397
-28.983689,-0.754633,2.413850,-0.996384,-0.049505,0.069057
-25.175352,-13.778145,-4.732786,-0.884359,-0.437842,-0.161879
-13.687226,-10.575151,23.389923,-0.457622,-0.382479,0.802678
9.502519,22.010638,2.944956,-0.956940,-0.000000,-0.290285
14.990618,5.411687,-24.383354,0.469405,0.233171,-0.851639
-11.683260,-18.530354,-19.153277,-0.371743,-0.649101,-0.663683
-9.569203,-4.465044,27.087309,-0.350587,-0.159792,0.922797
-1.000842,-9.897780,-15.892308,0.098017,0.995185,0.000000
-19.677268,-21.459298,-0.039473,-0.639355,-0.768912,0.000000
-20.931504,8.145673,-18.565756,-0.738104,0.217328,-0.638726
-11.525364,21.853168,15.315485,-0.382234,0.759513,0.526342
7.457981,22.211376,17.326201,0.313422,0.759999,0.569358
19.337123,17.492270,-12.859710,0.648687,0.620644,-0.440461
-18.546807,-1.902051,22.396898,-0.647218,0.000000,0.762305
10.327195,7.218902,26.259980,0.308167,0.228893,0.923386
20.730715,16.170893,-12.402391,0.708443,0.546564,-0.446517
-14.368587,3.659910,-25.040424,-0.482336,0.078367,-0.872474
9.858472,-9.122095,-1.399945,-0.995185,0.000000,0.098017
-12.759113,-3.816445,-25.847603,-0.437842,-0.161879,-0.884359
18.769381,-5.186042,-21.610910,0.639868,-0.158952,-0.751866
-3.590522,-9.306689,17.287747,0.290284,0.956940,-0.000000
28.924464,2.853644,1.392810,0.995747,0.092126,-0.000000
-1.517198,-18.517194,-22.423906,0.000000,-0.639355,-0.768912
15.649075,-15.984448,18.602527,0.503751,-0.585159,0.635472
-13.365134,-1.966811,-25.747248,-0.482336,-0.078367,-0.872474
9.651781,11.742864,24.834042,0.337457,0.445068,0.829480
8.303837,-5.967184,-5.563216,-0.773010,0.000000,0.634393
-24.768289,11.773322,-9.750344,-0.852184,0.427026,-0.302377
4.479579,8.885783,15.952266,-0.471397,-0.881921,0.000000
-10.605853,-19.697692,18.615066,-0.371743,-0.649101,0.663683
-8.217815,5.668034,-11.444971,0.773010,-0.634394,0.000000
20.819632,1.937378,-20.224966,0.728345,0.080541,-0.680461
23.826633,16.690307,-0.295491,0.801768,0.597636,-0.000000
-19.887141,-3.954827,-20.905318,-0.685852,-0.080531,-0.723272
1.979043,21.035056,19.982315,0.080531,0.723272,0.685852
-19.685232,-16.636884,-13.490751,-0.708443,-0.546564,-0.446517
18.109505,-9.358419,-20.763059,0.641557,-0.296210,-0.707576
-11.415382,26.155431,5.645959,-0.371628,0.903180,0.214847
0.082454,22.016799,18.994495,0.000000,0.762305,0.647218
28.778277,-4.168671,-1.473533,0.984405,-0.175916,0.000000
-24.606425,-15.153618,-3.659955,-0.872474,-0.482336,-0.078367
1.090382,25.348552,14.228711,0.078367,0.872474,0.482336
26.131943,-12.709286,-0.320545,0.896494,-0.443056,0.000000
21.737962,-2.457542,-19.180445,0.728345,-0.080541,-0.680461
16.461926,23.893089,2.099814,0.546250,0.833679,0.081178
8.159025,-18.140647,-5.739670,-0.773010,-0.000000,0.634393
-8.759854,-27.090103,-5.963609,-0.288045,-0.940327,-0.181151
13.840995,10.084061,-23.536262,0.457622,0.382479,-0.802678
-0.089557,9.987534,13.645325,0.098017,-0.995185,0.000000
-14.270659,-15.742510,-19.844844,-0.488895,-0.521887,-0.699011
22.348920,-18.564965,-2.249882,0.723272,-0.685852,-0.080531
-18.160311,22.336935,4.172380,-0.630461,0.759246,0.161444
6.332303,-26.197755,11.059575,0.159792,-0.922797,0.350587
-6.245148,19.934555,20.267038,-0.239219,0.702258,0.670528
-15.878290,17.164096,-17.284610,-0.577350,0.577350,-0.577350
0.615462,27.156476,10.334213,-0.000000,0.934172,0.356823
-9.820102,-10.616274,1.789525,0.995185,0.000000,-0.098017
4.138089,-18.024134,22.457305,0.161444,-0.630461,0.759246
18.157036,14.875605,17.134108,0.635472,0.503751,0.585159
9.997541,-4.014027,27.002675,0.350587,-0.159792,0.922797
-28.988757,-0.762691,2.334950,-0.996384,-0.049505,0.069057
0.690264,-9.928369,20.038508,-0.098017,0.995185,-0.000000
-9.699694,-4.525483,-2.294956,0.956940,-0.000000,0.290284
-25.793676,-10.545162,8.370575,-0.885789,-0.343197,0.312401
-8.133840,-5.770358,-19.930944,0.773010,0.634393,0.000000
27.594731,-4.930719,-7.762071,0.940327,-0.181151,-0.288045
-17.008630,18.183598,14.987852,-0.585159,0.635472,0.503751
5.414087,-15.411518,8.386278,-0.471397,-0.000000,-0.881921
-9.035657,4.863700,4.199184,0.881921,0.000000,-0.471397
12.520374,26.281233,-0.606156,0.465071,0.883850,-0.050171
-9.905570,11.400369,0.921750,0.995185,-0.000000,-0.098017
-4.699858,-8.768041,23.967730,0.471397,0.881921,-0.000000
1.415094,9.856980,26.402462,-0.098017,-0.995185,-0.000000
-24.460807,13.511526,-8.106410,-0.851639,0.469405,-0.233171
10.466850,-0.069789,-27.105812,0.356823,0.000000,-0.934172
-18.216550,19.842302,-11.001059,-0.649101,0.663683,-0.371743
25.976441,0.913480,13.066467,0.883850,0.050171,0.465071
1.333225,9.865043,-14.587790,-0.098017,-0.995185,0.000000
-9.250291,27.293176,-4.129650,-0.288045,0.940327,-0.181151
-2.854608,-9.529926,26.387707,0.290285,0.956940,0.000000
21.270349,17.173978,10.016347,0.759999,0.569358,0.313422
1.571255,-19.765474,21.289402,0.080541,-0.680461,0.728345
1.727064,-25.591222,13.686313,0.078367,-0.872474,0.482336
9.850827,26.789339,-1.477563,-0.995185,0.000000,0.098017
7.809649,6.165386,10.513379,-0.773010,-0.634393,0.000000
-20.616533,-20.115382,4.471205,-0.751866,-0.639868,0.158952
8.413888,-26.026886,-5.362432,-0.881921,0.000000,0.471397
-9.898035,-24.007891,-0.998253,0.995185,-0.000000,0.098017
9.718609,-2.232604,4.038976,-0.956940,0.290284,0.000000
4.968028,26.350706,-8.624702,-0.471397,0.000000,0.881921
28.493026,-2.577179,5.295945,0.984754,-0.084103,0.152273
-19.484932,3.247123,21.365514,-0.685852,0.080531,0.723272
-1.475380,27.310847,-9.892395,-0.081410,0.946807,-0.311335
10.903476,15.622665,-22.022319,0.420208,0.522219,-0.742100
-9.685000,2.343396,-15.403290,0.956940,-0.290284,0.000000
2.991819,26.658032,11.370599,0.159792,0.922797,0.350587
0.400148,-24.623175,-15.598546,0.078417,-0.830386,-0.551642
-0.203543,-14.564962,-25.228251,-0.050171,-0.465071,-0.883850
-28.664782,-4.803776,0.721415,-0.984405,-0.175916,0.000000
27.370796,-8.542546,-5.080424,0.922797,-0.350587,-0.159792
-21.489695,19.519392,-1.838339,-0.723272,0.685852,-0.080531
3.463723,25.631724,9.345153,-0.290284,0.000000,-0.956940
18.494289,-13.576755,-17.886010,0.635472,-0.503751,-0.585159
25.535266,-6.801392,12.247904,0.889788,-0.180319,0.419240
1.697001,-26.992156,9.829214,-0.098016,-0.000000,-0.995185
7.341918,-14.358594,6.735318,-0.773010,-0.000000,-0.634393
8.588853,27.146808,-5.941165,0.288045,0.940327,-0.181151
-4.221219,-15.450391,24.291636,-0.132793,-0.557284,0.819634
18.562001,-15.898117,-15.814063,0.635472,-0.503751,-0.585159
-9.660906,-18.275402,20.508658,-0.349826,-0.585564,0.731257
-9.684506,-15.635846,-2.345025,0.956940,-0.000000,0.290284
-8.869526,14.907077,4.509993,0.881921,0.000000,-0.471397
9.869341,-22.244249,-1.289589,-0.995185,0.000000,0.098017
-9.972614,-0.241041,20.679627,0.995185,0.098017,-0.000000
4.615764,26.755478,-8.812991,-0.471397,0.000000,0.881921
-8.367906,24.975129,5.448458,0.881921,0.000000,-0.471397
-14.953073,13.313589,-21.095954,-0.546564,0.446517,-0.708443
-25.775067,-13.280099,2.180471,-0.872474,-0.482336,0.078367
10.356237,25.981069,8.035168,0.364801,0.879088,0.306798
25.125496,-11.158674,9.591154,0.885789,-0.343197,0.312401
27.641400,-6.341148,-6.439370,0.947462,-0.216204,-0.235738
6.182650,-27.088799,-8.613422,0.228893,-0.923386,-0.308167
-25.793512,-10.875574,8.008058,-0.885789,-0.343197,0.312401
9.902661,-0.951278,23.734760,-0.995185,0.098017,0.000000
23.335503,-4.410918,16.811435,0.819634,-0.132793,0.557284
11.423829,26.298623,4.950559,0.419240,0.889788,0.180319
8.179662,20.968362,5.714524,-0.773010,0.000000,-0.634393
-21.513094,18.746793,5.739653,-0.751866,0.639868,0.158952
28.131660,0.056379,7.705598,0.977326,0.049608,0.205849
-5.154747,-8.524898,-23.723157,0.471397,0.881921,-0.000000
