x,y,z,nx,ny,nz
-0.336958,-0.092203,0.238058,0.000000,-1.000000,0.000000
0.111734,-0.092203,0.238718,0.000000,-1.000000,0.000000
0.306203,0.040378,-0.420416,0.588732,0.000000,-0.808328
0.299303,0.048704,0.342632,0.657882,0.000000,0.753121
-0.444935,-0.023220,-0.141704,-0.952843,0.000000,-0.303463
-0.261483,-0.050567,-0.180305,-0.823254,0.000000,-0.567673
0.118402,0.026136,-0.294727,0.372779,0.000000,-0.927920
-0.234500,-0.020826,0.412157,-0.494519,0.000000,0.869167
-0.020106,-0.003985,-0.075077,0.258685,0.000000,0.965962
0.000189,-0.002348,-0.077722,-0.002436,0.000000,0.999997
0.290305,0.071192,-0.319835,0.672097,0.000000,-0.740463
-0.429452,0.041847,0.129620,-0.957344,0.000000,0.288952
-0.306734,0.059113,0.082445,-0.965724,0.000000,0.259571
-0.157704,-0.002140,-0.403352,-0.364140,0.000000,-0.931344
-0.018415,0.092203,0.275821,0.000000,1.000000,0.000000
-0.263753,-0.049564,0.176967,-0.830402,0.000000,0.557164
-0.197133,0.092203,-0.310306,0.000000,1.000000,0.000000
-0.076711,0.000287,0.435002,-0.173667,0.000000,0.984804
-0.137559,-0.092203,-0.280774,0.000000,-1.000000,0.000000
-0.084008,-0.026969,-0.306310,-0.264491,0.000000,-0.964388
-0.168607,-0.080744,0.269174,-0.530844,0.000000,0.847470
-0.255230,-0.022577,-0.189052,-0.803569,0.000000,-0.595212
0.243595,0.069609,-0.203824,0.766937,0.000000,-0.641722
-0.443462,-0.089579,-0.035349,-0.996838,0.000000,-0.079459
-0.113194,-0.092203,0.522006,0.000000,-1.000000,0.000000
-0.013989,-0.008754,-0.465441,-0.030043,0.000000,-0.999549
0.317333,-0.038600,-0.013520,0.999094,0.000000,-0.042566
-0.383339,0.087528,0.329276,-0.758572,0.000000,0.651590
-0.168588,0.051673,-0.269186,-0.530784,0.000000,-0.847507
-0.156306,-0.009299,0.401742,-0.362592,0.000000,0.931948
0.288538,0.073817,0.132772,0.908437,0.000000,0.418021
0.488227,0.047952,-0.071508,0.989444,0.000000,-0.144918
0.075194,0.041213,-0.019665,-0.967463,0.000000,0.253012
-0.037925,0.057703,0.067842,0.487948,0.000000,-0.872873
0.291687,0.026629,-0.125705,0.918349,0.000000,-0.395772
0.459513,0.088030,0.284751,0.850024,0.000000,0.526744
0.383780,-0.010710,-0.270312,0.817561,0.000000,-0.575842
0.155354,0.046651,0.415890,0.349929,0.000000,0.936776
0.074861,-0.092203,0.106711,0.000000,-1.000000,0.000000
-0.077598,0.040741,0.307996,-0.244310,0.000000,0.969697
-0.468857,0.071190,-0.161827,-0.945278,0.000000,-0.326265
-0.205485,0.053628,0.242196,-0.646951,0.000000,0.762532
0.016916,-0.029278,-0.317170,0.053259,0.000000,-0.998581
0.300357,-0.009801,-0.103290,0.945646,0.000000,-0.325199
-0.063996,0.058157,0.044106,0.823390,0.000000,-0.567476
-0.063037,0.092203,-0.268371,0.000000,1.000000,0.000000
-0.071212,-0.036244,0.031140,0.916231,0.000000,-0.400651
0.118606,-0.071109,0.294645,0.373420,0.000000,0.927663
0.389017,-0.084137,-0.196287,0.892789,0.000000,-0.450476
-0.333921,-0.058138,-0.339085,-0.701660,0.000000,-0.712512
-0.454677,0.036706,-0.149679,-0.949855,0.000000,-0.312691
-0.075433,0.092203,0.051087,0.000000,1.000000,0.000000
-0.196345,-0.092203,0.408265,0.000000,-1.000000,0.000000
-0.312484,0.034410,0.056891,-0.983828,0.000000,0.179115
0.056823,0.002002,0.312496,0.178901,0.000000,0.983867
0.237859,0.038622,-0.210490,0.748878,0.000000,-0.662707
-0.314614,0.034179,0.043599,-0.990534,0.000000,0.137268
0.319029,0.071193,-0.403819,0.619913,0.000000,-0.784670
0.304907,0.090659,0.088963,0.959973,0.000000,0.280093
-0.069568,0.085314,0.309908,-0.219028,0.000000,0.975719
0.232412,-0.085063,-0.216489,0.731728,0.000000,-0.681597
-0.271498,0.068285,-0.164839,-0.854786,0.000000,-0.518980
-0.113570,0.025000,-0.296622,-0.357566,0.000000,-0.933888
0.159715,0.092203,-0.218929,0.000000,1.000000,0.000000
0.289074,0.051023,-0.131602,0.910123,0.000000,-0.414338
-0.417350,0.087018,-0.120658,-0.960659,0.000000,-0.277731
0.235082,-0.014801,-0.372158,0.534050,0.000000,-0.845453
0.016975,0.092203,-0.130897,0.000000,1.000000,0.000000
-0.069067,0.029001,-0.472086,-0.144761,0.000000,-0.989467
0.125535,-0.026431,-0.492109,0.247180,0.000000,-0.968970
-0.055580,0.092203,0.121648,0.000000,1.000000,0.000000
-0.159511,0.060297,0.405418,-0.366130,0.000000,0.930564
0.244252,0.042233,-0.203037,0.769004,0.000000,-0.639243
0.445899,-0.019976,-0.264762,0.859847,0.000000,-0.510553
-0.492238,0.027498,0.195967,-0.929080,0.000000,0.369879
0.310154,-0.008621,0.422741,0.591542,0.000000,0.806274
-0.026573,0.050224,0.073039,0.341900,0.000000,-0.939736
-0.494116,0.016641,0.185168,-0.936407,0.000000,0.350916
0.387699,0.012075,0.194898,0.893459,0.000000,0.449145
0.083512,-0.018196,0.429858,0.190713,0.000000,0.981646
-0.197076,0.068043,0.249086,-0.620475,0.000000,0.784226
0.242936,-0.050581,0.204610,0.764862,0.000000,0.644195
-0.077682,-0.059214,0.002520,0.999474,0.000000,-0.032417
-0.390937,0.000476,0.361496,-0.734213,0.000000,0.678919
0.232221,0.067409,-0.216694,0.731127,0.000000,-0.682241
0.025319,0.091198,0.316610,0.079715,0.000000,0.996818
-0.359668,0.068351,0.285982,-0.782725,0.000000,0.622367
0.239418,-0.092203,0.084999,0.000000,-1.000000,0.000000
-0.308901,-0.012971,-0.073913,-0.972547,0.000000,-0.232708
0.300323,-0.054753,-0.345375,0.656175,0.000000,-0.754609
0.317618,-0.090085,0.001179,0.999993,0.000000,0.003711
0.144959,-0.065858,0.282612,0.456391,0.000000,0.889779
0.383106,-0.092203,-0.217714,0.000000,-1.000000,0.000000
-0.417706,0.088411,-0.194589,-0.906466,0.000000,-0.422279
0.203984,-0.092203,-0.479765,0.000000,-1.000000,0.000000
0.229515,-0.013995,0.219558,0.722607,0.000000,0.691259
-0.069429,0.030469,0.309939,-0.218591,0.000000,0.975816
0.233007,-0.090543,-0.215849,0.733601,0.000000,-0.679580
-0.381281,-0.082665,-0.358096,-0.728922,0.000000,-0.684597
-0.277820,0.004529,0.153945,-0.874690,0.000000,0.484683
0.037611,0.058014,0.315386,0.118415,0.000000,0.992964
-0.023340,-0.022397,0.074135,0.300298,0.000000,-0.953846
0.055768,0.087999,0.312686,0.175582,0.000000,0.984465
0.077420,0.043237,0.006857,-0.996101,0.000000,-0.088220
-0.395225,-0.010134,0.354149,-0.744748,0.000000,0.667345
0.450916,0.077013,0.283537,0.846548,0.000000,0.532312
-0.183077,-0.092203,-0.108631,0.000000,-1.000000,0.000000
-0.369701,-0.060412,-0.303455,-0.772960,0.000000,-0.634454
0.155177,0.064104,-0.435766,0.335466,0.000000,-0.942052
0.088783,0.092203,0.507587,0.000000,1.000000,0.000000
-0.306605,-0.069778,-0.082923,-0.965318,0.000000,-0.261076
0.248872,0.069678,-0.382546,0.545322,0.000000,-0.838226
-0.315328,-0.007980,0.038092,-0.992782,0.000000,0.119931
0.298069,0.065155,-0.109717,0.938443,0.000000,-0.345434
-0.202874,0.092203,-0.277262,0.000000,1.000000,0.000000
-0.198583,-0.053289,0.446372,-0.406473,0.000000,0.913663
-0.484014,-0.085434,-0.022632,-0.998909,0.000000,-0.046708
0.129091,0.024114,0.290204,0.406431,0.000000,0.913682
0.213022,-0.092203,0.161838,0.000000,-1.000000,0.000000
0.060067,-0.044730,0.049322,-0.772844,0.000000,-0.634596
-0.179662,-0.089669,0.427377,-0.387533,0.000000,0.921856
-0.078603,0.041653,-0.307741,-0.247473,0.000000,-0.968895
0.316508,-0.005750,-0.394806,0.625494,0.000000,-0.780229
-0.019015,-0.058902,0.477104,-0.039824,0.000000,0.999207
0.146421,0.053401,0.281858,0.460992,0.000000,0.887404
-0.066272,-0.092203,-0.183603,0.000000,-1.000000,0.000000
0.255909,0.092203,0.218248,0.000000,1.000000,0.000000
-0.098179,-0.006055,0.302066,-0.309108,0.000000,0.951027
-0.095631,0.053898,-0.302882,-0.301087,0.000000,-0.953597
0.128360,-0.044512,-0.290528,0.404131,0.000000,-0.914701
-0.349639,0.030199,0.269616,-0.791898,0.000000,0.610653
-0.212744,-0.076158,-0.235845,-0.669805,0.000000,-0.742537
0.028426,-0.051902,0.316346,0.089497,0.000000,0.995987
-0.084417,0.057716,0.306197,-0.265778,0.000000,0.964034
-0.314887,-0.017260,-0.041583,-0.991393,0.000000,-0.130920
-0.075835,0.081326,-0.439835,-0.169910,0.000000,-0.985460
-0.132194,-0.092203,-0.033996,0.000000,-1.000000,0.000000
0.013944,-0.060883,0.317314,0.043902,0.000000,0.999036
-0.257960,0.019421,-0.185309,-0.812164,0.000000,-0.583429
0.029337,-0.018898,0.316263,0.092365,0.000000,0.995725
-0.037837,-0.073079,0.516369,-0.073080,0.000000,0.997326
0.152479,0.059231,-0.482876,0.301116,0.000000,-0.953587
-0.451036,0.067645,0.146664,-0.950986,0.000000,0.309233
-0.301865,0.053049,0.323850,-0.681842,0.000000,0.731500
0.155242,0.010600,0.406724,0.356595,0.000000,0.934259
-0.253812,0.041303,-0.190951,-0.799105,0.000000,-0.601191
-0.073659,0.092203,0.026400,0.000000,1.000000,0.000000
-0.480886,0.058864,-0.196264,-0.925858,0.000000,-0.377872
-0.059193,-0.064707,0.312056,-0.186362,0.000000,0.982481
0.232024,0.030257,-0.216905,0.730507,0.000000,-0.682905
0.049171,0.092203,-0.073892,0.000000,1.000000,0.000000
-0.503550,-0.040445,0.194489,-0.932838,0.000000,0.360295
0.124404,-0.043553,-0.292244,0.391674,0.000000,-0.920104
0.178274,0.092203,-0.302815,0.000000,1.000000,0.000000
0.394825,-0.092203,-0.229337,0.000000,-1.000000,0.000000
-0.209789,-0.092203,-0.371785,0.000000,-1.000000,0.000000
0.148464,0.092203,0.418741,0.000000,1.000000,0.000000
0.189529,0.092203,0.368633,0.000000,1.000000,0.000000
0.070183,-0.037969,0.033393,-0.902998,0.000000,-0.429646
-0.314430,0.041028,-0.044908,-0.989954,0.000000,-0.141390
0.046569,0.051960,0.062227,-0.599165,0.000000,-0.800626
-0.434163,0.073365,-0.037883,-0.996215,0.000000,-0.086924
-0.009389,-0.092203,0.376305,0.000000,-1.000000,0.000000
0.130593,-0.008653,-0.289531,0.411160,0.000000,-0.911563
-0.076082,-0.092203,0.035190,0.000000,-1.000000,0.000000
-0.111889,-0.092203,0.069294,0.000000,-1.000000,0.000000
-0.095717,0.092203,-0.146298,0.000000,1.000000,0.000000
0.036098,-0.038484,0.315563,0.113651,0.000000,0.993521
-0.032564,0.092203,0.217611,0.000000,1.000000,0.000000
0.293720,0.092203,-0.281533,0.000000,1.000000,0.000000
0.224368,-0.092203,-0.302177,0.000000,-1.000000,0.000000
-0.183632,0.081335,0.259157,-0.578148,0.000000,0.815932
-0.386080,-0.086061,0.334797,-0.755501,0.000000,0.655148
0.138042,-0.033579,0.286055,0.434613,0.000000,0.900617
-0.290427,-0.002933,-0.317911,-0.674473,0.000000,-0.738299
0.180185,0.092203,-0.191730,0.000000,1.000000,0.000000
0.209961,-0.092203,-0.462378,0.000000,-1.000000,0.000000
0.392186,0.092203,-0.070529,0.000000,1.000000,0.000000
-0.363153,0.092203,-0.143349,0.000000,1.000000,0.000000
0.293093,0.059833,0.122391,0.922776,0.000000,0.385336
0.466420,-0.060141,-0.059165,0.992050,0.000000,-0.125840
0.353293,-0.008711,-0.262001,0.803229,0.000000,-0.595670
-0.182871,-0.063450,-0.259694,-0.575754,0.000000,-0.817623
0.216537,-0.082903,0.232368,0.681746,0.000000,0.731589
0.034395,0.092203,0.082102,0.000000,1.000000,0.000000
0.338944,0.092203,0.186511,0.000000,1.000000,0.000000
-0.017988,-0.043726,0.075613,0.231432,0.000000,-0.972851
-0.178442,0.059652,-0.262757,-0.561808,0.000000,-0.827267
-0.239509,-0.087034,-0.456976,-0.464221,0.000000,-0.885719
-0.391470,-0.054175,-0.192197,-0.897649,0.000000,-0.440711
-0.090555,-0.002459,0.304438,-0.285105,0.000000,0.958496
0.014853,-0.016464,0.076290,-0.191105,0.000000,-0.981570
-0.024825,0.092203,-0.235642,0.000000,1.000000,0.000000
-0.499858,0.019341,-0.195666,-0.931199,0.000000,-0.364511
-0.240975,-0.053985,-0.480154,-0.448550,0.000000,-0.893758
-0.278384,0.068055,-0.152922,-0.876468,0.000000,-0.481460
0.063801,-0.026257,0.044388,-0.820876,0.000000,-0.571106
0.054271,0.052550,-0.312950,0.170868,0.000000,-0.985294
0.325139,0.013328,0.427865,0.605038,0.000000,0.796197
-0.230724,0.089590,0.388836,-0.510297,0.000000,0.859998
0.043011,-0.018989,-0.314695,0.135415,0.000000,-0.990789
-0.074484,-0.087345,-0.308764,-0.234508,0.000000,-0.972114
-0.531878,0.052207,-0.004020,-0.999971,0.000000,-0.007559
-0.314418,0.022235,-0.330058,-0.689745,0.000000,-0.724053
-0.324725,0.092203,0.049214,0.000000,1.000000,0.000000
-0.113901,-0.062904,0.296495,-0.358607,0.000000,0.933489
-0.333368,-0.092203,0.142819,0.000000,-1.000000,0.000000
-0.107979,0.092203,0.130576,0.000000,1.000000,0.000000
0.077191,-0.004180,-0.009076,-0.993158,0.000000,0.116775
0.298283,-0.061000,-0.109135,0.939116,0.000000,-0.343601
-0.167532,0.092203,-0.195937,0.000000,1.000000,0.000000
-0.041998,0.001111,0.524283,-0.079850,0.000000,0.996807
-0.378929,0.025686,0.320639,-0.763380,0.000000,0.645950
-0.234222,0.070549,-0.478537,-0.439621,0.000000,-0.898184
-0.395485,-0.003647,0.354722,-0.744430,0.000000,0.667700
0.031626,-0.021383,-0.316042,0.099572,0.000000,-0.995030
-0.190016,-0.034619,0.254513,-0.598249,0.000000,0.801310
-0.307589,0.038387,0.079197,-0.968415,0.000000,0.249344
-0.443593,-0.042937,0.035312,-0.996846,0.000000,0.079354
-0.269752,-0.077828,0.167681,-0.849289,0.000000,0.527927
0.292007,0.054573,0.124959,0.919358,0.000000,0.393422
0.322175,0.019136,0.415763,0.612523,0.000000,0.790453
-0.474713,-0.024903,0.196351,-0.924074,0.000000,0.382215
0.286514,-0.025747,0.137086,0.902064,0.000000,0.431603
0.483237,-0.043487,-0.068592,0.990076,0.000000,-0.140534
-0.023474,0.092203,-0.108073,0.000000,1.000000,0.000000
0.221812,0.052478,0.227337,0.698356,0.000000,0.715750
-0.278752,-0.092203,0.115852,0.000000,-1.000000,0.000000
-0.423196,-0.092203,-0.304649,0.000000,-1.000000,0.000000
-0.440982,-0.092203,-0.050871,0.000000,-1.000000,0.000000
-0.181315,0.092203,-0.251023,0.000000,1.000000,0.000000
0.443716,-0.087564,0.114817,0.968114,0.000000,0.250510
-0.361830,-0.010336,0.289650,-0.780673,0.000000,0.624940
0.033103,0.092203,-0.082491,0.000000,1.000000,0.000000
-0.066692,0.038288,-0.039913,0.858071,0.000000,0.513532
0.235470,0.010244,0.372458,0.534372,0.000000,0.845249
0.012855,-0.062429,-0.317360,0.040472,0.000000,-0.999181
-0.385627,-0.000472,-0.333876,-0.756013,0.000000,-0.654556
0.304319,0.070885,-0.090954,0.958122,0.000000,-0.286360
-0.367717,-0.092203,0.276184,0.000000,-1.000000,0.000000
0.173604,0.092203,0.230059,0.000000,1.000000,0.000000
0.157517,-0.092203,-0.156039,0.000000,-1.000000,0.000000
-0.022262,0.084359,0.074466,0.286428,0.000000,-0.958102
0.017420,-0.050055,-0.317143,0.054846,0.000000,-0.998495
-0.292167,-0.092203,-0.033600,0.000000,-1.000000,0.000000
-0.313310,-0.039902,-0.052152,-0.986428,0.000000,-0.164195
-0.310244,-0.004184,0.068055,-0.976776,0.000000,0.214265
-0.309136,0.022243,0.072922,-0.973288,0.000000,0.229589
-0.014286,0.031330,0.466146,-0.030633,0.000000,0.999531
-0.038890,-0.012908,0.067293,0.500370,0.000000,-0.865812
0.218464,-0.077608,-0.230557,0.687814,0.000000,-0.725887
-0.234260,-0.092203,0.189846,0.000000,-1.000000,0.000000
-0.043501,0.053245,0.527082,-0.082251,0.000000,0.996612
-0.463048,-0.002433,0.196367,-0.920637,0.000000,0.390419
-0.055597,0.074281,0.054311,0.715331,0.000000,-0.698786
-0.196733,-0.009073,-0.249357,-0.619395,0.000000,-0.785079
-0.310558,-0.055407,0.066609,-0.977763,0.000000,0.209713
0.450913,-0.092203,0.259646,0.000000,-1.000000,0.000000
-0.380213,-0.059254,0.323124,-0.761996,0.000000,0.647582
-0.482385,-0.044019,0.023196,-0.998846,0.000000,0.048031
0.292596,-0.092203,0.104728,0.000000,-1.000000,0.000000
-0.453445,0.092203,-0.175408,0.000000,1.000000,0.000000
0.089531,0.092203,-0.009508,0.000000,1.000000,0.000000
0.373552,0.018815,-0.267691,0.812840,0.000000,-0.582488
0.027698,0.013825,-0.072620,-0.356374,0.000000,0.934343
0.440585,0.087569,-0.281938,0.842303,0.000000,-0.539004
-0.393928,0.068082,-0.362518,-0.735834,0.000000,-0.677162
0.317585,0.071738,0.004787,0.999886,0.000000,0.015071
0.047498,0.049601,0.314049,0.149542,0.000000,0.988755
0.031720,0.092203,-0.089950,0.000000,1.000000,0.000000
-0.365457,0.021030,-0.352184,-0.720062,0.000000,-0.693910
-0.158227,-0.092203,0.174587,0.000000,-1.000000,0.000000
0.309443,0.077340,-0.371680,0.639830,0.000000,-0.768517
0.231191,-0.091893,0.369126,0.530802,0.000000,0.847496
-0.002538,0.072570,0.436350,-0.005817,0.000000,0.999983
-0.077572,0.059075,0.004843,0.998057,0.000000,-0.062312
-0.256607,-0.069804,-0.187179,-0.807903,0.000000,-0.589316
0.291403,0.001211,0.126361,0.917457,0.000000,0.397836
-0.077718,0.010134,0.000845,0.999941,0.000000,-0.010866
-0.388065,-0.092203,-0.068502,0.000000,-1.000000,0.000000
-0.462865,0.041372,0.156613,-0.947246,0.000000,0.320507
-0.061938,-0.017377,0.046952,0.796911,0.000000,-0.604097
0.093734,-0.048118,-0.446396,0.205498,0.000000,-0.978658
0.227439,0.047171,0.221708,0.716070,0.000000,0.698028
0.484725,-0.019489,-0.069456,0.989890,0.000000,-0.141840
0.106741,0.051152,-0.466043,0.223256,0.000000,-0.974760
-0.240232,0.047879,0.466938,-0.457487,0.000000,0.889216
0.144025,-0.092203,0.313191,0.000000,-1.000000,0.000000
-0.314186,-0.052378,-0.046581,-0.989188,0.000000,-0.146656
0.082194,-0.092203,0.020517,0.000000,-1.000000,0.000000
-0.004850,-0.092203,-0.081411,0.000000,-1.000000,0.000000
0.428467,0.028434,0.040064,0.995657,0.000000,0.093100
-0.248196,0.092203,0.276188,0.000000,1.000000,0.000000
-0.182690,0.054410,-0.259822,-0.575182,0.000000,-0.818025
0.204434,0.092203,0.044425,0.000000,1.000000,0.000000
0.223547,0.051133,0.225632,0.703817,0.000000,0.710381
-0.399469,0.011707,-0.364372,-0.738817,0.000000,-0.673906
0.375964,-0.033541,-0.268324,0.813961,0.000000,-0.580920
-0.287511,0.092203,-0.421889,0.000000,1.000000,0.000000
-0.489838,0.069258,0.181054,-0.937978,0.000000,0.346695
0.275211,-0.092203,-0.241955,0.000000,-1.000000,0.000000
-0.208423,-0.065437,0.239672,-0.656200,0.000000,0.754587
0.073229,0.092203,-0.313949,0.000000,1.000000,0.000000
0.425980,-0.092203,0.204043,0.000000,-1.000000,0.000000
0.317232,-0.075837,0.015714,0.998775,0.000000,0.049473
-0.312385,-0.039220,0.057434,-0.983515,0.000000,0.180825
-0.313106,0.066602,0.053360,-0.985787,0.000000,0.167999
-0.064652,0.058974,0.489846,-0.130849,0.000000,0.991402
-0.228798,-0.061432,0.378561,-0.517256,0.000000,0.855831
-0.227238,-0.082063,0.472571,-0.433357,0.000000,0.901222
0.023159,0.002069,-0.316775,0.072914,0.000000,-0.997338
-0.108713,0.092203,-0.290383,0.000000,1.000000,0.000000
-0.454658,0.053230,-0.149663,-0.949861,0.000000,-0.312672
0.231377,0.080240,-0.217595,0.728471,0.000000,-0.685077
-0.167243,0.075630,-0.270023,-0.526550,0.000000,-0.850144
0.243537,-0.079166,0.203894,0.766753,0.000000,0.641942
0.228414,-0.075527,0.220703,0.719141,0.000000,0.694864
0.250197,0.029263,-0.195663,0.787724,0.000000,-0.616029
-0.051324,-0.079735,0.058366,0.660351,0.000000,-0.750957
0.125440,0.092203,0.049457,0.000000,1.000000,0.000000
0.285186,0.092203,0.046312,0.000000,1.000000,0.000000
-0.016439,0.091631,0.075964,0.211508,0.000000,-0.977376
-0.423287,0.010507,-0.125002,-0.959054,0.000000,-0.283222
-0.014391,-0.002909,-0.076379,0.185157,0.000000,0.982709
0.028408,-0.014369,-0.072345,-0.365503,0.000000,0.930810
-0.121831,-0.092203,-0.281938,0.000000,-1.000000,0.000000
0.374369,0.092203,0.132926,0.000000,1.000000,0.000000
0.015686,0.020493,-0.076123,-0.201825,0.000000,0.979422
-0.497032,-0.005364,0.017964,-0.999348,0.000000,0.036119
-0.212169,0.060135,0.236363,-0.667995,0.000000,0.744166
0.317621,-0.087776,0.000157,1.000000,0.000000,0.000496
0.056549,-0.092203,0.104260,0.000000,-1.000000,0.000000
-0.073651,-0.011995,-0.451113,-0.161131,0.000000,-0.986933
-0.058124,-0.068298,0.051598,0.747841,0.000000,-0.663878
0.298737,0.007708,0.107885,0.940547,0.000000,0.339665
-0.072234,0.045221,-0.028690,0.929376,0.000000,0.369133
0.056662,-0.092203,-0.183672,0.000000,-1.000000,0.000000
0.295562,0.023931,0.116301,0.930551,0.000000,0.366163
-0.375957,0.092203,-0.368683,0.000000,1.000000,0.000000
0.436190,0.068194,0.251754,0.866095,0.000000,0.499880
-0.278454,-0.025268,-0.152794,-0.876688,0.000000,-0.481060
0.154230,0.044223,0.459256,0.318354,0.000000,0.947972
-0.111963,-0.056562,-0.297233,-0.352505,0.000000,-0.935810
0.231843,-0.007115,-0.369638,0.531349,0.000000,-0.847153
-0.072937,0.029167,-0.309133,-0.229635,0.000000,-0.973277
-0.101581,-0.039813,-0.300939,-0.319819,0.000000,-0.947479
-0.282922,0.092203,-0.424768,0.000000,1.000000,0.000000
0.154547,-0.038071,0.453258,0.322726,0.000000,0.946492
-0.482719,-0.082618,0.174355,-0.940529,0.000000,0.339714
0.317619,0.050443,-0.001120,0.999994,0.000000,-0.003526
-0.316096,0.044577,0.031080,-0.995201,0.000000,0.097853
0.030106,-0.034236,-0.316191,0.094785,0.000000,-0.995498
0.317342,0.021771,-0.013293,0.999124,0.000000,-0.041852
0.300072,0.047593,0.104114,0.944750,0.000000,0.327793
-0.201311,0.065850,-0.245676,-0.633809,0.000000,-0.773490
-0.203201,-0.007502,-0.244115,-0.639759,0.000000,-0.768576
-0.031958,-0.014250,0.504756,-0.063188,0.000000,0.998002
-0.434016,0.035486,-0.133109,-0.956048,0.000000,-0.293211
0.291800,-0.090613,-0.323463,0.669831,0.000000,-0.742513
-0.077266,0.083527,0.431837,-0.176126,0.000000,0.984368
0.375221,-0.092203,-0.286609,0.000000,-1.000000,0.000000
0.530553,-0.026182,-0.098540,0.983186,0.000000,-0.182607
0.480372,0.092203,0.078036,0.000000,1.000000,0.000000
-0.081735,0.031019,0.306924,-0.257334,0.000000,0.966322
-0.174042,-0.061763,0.265692,-0.547955,0.000000,0.836508
0.473756,-0.003153,-0.063202,0.991218,0.000000,-0.132234
-0.045834,-0.059598,-0.062770,0.589708,0.000000,0.807617
0.468659,-0.008742,0.111624,0.972788,0.000000,0.231696
-0.464062,-0.008106,-0.196373,-0.920939,0.000000,-0.389706
-0.306662,-0.022270,-0.326259,-0.684884,0.000000,-0.728652
-0.082051,-0.019753,0.306840,-0.258329,0.000000,0.966057
-0.484260,-0.087554,0.175790,-0.939983,0.000000,0.341220
0.302080,-0.051543,-0.098136,0.951071,0.000000,-0.308971
-0.143738,0.092203,-0.200659,0.000000,1.000000,0.000000
-0.227604,-0.022817,0.372586,-0.521303,0.000000,0.853371
-0.274823,-0.081760,0.159233,-0.865255,0.000000,0.501331
0.146922,0.086709,0.281597,0.462571,0.000000,0.886582
0.065765,0.092203,0.254164,0.000000,1.000000,0.000000
-0.313632,0.056233,0.050180,-0.987441,0.000000,0.157988
0.115989,0.009878,-0.295685,0.365181,0.000000,-0.930936
-0.322074,0.092203,-0.058683,0.000000,1.000000,0.000000
0.294902,-0.091951,-0.117964,0.928473,0.000000,-0.371400
0.203461,-0.092203,-0.306135,0.000000,-1.000000,0.000000
-0.308752,-0.031721,0.074533,-0.972077,0.000000,0.234661
0.305222,0.015136,-0.087878,0.960963,0.000000,-0.276677
-0.207372,-0.047098,-0.240582,-0.652891,0.000000,-0.757452
-0.188887,-0.088897,-0.436820,-0.396896,0.000000,-0.917864
-0.039177,-0.092203,-0.119164,0.000000,-1.000000,0.000000
0.443526,-0.048381,-0.261525,0.861401,0.000000,-0.507925
-0.174650,-0.020102,-0.265293,-0.549871,0.000000,-0.835250
-0.043636,0.092131,-0.527333,-0.082466,0.000000,-0.996594
0.293160,-0.047429,-0.122229,0.922989,0.000000,-0.384825
0.044328,-0.058137,0.063842,-0.570336,0.000000,-0.821412
0.365039,-0.092203,0.101416,0.000000,-1.000000,0.000000
-0.062946,0.061297,0.496218,-0.125844,0.000000,0.992050
0.155451,0.078054,0.276980,0.489424,0.000000,0.872046
0.011148,-0.092203,0.135682,0.000000,-1.000000,0.000000
-0.300565,-0.008624,0.323188,-0.681013,0.000000,0.732271
0.132976,-0.092203,0.164551,0.000000,-1.000000,0.000000
0.289428,0.048186,0.410158,0.576557,0.000000,0.817057
0.223743,0.021507,-0.225437,0.704435,0.000000,-0.709769
-0.310615,0.092203,0.418236,0.000000,1.000000,0.000000
-0.141411,0.092203,0.013171,0.000000,1.000000,0.000000
0.502735,0.092203,0.037809,0.000000,1.000000,0.000000
0.050770,-0.092203,-0.463428,0.000000,-1.000000,0.000000
-0.004834,-0.092203,0.351783,0.000000,-1.000000,0.000000
0.242683,0.062296,-0.204910,0.764065,0.000000,-0.645139
0.322621,0.036220,0.417526,0.611432,0.000000,0.791297
0.229685,0.076418,0.367941,0.529537,0.000000,0.848287
-0.296431,0.092203,-0.447736,0.000000,1.000000,0.000000
0.235229,0.014155,0.213425,0.740598,0.000000,0.671948
0.360475,-0.031317,-0.264094,0.806676,0.000000,-0.590994
0.019955,-0.075964,-0.316993,0.062826,0.000000,-0.998025
0.286439,-0.040577,-0.137243,0.901827,0.000000,-0.432096
-0.315465,0.037419,0.036944,-0.993212,0.000000,0.116315
-0.200156,0.011781,0.447887,-0.408002,0.000000,0.912981
-0.240862,-0.053104,-0.477827,-0.450124,0.000000,-0.892966
0.136996,-0.092203,0.150685,0.000000,-1.000000,0.000000
0.324903,-0.092203,0.296357,0.000000,-1.000000,0.000000
-0.023486,-0.092203,-0.505061,0.000000,-1.000000,0.000000
-0.169589,-0.092203,0.346408,0.000000,-1.000000,0.000000
0.144051,0.073932,-0.283076,0.453532,0.000000,-0.891240
0.284445,0.003436,0.406986,0.572861,0.000000,0.819653
0.244470,0.085118,0.202775,0.769690,0.000000,0.638418
-0.075095,0.022605,0.443772,-0.166848,0.000000,0.985983
0.156580,-0.092203,0.497885,0.000000,-1.000000,0.000000
0.139264,-0.075132,-0.285462,0.438459,0.000000,-0.898751
-0.309159,-0.008725,-0.072827,-0.973359,0.000000,-0.229288
0.035776,0.086180,-0.315599,0.112639,0.000000,-0.993636
-0.482480,-0.063903,-0.196233,-0.926315,0.000000,-0.376749
-0.060018,-0.060033,0.506645,-0.117640,0.000000,0.993056
-0.281587,0.086179,0.146941,-0.886551,0.000000,0.462631
-0.314961,0.011954,-0.041019,-0.991626,0.000000,-0.129146
0.127745,0.020507,-0.290799,0.402193,0.000000,-0.915555
0.405125,-0.092203,0.002223,0.000000,-1.000000,0.000000
-0.274139,-0.085115,0.160407,-0.863103,0.000000,0.505028
0.317486,0.011813,-0.009264,0.999575,0.000000,-0.029167
-0.270515,0.092203,-0.007325,0.000000,1.000000,0.000000
-0.277433,0.001573,-0.154640,-0.873474,0.000000,-0.486870
-0.077316,-0.073940,-0.007942,0.994766,0.000000,0.102179
-0.320741,-0.092203,0.194248,0.000000,-1.000000,0.000000
-0.539142,-0.024195,0.000842,-0.999999,0.000000,0.001562
-0.309365,-0.085853,-0.071947,-0.974007,0.000000,-0.226517
0.412884,0.092203,0.117496,0.000000,1.000000,0.000000
0.095472,-0.052377,0.449108,0.207935,0.000000,0.978143
0.240500,-0.092203,-0.196141,0.000000,-1.000000,0.000000
0.316329,-0.037629,-0.028617,0.995933,0.000000,-0.090099
-0.077085,0.092203,-0.302442,0.000000,1.000000,0.000000
-0.475290,0.021985,-0.167559,-0.943109,0.000000,-0.332483
-0.238454,0.022087,0.444990,-0.472323,0.000000,0.881425
-0.306352,-0.011248,-0.083852,-0.964522,0.000000,-0.264001
-0.056602,-0.056893,0.053264,0.728252,0.000000,-0.685310
-0.408147,-0.062411,-0.193835,-0.903307,0.000000,-0.428994
0.302700,-0.035441,-0.096205,0.953025,0.000000,-0.302893
-0.193507,-0.001581,0.251869,-0.609240,0.000000,0.792986
0.402201,-0.092203,0.278046,0.000000,-1.000000,0.000000
-0.501172,0.059175,0.192107,-0.933752,0.000000,0.357922
-0.204341,0.079402,0.243162,-0.643349,0.000000,0.765573
-0.234188,0.092203,-0.058668,0.000000,1.000000,0.000000
0.017168,0.032137,0.317156,0.054053,0.000000,0.998538
-0.165925,-0.092203,-0.044499,0.000000,-1.000000,0.000000
-0.389711,-0.060181,-0.192000,-0.897041,0.000000,-0.441947
-0.089921,-0.033385,-0.304626,-0.283110,0.000000,-0.959088
0.029991,-0.078812,0.071703,-0.385878,0.000000,-0.922550
-0.277590,-0.045930,-0.154359,-0.873968,0.000000,-0.485984
0.395055,-0.041460,0.273010,0.822669,0.000000,0.568521
-0.456515,0.010251,-0.196292,-0.918676,0.000000,-0.395012
-0.408981,-0.050985,0.193906,-0.903585,0.000000,0.428408
-0.155921,0.092203,0.123914,0.000000,1.000000,0.000000
-0.061388,0.092203,0.171583,0.000000,1.000000,0.000000
0.103806,0.092203,0.340453,0.000000,1.000000,0.000000
-0.186377,0.029552,0.257190,-0.586791,0.000000,0.809738
0.527536,-0.090770,-0.100430,0.982357,0.000000,-0.187017
0.300678,0.007552,-0.102350,0.946659,0.000000,-0.322238
-0.464969,0.050428,0.158431,-0.946561,0.000000,0.322526
0.017050,-0.007020,-0.317163,0.053679,0.000000,-0.998558
0.084509,0.092203,0.517976,0.000000,1.000000,0.000000
0.252688,-0.048851,-0.192436,0.795565,0.000000,-0.605868
-0.270113,-0.092203,0.335525,0.000000,-1.000000,0.000000
-0.077121,0.059133,0.308116,-0.242809,0.000000,0.970074
-0.315291,-0.069799,-0.330477,-0.690287,0.000000,-0.723536
-0.200538,0.022934,0.246307,-0.631377,0.000000,0.775476
-0.077686,0.079947,-0.002381,0.999531,0.000000,0.030629
0.155360,-0.034411,-0.417138,0.349021,0.000000,-0.937115
0.069357,0.092203,-0.262039,0.000000,1.000000,0.000000
0.449282,0.030900,-0.050175,0.993822,0.000000,-0.110988
-0.073114,0.058326,0.309091,-0.230192,0.000000,0.973145
-0.195897,-0.043933,-0.250014,-0.616765,0.000000,-0.787148
0.402243,-0.085066,-0.210677,0.885851,0.000000,-0.463970
0.029144,0.042301,-0.316281,0.091758,0.000000,-0.995781
-0.005763,0.017433,-0.444945,-0.012950,0.000000,-0.999916
-0.066261,0.035353,-0.310632,-0.208617,0.000000,-0.977997
0.216482,0.084587,-0.232419,0.681574,0.000000,-0.731749
-0.319288,-0.092203,0.334617,0.000000,-1.000000,0.000000
-0.314414,0.092203,-0.348750,0.000000,1.000000,0.000000
-0.184044,-0.052649,-0.258864,-0.579445,0.000000,-0.815011
-0.406868,-0.092203,0.214536,0.000000,-1.000000,0.000000
-0.240091,0.028964,0.464835,-0.458909,0.000000,0.888483
-0.066652,-0.022569,-0.310549,-0.209847,0.000000,-0.977734
0.074573,-0.071237,0.021902,-0.959475,0.000000,-0.281794
-0.318066,0.025075,-0.331802,-0.692006,0.000000,-0.721892
0.271205,-0.092203,0.065248,0.000000,-1.000000,0.000000
-0.067158,-0.092203,-0.057241,0.000000,-1.000000,0.000000
-0.193124,0.090879,-0.252163,-0.608033,0.000000,-0.793912
-0.196809,0.028408,0.249297,-0.619637,0.000000,0.784889
0.238115,0.076971,-0.210200,0.749685,0.000000,-0.661795
-0.480301,0.012839,-0.172122,-0.941378,0.000000,-0.337354
0.018289,0.068420,0.075540,-0.235308,0.000000,-0.971921
-0.082035,0.071307,0.306844,-0.258280,0.000000,0.966070
-0.254044,0.003519,-0.190643,-0.799833,0.000000,-0.600222
0.458077,0.025241,-0.054712,0.992943,0.000000,-0.118595
-0.048718,-0.032048,0.060559,0.626821,0.000000,-0.779163
0.081415,-0.092203,0.042459,0.000000,-1.000000,0.000000
0.298907,0.086082,-0.107413,0.941082,0.000000,-0.338179
0.245975,0.047257,0.200946,0.774430,0.000000,0.632660
0.298538,0.041527,0.340598,0.659148,0.000000,0.752013
0.229309,0.030451,-0.219773,0.721959,0.000000,-0.691936
-0.361993,0.031142,0.289927,-0.780518,0.000000,0.625133
-0.309070,0.084258,-0.073205,-0.973078,0.000000,-0.230478
-0.023402,-0.041048,0.074116,0.301092,0.000000,-0.953595
0.342487,0.092203,-0.136269,0.000000,1.000000,0.000000
-0.392227,-0.011191,0.361938,-0.734913,0.000000,0.678162
0.251385,0.092203,-0.403965,0.000000,1.000000,0.000000
-0.028662,-0.069913,-0.498005,-0.057460,0.000000,-0.998348
-0.156073,-0.092203,0.511860,0.000000,-1.000000,0.000000
0.055314,0.009905,0.312767,0.174151,0.000000,0.984719
0.056927,0.092203,-0.101246,0.000000,1.000000,0.000000
-0.096770,0.092203,-0.441657,0.000000,1.000000,0.000000
0.060370,0.028678,0.048951,-0.776741,0.000000,-0.629820
0.297838,-0.000118,-0.110342,0.937717,0.000000,-0.347401
-0.047208,-0.088616,-0.061743,0.607395,0.000000,0.794400
0.157838,-0.064227,-0.275627,0.496939,0.000000,-0.867785
-0.065667,0.075488,0.310758,-0.206748,0.000000,0.978394
0.125956,0.071840,-0.291578,0.396562,0.000000,-0.918008
-0.295485,0.066260,-0.320571,-0.677752,0.000000,-0.735290
0.483754,-0.060059,0.068891,0.990011,0.000000,0.140987
-0.316143,0.086288,0.030604,-0.995347,0.000000,0.096353
0.069268,0.092203,0.039720,0.000000,1.000000,0.000000
0.036470,0.030939,0.068635,-0.469231,0.000000,-0.883075
-0.064317,-0.054678,0.491117,-0.129851,0.000000,0.991534
0.230123,0.023941,-0.218921,0.724522,0.000000,-0.689251
0.094973,0.092203,-0.021608,0.000000,1.000000,0.000000
0.524733,0.007501,-0.094570,0.984145,0.000000,-0.177368
-0.149301,-0.092203,-0.026160,0.000000,-1.000000,0.000000
0.071720,0.065841,0.029952,-0.922764,0.000000,-0.385366
0.248053,-0.092203,0.405562,0.000000,-1.000000,0.000000
0.318430,-0.071672,0.401635,0.621265,0.000000,0.783600
0.104294,0.092203,-0.064555,0.000000,1.000000,0.000000
-0.271034,0.067279,-0.165600,-0.853327,0.000000,-0.521376
-0.056380,0.054998,-0.518820,-0.108034,0.000000,-0.994147
0.040217,0.087589,0.315064,0.126618,0.000000,0.991952
-0.323574,-0.021709,0.334387,-0.695392,0.000000,0.718631
0.127937,-0.092203,0.048178,0.000000,-1.000000,0.000000
-0.320057,0.092203,-0.033371,0.000000,1.000000,0.000000
0.477927,0.011281,0.110203,0.974431,0.000000,0.224689
-0.527536,-0.028291,-0.005875,-0.999938,0.000000,-0.011135
-0.061723,0.069039,0.500650,-0.122359,0.000000,0.992486
0.447057,0.077293,0.049053,0.994034,0.000000,0.109069
-0.067975,0.092203,0.495001,0.000000,1.000000,0.000000
-0.503393,0.068635,-0.194331,-0.932899,0.000000,-0.360139
-0.074302,0.032106,-0.447856,-0.163668,0.000000,-0.986515
0.132046,-0.063469,-0.288871,0.415735,0.000000,-0.909486
0.017636,0.092203,-0.123189,0.000000,1.000000,0.000000
0.532343,-0.092203,-0.032236,0.000000,-1.000000,0.000000
0.079501,-0.092203,0.412996,0.000000,-1.000000,0.000000
0.375073,-0.092203,0.015442,0.000000,-1.000000,0.000000
0.296749,0.040161,0.113239,0.934287,0.000000,0.356522
-0.198989,0.092203,-0.200426,0.000000,1.000000,0.000000
-0.061531,-0.019680,0.311604,-0.193724,0.000000,0.981056
-0.248177,0.092203,0.114535,0.000000,1.000000,0.000000
0.075313,0.090677,-0.019203,-0.968998,0.000000,0.247069
-0.004259,0.021965,0.440980,-0.009657,0.000000,0.999953
-0.076831,0.063034,0.011736,0.988534,0.000000,-0.151001
0.198962,0.092203,0.010331,0.000000,1.000000,0.000000
0.073522,-0.056898,-0.025206,-0.945952,0.000000,0.324305
-0.006479,0.092203,-0.434959,0.000000,1.000000,0.000000
0.070250,0.025219,-0.033253,-0.903856,0.000000,0.427837
-0.115938,0.092203,0.080751,0.000000,1.000000,0.000000
0.108490,-0.068681,0.468578,0.225563,0.000000,0.974228
0.089096,0.008055,0.439023,0.198888,0.000000,0.980022
0.249242,0.092203,0.425855,0.000000,1.000000,0.000000
-0.361396,0.054576,0.288909,-0.781088,0.000000,0.624421
-0.283576,-0.035904,-0.143064,-0.892815,0.000000,-0.450424
0.147366,0.005740,0.519548,0.272877,0.000000,0.962049
-0.487335,-0.092203,-0.029275,0.000000,-1.000000,0.000000
0.382927,-0.092203,0.229888,0.000000,-1.000000,0.000000
0.391256,0.039027,0.272123,0.820959,0.000000,0.570987
-0.094912,0.004759,0.303108,-0.298823,0.000000,0.954308
-0.279218,-0.012052,-0.151394,-0.879092,0.000000,-0.476652
0.324062,-0.092203,-0.328856,0.000000,-1.000000,0.000000
0.222679,0.043044,0.226489,0.701084,0.000000,0.713079
-0.085046,-0.014748,0.306023,-0.267759,0.000000,0.963486
0.000468,0.011982,0.317620,0.001474,0.000000,0.999999
-0.233408,-0.044289,0.404872,-0.499446,0.000000,0.866345
0.301514,0.026076,-0.099860,0.949291,0.000000,-0.314399
-0.315281,0.073220,0.038480,-0.992634,0.000000,0.121149
0.124813,-0.009714,0.491153,0.246294,0.000000,0.969195
0.092695,0.092203,0.262680,0.000000,1.000000,0.000000
-0.042854,0.037525,0.525881,-0.081220,0.000000,0.996696
0.323164,0.072051,0.419702,0.610086,0.000000,0.792335
0.290473,-0.034567,0.128485,0.914527,0.000000,0.404524
-0.071254,0.012443,0.462470,-0.152275,0.000000,0.988338
0.287459,0.078668,-0.135094,0.905038,0.000000,-0.425331
0.056200,-0.074242,-0.053687,-0.723087,0.000000,0.690757
-0.014228,0.092203,-0.153079,0.000000,1.000000,0.000000
-0.382138,-0.090756,-0.358404,-0.729395,0.000000,-0.684093
0.160618,0.052667,0.274016,0.505690,0.000000,0.862715
0.414771,-0.092203,0.031071,0.000000,-1.000000,0.000000
0.210343,0.092203,0.446740,0.000000,1.000000,0.000000
-0.213050,-0.092203,-0.230712,0.000000,-1.000000,0.000000
-0.362055,0.058710,-0.290035,-0.780458,0.000000,-0.625208
0.021611,-0.047586,-0.074658,-0.278049,0.000000,0.960567
0.111988,-0.007862,-0.473577,0.230126,0.000000,-0.973161
-0.280116,0.020079,-0.149725,-0.881921,0.000000,-0.471397
-0.075761,-0.041960,-0.440236,-0.169599,0.000000,-0.985513
0.317363,0.073453,0.397812,0.623633,0.000000,0.781718
0.322694,-0.024590,0.417820,0.611250,0.000000,0.791438
0.132622,-0.074069,0.288607,0.417549,0.000000,0.908654
-0.090065,-0.092203,-0.158312,0.000000,-1.000000,0.000000
-0.194461,0.061887,-0.251133,-0.612244,0.000000,-0.790669
-0.428946,-0.007615,-0.129237,-0.957486,0.000000,-0.288480
-0.216558,-0.075762,0.463141,-0.423568,0.000000,0.905864
0.101079,0.023017,-0.457669,0.215660,0.000000,-0.976469
0.084493,-0.092203,-0.234583,0.000000,-1.000000,0.000000
-0.315239,0.039776,-0.038822,-0.992502,0.000000,-0.122229
-0.264058,0.072539,-0.176511,-0.831363,0.000000,-0.555729
0.092286,0.092203,0.264370,0.000000,1.000000,0.000000
-0.409199,-0.071419,0.193925,-0.903658,0.000000,0.428255
-0.265787,0.080792,0.173898,-0.836805,0.000000,0.547501
-0.241106,-0.038652,0.483058,-0.446586,0.000000,0.894741
0.240947,0.050032,0.206948,0.758600,0.000000,0.651557
-0.340749,-0.092203,-0.028843,0.000000,-1.000000,0.000000
0.042823,-0.006864,0.314721,0.134825,0.000000,0.990869
-0.235653,-0.018629,-0.420495,-0.488881,0.000000,-0.872350
-0.147756,-0.092203,-0.210516,0.000000,-1.000000,0.000000
0.245358,-0.024188,-0.201699,0.772486,0.000000,-0.635032
-0.479489,0.065546,-0.196289,-0.925456,0.000000,-0.378855
-0.028021,-0.003550,-0.496669,-0.056328,0.000000,-0.998412
-0.275574,0.023752,0.157930,-0.867620,0.000000,0.497229
0.290962,-0.070165,0.127374,0.916066,0.000000,0.401027
0.305752,0.092203,-0.238527,0.000000,1.000000,0.000000
0.303762,-0.053915,0.092799,0.956366,0.000000,0.292170
0.247672,-0.034673,-0.198851,0.779772,0.000000,-0.626063
0.117594,-0.092203,0.116966,0.000000,-1.000000,0.000000
-0.077723,-0.036043,-0.000007,1.000000,0.000000,0.000089
-0.284170,0.020038,-0.141881,-0.894684,0.000000,-0.446700
-0.100518,-0.092203,-0.094314,0.000000,-1.000000,0.000000
0.136970,-0.092203,-0.036812,0.000000,-1.000000,0.000000
-0.246014,0.092203,0.209041,0.000000,1.000000,0.000000
-0.188753,-0.031099,-0.255451,-0.594270,0.000000,-0.804265
0.292454,0.084849,-0.123910,0.920764,0.000000,-0.390119
0.137666,0.091345,0.507696,0.261707,0.000000,0.965147
0.446649,0.077235,-0.114489,0.968683,0.000000,-0.248301
0.439823,-0.060322,0.045472,0.994698,0.000000,0.102840
-0.074870,0.072511,0.020862,0.963303,0.000000,-0.268416
-0.320995,-0.057467,-0.333184,-0.693811,0.000000,-0.720157
0.448831,-0.089875,0.049947,0.993865,0.000000,0.110599
-0.306905,-0.026038,-0.081807,-0.966262,0.000000,-0.257560
0.130025,-0.092203,0.006870,0.000000,-1.000000,0.000000
0.042748,-0.062628,0.064911,-0.550013,0.000000,-0.835156
0.293657,-0.079434,0.121031,0.924552,0.000000,0.381056
0.321988,-0.078100,0.415031,0.612975,0.000000,0.790102
-0.050246,-0.069116,0.537764,-0.093030,0.000000,0.995663
0.502919,0.092203,0.000085,0.000000,1.000000,0.000000
0.316454,0.027945,-0.027197,0.996327,0.000000,-0.085629
0.266358,0.092203,0.144714,0.000000,1.000000,0.000000
0.241265,-0.028008,-0.206577,0.759600,0.000000,-0.650390
-0.202099,-0.030295,-0.245029,-0.636289,0.000000,-0.771451
0.492238,0.032112,-0.073891,0.988920,0.000000,-0.148450
0.003804,0.057404,-0.317598,0.011977,0.000000,-0.999928
-0.161037,-0.092203,-0.125632,0.000000,-1.000000,0.000000
0.074326,0.022083,0.022724,-0.956304,0.000000,-0.292374
-0.181518,0.092203,-0.011490,0.000000,1.000000,0.000000
-0.259778,-0.092203,0.284721,0.000000,-1.000000,0.000000
0.041572,0.049185,-0.065670,-0.534881,0.000000,0.844927
0.259841,0.007412,0.390432,0.554041,0.000000,0.832489
0.292937,0.051959,-0.122763,0.922285,0.000000,-0.386509
-0.026074,-0.092203,-0.075349,0.000000,-1.000000,0.000000
0.092593,0.007993,-0.444602,0.203886,0.000000,-0.978995
-0.038196,-0.072303,-0.517061,-0.073671,0.000000,-0.997283
-0.311550,0.070651,0.061804,-0.980886,0.000000,0.194584
-0.440447,0.092203,0.174120,0.000000,1.000000,0.000000
-0.270117,0.020737,-0.167091,-0.850440,0.000000,-0.526072
-0.305538,-0.092203,-0.274168,0.000000,-1.000000,0.000000
-0.398476,-0.060855,0.361408,-0.740719,0.000000,0.671815
0.245966,-0.047371,-0.200957,0.774401,0.000000,-0.632695
-0.027779,0.035742,-0.496163,-0.055900,0.000000,-0.998436
0.291278,-0.056440,-0.322190,0.670626,0.000000,-0.741796
0.285330,0.077070,0.139535,0.898335,0.000000,0.439312
0.148575,0.058231,0.516754,0.276321,0.000000,0.961065
-0.308994,-0.014409,-0.073525,-0.972838,0.000000,-0.231486
-0.464797,-0.040131,0.029000,-0.998059,0.000000,0.062271
-0.267891,0.064421,-0.170638,-0.843430,0.000000,-0.537239
0.157114,0.065652,0.276040,0.494660,0.000000,0.869087
-0.075531,-0.008784,0.018328,0.971800,0.000000,-0.235807
-0.306885,0.067282,-0.081880,-0.966201,0.000000,-0.257791
0.397127,0.068191,-0.205012,0.888581,0.000000,-0.458720
-0.307673,0.023321,-0.078867,-0.968682,0.000000,-0.248306
-0.271590,-0.009904,-0.164686,-0.855077,0.000000,-0.518500
-0.251666,0.092203,-0.216538,0.000000,1.000000,0.000000
0.021761,-0.080594,0.316874,0.068512,0.000000,0.997650
0.117126,0.092203,-0.309596,0.000000,1.000000,0.000000
0.325611,0.018383,0.429879,0.603793,0.000000,0.797142
0.215356,0.077031,-0.233462,0.678029,0.000000,-0.735035
0.162142,-0.062932,0.273117,0.510491,0.000000,0.859883
-0.189255,-0.065156,-0.255079,-0.595852,0.000000,-0.803094
0.047910,0.034000,0.313987,0.150839,0.000000,0.988558
-0.307347,0.003853,-0.080130,-0.967653,0.000000,-0.252283
0.034473,-0.036137,-0.315744,0.108534,0.000000,-0.994093
-0.029789,0.051082,0.500332,-0.059433,0.000000,0.998232
-0.475909,-0.025586,0.025394,-0.998579,0.000000,0.053282
0.119170,-0.035665,-0.294417,0.375197,0.000000,-0.926945
-0.309791,-0.089645,0.070090,-0.975348,0.000000,0.220672
-0.363058,0.073205,0.291756,-0.779496,0.000000,0.626408
-0.501587,-0.092203,0.173435,0.000000,-1.000000,0.000000
0.431775,-0.082165,0.246039,0.868840,0.000000,0.495092
-0.073246,-0.078699,0.025997,0.942402,0.000000,-0.334484
0.436039,0.009518,-0.281185,0.840411,0.000000,-0.541949
-0.305917,-0.024567,-0.085427,-0.963152,0.000000,-0.268959
0.139388,0.050404,-0.509838,0.263718,0.000000,-0.964600
0.049343,0.043243,-0.313764,0.155353,0.000000,-0.987859
0.528744,0.001650,0.097297,0.983487,0.000000,0.180976
-0.297902,-0.092203,-0.434466,0.000000,-1.000000,0.000000
0.152634,0.020297,0.278542,0.480556,0.000000,0.876964
0.316318,-0.041845,0.394143,0.625905,0.000000,0.779900
0.011115,-0.092203,-0.110627,0.000000,-1.000000,0.000000
0.294576,0.033260,-0.118778,0.927444,0.000000,-0.373961
0.058600,0.091463,-0.051057,-0.753961,0.000000,0.656919
-0.097661,-0.046396,0.302234,-0.307476,0.000000,0.951556
-0.371153,-0.074138,-0.306083,-0.771494,0.000000,-0.636237
-0.492366,-0.090012,-0.019671,-0.999203,0.000000,-0.039919
0.192164,-0.092203,-0.037596,0.000000,-1.000000,0.000000
0.217222,-0.092203,0.330312,0.000000,-1.000000,0.000000
-0.343548,0.075573,0.260155,-0.797214,0.000000,0.603697
-0.209506,0.030539,-0.456701,-0.416958,0.000000,-0.908926
0.230581,-0.092203,-0.151746,0.000000,-1.000000,0.000000
-0.212588,-0.079950,0.235986,-0.669314,0.000000,0.742980
-0.485888,0.092203,0.115210,0.000000,1.000000,0.000000
-0.309348,-0.006991,-0.072021,-0.973953,0.000000,-0.226751
0.110723,-0.092203,-0.118042,0.000000,-1.000000,0.000000
-0.169432,-0.052060,0.268655,-0.533442,0.000000,0.845837
0.018199,-0.056437,-0.317099,0.057299,0.000000,-0.998357
-0.414063,-0.064855,-0.118294,-0.961530,0.000000,-0.274700
-0.068776,-0.052551,-0.310085,-0.216535,0.000000,-0.976275
-0.064980,0.067909,-0.042643,0.836045,0.000000,0.548660
0.499878,0.092203,-0.185704,0.000000,1.000000,0.000000
-0.477179,-0.083974,0.169269,-0.942461,0.000000,0.334317
-0.133702,0.092203,-0.382989,0.000000,1.000000,0.000000
-0.012258,-0.080078,0.461280,-0.026563,0.000000,0.999647
0.228953,-0.051346,-0.367363,0.528921,0.000000,-0.848671
-0.487160,0.009550,0.196122,-0.927648,0.000000,0.373455
0.470997,-0.013214,-0.061670,0.991537,0.000000,-0.129827
0.309028,0.006178,0.370406,0.640620,0.000000,0.767858
0.002016,0.090450,-0.077696,-0.025939,0.000000,0.999664
0.151607,-0.092203,-0.245953,0.000000,-1.000000,0.000000
0.067491,-0.092203,-0.391372,0.000000,-1.000000,0.000000
0.418762,-0.000854,-0.229868,0.876614,0.000000,-0.481194
-0.433797,-0.008125,-0.037980,-0.996189,0.000000,-0.087218
0.054557,0.031383,0.312900,0.171769,0.000000,0.985137
-0.418642,-0.025673,0.121595,-0.960313,0.000000,0.278924
0.151833,0.024162,-0.489617,0.296190,0.000000,-0.955129
-0.045697,0.067415,-0.531122,-0.085721,0.000000,-0.996319
0.475102,-0.092203,-0.119184,0.000000,-1.000000,0.000000
0.233605,-0.049358,0.215201,0.735484,0.000000,0.677542
0.119062,-0.092203,-0.084890,0.000000,-1.000000,0.000000
0.242100,0.080191,-0.205598,0.762229,0.000000,-0.647307
-0.392996,-0.092203,0.338949,0.000000,-1.000000,0.000000
-0.272832,0.004553,0.162620,-0.858988,0.000000,0.511995
0.075042,0.024916,-0.020237,-0.965507,0.000000,0.260378
-0.439725,-0.073632,-0.036384,-0.996594,0.000000,-0.082461
0.481990,0.010989,-0.067872,0.990231,0.000000,-0.139440
0.082323,0.092203,-0.104918,0.000000,1.000000,0.000000
0.120461,0.092203,-0.108378,0.000000,1.000000,0.000000
0.423197,-0.032913,0.116755,0.963986,0.000000,0.265952
0.163187,0.005202,0.272494,0.513778,0.000000,0.857923
0.162013,0.092203,-0.342861,0.000000,1.000000,0.000000
0.077194,-0.000772,0.009046,-0.993204,0.000000,-0.116384
0.151383,0.092203,-0.497902,0.000000,1.000000,0.000000
0.088956,0.073289,-0.438797,0.198686,0.000000,-0.980063
-0.074019,0.022871,0.023707,0.952347,0.000000,-0.305018
0.075448,-0.092203,-0.100394,0.000000,-1.000000,0.000000
0.303287,-0.092203,0.061689,0.000000,-1.000000,0.000000
-0.385520,-0.030366,0.333658,-0.756134,0.000000,0.654417
0.297232,-0.004468,0.415010,0.582271,0.000000,0.812995
0.158312,-0.092203,-0.207281,0.000000,-1.000000,0.000000
0.293965,-0.084135,-0.328822,0.666487,0.000000,-0.745516
0.043118,-0.092203,-0.400041,0.000000,-1.000000,0.000000
-0.273858,0.027632,-0.160888,-0.862216,0.000000,-0.506541
0.243908,0.090970,0.203450,0.767922,0.000000,0.640543
0.071821,-0.092203,-0.123549,0.000000,-1.000000,0.000000
-0.362119,0.087446,-0.290143,-0.780397,0.000000,-0.625284
0.052963,-0.026491,0.313174,0.166748,0.000000,0.986000
0.170486,-0.092203,0.273791,0.000000,-1.000000,0.000000
0.071049,-0.091010,-0.031509,-0.914139,0.000000,0.405401
0.296486,0.069830,0.113925,0.933460,0.000000,0.358681
0.317607,-0.042244,0.002942,0.999957,0.000000,0.009262
-0.459258,-0.016090,-0.196331,-0.919503,0.000000,-0.393083
0.512773,-0.021391,-0.086671,0.986014,0.000000,-0.166661
0.007899,0.084422,0.317522,0.024870,0.000000,0.999691
0.446144,-0.068102,0.048595,0.994120,0.000000,0.108282
0.298095,0.046471,0.109645,0.938526,0.000000,0.345208
0.305517,0.075499,-0.359936,0.647121,0.000000,-0.762387
0.064457,0.061373,-0.043429,-0.829326,0.000000,0.558765
0.438336,0.061688,0.254576,0.864739,0.000000,0.502222
0.121574,0.056077,-0.486821,0.242290,0.000000,-0.970204
-0.495644,0.092203,0.004619,0.000000,1.000000,0.000000
-0.054053,-0.092203,0.106141,0.000000,-1.000000,0.000000
-0.046969,-0.071209,-0.061925,0.604311,0.000000,0.796748
-0.015402,-0.092203,0.352379,0.000000,-1.000000,0.000000
0.347516,0.044947,-0.260254,0.800423,0.000000,-0.599435
-0.511549,-0.075087,-0.012414,-0.999706,0.000000,-0.024260
-0.057461,0.045822,-0.515285,-0.110826,0.000000,-0.993840
0.083457,0.092203,-0.007725,0.000000,1.000000,0.000000
-0.019744,-0.018601,-0.075173,0.254029,0.000000,0.967197
0.065019,-0.074765,0.042583,-0.836554,0.000000,-0.547884
0.292542,0.084072,0.325285,0.668694,0.000000,0.743538
-0.311115,0.028148,-0.063957,-0.979517,0.000000,-0.201362
0.342264,0.092203,-0.036082,0.000000,1.000000,0.000000
0.020711,0.036944,-0.074912,-0.266468,0.000000,0.963844
-0.065633,0.048012,-0.041630,0.844457,0.000000,0.535624
0.480713,0.076121,-0.067138,0.990388,0.000000,-0.138320
-0.094860,0.091302,-0.303124,-0.298660,0.000000,-0.954360
-0.194515,-0.038535,0.251091,-0.612414,0.000000,0.790537
0.171478,0.092203,-0.117816,0.000000,1.000000,0.000000
-0.021215,0.080014,-0.074771,0.272956,0.000000,0.962027
0.411883,-0.073650,0.221704,0.880542,0.000000,0.473968
-0.499262,-0.090093,-0.195692,-0.931035,0.000000,-0.364931
0.521575,-0.092203,0.100225,0.000000,-1.000000,0.000000
-0.060357,0.076679,-0.048968,0.776569,0.000000,0.630032
-0.238861,0.092203,-0.076872,0.000000,1.000000,0.000000
0.019943,-0.092203,-0.193991,0.000000,-1.000000,0.000000
-0.198673,0.002499,0.247814,-0.625505,0.000000,0.780220
0.236078,-0.018976,-0.212485,0.743270,0.000000,-0.668991
-0.049161,0.011224,-0.060200,0.632516,0.000000,0.774547
-0.384381,-0.054195,0.191375,-0.895186,0.000000,0.445693
-0.276715,-0.081780,-0.155922,-0.871212,0.000000,-0.490907
-0.194024,0.043706,0.251471,-0.610867,0.000000,0.791733
-0.131840,0.092203,0.227457,0.000000,1.000000,0.000000
-0.275816,-0.025920,0.157507,-0.868382,0.000000,0.495897
-0.283991,0.041314,0.142239,-0.894120,0.000000,0.447828
-0.512359,0.092203,0.112127,0.000000,1.000000,0.000000
-0.221054,0.092203,-0.349047,0.000000,1.000000,0.000000
-0.227834,0.025335,-0.473086,-0.433896,0.000000,-0.900963
0.242233,-0.032768,-0.205441,0.762650,0.000000,-0.646811
-0.058513,-0.063112,0.312184,-0.184222,0.000000,0.982885
0.110685,0.092203,-0.050020,0.000000,1.000000,0.000000
-0.523552,0.017118,-0.007547,-0.999896,0.000000,-0.014413
0.094981,-0.009867,-0.448345,0.207249,0.000000,-0.978288
0.030791,-0.089826,-0.316125,0.096944,0.000000,-0.995290
0.454779,0.021479,0.052992,0.993280,0.000000,0.115740
