x,y,z,nx,ny,nz
0.031557,0.283680,0.126235,1.000000,0.000000,0.000000
0.170468,0.031557,0.221632,0.000000,1.000000,0.000000
0.106919,-0.031557,0.021813,0.000000,-1.000000,0.000000
-0.031557,0.654826,0.074419,-1.000000,0.000000,0.000000
0.344645,-0.031557,0.262043,0.000000,-1.000000,0.000000
0.444904,0.031557,0.100337,0.000000,1.000000,0.000000
0.031557,0.192506,0.201210,1.000000,0.000000,0.000000
-0.031557,0.247807,0.357021,-1.000000,0.000000,0.000000
0.133338,0.031557,0.302405,0.000000,1.000000,0.000000
0.112052,0.031557,0.317094,0.000000,1.000000,0.000000
0.447328,0.031557,0.414903,0.000000,1.000000,0.000000
0.031557,0.527754,0.265025,1.000000,0.000000,0.000000
0.031557,0.499063,0.232519,1.000000,0.000000,0.000000
0.427223,-0.031557,0.163202,0.000000,-1.000000,0.000000
0.200999,0.031557,0.302294,0.000000,1.000000,0.000000
0.459280,0.031557,0.021983,0.000000,1.000000,0.000000
0.385041,0.031557,0.224995,0.000000,1.000000,0.000000
-0.031557,0.245451,0.156889,-1.000000,0.000000,0.000000
0.348845,-0.031557,0.219476,0.000000,-1.000000,0.000000
-0.031557,0.208173,0.435695,-1.000000,0.000000,0.000000
0.237774,0.019847,0.327499,0.802097,0.000000,0.597194
-0.031557,0.696609,0.449282,-1.000000,0.000000,0.000000
-0.031557,0.416365,0.323684,-1.000000,0.000000,0.000000
0.332189,0.031557,0.189733,0.000000,1.000000,0.000000
0.031557,0.250622,0.417792,1.000000,0.000000,0.000000
0.254729,-0.031557,0.344961,0.000000,-1.000000,0.000000
0.031557,0.120035,0.116655,1.000000,0.000000,0.000000
-0.031557,0.592166,0.455436,-1.000000,0.000000,0.000000
0.205349,0.031557,0.037110,0.000000,1.000000,0.000000
-0.031557,0.277051,0.419742,-1.000000,0.000000,0.000000
0.087912,0.031557,0.265017,0.000000,1.000000,0.000000
-0.031557,0.180182,0.448426,-1.000000,0.000000,0.000000
0.031557,0.786260,0.017369,1.000000,0.000000,0.000000
0.031557,0.768359,0.370639,1.000000,0.000000,0.000000
0.179362,0.031557,0.371845,0.000000,1.000000,0.000000
0.283978,-0.031557,0.198870,0.000000,-1.000000,0.000000
-0.031557,0.315101,0.422290,-1.000000,0.000000,0.000000
0.349690,-0.031557,0.115723,0.000000,-1.000000,0.000000
0.031557,0.284977,0.152439,1.000000,0.000000,0.000000
0.031557,0.656440,0.104059,1.000000,0.000000,0.000000
0.210551,0.017077,0.341895,0.639029,0.000000,0.769183
0.031557,0.543541,0.462495,1.000000,0.000000,0.000000
0.079031,0.031557,0.297023,0.000000,1.000000,0.000000
0.224039,-0.031557,0.006851,0.000000,-1.000000,0.000000
0.425318,-0.031557,0.111097,0.000000,-1.000000,0.000000
0.310487,-0.031557,0.379641,0.000000,-1.000000,0.000000
0.286532,0.031557,0.087907,0.000000,1.000000,0.000000
0.067098,-0.031557,0.142265,0.000000,-1.000000,0.000000
0.064370,0.031557,0.407379,0.000000,1.000000,0.000000
0.031557,0.592112,0.146862,1.000000,0.000000,0.000000
0.164977,0.031557,0.295155,0.000000,1.000000,0.000000
0.439009,0.031557,0.139459,0.000000,1.000000,0.000000
-0.031557,0.428685,0.395287,-1.000000,0.000000,0.000000
0.031557,0.221557,0.011377,1.000000,0.000000,0.000000
-0.031557,0.710737,0.031160,-1.000000,0.000000,0.000000
0.299013,0.016154,0.267921,0.872300,0.000000,-0.488971
0.031557,0.775340,0.090882,1.000000,0.000000,0.000000
0.360793,-0.031557,0.129003,0.000000,-1.000000,0.000000
0.111120,-0.031557,0.217818,0.000000,-1.000000,0.000000
0.031557,0.652462,0.393842,1.000000,0.000000,0.000000
0.031557,0.261209,0.378752,1.000000,0.000000,0.000000
0.031557,0.779468,0.390547,1.000000,0.000000,0.000000
0.031557,0.470626,0.241212,1.000000,0.000000,0.000000
0.214806,0.013516,0.118060,-0.599620,0.000000,-0.800285
0.031557,0.155877,0.236974,1.000000,0.000000,0.000000
-0.031557,0.143682,0.271375,-1.000000,0.000000,0.000000
0.148693,0.031557,0.225837,0.000000,1.000000,0.000000
0.097332,0.031557,0.382120,0.000000,1.000000,0.000000
0.243950,0.012590,0.177413,-0.599986,0.000000,0.800011
0.286961,-0.031557,0.066744,0.000000,-1.000000,0.000000
0.031557,0.241592,0.001733,1.000000,0.000000,0.000000
0.099724,-0.031557,0.304896,0.000000,-1.000000,0.000000
0.031557,0.163831,0.174046,1.000000,0.000000,0.000000
0.176257,-0.031557,0.166769,0.000000,-1.000000,0.000000
0.235814,0.031557,0.310475,0.000000,1.000000,0.000000
0.157962,0.031557,0.345175,0.000000,1.000000,0.000000
0.128264,0.031557,0.149090,0.000000,1.000000,0.000000
0.031557,0.016627,0.091244,1.000000,0.000000,0.000000
0.031557,0.714388,0.152397,1.000000,0.000000,0.000000
-0.031557,0.091090,0.016122,-1.000000,0.000000,0.000000
-0.031557,0.218027,0.107597,-1.000000,0.000000,0.000000
0.031557,0.229833,0.016051,1.000000,0.000000,0.000000
0.406945,0.031557,0.422735,0.000000,1.000000,0.000000
0.082322,0.031557,0.176738,0.000000,1.000000,0.000000
0.109402,0.022794,0.208585,-0.690094,0.000000,0.723720
0.031557,0.545674,0.226066,1.000000,0.000000,0.000000
0.031557,0.595071,0.256045,1.000000,0.000000,0.000000
0.031557,0.306965,0.037718,1.000000,0.000000,0.000000
-0.031557,0.496459,0.166792,-1.000000,0.000000,0.000000
0.231165,-0.011095,0.182831,-0.544267,0.000000,-0.838912
0.431459,0.031557,0.033970,0.000000,1.000000,0.000000
0.031557,0.261574,0.412429,1.000000,0.000000,0.000000
0.259259,0.031557,0.287306,0.000000,1.000000,0.000000
0.122043,-0.031557,0.307619,0.000000,-1.000000,0.000000
-0.031557,0.551787,0.192487,-1.000000,0.000000,0.000000
0.371689,0.031557,0.298723,0.000000,1.000000,0.000000
0.340766,0.031557,0.001411,0.000000,1.000000,0.000000
-0.031557,0.680448,0.247919,-1.000000,0.000000,0.000000
-0.031557,0.706917,0.360736,-1.000000,0.000000,0.000000
-0.031557,0.582401,0.195636,-1.000000,0.000000,0.000000
0.031557,0.575529,0.080336,1.000000,0.000000,0.000000
0.087898,-0.031557,0.129743,0.000000,-1.000000,0.000000
0.437782,0.031557,0.123761,0.000000,1.000000,0.000000
-0.031557,0.295206,0.230500,-1.000000,0.000000,0.000000
0.031557,0.734707,0.414158,1.000000,0.000000,0.000000
0.175600,0.031557,0.101557,0.000000,1.000000,0.000000
0.342640,0.031557,0.217055,0.000000,1.000000,0.000000
-0.031557,0.363764,0.457161,-1.000000,0.000000,0.000000
0.327924,0.031557,0.069675,0.000000,1.000000,0.000000
0.320936,0.000317,0.149494,-0.578657,0.000000,0.815571
0.183954,-0.022912,0.285799,-0.963973,0.000000,-0.266001
0.348185,-0.031557,0.442243,0.000000,-1.000000,0.000000
0.309087,0.010755,0.404308,-0.711805,0.000000,0.702377
0.382418,0.031557,0.452999,0.000000,1.000000,0.000000
-0.031557,0.271081,0.433045,-1.000000,0.000000,0.000000
0.131831,-0.015867,0.277364,-0.060603,0.000000,0.998162
0.031557,0.336550,0.330635,1.000000,0.000000,0.000000
-0.031557,0.525317,0.441413,-1.000000,0.000000,0.000000
0.100494,-0.031557,0.364525,0.000000,-1.000000,0.000000
0.452066,-0.031557,0.011968,0.000000,-1.000000,0.000000
0.214300,0.012455,0.339518,0.920079,0.000000,0.391733
0.031557,0.251731,0.110312,1.000000,0.000000,0.000000
0.146470,-0.031557,0.404517,0.000000,-1.000000,0.000000
0.031557,0.435764,0.376415,1.000000,0.000000,0.000000
0.413827,0.031557,0.092363,0.000000,1.000000,0.000000
0.230848,-0.031557,0.314507,0.000000,-1.000000,0.000000
0.432914,-0.031557,0.230937,0.000000,-1.000000,0.000000
0.328783,-0.031557,0.251724,0.000000,-1.000000,0.000000
0.414009,-0.031557,0.371749,0.000000,-1.000000,0.000000
0.166968,0.020403,0.263308,-0.129508,0.000000,-0.991578
0.353376,-0.031557,0.082185,0.000000,-1.000000,0.000000
0.031557,0.479266,0.378319,1.000000,0.000000,0.000000
0.076362,-0.016807,0.338085,-0.840252,0.000000,0.542196
-0.031557,0.070963,0.246170,-1.000000,0.000000,0.000000
-0.031557,0.148079,0.329692,-1.000000,0.000000,0.000000
0.420202,0.031557,0.323775,0.000000,1.000000,0.000000
0.390972,-0.031557,0.204954,0.000000,-1.000000,0.000000
0.291839,0.009695,0.277738,0.106667,0.000000,0.994295
0.026496,0.031557,0.394425,0.000000,1.000000,0.000000
-0.031557,0.541288,0.335934,-1.000000,0.000000,0.000000
0.031557,0.558109,0.272559,1.000000,0.000000,0.000000
0.000581,-0.031557,0.350771,0.000000,-1.000000,0.000000
0.109848,-0.031557,0.048004,0.000000,-1.000000,0.000000
0.347780,0.031557,0.125836,0.000000,1.000000,0.000000
0.111235,0.031557,0.259760,0.000000,1.000000,0.000000
0.418801,-0.031557,0.312468,0.000000,-1.000000,0.000000
-0.031557,0.111239,0.209921,-1.000000,0.000000,0.000000
0.080550,-0.031557,0.261182,0.000000,-1.000000,0.000000
0.031557,0.569326,0.099667,1.000000,0.000000,0.000000
0.207001,-0.031557,0.216381,0.000000,-1.000000,0.000000
-0.031557,0.651346,0.257133,-1.000000,0.000000,0.000000
0.337509,0.031557,0.304463,0.000000,1.000000,0.000000
0.222584,0.031557,0.302714,0.000000,1.000000,0.000000
0.206503,0.018797,0.161551,-0.099199,0.000000,0.995068
0.301373,0.013042,0.319754,0.345433,0.000000,0.938444
0.332849,0.031557,0.176165,0.000000,1.000000,0.000000
0.031557,0.126459,0.353491,1.000000,0.000000,0.000000
0.031557,0.257941,0.308688,1.000000,0.000000,0.000000
-0.031557,0.366766,0.340901,-1.000000,0.000000,0.000000
0.043056,-0.031557,0.183406,0.000000,-1.000000,0.000000
0.031557,0.197457,0.385430,1.000000,0.000000,0.000000
0.031557,0.353515,0.132352,1.000000,0.000000,0.000000
-0.031557,0.319907,0.116113,-1.000000,0.000000,0.000000
-0.031557,0.604898,0.267540,-1.000000,0.000000,0.000000
-0.031557,0.448573,0.237379,-1.000000,0.000000,0.000000
0.074788,-0.031557,0.170011,0.000000,-1.000000,0.000000
0.000331,0.031557,0.264562,0.000000,1.000000,0.000000
0.031557,0.718462,0.407907,1.000000,0.000000,0.000000
0.363654,-0.031557,0.326798,0.000000,-1.000000,0.000000
0.354548,0.031557,0.130264,0.000000,1.000000,0.000000
0.070455,-0.031557,0.145911,0.000000,-1.000000,0.000000
0.404864,-0.031557,0.372927,0.000000,-1.000000,0.000000
0.191394,-0.018018,0.112846,-0.830275,0.000000,-0.557354
0.196734,-0.024222,0.310816,0.528335,0.000000,0.849036
0.070539,-0.031557,0.078812,0.000000,-1.000000,0.000000
0.031557,0.294517,0.415533,1.000000,0.000000,0.000000
0.025879,0.031557,0.420141,0.000000,1.000000,0.000000
0.166443,-0.018598,0.191867,0.821530,0.000000,-0.570166
0.031557,0.577724,0.238439,1.000000,0.000000,0.000000
0.127011,0.031557,0.285055,0.000000,1.000000,0.000000
0.031557,0.527394,0.358566,1.000000,0.000000,0.000000
-0.031557,0.096142,0.152628,-1.000000,0.000000,0.000000
0.031557,0.173629,0.410640,1.000000,0.000000,0.000000
0.123704,0.031557,0.314531,0.000000,1.000000,0.000000
0.148419,-0.031557,0.346861,0.000000,-1.000000,0.000000
0.366079,0.031557,0.374843,0.000000,1.000000,0.000000
0.454399,-0.031557,0.020479,0.000000,-1.000000,0.000000
0.214342,-0.031557,0.062620,0.000000,-1.000000,0.000000
0.259759,-0.031557,0.291143,0.000000,-1.000000,0.000000
0.031557,0.598074,0.365838,1.000000,0.000000,0.000000
-0.031557,0.383761,0.096262,-1.000000,0.000000,0.000000
0.032555,-0.031557,0.067681,0.000000,-1.000000,0.000000
0.179243,-0.024263,0.232027,0.894220,0.000000,-0.447628
0.031557,0.731697,0.080639,1.000000,0.000000,0.000000
0.031557,0.407706,0.309950,1.000000,0.000000,0.000000
0.115326,0.031557,0.318984,0.000000,1.000000,0.000000
0.031557,0.675613,0.216676,1.000000,0.000000,0.000000
0.246411,-0.031557,0.440982,0.000000,-1.000000,0.000000
0.113197,-0.031557,0.355147,0.000000,-1.000000,0.000000
0.104046,0.001925,0.279556,-0.727289,0.000000,-0.686331
0.031557,0.624924,0.461733,1.000000,0.000000,0.000000
-0.031557,0.765098,0.095292,-1.000000,0.000000,0.000000
0.031557,0.687085,0.117287,1.000000,0.000000,0.000000
0.231785,0.026776,0.156357,0.636984,0.000000,-0.770877
0.012389,-0.031557,0.276329,0.000000,-1.000000,0.000000
0.101959,-0.031557,0.436833,0.000000,-1.000000,0.000000
0.184421,0.031557,0.110045,0.000000,1.000000,0.000000
0.084616,-0.031557,0.359914,0.000000,-1.000000,0.000000
0.297637,-0.031557,0.358681,0.000000,-1.000000,0.000000
0.098721,0.031557,0.152609,0.000000,1.000000,0.000000
-0.031557,0.380078,0.444780,-1.000000,0.000000,0.000000
0.031557,0.190546,0.400244,1.000000,0.000000,0.000000
0.354541,0.031557,0.364345,0.000000,1.000000,0.000000
0.031557,0.522937,0.218189,1.000000,0.000000,0.000000
-0.031557,0.442161,0.139937,-1.000000,0.000000,0.000000
0.309180,0.000296,0.160178,-0.995318,0.000000,-0.096656
-0.031557,0.194407,0.406841,-1.000000,0.000000,0.000000
0.150627,0.020861,0.219011,-0.638324,0.000000,0.769768
0.372419,0.031557,0.391955,0.000000,1.000000,0.000000
0.031557,0.294761,0.183506,1.000000,0.000000,0.000000
0.213458,0.031557,0.189081,0.000000,1.000000,0.000000
-0.031557,0.119135,0.413219,-1.000000,0.000000,0.000000
-0.031557,0.706835,0.177245,-1.000000,0.000000,0.000000
0.168844,-0.019728,0.124605,-0.940877,0.000000,-0.338749
-0.031557,0.014721,0.454531,-1.000000,0.000000,0.000000
0.031557,0.372260,0.284398,1.000000,0.000000,0.000000
0.065994,-0.031557,0.176509,0.000000,-1.000000,0.000000
0.380361,0.031557,0.261038,0.000000,1.000000,0.000000
-0.031557,0.150667,0.411095,-1.000000,0.000000,0.000000
0.031557,0.582674,0.364198,1.000000,0.000000,0.000000
-0.031557,0.420855,0.307278,-1.000000,0.000000,0.000000
0.207767,0.031557,0.284367,0.000000,1.000000,0.000000
0.450486,-0.031557,0.371699,0.000000,-1.000000,0.000000
0.427058,-0.031557,0.267359,0.000000,-1.000000,0.000000
0.448123,-0.031557,0.424188,0.000000,-1.000000,0.000000
-0.031557,0.682668,0.409282,-1.000000,0.000000,0.000000
0.381676,0.031557,0.014767,0.000000,1.000000,0.000000
0.031557,0.309426,0.263577,1.000000,0.000000,0.000000
-0.031557,0.777989,0.378268,-1.000000,0.000000,0.000000
0.336319,-0.031557,0.430530,0.000000,-1.000000,0.000000
0.103501,0.031557,0.395110,0.000000,1.000000,0.000000
0.031557,0.385773,0.450120,1.000000,0.000000,0.000000
0.454821,-0.031557,0.172535,0.000000,-1.000000,0.000000
0.241311,-0.027382,0.331222,0.581169,0.000000,-0.813783
0.393490,-0.031557,0.232674,0.000000,-1.000000,0.000000
0.086626,-0.031557,0.176379,0.000000,-1.000000,0.000000
0.036678,0.031557,0.095640,0.000000,1.000000,0.000000
0.217205,-0.001684,0.302614,-0.264697,0.000000,0.964332
0.379758,-0.001887,0.308228,0.944649,0.000000,-0.328082
0.329714,-0.016631,0.227001,0.994498,0.000000,0.104759
0.345701,0.031557,0.238970,0.000000,1.000000,0.000000
-0.031557,0.085459,0.194978,-1.000000,0.000000,0.000000
0.406925,-0.031557,0.070478,0.000000,-1.000000,0.000000
0.226357,0.021528,0.292071,-0.935697,0.000000,0.352806
0.031557,0.094735,0.014519,1.000000,0.000000,0.000000
0.457596,-0.031557,0.109487,0.000000,-1.000000,0.000000
0.031557,0.118588,0.224221,1.000000,0.000000,0.000000
-0.031557,0.300024,0.450850,-1.000000,0.000000,0.000000
0.157987,0.031557,0.155484,0.000000,1.000000,0.000000
-0.031557,0.260209,0.016633,-1.000000,0.000000,0.000000
0.386880,0.031557,0.425187,0.000000,1.000000,0.000000
0.031557,0.338989,0.461649,1.000000,0.000000,0.000000
0.463865,0.031557,0.066589,0.000000,1.000000,0.000000
0.010409,-0.031557,0.156930,0.000000,-1.000000,0.000000
0.291109,-0.031557,0.447772,0.000000,-1.000000,0.000000
0.287221,-0.031557,0.371311,0.000000,-1.000000,0.000000
0.031378,0.031557,0.370932,0.000000,1.000000,0.000000
0.159142,0.031557,0.332489,0.000000,1.000000,0.000000
0.388308,-0.031557,0.025207,0.000000,-1.000000,0.000000
-0.031557,0.489998,0.094133,-1.000000,0.000000,0.000000
0.188063,-0.031557,0.123277,0.000000,-1.000000,0.000000
0.150923,-0.031557,0.017831,0.000000,-1.000000,0.000000
0.019689,0.031557,0.165697,0.000000,1.000000,0.000000
-0.031557,0.436884,0.228464,-1.000000,0.000000,0.000000
0.009514,0.031557,0.409141,0.000000,1.000000,0.000000
0.323248,0.025596,0.395096,0.620007,0.000000,0.784597
0.152194,0.031557,0.373413,0.000000,1.000000,0.000000
-0.031557,0.112798,0.300471,-1.000000,0.000000,0.000000
0.076181,0.031557,0.327834,0.000000,1.000000,0.000000
0.354363,0.031557,0.411941,0.000000,1.000000,0.000000
-0.031557,0.000848,0.058411,-1.000000,0.000000,0.000000
0.129332,0.026845,0.194531,-0.857363,0.000000,-0.514712
0.031557,0.350810,0.321023,1.000000,0.000000,0.000000
-0.031557,0.248404,0.089871,-1.000000,0.000000,0.000000
0.031557,0.321168,0.236345,1.000000,0.000000,0.000000
-0.031557,0.466893,0.045524,-1.000000,0.000000,0.000000
0.031557,0.027098,0.453224,1.000000,0.000000,0.000000
0.210295,0.006649,0.206317,-0.831209,0.000000,0.555961
0.190375,0.031557,0.350578,0.000000,1.000000,0.000000
0.031557,0.463182,0.317250,1.000000,0.000000,0.000000
0.031557,0.512288,0.007912,1.000000,0.000000,0.000000
0.047249,-0.031557,0.441139,0.000000,-1.000000,0.000000
-0.031557,0.286479,0.123258,-1.000000,0.000000,0.000000
0.180142,0.031557,0.314976,0.000000,1.000000,0.000000
0.345726,-0.031557,0.323856,0.000000,-1.000000,0.000000
0.031557,0.345999,0.169505,1.000000,0.000000,0.000000
0.269152,-0.031557,0.452438,0.000000,-1.000000,0.000000
0.031557,0.038933,0.175009,1.000000,0.000000,0.000000
-0.031557,0.067161,0.026601,-1.000000,0.000000,0.000000
0.112816,0.031557,0.005599,0.000000,1.000000,0.000000
-0.031557,0.704697,0.464187,-1.000000,0.000000,0.000000
0.181454,-0.009443,0.220497,0.703767,0.000000,0.710430
-0.031557,0.541094,0.241384,-1.000000,0.000000,0.000000
0.260932,-0.031557,0.314003,0.000000,-1.000000,0.000000
0.432761,-0.031557,0.407443,0.000000,-1.000000,0.000000
0.237943,0.031557,0.219673,0.000000,1.000000,0.000000
0.031557,0.168436,0.448061,1.000000,0.000000,0.000000
-0.031557,0.060518,0.212148,-1.000000,0.000000,0.000000
0.087278,-0.031557,0.001238,0.000000,-1.000000,0.000000
0.378205,-0.031557,0.267821,0.000000,-1.000000,0.000000
0.031557,0.212810,0.081785,1.000000,0.000000,0.000000
0.287686,0.031557,0.275279,0.000000,1.000000,0.000000
-0.031557,0.601345,0.199816,-1.000000,0.000000,0.000000
0.031557,0.163111,0.208819,1.000000,0.000000,0.000000
0.031557,0.219844,0.297847,1.000000,0.000000,0.000000
0.300037,-0.031557,0.214149,0.000000,-1.000000,0.000000
0.155826,-0.031557,0.190563,0.000000,-1.000000,0.000000
0.031557,0.558332,0.164418,1.000000,0.000000,0.000000
0.031557,0.093217,0.149176,1.000000,0.000000,0.000000
0.366515,0.031557,0.316380,0.000000,1.000000,0.000000
0.181246,-0.031557,0.446437,0.000000,-1.000000,0.000000
0.218788,-0.031557,0.114957,0.000000,-1.000000,0.000000
-0.031557,0.780749,0.441419,-1.000000,0.000000,0.000000
0.378614,-0.031557,0.261882,0.000000,-1.000000,0.000000
0.031557,0.023128,0.100248,1.000000,0.000000,0.000000
0.031557,0.094641,0.224717,1.000000,0.000000,0.000000
-0.031557,0.405580,0.296939,-1.000000,0.000000,0.000000
0.339459,0.015264,0.243266,-0.523951,0.000000,0.851749
0.046103,0.031557,0.374616,0.000000,1.000000,0.000000
0.031557,0.167786,0.149119,1.000000,0.000000,0.000000
0.031557,0.709370,0.019862,1.000000,0.000000,0.000000
-0.031557,0.693214,0.456244,-1.000000,0.000000,0.000000
0.357979,0.031557,0.446163,0.000000,1.000000,0.000000
0.065916,-0.031557,0.338655,0.000000,-1.000000,0.000000
0.240026,0.005599,0.068425,0.669462,0.000000,-0.742847
-0.031557,0.015550,0.418163,-1.000000,0.000000,0.000000
0.112703,0.031557,0.275566,0.000000,1.000000,0.000000
0.047189,0.031557,0.080224,0.000000,1.000000,0.000000
0.128673,0.007099,0.392253,-0.549002,0.000000,0.835821
0.390429,0.031557,0.060306,0.000000,1.000000,0.000000
0.162596,0.031557,0.362524,0.000000,1.000000,0.000000
0.031557,0.355361,0.246215,1.000000,0.000000,0.000000
0.325335,-0.031557,0.273518,0.000000,-1.000000,0.000000
0.309983,0.031557,0.323969,0.000000,1.000000,0.000000
0.400794,-0.031557,0.243380,0.000000,-1.000000,0.000000
-0.031557,0.648993,0.039121,-1.000000,0.000000,0.000000
0.000530,-0.031557,0.174415,0.000000,-1.000000,0.000000
-0.031557,0.723769,0.012907,-1.000000,0.000000,0.000000
0.116948,0.031557,0.336825,0.000000,1.000000,0.000000
-0.031557,0.715004,0.173288,-1.000000,0.000000,0.000000
0.274809,-0.031557,0.235180,0.000000,-1.000000,0.000000
-0.031557,0.105062,0.181014,-1.000000,0.000000,0.000000
0.105867,0.031557,0.048235,0.000000,1.000000,0.000000
0.311816,0.022009,0.374743,-0.928311,0.000000,0.371803
-0.031557,0.610408,0.245249,-1.000000,0.000000,0.000000
0.031557,0.691572,0.263436,1.000000,0.000000,0.000000
0.031557,0.720504,0.432761,1.000000,0.000000,0.000000
0.035786,0.031557,0.417387,0.000000,1.000000,0.000000
-0.031557,0.124873,0.059520,-1.000000,0.000000,0.000000
0.327634,-0.025121,0.101458,0.983493,0.000000,-0.180947
0.285892,0.031557,0.292291,0.000000,1.000000,0.000000
0.273834,-0.031557,0.171047,0.000000,-1.000000,0.000000
0.031557,0.334098,0.249595,1.000000,0.000000,0.000000
0.031557,0.206056,0.191207,1.000000,0.000000,0.000000
0.259588,0.005402,0.380434,-0.904114,0.000000,0.427291
-0.031557,0.639575,0.441129,-1.000000,0.000000,0.000000
-0.031557,0.205159,0.048452,-1.000000,0.000000,0.000000
-0.031557,0.227565,0.207812,-1.000000,0.000000,0.000000
0.457166,0.031557,0.096755,0.000000,1.000000,0.000000
0.130327,-0.021638,0.133110,-0.964701,0.000000,0.263348
0.031557,0.408512,0.332894,1.000000,0.000000,0.000000
0.164323,-0.031557,0.213250,0.000000,-1.000000,0.000000
0.240089,-0.031557,0.283347,0.000000,-1.000000,0.000000
-0.031557,0.665624,0.172208,-1.000000,0.000000,0.000000
0.105028,-0.031557,0.187603,0.000000,-1.000000,0.000000
0.313732,0.031557,0.036927,0.000000,1.000000,0.000000
0.214180,0.031557,0.399829,0.000000,1.000000,0.000000
0.010902,0.031557,0.307034,0.000000,1.000000,0.000000
0.376086,-0.031557,0.290143,0.000000,-1.000000,0.000000
0.176846,-0.031557,0.410036,0.000000,-1.000000,0.000000
-0.031557,0.202474,0.394051,-1.000000,0.000000,0.000000
-0.031557,0.489281,0.353977,-1.000000,0.000000,0.000000
0.299538,-0.019030,0.224977,0.470705,0.000000,0.882290
0.031557,0.449328,0.256994,1.000000,0.000000,0.000000
-0.031557,0.636975,0.451847,-1.000000,0.000000,0.000000
0.265307,0.031557,0.373738,0.000000,1.000000,0.000000
0.031557,0.111694,0.263804,1.000000,0.000000,0.000000
0.256191,-0.031557,0.374045,0.000000,-1.000000,0.000000
-0.031557,0.046765,0.434885,-1.000000,0.000000,0.000000
-0.031557,0.073391,0.331101,-1.000000,0.000000,0.000000
0.031557,0.446893,0.251000,1.000000,0.000000,0.000000
0.349479,0.014467,0.339235,0.568931,0.000000,0.822385
0.178395,-0.001117,0.259294,-0.530747,0.000000,-0.847531
0.227999,-0.031557,0.069137,0.000000,-1.000000,0.000000
0.335019,0.031557,0.077802,0.000000,1.000000,0.000000
0.460210,0.031557,0.366057,0.000000,1.000000,0.000000
0.017812,-0.031557,0.306806,0.000000,-1.000000,0.000000
0.145351,0.031557,0.078429,0.000000,1.000000,0.000000
0.121572,-0.031557,0.461530,0.000000,-1.000000,0.000000
0.103852,0.031557,0.142477,0.000000,1.000000,0.000000
0.018585,0.031557,0.099312,0.000000,1.000000,0.000000
0.423318,0.031557,0.016854,0.000000,1.000000,0.000000
0.031557,0.510689,0.418341,1.000000,0.000000,0.000000
0.213800,-0.009552,0.124788,0.845499,0.000000,-0.533977
0.122881,0.030753,0.296121,-0.266972,0.000000,-0.963704
-0.031557,0.445290,0.073940,-1.000000,0.000000,0.000000
0.137364,-0.031557,0.327617,0.000000,-1.000000,0.000000
0.091807,-0.031557,0.162921,0.000000,-1.000000,0.000000
0.088701,-0.031557,0.349250,0.000000,-1.000000,0.000000
0.031557,0.537790,0.258611,1.000000,0.000000,0.000000
0.031557,0.048550,0.416565,1.000000,0.000000,0.000000
0.276114,0.031557,0.018382,0.000000,1.000000,0.000000
0.031557,0.287643,0.131362,1.000000,0.000000,0.000000
0.391806,-0.031557,0.191460,0.000000,-1.000000,0.000000
0.265307,-0.031557,0.141395,0.000000,-1.000000,0.000000
0.031557,0.648765,0.088716,1.000000,0.000000,0.000000
0.087207,0.031557,0.230864,0.000000,1.000000,0.000000
0.010479,0.031557,0.154829,0.000000,1.000000,0.000000
0.189782,0.031557,0.040037,0.000000,1.000000,0.000000
0.448962,-0.031557,0.131878,0.000000,-1.000000,0.000000
0.305475,-0.031557,0.244680,0.000000,-1.000000,0.000000
-0.031557,0.739513,0.405292,-1.000000,0.000000,0.000000
-0.031557,0.543141,0.250283,-1.000000,0.000000,0.000000
-0.031557,0.483017,0.194625,-1.000000,0.000000,0.000000
0.250912,-0.000508,0.301787,0.973326,0.000000,0.229427
0.031557,0.121494,0.372054,1.000000,0.000000,0.000000
0.348704,-0.001232,0.187631,0.670184,0.000000,0.742195
-0.031557,0.208979,0.038337,-1.000000,0.000000,0.000000
0.394938,0.031557,0.130408,0.000000,1.000000,0.000000
0.058924,0.031557,0.266142,0.000000,1.000000,0.000000
0.322570,0.031557,0.427563,0.000000,1.000000,0.000000
-0.031557,0.732779,0.314986,-1.000000,0.000000,0.000000
0.324374,-0.031557,0.145721,0.000000,-1.000000,0.000000
0.031557,0.464872,0.421230,1.000000,0.000000,0.000000
0.031557,0.259728,0.407560,1.000000,0.000000,0.000000
0.031557,0.668677,0.345420,1.000000,0.000000,0.000000
-0.031557,0.387384,0.245368,-1.000000,0.000000,0.000000
0.048025,0.009484,0.350529,-0.999043,0.000000,-0.043741
0.142949,0.031557,0.421065,0.000000,1.000000,0.000000
0.033352,-0.031557,0.307901,0.000000,-1.000000,0.000000
0.031557,0.632855,0.166558,1.000000,0.000000,0.000000
0.077160,0.025262,0.143329,-0.891186,0.000000,-0.453638
0.031557,0.746245,0.085718,1.000000,0.000000,0.000000
0.405766,0.031557,0.400234,0.000000,1.000000,0.000000
0.060838,-0.031557,0.461923,0.000000,-1.000000,0.000000
0.031557,0.154470,0.406797,1.000000,0.000000,0.000000
0.172848,0.018584,0.142202,-0.798523,0.000000,0.601964
0.177417,0.031557,0.177260,0.000000,1.000000,0.000000
-0.031557,0.503892,0.294401,-1.000000,0.000000,0.000000
0.230413,0.031557,0.344419,0.000000,1.000000,0.000000
0.356529,-0.031557,0.395237,0.000000,-1.000000,0.000000
0.448472,0.031557,0.049932,0.000000,1.000000,0.000000
-0.031557,0.229758,0.320702,-1.000000,0.000000,0.000000
0.031557,0.478741,0.303289,1.000000,0.000000,0.000000
-0.031557,0.366458,0.294516,-1.000000,0.000000,0.000000
0.255549,0.000200,0.309843,0.578287,0.000000,-0.815834
0.177218,-0.031557,0.246370,0.000000,-1.000000,0.000000
0.031557,0.717891,0.372177,1.000000,0.000000,0.000000
0.031557,0.462277,0.214332,1.000000,0.000000,0.000000
-0.031557,0.617126,0.416320,-1.000000,0.000000,0.000000
0.231024,0.006583,0.321916,-0.595717,0.000000,-0.803194
0.190128,0.031557,0.253814,0.000000,1.000000,0.000000
0.305032,-0.013616,0.341102,0.980359,0.000000,-0.197220
0.031557,0.539543,0.147936,1.000000,0.000000,0.000000
0.024631,0.031557,0.172974,0.000000,1.000000,0.000000
-0.031557,0.788112,0.137426,-1.000000,0.000000,0.000000
0.031557,0.578724,0.226306,1.000000,0.000000,0.000000
-0.031557,0.798735,0.321096,-1.000000,0.000000,0.000000
0.007231,-0.031557,0.348127,0.000000,-1.000000,0.000000
-0.031557,0.291493,0.369589,-1.000000,0.000000,0.000000
0.148405,-0.031557,0.361072,0.000000,-1.000000,0.000000
0.031557,0.618616,0.311810,1.000000,0.000000,0.000000
-0.031557,0.275618,0.390956,-1.000000,0.000000,0.000000
0.031557,0.524198,0.299067,1.000000,0.000000,0.000000
0.031557,0.656590,0.082602,1.000000,0.000000,0.000000
0.031557,0.110431,0.404955,1.000000,0.000000,0.000000
0.012509,-0.031557,0.462438,0.000000,-1.000000,0.000000
-0.031557,0.668749,0.259669,-1.000000,0.000000,0.000000
0.180430,-0.031557,0.392691,0.000000,-1.000000,0.000000
-0.031557,0.458689,0.318762,-1.000000,0.000000,0.000000
0.029145,-0.031557,0.001998,0.000000,-1.000000,0.000000
-0.031557,0.602599,0.304959,-1.000000,0.000000,0.000000
0.204514,-0.008435,0.377440,0.774102,0.000000,0.633061
0.031557,0.677624,0.329345,1.000000,0.000000,0.000000
0.366085,0.031557,0.088331,0.000000,1.000000,0.000000
0.360863,0.006465,0.201530,0.997646,0.000000,0.068573
0.438897,0.031557,0.222966,0.000000,1.000000,0.000000
-0.031557,0.766163,0.271872,-1.000000,0.000000,0.000000
-0.031557,0.415867,0.058814,-1.000000,0.000000,0.000000
0.084982,-0.031557,0.194097,0.000000,-1.000000,0.000000
0.017443,0.031557,0.053956,0.000000,1.000000,0.000000
0.035361,0.031557,0.084056,0.000000,1.000000,0.000000
-0.031557,0.248360,0.125577,-1.000000,0.000000,0.000000
-0.031557,0.752441,0.222836,-1.000000,0.000000,0.000000
0.311143,0.031557,0.384759,0.000000,1.000000,0.000000
0.406304,-0.031557,0.308878,0.000000,-1.000000,0.000000
0.031557,0.387522,0.102208,1.000000,0.000000,0.000000
0.021369,0.031557,0.446457,0.000000,1.000000,0.000000
0.326412,-0.001957,0.281865,-0.100654,0.000000,-0.994922
0.082189,-0.031557,0.402366,0.000000,-1.000000,0.000000
0.304851,-0.031557,0.048819,0.000000,-1.000000,0.000000
0.180987,-0.031557,0.279693,0.000000,-1.000000,0.000000
0.228441,-0.020054,0.156128,-0.930380,0.000000,-0.366595
0.282599,0.031557,0.345863,0.000000,1.000000,0.000000
0.031557,0.572396,0.040480,1.000000,0.000000,0.000000
0.031557,0.047447,0.165738,1.000000,0.000000,0.000000
0.237944,0.009328,0.348896,-0.389212,0.000000,0.921148
0.212268,-0.031557,0.096168,0.000000,-1.000000,0.000000
0.031557,0.163434,0.438662,1.000000,0.000000,0.000000
0.290887,-0.006180,0.410332,-0.331295,0.000000,0.943527
0.074831,0.031557,0.334648,0.000000,1.000000,0.000000
0.237476,0.031557,0.239709,0.000000,1.000000,0.000000
0.327044,-0.031557,0.067514,0.000000,-1.000000,0.000000
0.269174,-0.031557,0.248094,0.000000,-1.000000,0.000000
-0.031557,0.357749,0.453874,-1.000000,0.000000,0.000000
-0.031557,0.488887,0.279361,-1.000000,0.000000,0.000000
0.330767,0.031557,0.026366,0.000000,1.000000,0.000000
0.061455,-0.010244,0.363171,-0.967728,0.000000,0.251998
0.309161,0.031557,0.345410,0.000000,1.000000,0.000000
0.007398,0.031557,0.436350,0.000000,1.000000,0.000000
0.430062,0.031557,0.311405,0.000000,1.000000,0.000000
0.258606,-0.005169,0.315538,-0.898838,0.000000,-0.438281
-0.031557,0.169776,0.171977,-1.000000,0.000000,0.000000
0.031557,0.320905,0.225711,1.000000,0.000000,0.000000
-0.031557,0.376038,0.445727,-1.000000,0.000000,0.000000
-0.031557,0.053802,0.013536,-1.000000,0.000000,0.000000
0.371091,-0.031557,0.303348,0.000000,-1.000000,0.000000
0.316493,-0.005105,0.355954,0.815554,0.000000,0.578681
0.031557,0.511199,0.237813,1.000000,0.000000,0.000000
-0.031557,0.503562,0.304247,-1.000000,0.000000,0.000000
0.313742,-0.010865,0.264807,0.869375,0.000000,0.494154
0.211727,0.026584,0.290088,0.268812,0.000000,-0.963193
0.031557,0.285761,0.084524,1.000000,0.000000,0.000000
0.031557,0.372166,0.024955,1.000000,0.000000,0.000000
0.249036,0.006762,0.363896,0.830036,0.000000,0.557710
-0.031557,0.329949,0.424998,-1.000000,0.000000,0.000000
-0.031557,0.629473,0.061510,-1.000000,0.000000,0.000000
0.130262,0.031557,0.328993,0.000000,1.000000,0.000000
0.209362,0.030760,0.265513,-0.491776,0.000000,0.870722
0.031557,0.320546,0.390134,1.000000,0.000000,0.000000
0.234176,-0.031557,0.045460,0.000000,-1.000000,0.000000
-0.031557,0.229086,0.072705,-1.000000,0.000000,0.000000
0.338255,-0.031557,0.082418,0.000000,-1.000000,0.000000
0.031557,0.212591,0.059353,1.000000,0.000000,0.000000
0.074909,-0.031557,0.201896,0.000000,-1.000000,0.000000
0.031557,0.184026,0.216145,1.000000,0.000000,0.000000
-0.031557,0.340743,0.442152,-1.000000,0.000000,0.000000
-0.031557,0.655760,0.090244,-1.000000,0.000000,0.000000
0.031031,-0.031557,0.185383,0.000000,-1.000000,0.000000
0.143354,-0.031557,0.169329,0.000000,-1.000000,0.000000
0.302331,-0.028271,0.290742,-0.756967,0.000000,0.653453
0.029738,0.031557,0.443230,0.000000,1.000000,0.000000
0.031557,0.140148,0.459266,1.000000,0.000000,0.000000
0.031557,0.630260,0.281732,1.000000,0.000000,0.000000
0.160516,0.029451,0.360042,-0.985596,0.000000,0.169114
0.031557,0.129517,0.161441,1.000000,0.000000,0.000000
0.387867,-0.031557,0.161955,0.000000,-1.000000,0.000000
0.193775,0.031557,0.439305,0.000000,1.000000,0.000000
0.167593,-0.023829,0.311737,0.243133,0.000000,-0.969993
0.369899,-0.031557,0.158883,0.000000,-1.000000,0.000000
0.031557,0.702559,0.253550,1.000000,0.000000,0.000000
-0.031557,0.397575,0.386215,-1.000000,0.000000,0.000000
0.250686,0.031557,0.363781,0.000000,1.000000,0.000000
0.031557,0.710049,0.265863,1.000000,0.000000,0.000000
0.047843,-0.031557,0.206542,0.000000,-1.000000,0.000000
0.031557,0.163877,0.386257,1.000000,0.000000,0.000000
0.388142,0.031557,0.375569,0.000000,1.000000,0.000000
0.351814,-0.031557,0.038497,0.000000,-1.000000,0.000000
0.031557,0.063507,0.148959,1.000000,0.000000,0.000000
0.031557,0.302755,0.386100,1.000000,0.000000,0.000000
0.306579,-0.031557,0.242683,0.000000,-1.000000,0.000000
0.031557,0.768026,0.253710,1.000000,0.000000,0.000000
0.171895,0.031557,0.365121,0.000000,1.000000,0.000000
0.031557,0.464603,0.168641,1.000000,0.000000,0.000000
0.084969,-0.031557,0.092579,0.000000,-1.000000,0.000000
0.031557,0.219539,0.137979,1.000000,0.000000,0.000000
-0.031557,0.175855,0.292875,-1.000000,0.000000,0.000000
-0.031557,0.744299,0.411357,-1.000000,0.000000,0.000000
0.291555,-0.031232,0.205045,0.867862,0.000000,-0.496806
-0.031557,0.679350,0.094429,-1.000000,0.000000,0.000000
0.177582,0.028284,0.200970,-0.545985,0.000000,0.837795
-0.031557,0.706705,0.351306,-1.000000,0.000000,0.000000
0.363563,-0.031557,0.269045,0.000000,-1.000000,0.000000
0.011553,0.031557,0.028478,0.000000,1.000000,0.000000
0.031557,0.426273,0.202947,1.000000,0.000000,0.000000
0.381545,-0.031557,0.289046,0.000000,-1.000000,0.000000
0.240856,0.031557,0.162081,0.000000,1.000000,0.000000
0.031557,0.368491,0.132188,1.000000,0.000000,0.000000
0.297340,-0.031557,0.295970,0.000000,-1.000000,0.000000
-0.031557,0.761263,0.165199,-1.000000,0.000000,0.000000
0.203458,0.031557,0.060591,0.000000,1.000000,0.000000
0.031557,0.755595,0.144553,1.000000,0.000000,0.000000
0.210149,-0.031557,0.072075,0.000000,-1.000000,0.000000
0.360750,0.031557,0.278038,0.000000,1.000000,0.000000
0.179455,0.031557,0.186034,0.000000,1.000000,0.000000
-0.031557,0.079553,0.333195,-1.000000,0.000000,0.000000
0.158241,-0.031557,0.164622,0.000000,-1.000000,0.000000
0.109742,0.031557,0.138589,0.000000,1.000000,0.000000
0.173041,0.031557,0.239916,0.000000,1.000000,0.000000
-0.031557,0.589256,0.436294,-1.000000,0.000000,0.000000
0.153909,0.023881,0.130949,-0.799421,0.000000,0.600771
-0.031557,0.418403,0.147993,-1.000000,0.000000,0.000000
0.002435,-0.031557,0.129979,0.000000,-1.000000,0.000000
0.106277,0.031557,0.413823,0.000000,1.000000,0.000000
0.045673,0.031557,0.192661,0.000000,1.000000,0.000000
-0.031557,0.454656,0.416971,-1.000000,0.000000,0.000000
0.267532,-0.012613,0.326773,-0.751976,0.000000,0.659190
0.143557,-0.031557,0.232241,0.000000,-1.000000,0.000000
0.365086,0.031557,0.164601,0.000000,1.000000,0.000000
0.228483,0.010519,0.264795,-0.919544,0.000000,-0.392987
0.260332,-0.014514,0.303068,0.252348,0.000000,0.967637
-0.031557,0.742498,0.100567,-1.000000,0.000000,0.000000
0.031557,0.613057,0.031483,1.000000,0.000000,0.000000
0.092275,-0.031557,0.401444,0.000000,-1.000000,0.000000
0.031557,0.197566,0.227584,1.000000,0.000000,0.000000
0.031557,0.147915,0.005509,1.000000,0.000000,0.000000
0.040127,0.031557,0.127021,0.000000,1.000000,0.000000
0.136927,-0.031557,0.398563,0.000000,-1.000000,0.000000
0.073107,0.031557,0.280013,0.000000,1.000000,0.000000
0.208711,-0.031557,0.111566,0.000000,-1.000000,0.000000
0.030928,0.031557,0.463805,0.000000,1.000000,0.000000
0.459456,0.031557,0.034193,0.000000,1.000000,0.000000
0.309025,-0.031557,0.361822,0.000000,-1.000000,0.000000
0.219824,0.015417,0.236588,0.258533,0.000000,-0.966002
0.363623,0.031557,0.012501,0.000000,1.000000,0.000000
-0.031557,0.660346,0.116507,-1.000000,0.000000,0.000000
0.218962,-0.031557,0.227179,0.000000,-1.000000,0.000000
0.095192,0.031557,0.256959,0.000000,1.000000,0.000000
-0.031557,0.289328,0.169567,-1.000000,0.000000,0.000000
-0.031557,0.390980,0.162283,-1.000000,0.000000,0.000000
0.031557,0.689747,0.297549,1.000000,0.000000,0.000000
-0.031557,0.213970,0.035850,-1.000000,0.000000,0.000000
0.211134,0.031557,0.338132,0.000000,1.000000,0.000000
0.300546,0.031557,0.358579,0.000000,1.000000,0.000000
-0.031557,0.542754,0.206687,-1.000000,0.000000,0.000000
0.031557,0.374212,0.113226,1.000000,0.000000,0.000000
0.037491,0.031557,0.202741,0.000000,1.000000,0.000000
-0.031557,0.129938,0.198944,-1.000000,0.000000,0.000000
0.237770,0.031557,0.341757,0.000000,1.000000,0.000000
0.244502,0.031557,0.115437,0.000000,1.000000,0.000000
0.293542,-0.016115,0.216058,-0.539781,0.000000,0.841805
-0.031557,0.520989,0.014109,-1.000000,0.000000,0.000000
0.374091,-0.031557,0.267321,0.000000,-1.000000,0.000000
0.031557,0.120842,0.189047,1.000000,0.000000,0.000000
-0.031557,0.280337,0.224993,-1.000000,0.000000,0.000000
0.429044,-0.031557,0.004801,0.000000,-1.000000,0.000000
0.359136,-0.031557,0.430297,0.000000,-1.000000,0.000000
0.164391,0.031557,0.130285,0.000000,1.000000,0.000000
0.006754,-0.031557,0.121649,0.000000,-1.000000,0.000000
-0.031557,0.236252,0.289957,-1.000000,0.000000,0.000000
0.269709,0.031557,0.444664,0.000000,1.000000,0.000000
0.344140,-0.031557,0.172172,0.000000,-1.000000,0.000000
0.263081,0.031557,0.286954,0.000000,1.000000,0.000000
0.059613,0.031557,0.397458,0.000000,1.000000,0.000000
0.421469,-0.031557,0.186445,0.000000,-1.000000,0.000000
0.376069,-0.031557,0.076710,0.000000,-1.000000,0.000000
0.008128,-0.031557,0.345438,0.000000,-1.000000,0.000000
0.008448,0.031557,0.147738,0.000000,1.000000,0.000000
-0.031557,0.572888,0.457557,-1.000000,0.000000,0.000000
0.383318,-0.026384,0.314770,0.931626,0.000000,0.363419
-0.031557,0.568380,0.131916,-1.000000,0.000000,0.000000
-0.031557,0.383996,0.097700,-1.000000,0.000000,0.000000
0.244563,-0.031557,0.261111,0.000000,-1.000000,0.000000
0.362610,0.031557,0.197980,0.000000,1.000000,0.000000
-0.031557,0.305609,0.078192,-1.000000,0.000000,0.000000
-0.031557,0.345387,0.387626,-1.000000,0.000000,0.000000
-0.031557,0.609098,0.053070,-1.000000,0.000000,0.000000
-0.031557,0.159317,0.098453,-1.000000,0.000000,0.000000
0.219595,0.029455,0.301357,-0.980719,0.000000,-0.195425
-0.031557,0.006978,0.090617,-1.000000,0.000000,0.000000
0.350335,-0.031557,0.416261,0.000000,-1.000000,0.000000
0.205669,0.031557,0.460299,0.000000,1.000000,0.000000
-0.031557,0.427992,0.114664,-1.000000,0.000000,0.000000
0.268532,-0.031557,0.089962,0.000000,-1.000000,0.000000
0.259143,0.031557,0.457495,0.000000,1.000000,0.000000
-0.031557,0.310364,0.234778,-1.000000,0.000000,0.000000
0.281599,0.031557,0.338169,0.000000,1.000000,0.000000
-0.031557,0.596693,0.383621,-1.000000,0.000000,0.000000
0.243303,0.031557,0.442836,0.000000,1.000000,0.000000
0.125724,-0.029652,0.247461,-0.999805,0.000000,0.019732
-0.031557,0.031390,0.097257,-1.000000,0.000000,0.000000
0.150152,0.031557,0.453342,0.000000,1.000000,0.000000
0.164516,0.006546,0.396702,0.768206,0.000000,0.640203
0.255910,0.029266,0.316639,-0.868528,0.000000,-0.495639
0.379601,0.031557,0.262095,0.000000,1.000000,0.000000
0.364171,-0.031557,0.299667,0.000000,-1.000000,0.000000
0.031557,0.414479,0.021988,1.000000,0.000000,0.000000
0.127036,0.031557,0.022539,0.000000,1.000000,0.000000
-0.031557,0.535395,0.215089,-1.000000,0.000000,0.000000
0.230355,0.031557,0.091173,0.000000,1.000000,0.000000
0.186009,-0.031557,0.121059,0.000000,-1.000000,0.000000
-0.031557,0.368655,0.140670,-1.000000,0.000000,0.000000
0.031557,0.203697,0.206944,1.000000,0.000000,0.000000
0.374947,-0.031557,0.350372,0.000000,-1.000000,0.000000
0.044919,-0.031557,0.136223,0.000000,-1.000000,0.000000
-0.031557,0.338248,0.387150,-1.000000,0.000000,0.000000
0.031557,0.575012,0.286618,1.000000,0.000000,0.000000
0.091746,-0.031557,0.401746,0.000000,-1.000000,0.000000
0.072931,0.031557,0.068546,0.000000,1.000000,0.000000
0.185137,0.016969,0.162876,0.999087,0.000000,0.042711
0.031557,0.331637,0.348520,1.000000,0.000000,0.000000
0.303076,-0.031557,0.230340,0.000000,-1.000000,0.000000
0.281039,0.031557,0.047901,0.000000,1.000000,0.000000
0.070412,-0.031557,0.220305,0.000000,-1.000000,0.000000
0.326831,0.031557,0.249607,0.000000,1.000000,0.000000
0.106744,-0.007619,0.189011,-0.548973,0.000000,0.835840
0.090515,0.003723,0.097921,-0.878227,0.000000,-0.478244
0.031985,0.031557,0.220765,0.000000,1.000000,0.000000
-0.031557,0.322050,0.187274,-1.000000,0.000000,0.000000
0.291071,0.031557,0.238030,0.000000,1.000000,0.000000
0.422687,-0.031557,0.329854,0.000000,-1.000000,0.000000
0.008080,0.031557,0.345189,0.000000,1.000000,0.000000
-0.031557,0.464057,0.169120,-1.000000,0.000000,0.000000
-0.031557,0.076078,0.131046,-1.000000,0.000000,0.000000
-0.031557,0.360358,0.185442,-1.000000,0.000000,0.000000
0.031557,0.328446,0.355532,1.000000,0.000000,0.000000
-0.031557,0.212809,0.008131,-1.000000,0.000000,0.000000
0.311602,0.031557,0.301916,0.000000,1.000000,0.000000
0.400185,-0.031557,0.329734,0.000000,-1.000000,0.000000
0.031557,0.542507,0.135162,1.000000,0.000000,0.000000
-0.031557,0.385482,0.109001,-1.000000,0.000000,0.000000
0.367886,0.031557,0.092286,0.000000,1.000000,0.000000
-0.031557,0.704807,0.367050,-1.000000,0.000000,0.000000
0.031557,0.097671,0.278390,1.000000,0.000000,0.000000
0.054158,0.031557,0.397769,0.000000,1.000000,0.000000
0.104812,-0.031557,0.205093,0.000000,-1.000000,0.000000
0.031557,0.588042,0.208492,1.000000,0.000000,0.000000
0.031557,0.177191,0.422085,1.000000,0.000000,0.000000
0.319625,0.031557,0.110543,0.000000,1.000000,0.000000
-0.031557,0.475126,0.363094,-1.000000,0.000000,0.000000
0.144528,-0.031557,0.241703,0.000000,-1.000000,0.000000
-0.031557,0.757912,0.419847,-1.000000,0.000000,0.000000
0.207800,-0.030970,0.320186,0.116410,0.000000,0.993201
-0.031557,0.754268,0.266048,-1.000000,0.000000,0.000000
0.066669,0.031557,0.436127,0.000000,1.000000,0.000000
-0.031557,0.166017,0.314642,-1.000000,0.000000,0.000000
0.031557,0.443678,0.388098,1.000000,0.000000,0.000000
-0.031557,0.255002,0.396540,-1.000000,0.000000,0.000000
0.031557,0.289747,0.283330,1.000000,0.000000,0.000000
0.387193,0.031557,0.172557,0.000000,1.000000,0.000000
0.337719,0.031557,0.289102,0.000000,1.000000,0.000000
0.106391,-0.012935,0.174005,0.028013,0.000000,-0.999608
-0.031557,0.475009,0.028750,-1.000000,0.000000,0.000000
0.031557,0.667003,0.296440,1.000000,0.000000,0.000000
0.317729,-0.002712,0.088246,-0.674727,0.000000,-0.738068
0.031557,0.760838,0.150451,1.000000,0.000000,0.000000
-0.031557,0.428685,0.003460,-1.000000,0.000000,0.000000
0.150791,0.029341,0.153396,-0.960065,0.000000,-0.279776
0.031557,0.111970,0.222729,1.000000,0.000000,0.000000
0.026577,-0.031557,0.357630,0.000000,-1.000000,0.000000
-0.031557,0.559231,0.293113,-1.000000,0.000000,0.000000
0.244515,0.031557,0.131591,0.000000,1.000000,0.000000
0.429933,-0.031557,0.271955,0.000000,-1.000000,0.000000
0.188499,-0.030771,0.319459,0.959738,0.000000,-0.280898
0.031557,0.132560,0.030586,1.000000,0.000000,0.000000
0.448937,-0.031557,0.225317,0.000000,-1.000000,0.000000
0.330139,0.031557,0.297038,0.000000,1.000000,0.000000
0.081402,0.012731,0.268593,-0.432901,0.000000,0.901442
-0.031557,0.235781,0.292006,-1.000000,0.000000,0.000000
0.031557,0.416044,0.159079,1.000000,0.000000,0.000000
-0.031557,0.464727,0.088506,-1.000000,0.000000,0.000000
-0.031557,0.150113,0.059197,-1.000000,0.000000,0.000000
0.419211,-0.031557,0.140869,0.000000,-1.000000,0.000000
0.306868,0.031557,0.357982,0.000000,1.000000,0.000000
0.031557,0.463642,0.053649,1.000000,0.000000,0.000000
0.334191,-0.031557,0.055491,0.000000,-1.000000,0.000000
-0.031557,0.520205,0.208236,-1.000000,0.000000,0.000000
0.188921,0.031557,0.389034,0.000000,1.000000,0.000000
-0.031557,0.032931,0.020587,-1.000000,0.000000,0.000000
-0.031557,0.014990,0.399715,-1.000000,0.000000,0.000000
0.442323,0.031557,0.202232,0.000000,1.000000,0.000000
0.189390,0.031557,0.314893,0.000000,1.000000,0.000000
0.103288,0.030699,0.166237,-0.984399,0.000000,0.175952
0.086331,0.031557,0.346944,0.000000,1.000000,0.000000
0.430150,-0.031557,0.090816,0.000000,-1.000000,0.000000
0.183320,0.031557,0.162100,0.000000,1.000000,0.000000
0.031557,0.320088,0.123086,1.000000,0.000000,0.000000
0.126865,0.014033,0.287959,0.284048,0.000000,0.958810
0.031557,0.663365,0.319346,1.000000,0.000000,0.000000
0.045484,0.031557,0.064261,0.000000,1.000000,0.000000
-0.031557,0.793521,0.050187,-1.000000,0.000000,0.000000
0.243463,0.031557,0.403555,0.000000,1.000000,0.000000
0.031557,0.331915,0.074174,1.000000,0.000000,0.000000
0.031557,0.091608,0.451149,1.000000,0.000000,0.000000
0.031557,0.662416,0.124234,1.000000,0.000000,0.000000
0.282803,0.031557,0.408069,0.000000,1.000000,0.000000
-0.031557,0.202581,0.330682,-1.000000,0.000000,0.000000
0.175767,0.031557,0.006509,0.000000,1.000000,0.000000
0.349877,-0.031557,0.083116,0.000000,-1.000000,0.000000
0.031557,0.241556,0.123940,1.000000,0.000000,0.000000
0.354417,-0.009330,0.356704,0.999070,0.000000,-0.043117
0.387811,0.031557,0.466523,0.000000,1.000000,0.000000
0.463858,0.031557,0.205809,0.000000,1.000000,0.000000
0.081341,0.021420,0.382052,-0.877263,0.000000,0.480009
0.322418,0.031557,0.102307,0.000000,1.000000,0.000000
0.139281,-0.031557,0.023901,0.000000,-1.000000,0.000000
0.173742,-0.031557,0.090971,0.000000,-1.000000,0.000000
0.031557,0.637112,0.122804,1.000000,0.000000,0.000000
0.031557,0.478244,0.373174,1.000000,0.000000,0.000000
0.143108,-0.031557,0.304545,0.000000,-1.000000,0.000000
0.227004,-0.029071,0.230697,0.382281,0.000000,0.924046
0.031557,0.648970,0.067779,1.000000,0.000000,0.000000
0.239859,0.017773,0.264293,0.999541,0.000000,-0.030292
0.224369,0.031557,0.162406,0.000000,1.000000,0.000000
0.191390,-0.006328,0.292773,0.868729,0.000000,0.495287
0.398346,0.031557,0.073020,0.000000,1.000000,0.000000
-0.031557,0.751304,0.105955,-1.000000,0.000000,0.000000
0.006365,-0.031557,0.243194,0.000000,-1.000000,0.000000
0.031557,0.485422,0.424653,1.000000,0.000000,0.000000
-0.031557,0.338409,0.069347,-1.000000,0.000000,0.000000
0.300342,0.003438,0.190240,0.040244,0.000000,0.999190
0.061152,-0.031557,0.294028,0.000000,-1.000000,0.000000
0.338565,-0.031557,0.228656,0.000000,-1.000000,0.000000
0.014592,-0.031557,0.178853,0.000000,-1.000000,0.000000
0.031557,0.234443,0.381192,1.000000,0.000000,0.000000
0.312212,0.031557,0.319828,0.000000,1.000000,0.000000
0.281832,-0.029937,0.227865,-0.952474,0.000000,0.304621
0.208398,0.031557,0.036223,0.000000,1.000000,0.000000
0.031557,0.233423,0.114864,1.000000,0.000000,0.000000
0.203603,-0.031557,0.026563,0.000000,-1.000000,0.000000
0.031557,0.253046,0.446766,1.000000,0.000000,0.000000
0.031557,0.521671,0.447654,1.000000,0.000000,0.000000
-0.031557,0.677883,0.019619,-1.000000,0.000000,0.000000
0.212173,-0.031557,0.130776,0.000000,-1.000000,0.000000
0.080241,0.031557,0.366802,0.000000,1.000000,0.000000
-0.031557,0.788095,0.202010,-1.000000,0.000000,0.000000
-0.031557,0.751921,0.322799,-1.000000,0.000000,0.000000
-0.031557,0.338175,0.197103,-1.000000,0.000000,0.000000
0.031557,0.651566,0.050350,1.000000,0.000000,0.000000
0.075439,0.031557,0.450933,0.000000,1.000000,0.000000
0.207402,-0.031557,0.017973,0.000000,-1.000000,0.000000
0.301214,-0.031557,0.031415,0.000000,-1.000000,0.000000
-0.031557,0.639899,0.167514,-1.000000,0.000000,0.000000
-0.031557,0.257342,0.030268,-1.000000,0.000000,0.000000
0.003851,-0.031557,0.407811,0.000000,-1.000000,0.000000
0.020153,0.031557,0.345253,0.000000,1.000000,0.000000
0.031557,0.599340,0.466122,1.000000,0.000000,0.000000
0.336196,0.031557,0.151163,0.000000,1.000000,0.000000
0.166468,0.031557,0.159194,0.000000,1.000000,0.000000
-0.031557,0.638283,0.285127,-1.000000,0.000000,0.000000
-0.031557,0.798712,0.216231,-1.000000,0.000000,0.000000
-0.031557,0.645177,0.347314,-1.000000,0.000000,0.000000
0.288338,-0.002044,0.237532,0.403082,0.000000,0.915164
0.031557,0.742401,0.305989,1.000000,0.000000,0.000000
0.031557,0.264375,0.181362,1.000000,0.000000,0.000000
0.131844,0.031557,0.090139,0.000000,1.000000,0.000000
0.241881,-0.004961,0.231872,-0.413626,0.000000,0.910447
0.258344,-0.031310,0.194199,-0.475713,0.000000,0.879601
0.109914,-0.031557,0.336412,0.000000,-1.000000,0.000000
0.122432,0.017846,0.256161,-0.329619,0.000000,0.944114
0.158334,0.009673,0.268659,-0.980634,0.000000,0.195851
0.396327,-0.031557,0.004888,0.000000,-1.000000,0.000000
0.199661,-0.031557,0.453379,0.000000,-1.000000,0.000000
-0.031557,0.305203,0.382165,-1.000000,0.000000,0.000000
0.272133,-0.031557,0.048265,0.000000,-1.000000,0.000000
0.151795,0.031557,0.046867,0.000000,1.000000,0.000000
0.031557,0.671592,0.269293,1.000000,0.000000,0.000000
-0.031557,0.501069,0.360376,-1.000000,0.000000,0.000000
0.425990,-0.031557,0.175400,0.000000,-1.000000,0.000000
0.031557,0.783997,0.184653,1.000000,0.000000,0.000000
0.167177,0.031557,0.048819,0.000000,1.000000,0.000000
0.315930,-0.031557,0.372219,0.000000,-1.000000,0.000000
-0.031557,0.757481,0.010232,-1.000000,0.000000,0.000000
0.245212,0.031557,0.006650,0.000000,1.000000,0.000000
0.159846,0.002769,0.115263,-0.838306,0.000000,-0.545200
0.031557,0.135334,0.306895,1.000000,0.000000,0.000000
0.031557,0.133598,0.175540,1.000000,0.000000,0.000000
-0.031557,0.303789,0.091296,-1.000000,0.000000,0.000000
0.345000,-0.031557,0.153073,0.000000,-1.000000,0.000000
-0.031557,0.312994,0.427798,-1.000000,0.000000,0.000000
0.183782,-0.031557,0.358780,0.000000,-1.000000,0.000000
