x,y,z,nx,ny,nz
0.186316,-0.038605,-0.058972,0.953384,0.000000,-0.301759
0.186995,-0.343021,-0.056782,0.956858,0.000000,-0.290556
-0.190356,-0.405796,0.044227,-0.974056,0.000000,0.226308
0.078700,-0.651458,-0.094193,0.000000,-1.000000,0.000000
0.172363,-0.340653,0.092100,0.881984,0.000000,0.471278
0.141102,-0.581719,0.135209,0.722022,0.000000,0.691870
0.022506,-0.151770,0.135426,0.000000,0.000000,1.000000
-0.192869,-0.430809,0.031512,-0.986914,0.000000,0.161246
-0.001761,-0.651458,-0.000288,0.000000,-1.000000,0.000000
0.193182,-0.016687,-0.029534,0.988515,0.000000,-0.151125
0.070421,0.089667,0.182297,0.360344,0.000000,0.932819
0.047673,-0.651458,-0.028497,0.000000,-1.000000,0.000000
0.058026,0.115890,-0.186613,0.296920,0.000000,-0.954902
-0.103548,0.603893,0.165739,-0.529855,0.000000,0.848088
0.192397,0.293231,0.034276,0.984499,0.000000,0.175391
0.031498,-0.651458,0.037065,0.000000,-1.000000,0.000000
0.014318,0.651458,0.077444,0.000000,1.000000,0.000000
0.179046,-0.293365,0.078318,0.916185,0.000000,0.400757
0.115843,-0.335308,-0.157390,0.592773,0.000000,-0.805370
-0.188167,-0.272848,-0.052769,-0.962855,0.000000,-0.270019
-0.080040,0.060632,-0.178283,-0.409568,0.000000,-0.912280
0.191147,0.055230,0.040670,0.978106,0.000000,0.208108
-0.120557,0.611318,-0.153810,-0.616893,0.000000,-0.787047
-0.103809,0.651458,-0.132828,0.000000,1.000000,0.000000
0.056474,0.651458,-0.159190,0.000000,1.000000,0.000000
0.153499,-0.275610,0.120952,0.785457,0.000000,0.618916
-0.195309,-0.330089,-0.006766,-0.999401,0.000000,-0.034621
0.001939,0.651458,-0.007886,0.000000,1.000000,0.000000
0.088560,0.030060,-0.174208,0.453164,0.000000,-0.891427
-0.140144,-0.619302,-0.136202,-0.717120,0.000000,-0.696949
-0.109354,0.260093,-0.161966,-0.559569,0.000000,-0.828784
0.067039,-0.042049,0.135426,0.000000,0.000000,1.000000
0.100428,0.510362,0.167647,0.513895,0.000000,0.857853
-0.195170,0.541553,0.010001,-0.998690,0.000000,0.051177
0.194978,0.511365,-0.013234,0.997704,0.000000,-0.067721
0.014569,-0.529239,0.194882,0.074551,0.000000,0.997217
-0.195089,0.514778,0.011481,-0.998273,0.000000,0.058750
0.130315,0.177067,-0.145634,0.666826,0.000000,-0.745213
0.079141,-0.651458,0.002016,0.000000,-1.000000,0.000000
-0.033356,0.151663,-0.192558,-0.170684,0.000000,-0.985326
0.066190,-0.634028,0.183876,0.338694,0.000000,0.940897
-0.188697,0.504573,-0.050841,-0.965567,0.000000,-0.260153
-0.049953,-0.651458,0.038217,0.000000,-1.000000,0.000000
0.115060,-0.002828,-0.157964,0.588763,0.000000,-0.808306
0.164168,0.651458,0.017539,0.000000,1.000000,0.000000
0.013378,0.486200,0.194968,0.068454,0.000000,0.997654
-0.070621,-0.651458,-0.036547,0.000000,-1.000000,0.000000
-0.166113,0.198729,-0.102946,-0.850005,0.000000,-0.526775
-0.106467,0.409393,0.163878,-0.544795,0.000000,0.838569
0.044956,-0.461538,-0.190185,0.230043,0.000000,-0.973180
0.023768,-0.029275,0.135426,0.000000,0.000000,1.000000
0.195361,-0.302158,0.005055,0.999665,0.000000,0.025869
-0.144181,0.261114,0.131922,-0.737776,0.000000,0.675046
0.180413,-0.118378,0.075118,0.923175,0.000000,0.384380
-0.063210,-0.651458,-0.073398,0.000000,-1.000000,0.000000
-0.194792,0.089822,0.015732,-0.996754,0.000000,0.080502
0.192109,-0.067211,-0.035852,0.983028,0.000000,-0.183453
0.003049,-0.651458,0.010296,0.000000,-1.000000,0.000000
-0.183165,-0.229290,0.068131,-0.937261,0.000000,0.348629
0.094349,-0.348521,0.171142,0.482788,0.000000,0.875737
0.009206,-0.581221,-0.195209,0.047108,0.000000,-0.998890
0.138072,-0.020602,0.138302,0.706519,0.000000,0.707694
-0.135421,-0.432662,-0.140899,-0.692950,0.000000,-0.720985
0.141562,-0.286666,-0.134728,0.724377,0.000000,-0.689404
-0.174197,0.198041,0.088583,-0.891368,0.000000,0.453279
0.027074,-0.651458,0.006594,0.000000,-1.000000,0.000000
0.156037,-0.651458,-0.110253,0.000000,-1.000000,0.000000
-0.083653,-0.200139,-0.176617,-0.428054,0.000000,-0.903753
0.192405,0.437212,-0.034229,0.984542,0.000000,-0.175148
0.079132,0.651458,0.077821,0.000000,1.000000,0.000000
-0.194535,-0.139421,0.018643,-0.995440,0.000000,0.095394
-0.060071,0.157562,0.135426,0.000000,0.000000,1.000000
-0.103347,0.047034,-0.165864,-0.528830,0.000000,-0.848728
0.008987,0.171593,-0.195219,0.045985,0.000000,-0.998942
0.155556,0.122380,-0.118296,0.795981,0.000000,-0.605321
0.074834,-0.061728,-0.180531,0.382926,0.000000,-0.923779
-0.058884,-0.114870,-0.186344,-0.301310,0.000000,-0.953526
-0.045026,-0.026736,0.135426,0.000000,0.000000,1.000000
0.069516,0.003640,0.135426,0.000000,0.000000,1.000000
-0.019297,-0.325491,-0.194471,-0.098744,0.000000,-0.995113
-0.030087,-0.651458,-0.022297,0.000000,-1.000000,0.000000
-0.122036,-0.152283,-0.152638,-0.624463,0.000000,-0.781054
-0.099607,0.115596,-0.168136,-0.509691,0.000000,-0.860357
0.075962,0.075846,0.135426,0.000000,0.000000,1.000000
-0.154564,-0.183783,-0.119588,-0.790907,0.000000,-0.611937
-0.177243,0.528469,-0.082318,-0.906958,0.000000,-0.421221
-0.053311,0.192920,0.135426,0.000000,0.000000,1.000000
-0.186432,0.569094,-0.058605,-0.953976,0.000000,-0.299883
0.088531,-0.452548,0.174223,0.453017,0.000000,0.891502
-0.116327,-0.310175,-0.157033,-0.595250,0.000000,-0.803540
0.014768,0.186642,0.194867,0.075566,0.000000,0.997141
-0.156156,0.461634,0.117502,-0.799054,0.000000,0.601259
0.039742,-0.188707,0.135426,0.000000,0.000000,1.000000
-0.113184,0.625789,0.159313,-0.579167,0.000000,0.815209
0.069576,-0.412190,0.182621,0.356023,0.000000,0.934477
0.006269,0.100910,0.135426,0.000000,0.000000,1.000000
-0.184107,-0.651458,0.004968,0.000000,-1.000000,0.000000
-0.061973,-0.059347,-0.185339,-0.317118,0.000000,-0.948386
-0.090983,0.027585,0.172955,-0.465562,0.000000,0.885015
0.136490,-0.461413,0.139864,0.698421,0.000000,0.715687
-0.032933,-0.441764,0.192631,-0.168520,0.000000,0.985698
0.190811,0.304063,0.042220,0.976385,0.000000,0.216039
0.064497,0.651458,-0.045741,0.000000,1.000000,0.000000
-0.075126,0.195266,0.135426,0.000000,0.000000,1.000000
-0.165068,-0.028310,0.104613,-0.844657,0.000000,0.535308
-0.173165,-0.104220,0.090583,-0.886088,0.000000,0.463517
-0.132513,0.156056,0.143637,-0.678073,0.000000,0.734995
-0.001618,-0.651458,0.001842,0.000000,-1.000000,0.000000
0.071974,0.651458,0.093161,0.000000,1.000000,0.000000
0.140479,-0.311215,0.135857,0.718834,0.000000,0.695182
-0.063335,-0.651458,-0.090418,0.000000,-1.000000,0.000000
-0.093586,0.362371,0.171561,-0.478880,0.000000,0.877880
-0.013494,-0.516807,0.194960,-0.069048,0.000000,0.997613
-0.138482,0.487089,0.137891,-0.708618,0.000000,0.705592
0.158361,-0.002764,0.114513,0.810336,0.000000,0.585966
-0.034144,-0.651458,-0.047393,0.000000,-1.000000,0.000000
0.019370,0.651458,-0.009483,0.000000,1.000000,0.000000
0.105044,-0.051422,-0.164794,0.537512,0.000000,-0.843256
0.189888,0.159928,0.046193,0.971663,0.000000,0.236372
0.019160,0.651458,-0.005278,0.000000,1.000000,0.000000
0.011091,-0.651458,0.122095,0.000000,-1.000000,0.000000
-0.102307,0.651458,0.045703,0.000000,1.000000,0.000000
0.052541,-0.146950,0.135426,0.000000,0.000000,1.000000
-0.049833,0.185252,-0.188966,-0.254997,0.000000,-0.966942
0.195409,-0.412675,-0.002592,0.999912,0.000000,-0.013266
0.085865,-0.562471,-0.175552,0.439373,0.000000,-0.898305
0.194824,-0.586910,0.015325,0.996920,0.000000,0.078421
0.172692,0.575028,-0.091481,0.883669,0.000000,-0.468112
-0.161131,0.535141,0.110581,-0.824512,0.000000,0.565845
0.194419,0.546270,0.019811,0.994849,0.000000,0.101372
0.013646,0.002756,0.135426,0.000000,0.000000,1.000000
0.181259,0.267435,0.073051,0.927508,0.000000,0.373803
0.148570,-0.075179,0.126958,0.760237,0.000000,0.649646
0.180906,0.029426,0.073921,0.925701,0.000000,0.378255
-0.190734,0.478755,0.042568,-0.975989,0.000000,0.217820
-0.144862,0.257957,-0.131173,-0.741265,0.000000,-0.671213
-0.111722,-0.217786,0.160342,-0.571686,0.000000,0.820473
0.194201,-0.608940,0.021846,0.993732,0.000000,0.111785
-0.192989,-0.638931,-0.030764,-0.987532,0.000000,-0.157421
-0.061582,0.651458,-0.083179,0.000000,1.000000,0.000000
-0.125443,-0.060938,0.149852,-0.641893,0.000000,0.766794
0.195425,0.511956,-0.000742,0.999993,0.000000,-0.003797
-0.181078,0.385949,0.073499,-0.926580,0.000000,0.376098
-0.195379,0.460514,-0.004279,-0.999760,0.000000,-0.021896
0.019074,-0.462206,-0.194493,0.097601,0.000000,-0.995226
-0.194658,-0.073019,-0.017314,-0.996067,0.000000,-0.088598
-0.159137,-0.336748,-0.113432,-0.814306,0.000000,-0.580436
0.190499,0.223806,0.043604,0.974790,0.000000,0.223125
0.026978,-0.279636,-0.193555,0.138049,0.000000,-0.990425
-0.120100,0.232891,0.154167,-0.614556,0.000000,0.788874
0.111928,0.080842,0.160198,0.572740,0.000000,0.819737
0.194235,-0.033023,-0.021546,0.993904,0.000000,-0.110250
-0.003889,0.651458,-0.000367,0.000000,1.000000,0.000000
-0.120909,0.651458,-0.136282,0.000000,1.000000,0.000000
0.122542,-0.651458,0.003700,0.000000,-1.000000,0.000000
0.004350,0.651458,-0.017964,0.000000,1.000000,0.000000
-0.071232,-0.327450,-0.181982,-0.364497,0.000000,-0.931205
-0.195424,0.447107,-0.000837,-0.999991,0.000000,-0.004283
0.009348,0.651458,-0.005655,0.000000,1.000000,0.000000
-0.002489,0.651458,0.011337,0.000000,1.000000,0.000000
0.015675,0.037620,0.194796,0.080208,0.000000,0.996778
0.171945,-0.133908,0.092878,0.879846,0.000000,0.475260
-0.115473,-0.581345,0.157662,-0.590877,0.000000,0.806762
-0.168224,-0.280006,0.099458,-0.860807,0.000000,0.508931
-0.168993,-0.184734,-0.098146,-0.864743,0.000000,-0.502215
-0.035601,-0.309637,0.192156,-0.182173,0.000000,0.983267
-0.047326,0.651458,0.151925,0.000000,1.000000,0.000000
-0.193207,0.191828,-0.029368,-0.988644,0.000000,-0.150279
0.020864,0.405514,-0.194309,0.106763,0.000000,-0.994285
-0.191831,-0.419271,-0.037313,-0.981603,0.000000,-0.190932
-0.159081,-0.315282,-0.113510,-0.814023,0.000000,-0.580832
0.189440,-0.293158,0.047998,0.969370,0.000000,0.245606
-0.052490,-0.072948,0.135426,0.000000,0.000000,1.000000
-0.183609,0.359483,-0.066925,-0.939534,0.000000,-0.342457
0.161720,-0.437074,0.109718,0.827525,0.000000,0.561429
-0.023645,0.331890,0.193990,-0.120993,0.000000,0.992653
0.112975,0.651458,0.033484,0.000000,1.000000,0.000000
0.081031,0.239676,0.177835,0.414640,0.000000,0.909986
0.110345,0.026411,-0.161292,0.564640,0.000000,-0.825337
-0.114879,0.219670,-0.158096,-0.587836,0.000000,-0.808980
-0.005428,-0.074092,-0.195351,-0.027775,0.000000,-0.999614
-0.032201,-0.651458,0.168742,0.000000,-1.000000,0.000000
-0.053662,0.651458,-0.036955,0.000000,1.000000,0.000000
-0.067558,0.651458,-0.011080,0.000000,1.000000,0.000000
0.100593,-0.261156,0.167548,0.514739,0.000000,0.857347
-0.016327,-0.651458,0.028707,0.000000,-1.000000,0.000000
0.028943,-0.621669,-0.193271,0.148101,0.000000,-0.988972
-0.080676,0.651458,-0.032369,0.000000,1.000000,0.000000
-0.045896,-0.651458,-0.146514,0.000000,-1.000000,0.000000
-0.056305,-0.122023,0.135426,0.000000,0.000000,1.000000
-0.033466,-0.139662,-0.192539,-0.171244,0.000000,-0.985229
0.070113,-0.191519,0.182416,0.358769,0.000000,0.933427
-0.038569,0.651458,-0.024336,0.000000,1.000000,0.000000
-0.094712,-0.490590,0.170941,-0.484645,0.000000,0.874711
0.120993,0.063545,0.153467,0.619123,0.000000,0.785294
0.177824,0.357690,-0.081057,0.909927,0.000000,-0.414768
-0.192871,0.337624,-0.031495,-0.986928,0.000000,-0.161163
-0.148475,-0.478058,-0.127069,-0.759749,0.000000,-0.650217
0.172196,0.088168,0.092411,0.881132,0.000000,0.472871
0.184595,0.486596,-0.064156,0.944578,0.000000,-0.328287
0.189164,0.261324,-0.049076,0.967955,0.000000,-0.251122
-0.178407,-0.384384,-0.079763,-0.912915,0.000000,-0.408150
0.177265,0.245372,-0.082272,0.907067,0.000000,-0.420986
0.011108,0.278228,-0.195110,0.056841,0.000000,-0.998383
-0.089464,-0.572233,-0.173746,-0.457791,0.000000,-0.889060
0.028650,-0.359006,-0.193315,0.146604,0.000000,-0.989195
0.014647,0.436552,0.194876,0.074950,0.000000,0.997187
0.161584,-0.126584,-0.109918,0.826830,0.000000,-0.562451
0.056757,0.651458,-0.129449,0.000000,1.000000,0.000000
-0.109675,-0.651458,-0.045564,0.000000,-1.000000,0.000000
-0.021216,-0.253794,0.194271,-0.108561,0.000000,0.994090
0.018488,0.192434,0.135426,0.000000,0.000000,1.000000
0.195425,-0.320879,0.000702,0.999994,0.000000,0.003593
0.111531,-0.187318,0.160475,0.570705,0.000000,0.821155
-0.136196,0.651458,-0.058013,0.000000,1.000000,0.000000
0.123655,0.424546,0.151330,0.632746,0.000000,0.774359
-0.113124,0.081286,0.159356,-0.578858,0.000000,0.815428
-0.192352,-0.592482,-0.034527,-0.984270,0.000000,-0.176673
-0.191541,0.631169,0.038774,-0.980119,0.000000,0.198409
-0.060621,0.495860,-0.185786,-0.310197,0.000000,-0.950672
0.119768,-0.651458,-0.081347,0.000000,-1.000000,0.000000
-0.006227,0.651458,-0.008425,0.000000,1.000000,0.000000
0.137384,-0.219379,0.138986,0.702997,0.000000,0.711193
-0.068416,-0.345710,-0.183059,-0.350086,0.000000,-0.936718
-0.036416,0.651458,0.008079,0.000000,1.000000,0.000000
0.142971,-0.556133,0.133232,0.731586,0.000000,0.681749
0.066782,0.651458,0.019549,0.000000,1.000000,0.000000
-0.175780,-0.139112,-0.085398,-0.899469,0.000000,-0.436985
0.167403,0.094910,-0.100835,0.856605,0.000000,-0.515973
-0.194479,0.215372,-0.019221,-0.995151,0.000000,-0.098356
-0.096031,0.651458,0.045117,0.000000,1.000000,0.000000
0.151312,0.422849,-0.123677,0.774267,0.000000,-0.632859
-0.005191,0.111287,0.135426,0.000000,0.000000,1.000000
0.034062,0.015133,0.135426,0.000000,0.000000,1.000000
0.079515,-0.075760,0.135426,0.000000,0.000000,1.000000
-0.030312,-0.158891,0.135426,0.000000,0.000000,1.000000
0.183766,-0.313752,0.066494,0.940335,0.000000,0.340250
0.062744,0.096438,0.185080,0.321063,0.000000,0.947058
-0.045435,0.200507,0.135426,0.000000,0.000000,1.000000
-0.084790,-0.312634,0.176074,-0.433872,0.000000,0.900974
0.108815,0.651458,-0.106628,0.000000,1.000000,0.000000
-0.195166,0.364596,-0.010075,-0.998670,0.000000,-0.051552
0.033979,0.562512,0.192449,0.173872,0.000000,0.984768
-0.032663,-0.045547,0.135426,0.000000,0.000000,1.000000
0.183994,-0.084351,0.065860,0.941503,0.000000,0.337005
-0.153375,0.143791,-0.121109,-0.784825,0.000000,-0.619717
-0.103043,-0.651458,-0.018536,0.000000,-1.000000,0.000000
0.110226,-0.651458,-0.002251,0.000000,-1.000000,0.000000
-0.016222,-0.617177,-0.194752,-0.083006,0.000000,-0.996549
0.168223,-0.049793,-0.099460,0.860803,0.000000,-0.508939
-0.195060,-0.552562,-0.011964,-0.998124,0.000000,-0.061220
0.188112,0.129886,0.052963,0.962575,0.000000,0.271014
0.030426,0.548285,-0.193043,0.155689,0.000000,-0.987806
0.022983,-0.484017,-0.194070,0.117606,0.000000,-0.993060
0.138486,0.055722,-0.137888,0.708635,0.000000,-0.705576
-0.084338,0.331337,0.176291,-0.431558,0.000000,0.902085
0.023769,0.001913,0.135426,0.000000,0.000000,1.000000
-0.191516,-0.200469,-0.038896,-0.979994,0.000000,-0.199029
0.139815,-0.243954,-0.136539,0.715438,0.000000,-0.698676
-0.037247,0.111406,-0.191844,-0.190592,0.000000,-0.981669
0.187355,-0.430158,0.055583,0.958700,0.000000,0.284420
0.094315,0.473439,0.171161,0.482611,0.000000,0.875835
0.192533,-0.029723,-0.033503,0.985196,0.000000,-0.171434
0.001261,0.651458,-0.002000,0.000000,1.000000,0.000000
0.033545,0.065097,-0.192526,0.171652,0.000000,-0.985158
-0.143988,-0.646466,0.132132,-0.736789,0.000000,0.676123
-0.171619,-0.519744,0.093479,-0.878177,0.000000,0.478335
0.092224,-0.577519,0.172297,0.471912,0.000000,0.881646
0.104898,-0.584463,-0.164887,0.536768,0.000000,-0.843730
-0.055096,-0.130604,0.135426,0.000000,0.000000,1.000000
-0.146746,0.075458,0.129062,-0.750904,0.000000,0.660411
-0.147466,0.649620,0.128239,-0.754585,0.000000,0.656202
0.174539,0.102601,-0.087906,0.893120,0.000000,-0.449818
0.052863,-0.570464,-0.188141,0.270502,0.000000,-0.962719
0.111574,-0.651458,0.095831,0.000000,-1.000000,0.000000
-0.005745,-0.015635,0.195342,-0.029399,0.000000,0.999568
0.107484,-0.623867,-0.163213,0.549996,0.000000,-0.835167
-0.166603,-0.265458,-0.102151,-0.852512,0.000000,-0.522707
0.027768,0.233487,0.193443,0.142091,0.000000,0.989854
0.193255,0.616189,-0.029049,0.988891,0.000000,-0.148642
-0.168431,-0.176784,0.099107,-0.861867,0.000000,0.507134
-0.039966,-0.599369,0.191296,-0.204505,0.000000,0.978866
-0.146990,0.443349,-0.128783,-0.752154,0.000000,-0.658988
0.186562,0.348231,-0.058188,0.954645,0.000000,-0.297748
-0.051904,-0.240469,0.188407,-0.265596,0.000000,0.964084
0.130286,-0.282473,-0.145660,0.666679,0.000000,-0.745345
0.195425,0.634466,0.000515,0.999997,0.000000,0.002637
-0.078196,0.486958,-0.179100,-0.400133,0.000000,-0.916457
0.194510,0.556002,-0.018902,0.995311,0.000000,-0.096723
0.027924,-0.391136,0.193421,0.142889,0.000000,0.989739
0.069180,-0.632985,-0.182772,0.353997,0.000000,-0.935246
-0.053808,0.044302,0.135426,0.000000,0.000000,1.000000
-0.105058,-0.129375,0.164785,-0.537586,0.000000,0.843209
-0.073776,0.118548,0.135426,0.000000,0.000000,1.000000
0.056463,-0.651458,0.105591,0.000000,-1.000000,0.000000
0.101035,-0.224913,0.167282,0.516998,0.000000,0.855986
0.187420,-0.286377,-0.055364,0.959031,0.000000,-0.283300
0.040861,0.197353,0.135426,0.000000,0.000000,1.000000
-0.053400,0.172173,-0.187989,-0.273247,0.000000,-0.961944
0.191211,0.409191,0.040368,0.978433,0.000000,0.206564
-0.193016,0.453044,-0.030594,-0.987670,0.000000,-0.156552
0.049138,-0.046377,-0.189148,0.251441,0.000000,-0.967873
-0.055943,-0.651458,-0.065157,0.000000,-1.000000,0.000000
-0.028101,-0.651458,0.007424,0.000000,-1.000000,0.000000
-0.156002,0.380106,0.117707,-0.798264,0.000000,0.602307
-0.073355,-0.009034,0.135426,0.000000,0.000000,1.000000
-0.191345,0.055745,-0.039732,-0.979114,0.000000,-0.203310
-0.153647,-0.306260,0.120764,-0.786217,0.000000,0.617951
-0.128101,0.411413,-0.147585,-0.655498,0.000000,-0.755197
-0.068890,0.159628,0.135426,0.000000,0.000000,1.000000
-0.172465,0.472291,0.091908,-0.882510,0.000000,0.470294
0.149155,0.260280,-0.126270,0.763232,0.000000,-0.646125
0.167037,-0.303146,0.101439,0.854735,0.000000,0.519065
0.021638,0.162291,0.135426,0.000000,0.000000,1.000000
-0.174813,0.486301,0.087360,-0.894521,0.000000,0.447025
-0.044563,0.651458,0.135792,0.000000,1.000000,0.000000
-0.190396,-0.566278,0.044053,-0.974262,0.000000,0.225419
0.173989,0.522200,0.088991,0.890304,0.000000,0.455367
0.047788,-0.097165,-0.189493,0.244534,0.000000,-0.969641
0.055618,0.651458,-0.043784,0.000000,1.000000,0.000000
0.071609,0.651458,-0.052443,0.000000,1.000000,0.000000
0.024270,-0.651458,0.002282,0.000000,-1.000000,0.000000
-0.008930,-0.651458,-0.162968,0.000000,-1.000000,0.000000
-0.041440,0.651458,0.010869,0.000000,1.000000,0.000000
-0.035760,0.391371,0.192126,-0.182986,0.000000,0.983116
-0.167477,-0.154842,-0.100711,-0.856986,0.000000,-0.515340
-0.024575,-0.651458,0.028589,0.000000,-1.000000,0.000000
-0.128347,-0.318153,0.147372,-0.656754,0.000000,0.754105
0.182992,-0.184236,0.068595,0.936375,0.000000,0.351001
-0.077684,-0.100530,0.135426,0.000000,0.000000,1.000000
0.186204,0.208862,0.059326,0.952809,0.000000,0.303570
-0.193835,-0.502476,-0.024887,-0.991858,0.000000,-0.127345
-0.051886,0.651458,0.104953,0.000000,1.000000,0.000000
-0.159159,-0.648759,-0.113400,-0.814422,0.000000,-0.580272
-0.173215,0.017646,0.090487,-0.886347,0.000000,0.463022
-0.137846,-0.540337,-0.138528,-0.705360,0.000000,-0.708849
-0.104641,-0.584445,0.165050,-0.535452,0.000000,0.844566
-0.188896,-0.422630,-0.050099,-0.966583,0.000000,-0.256355
-0.024614,-0.218348,0.135426,0.000000,0.000000,1.000000
0.194141,0.339767,0.022374,0.993424,0.000000,0.114489
0.134864,-0.407603,-0.141432,0.690101,0.000000,-0.723713
-0.176439,-0.651458,-0.048090,0.000000,-1.000000,0.000000
0.033518,0.295107,0.192530,0.171510,0.000000,0.985182
-0.195417,-0.543974,-0.001865,-0.999954,0.000000,-0.009541
0.077682,-0.160992,-0.179323,0.397502,0.000000,-0.917601
-0.068264,-0.651458,-0.120196,0.000000,-1.000000,0.000000
-0.195237,-0.443020,-0.008595,-0.999032,0.000000,-0.043979
-0.127289,-0.173760,-0.148286,-0.651343,0.000000,-0.758783
0.185098,0.380838,0.062690,0.947151,0.000000,0.320787
0.000324,-0.651458,-0.137649,0.000000,-1.000000,0.000000
-0.194802,-0.415838,-0.015603,-0.996808,0.000000,-0.079841
0.121469,-0.352792,-0.153090,0.621559,0.000000,-0.783367
0.025841,-0.651458,-0.095020,0.000000,-1.000000,0.000000
0.029961,-0.311505,0.193116,0.153312,0.000000,0.988178
0.042452,0.281197,0.190759,0.217230,0.000000,0.976120
-0.092488,0.230882,0.172155,-0.473265,0.000000,0.880920
-0.029622,-0.119840,0.135426,0.000000,0.000000,1.000000
0.177401,-0.651458,-0.001034,0.000000,-1.000000,0.000000
0.122647,-0.485633,0.152148,0.627590,0.000000,0.778544
-0.028166,0.128600,-0.193386,-0.144125,0.000000,-0.989559
0.194570,-0.006067,-0.018274,0.995618,0.000000,-0.093508
0.013294,0.295265,0.194973,0.068025,0.000000,0.997684
-0.186830,-0.176082,0.057322,-0.956015,0.000000,0.293319
0.194884,0.367639,-0.014542,0.997228,0.000000,-0.074410
-0.173601,0.465981,-0.089744,-0.888321,0.000000,-0.459224
-0.097954,-0.295141,0.169105,-0.501231,0.000000,0.865314
-0.193548,0.022666,-0.027025,-0.990392,0.000000,-0.138288
-0.057219,-0.454650,0.186862,-0.292791,0.000000,0.956177
0.004568,0.651458,0.002708,0.000000,1.000000,0.000000
0.018360,-0.231581,-0.194562,0.093948,0.000000,-0.995577
0.009543,-0.651458,0.143390,0.000000,-1.000000,0.000000
-0.081734,0.053871,0.177513,-0.418234,0.000000,0.908339
-0.189719,-0.558285,0.046885,-0.970794,0.000000,0.239913
-0.040858,-0.147559,0.135426,0.000000,0.000000,1.000000
-0.113251,-0.031542,-0.159265,-0.579510,0.000000,-0.814965
-0.188278,0.100100,0.052371,-0.963424,0.000000,0.267982
0.033713,-0.165833,0.135426,0.000000,0.000000,1.000000
0.097214,-0.651458,0.012590,0.000000,-1.000000,0.000000
-0.006629,0.089609,0.195314,-0.033922,0.000000,0.999424
-0.003095,-0.006901,0.135426,0.000000,0.000000,1.000000
-0.191331,-0.144587,-0.039797,-0.979046,0.000000,-0.203641
0.100771,0.232117,0.167441,0.515646,0.000000,0.856802
-0.014636,0.609718,-0.194877,-0.074894,0.000000,-0.997192
0.008839,0.651458,0.037032,0.000000,1.000000,0.000000
0.057612,0.432153,0.186741,0.294801,0.000000,0.955559
0.190621,0.090622,-0.043071,0.975411,0.000000,-0.220393
-0.193640,-0.074866,-0.026365,-0.990858,0.000000,-0.134908
0.014098,0.651458,-0.074951,0.000000,1.000000,0.000000
0.008560,-0.303509,-0.195239,0.043799,0.000000,-0.999040
-0.011785,0.217554,0.195070,-0.060305,0.000000,0.998180
0.117876,-0.570956,0.155874,0.603175,0.000000,0.797609
-0.183257,0.537900,0.067884,-0.937730,0.000000,0.347365
0.165006,0.651458,-0.017768,0.000000,1.000000,0.000000
-0.168625,-0.567843,-0.098778,-0.862856,0.000000,-0.505450
-0.112835,0.651458,0.113890,0.000000,1.000000,0.000000
-0.077032,-0.190177,0.135426,0.000000,0.000000,1.000000
-0.079184,-0.259709,0.178665,-0.405186,0.000000,0.914234
0.098063,-0.648534,-0.169042,0.501789,0.000000,-0.864990
-0.134786,0.527221,0.141506,-0.689704,0.000000,0.724092
0.065883,0.089749,0.135426,0.000000,0.000000,1.000000
-0.161729,-0.609170,0.109704,-0.827573,0.000000,0.561358
0.049958,0.651458,0.093321,0.000000,1.000000,0.000000
-0.150858,-0.120615,-0.124231,-0.771944,0.000000,-0.635691
0.070767,0.651458,0.164377,0.000000,1.000000,0.000000
0.195221,-0.408037,-0.008947,0.998951,0.000000,-0.045784
0.046356,0.533817,0.189849,0.237203,0.000000,0.971460
0.195177,-0.112853,-0.009855,0.998728,0.000000,-0.050430
0.029596,-0.651458,0.063325,0.000000,-1.000000,0.000000
-0.087843,-0.651458,0.148963,0.000000,-1.000000,0.000000
0.139631,-0.275234,0.136728,0.714497,0.000000,0.699638
-0.141050,-0.431914,0.135264,-0.721756,0.000000,0.692147
0.049478,-0.121219,0.189059,0.253180,0.000000,0.967419
0.105173,-0.484522,-0.164712,0.538170,0.000000,-0.842836
-0.138149,-0.191899,-0.138225,-0.706911,0.000000,-0.707303
-0.012590,0.390882,0.195020,-0.064425,0.000000,0.997923
0.016450,0.040566,0.135426,0.000000,0.000000,1.000000
0.093084,-0.651458,-0.065248,0.000000,-1.000000,0.000000
0.191205,0.268049,0.040399,0.978399,0.000000,0.206725
0.065987,-0.651458,-0.072310,0.000000,-1.000000,0.000000
0.159610,-0.169854,-0.112765,0.816730,0.000000,-0.577020
0.055493,-0.651458,-0.134529,0.000000,-1.000000,0.000000
-0.163931,-0.489169,-0.106387,-0.838837,0.000000,-0.544383
-0.009333,0.023684,-0.195203,-0.047756,0.000000,-0.998859
0.178019,-0.618275,-0.080627,0.910926,0.000000,-0.412571
-0.033764,0.031434,0.135426,0.000000,0.000000,1.000000
0.161248,0.236036,-0.110411,0.825109,0.000000,-0.564974
0.070493,0.523644,0.182269,0.360716,0.000000,0.932676
-0.014770,0.333721,-0.194867,-0.075576,0.000000,-0.997140
-0.195426,0.011875,0.000033,-1.000000,0.000000,0.000167
-0.027843,-0.209866,0.135426,0.000000,0.000000,1.000000
0.057778,-0.124676,-0.186690,0.295650,0.000000,-0.955296
-0.172524,-0.448929,0.091798,-0.882809,0.000000,0.469732
0.194384,-0.503968,-0.020159,0.994665,0.000000,-0.103154
-0.103132,-0.173848,0.165997,-0.527730,0.000000,0.849412
-0.042931,-0.114146,0.190652,-0.219679,0.000000,0.975572
-0.078802,-0.651458,0.058775,0.000000,-1.000000,0.000000
-0.115420,0.651458,0.081235,0.000000,1.000000,0.000000
0.012111,0.337829,-0.195050,0.061975,0.000000,-0.998078
-0.183605,0.484684,-0.066937,-0.939512,0.000000,-0.342517
0.162865,-0.123651,0.108011,0.833382,0.000000,0.552697
-0.158681,0.003689,-0.114070,-0.811972,0.000000,-0.583697
-0.076329,0.315982,-0.179904,-0.390576,0.000000,-0.920571
-0.137921,0.435501,-0.138452,-0.705747,0.000000,-0.708464
-0.059281,-0.128916,0.135426,0.000000,0.000000,1.000000
0.102196,-0.122702,0.166575,0.522939,0.000000,0.852370
0.195008,-0.473741,0.012777,0.997860,0.000000,0.065382
-0.071786,0.550845,0.181764,-0.367333,0.000000,0.930090
-0.023968,0.105984,0.135426,0.000000,0.000000,1.000000
0.052255,-0.558882,-0.188310,0.267389,0.000000,-0.963589
-0.193390,-0.609864,0.028136,-0.989582,0.000000,0.143973
0.080230,0.651458,0.007604,0.000000,1.000000,0.000000
-0.152796,-0.651458,-0.042114,0.000000,-1.000000,0.000000
0.186453,-0.503411,0.058538,0.954083,0.000000,0.299542
-0.113696,-0.406982,0.158948,-0.581787,0.000000,0.813341
-0.185637,0.524185,0.061076,-0.949909,0.000000,0.312527
0.195397,-0.283130,-0.003383,0.999850,0.000000,-0.017313
-0.075343,0.651458,0.081551,0.000000,1.000000,0.000000
0.194621,-0.592638,-0.017724,0.995879,0.000000,-0.090692
0.163652,-0.651458,-0.088503,0.000000,-1.000000,0.000000
0.190395,-0.044650,0.044058,0.974256,0.000000,0.225446
-0.000121,0.208946,-0.195426,-0.000619,0.000000,-1.000000
-0.057795,0.230563,-0.186684,-0.295739,0.000000,-0.955269
0.037669,0.156412,-0.191761,0.192752,0.000000,-0.981247
-0.082483,-0.651458,0.056800,0.000000,-1.000000,0.000000
0.101360,0.651458,0.106988,0.000000,1.000000,0.000000
-0.176995,0.311538,-0.082851,-0.905686,0.000000,-0.423948
-0.078891,0.114398,-0.178795,-0.403688,0.000000,-0.914897
-0.081753,-0.035721,-0.177504,-0.418334,0.000000,-0.908293
0.194344,0.285227,-0.020533,0.994465,0.000000,-0.105068
-0.194448,-0.191908,-0.019526,-0.994996,0.000000,-0.099914
0.177802,0.072763,-0.081103,0.909818,0.000000,-0.415008
-0.148162,-0.190632,0.127434,-0.758147,0.000000,0.652084
0.143991,0.385156,0.132129,0.736806,0.000000,0.676105
0.010560,0.309148,-0.195141,0.054038,0.000000,-0.998539
0.194371,-0.022297,-0.020285,0.994598,0.000000,-0.103799
-0.189853,-0.380680,0.046338,-0.971482,0.000000,0.237114
-0.137201,-0.443604,-0.139166,-0.702061,0.000000,-0.712117
0.190907,-0.368431,0.041785,0.976875,0.000000,0.213813
-0.004870,0.651458,-0.081081,0.000000,1.000000,0.000000
-0.188402,0.101542,0.051923,-0.964058,0.000000,0.265691
-0.127008,0.129236,0.148527,-0.649902,0.000000,0.760018
-0.186248,-0.396128,0.059187,-0.953035,0.000000,0.302861
-0.066307,0.082334,0.135426,0.000000,0.000000,1.000000
0.193944,0.448428,0.024019,0.992418,0.000000,0.122907
0.195160,0.051693,-0.010199,0.998637,0.000000,-0.052187
-0.194976,0.466958,0.013251,-0.997698,0.000000,0.067808
-0.102855,-0.194128,-0.166169,-0.526312,0.000000,-0.850292
-0.042692,0.121495,0.135426,0.000000,0.000000,1.000000
-0.090137,0.375194,-0.173398,-0.461231,0.000000,-0.887280
-0.142122,0.551437,-0.134137,-0.727243,0.000000,-0.686380
0.184070,-0.295361,-0.065647,0.941891,0.000000,-0.335919
0.027883,0.651458,0.008565,0.000000,1.000000,0.000000
-0.025330,-0.430371,-0.193778,-0.129615,0.000000,-0.991564
-0.042587,0.100522,-0.190729,-0.217920,0.000000,-0.975967
-0.191831,-0.457563,0.037314,-0.981603,0.000000,0.190936
0.131864,0.651458,-0.071397,0.000000,1.000000,0.000000
-0.027276,0.651458,0.010454,0.000000,1.000000,0.000000
0.068799,-0.150305,-0.182915,0.352048,0.000000,-0.935982
-0.154257,-0.651458,0.053802,0.000000,-1.000000,0.000000
-0.194796,0.017337,0.015681,-0.996776,0.000000,0.080238
-0.059341,-0.246032,0.186199,-0.303649,0.000000,0.952784
-0.193552,-0.440564,0.027000,-0.990410,0.000000,0.138160
0.092682,0.381173,-0.172051,0.474255,0.000000,-0.880388
0.052475,-0.368526,-0.188249,0.268513,0.000000,-0.963276
-0.110309,0.351650,0.161317,-0.564455,0.000000,0.825464
-0.109351,-0.107007,0.161969,-0.559550,0.000000,0.828797
-0.118836,0.154877,-0.155143,-0.608084,0.000000,-0.793873
-0.162055,-0.045586,0.109223,-0.829237,0.000000,0.558897
-0.167384,0.579801,0.100867,-0.856506,0.000000,0.516137
0.002185,0.651458,-0.001012,0.000000,1.000000,0.000000
-0.015125,0.450374,0.194840,-0.077395,0.000000,0.997000
-0.089247,0.485147,-0.173857,-0.456681,0.000000,-0.889630
0.147673,-0.420066,0.128001,0.755645,0.000000,0.654982
0.088105,-0.082440,-0.174439,0.450835,0.000000,-0.892607
-0.171059,0.651458,0.034785,0.000000,1.000000,0.000000
0.138142,0.651458,0.097710,0.000000,1.000000,0.000000
0.087044,-0.288756,-0.174971,0.445405,0.000000,-0.895329
-0.103278,-0.570195,-0.165906,-0.528478,0.000000,-0.848947
-0.079408,-0.294146,0.178566,-0.406331,0.000000,0.913726
0.002187,0.651458,0.087074,0.000000,1.000000,0.000000
-0.079080,0.102545,0.135426,0.000000,0.000000,1.000000
-0.026560,-0.651458,-0.017830,0.000000,-1.000000,0.000000
-0.120843,-0.442516,-0.153585,-0.618356,0.000000,-0.785898
0.016042,0.651458,0.124082,0.000000,1.000000,0.000000
0.182669,-0.545714,0.069452,0.934719,0.000000,0.355387
-0.192714,0.352859,0.032447,-0.986120,0.000000,0.166033
0.187228,0.281477,0.056008,0.958052,0.000000,0.286593
0.185820,-0.457687,-0.060517,0.950845,0.000000,-0.309668
-0.050724,-0.651458,0.114893,0.000000,-1.000000,0.000000
0.191438,-0.470397,0.039281,0.979591,0.000000,0.201000
0.184127,-0.021666,0.065486,0.942184,0.000000,0.335096
-0.012006,0.200526,0.195057,-0.061436,0.000000,0.998111
-0.039439,-0.651458,-0.184232,0.000000,-1.000000,0.000000
0.161347,-0.327096,0.110266,0.825617,0.000000,0.564232
-0.068253,0.651458,0.084423,0.000000,1.000000,0.000000
-0.164690,-0.367378,0.105207,-0.842723,0.000000,0.538347
0.176660,0.178081,0.083561,0.903975,0.000000,0.427586
0.109469,0.180566,-0.161889,0.560156,0.000000,-0.828387
0.074813,-0.651458,-0.033574,0.000000,-1.000000,0.000000
0.036194,-0.475184,-0.192045,0.185207,0.000000,-0.982700
-0.183149,0.380712,-0.068174,-0.937179,0.000000,-0.348849
0.171787,0.274666,-0.093169,0.879040,0.000000,-0.476749
-0.164734,0.168003,0.105139,-0.842947,0.000000,0.537997
0.017895,-0.651458,-0.077291,0.000000,-1.000000,0.000000
-0.117432,-0.563384,-0.156209,-0.600901,0.000000,-0.799323
-0.045243,-0.037865,0.135426,0.000000,0.000000,1.000000
-0.000438,0.651458,0.003049,0.000000,1.000000,0.000000
-0.181570,-0.624393,-0.072276,-0.929095,0.000000,-0.369840
-0.121345,0.651458,-0.015915,0.000000,1.000000,0.000000
0.009081,-0.127544,0.135426,0.000000,0.000000,1.000000
0.085715,-0.363437,0.175626,0.438604,0.000000,0.898681
-0.060986,0.210718,-0.185667,-0.312067,0.000000,-0.950060
-0.193820,-0.533609,0.025007,-0.991779,0.000000,0.127964
0.172983,0.651458,0.054835,0.000000,1.000000,0.000000
0.056800,-0.556316,0.186990,0.290649,0.000000,0.956830
-0.012570,-0.175496,0.135426,0.000000,0.000000,1.000000
0.129038,-0.569455,0.146767,0.660289,0.000000,0.751012
0.143037,0.061283,0.133161,0.731923,0.000000,0.681388
0.061892,-0.095848,0.135426,0.000000,0.000000,1.000000
0.048937,-0.546956,0.189200,0.250411,0.000000,0.968140
0.110218,-0.649609,-0.161379,0.563989,0.000000,-0.825782
0.018248,-0.651458,0.000762,0.000000,-1.000000,0.000000
0.087292,-0.441560,-0.174847,0.446675,0.000000,-0.894696
0.113362,-0.651458,0.093718,0.000000,-1.000000,0.000000
-0.073316,0.263121,-0.181152,-0.375161,0.000000,-0.926960
0.189146,0.143919,0.049145,0.967864,0.000000,0.251474
-0.165774,-0.325908,0.103490,-0.848272,0.000000,0.529561
-0.162513,-0.353624,0.108539,-0.831584,0.000000,0.555398
0.194464,-0.334225,-0.019366,0.995078,0.000000,-0.099097
0.137883,0.242147,0.138491,0.705551,0.000000,0.708659
-0.033659,-0.650516,-0.192506,-0.172234,0.000000,-0.985056
0.121308,-0.467662,-0.153218,0.620734,0.000000,-0.784021
-0.079475,-0.571270,-0.178536,-0.406674,0.000000,-0.913573
0.066898,0.232252,-0.183619,0.342320,0.000000,-0.939583
-0.030949,0.271313,-0.192960,-0.158365,0.000000,-0.987381
-0.070900,-0.651458,-0.088420,0.000000,-1.000000,0.000000
0.082159,0.239461,0.177317,0.420411,0.000000,0.907334
-0.113576,0.651458,-0.089641,0.000000,1.000000,0.000000
-0.133311,0.485375,0.142897,-0.682154,0.000000,0.731208
0.021742,-0.248606,-0.194213,0.111256,0.000000,-0.993792
-0.042051,0.651458,0.183123,0.000000,1.000000,0.000000
-0.078403,-0.103357,0.135426,0.000000,0.000000,1.000000
-0.074883,0.173374,0.135426,0.000000,0.000000,1.000000
0.096461,-0.183451,-0.169961,0.493592,0.000000,-0.869693
-0.064879,-0.651458,0.105846,0.000000,-1.000000,0.000000
-0.105187,0.085966,-0.164703,-0.538244,0.000000,-0.842789
0.040426,0.296770,0.191199,0.206862,0.000000,0.978370
-0.024535,0.651458,-0.034195,0.000000,1.000000,0.000000
0.166236,0.490756,0.102748,0.850632,0.000000,0.525762
-0.036189,-0.197530,-0.192046,-0.185180,0.000000,-0.982705
-0.033741,0.529147,-0.192491,-0.172653,0.000000,-0.984983
-0.187980,0.235929,0.053431,-0.961898,0.000000,0.273409
-0.056455,-0.651458,-0.129318,0.000000,-1.000000,0.000000
0.137186,0.030162,0.139181,0.701985,0.000000,0.712192
-0.151452,0.453726,0.123506,-0.774984,0.000000,0.631981
0.008400,-0.651458,-0.015111,0.000000,-1.000000,0.000000
-0.128426,0.364975,0.147303,-0.657157,0.000000,0.753754
-0.164460,-0.364284,-0.105567,-0.841545,0.000000,-0.540188
-0.076944,-0.023329,0.135426,0.000000,0.000000,1.000000
0.188942,0.348846,0.049924,0.966820,0.000000,0.255460
0.047616,0.116327,0.135426,0.000000,0.000000,1.000000
0.022336,-0.380964,0.194146,0.114292,0.000000,0.993447
0.060650,0.112073,0.185776,0.310350,0.000000,0.950622
-0.042178,-0.098940,0.135426,0.000000,0.000000,1.000000
0.042940,-0.586905,-0.190650,0.219724,0.000000,-0.975562
0.195418,-0.487374,-0.001731,0.999961,0.000000,-0.008856
0.047784,-0.305782,-0.189494,0.244513,0.000000,-0.969646
0.015481,0.209742,0.135426,0.000000,0.000000,1.000000
-0.160824,0.341670,-0.111027,-0.822941,0.000000,-0.568127
0.031316,0.557723,-0.192901,0.160243,0.000000,-0.987078
-0.195397,0.195401,0.003386,-0.999850,0.000000,0.017326
0.161333,-0.530445,-0.110286,0.825546,0.000000,-0.564335
0.108056,-0.457423,-0.162835,0.552926,0.000000,-0.833230
-0.148700,-0.341126,-0.126806,-0.760901,0.000000,-0.648868
-0.157660,0.116867,0.115476,-0.806749,0.000000,0.590895
0.128158,0.651458,0.019447,0.000000,1.000000,0.000000
-0.195072,-0.153576,0.011767,-0.998186,0.000000,0.060213
0.055986,-0.141973,0.187235,0.286480,0.000000,0.958086
-0.065953,-0.027087,0.183961,-0.337485,0.000000,0.941331
0.054789,0.651458,-0.006397,0.000000,1.000000,0.000000
-0.042723,0.651458,0.027839,0.000000,1.000000,0.000000
0.157574,0.317200,0.115593,0.806310,0.000000,0.591493
-0.009041,-0.359012,-0.195217,-0.046263,0.000000,-0.998929
-0.000196,-0.651458,0.011113,0.000000,-1.000000,0.000000
0.195414,-0.397089,0.002144,0.999940,0.000000,0.010969
0.137535,0.345389,-0.138836,0.703772,0.000000,-0.710426
0.107794,-0.208438,0.163009,0.551582,0.000000,0.834121
0.190718,0.238709,-0.042639,0.975907,0.000000,-0.218187
-0.167442,0.651458,0.078999,0.000000,1.000000,0.000000
0.098376,-0.079216,0.168859,0.503393,0.000000,0.864057
0.168369,-0.651458,-0.083017,0.000000,-1.000000,0.000000
-0.005738,-0.117037,-0.195342,-0.029362,0.000000,-0.999569
0.171152,0.206013,0.094332,0.875787,0.000000,0.482697
-0.189876,0.346810,-0.046245,-0.971599,0.000000,-0.236634
-0.057226,0.651458,-0.135026,0.000000,1.000000,0.000000
0.046476,0.160018,0.135426,0.000000,0.000000,1.000000
0.128299,0.143160,-0.147413,0.656511,0.000000,-0.754316
-0.079921,0.078710,-0.178337,-0.408959,0.000000,-0.912553
-0.042951,0.081916,0.135426,0.000000,0.000000,1.000000
-0.185205,0.449862,-0.062373,-0.947699,0.000000,-0.319165
-0.011730,0.651458,-0.004761,0.000000,1.000000,0.000000
-0.011063,-0.432317,-0.195113,-0.056611,0.000000,-0.998396
-0.192341,0.451632,0.034589,-0.984212,0.000000,0.176993
0.082855,0.641142,0.176993,0.423973,0.000000,0.905675
-0.099317,0.284077,0.168308,-0.508205,0.000000,0.861236
0.194090,0.358246,-0.022817,0.993161,0.000000,-0.116755
0.190282,0.472942,-0.044543,0.973678,0.000000,-0.227928
-0.054235,0.180255,0.135426,0.000000,0.000000,1.000000
0.000392,0.651458,-0.064655,0.000000,1.000000,0.000000
-0.159635,-0.651458,0.009888,0.000000,-1.000000,0.000000
0.195301,-0.351599,0.006997,0.999359,0.000000,0.035802
0.028781,0.383335,0.193295,0.147275,0.000000,0.989096
0.080401,0.047114,-0.178121,0.411412,0.000000,-0.911449
0.164479,0.471486,-0.105537,0.841644,0.000000,-0.540033
-0.013273,0.651458,0.051513,0.000000,1.000000,0.000000
0.071010,-0.201743,-0.182068,0.363362,0.000000,-0.931648
0.146740,-0.128367,-0.129069,0.750870,0.000000,-0.660449
-0.079695,-0.176961,0.135426,0.000000,0.000000,1.000000
0.166481,0.286532,-0.102350,0.851885,0.000000,-0.523729
0.159028,0.069514,-0.113585,0.813749,0.000000,-0.581217
-0.194627,0.637149,-0.017657,-0.995910,0.000000,-0.090354
0.078443,0.028833,0.135426,0.000000,0.000000,1.000000
0.022103,0.651458,0.024346,0.000000,1.000000,0.000000
0.006660,-0.651458,0.002062,0.000000,-1.000000,0.000000
-0.039320,-0.002634,0.135426,0.000000,0.000000,1.000000
-0.193008,-0.381443,-0.030650,-0.987625,0.000000,-0.156836
0.049992,0.615079,-0.188924,0.255810,0.000000,-0.966727
-0.088113,-0.651458,-0.089146,0.000000,-1.000000,0.000000
-0.195391,-0.519845,0.003705,-0.999820,0.000000,0.018960
-0.114265,-0.169327,0.158540,-0.584695,0.000000,0.811253
-0.116955,-0.417588,-0.156566,-0.598459,0.000000,-0.801153
0.195381,-0.415157,0.004195,0.999770,0.000000,0.021465
0.062080,-0.651458,0.064680,0.000000,-1.000000,0.000000
0.009262,0.651458,0.001855,0.000000,1.000000,0.000000
0.035703,0.047838,-0.192137,0.182692,0.000000,-0.983170
-0.181759,0.063609,-0.071799,-0.930065,0.000000,-0.367396
-0.191212,0.639397,0.040366,-0.978435,0.000000,0.206553
-0.056853,0.068603,0.135426,0.000000,0.000000,1.000000
-0.173620,-0.231395,0.089708,-0.888417,0.000000,0.459036
-0.035311,-0.010423,-0.192210,-0.180685,0.000000,-0.983541
0.184240,0.442966,0.065168,0.942762,0.000000,0.333466
0.016230,-0.426096,-0.194751,0.083049,0.000000,-0.996545
-0.173960,-0.113030,0.089047,-0.890157,0.000000,0.455654
0.139561,0.510155,0.136799,0.714138,0.000000,0.700005
0.097141,-0.142535,-0.169573,0.497074,0.000000,-0.867708
0.195218,0.395742,-0.009013,0.998936,0.000000,-0.046120
0.071076,0.084558,0.135426,0.000000,0.000000,1.000000
0.118645,-0.012191,-0.155289,0.607109,0.000000,-0.794619
0.165393,0.192392,0.104099,0.846318,0.000000,0.532678
0.104453,-0.460196,0.165169,0.534489,0.000000,0.845176
-0.193001,-0.439555,-0.030695,-0.987588,0.000000,-0.157065
-0.004660,-0.651458,-0.059231,0.000000,-1.000000,0.000000
-0.162416,-0.651458,0.026595,0.000000,-1.000000,0.000000
-0.017612,0.651458,-0.128889,0.000000,1.000000,0.000000
0.123112,0.322345,0.151772,0.629968,0.000000,0.776621
-0.112087,-0.517846,0.160087,-0.573550,0.000000,0.819170
0.189002,0.020824,-0.049695,0.967128,0.000000,-0.254289
0.142700,-0.575185,0.133522,0.730200,0.000000,0.683234
0.095501,-0.651458,0.070383,0.000000,-1.000000,0.000000
-0.000250,0.158780,-0.195426,-0.001278,0.000000,-0.999999
-0.127714,0.556877,-0.147921,-0.653514,0.000000,-0.756915
0.078878,0.651458,0.074933,0.000000,1.000000,0.000000
-0.156983,-0.147133,0.116395,-0.803283,0.000000,0.595597
0.185972,0.433915,-0.060047,0.951625,0.000000,-0.307262
-0.076470,0.651458,0.113741,0.000000,1.000000,0.000000
-0.188621,-0.288341,-0.051123,-0.965177,0.000000,-0.261599
-0.180620,-0.427356,-0.074618,-0.924235,0.000000,-0.381824
0.152478,-0.249870,0.122236,0.780235,0.000000,0.625487
0.194600,-0.279758,-0.017954,0.995771,0.000000,-0.091869
-0.183453,-0.305931,0.067352,-0.938734,0.000000,0.344642
-0.170743,0.380953,-0.095069,-0.873696,0.000000,-0.486472
0.144210,-0.297781,-0.131889,0.737928,0.000000,-0.674880
0.192618,0.374503,-0.033008,0.985632,0.000000,-0.168905
0.188823,0.037108,0.050373,0.966210,0.000000,0.257758
-0.043379,-0.651458,-0.042047,0.000000,-1.000000,0.000000
-0.195298,0.238449,-0.007073,-0.999345,0.000000,-0.036195
0.192620,-0.423531,-0.032998,0.985642,0.000000,-0.168849
-0.159943,-0.424928,-0.112293,-0.818430,0.000000,-0.574606
-0.156236,-0.600449,0.117395,-0.799465,0.000000,0.600712
-0.184264,0.432134,0.065101,-0.942883,0.000000,0.333125
-0.182258,0.587473,0.070522,-0.932620,0.000000,0.360861
0.015383,0.651458,0.024018,0.000000,1.000000,0.000000
-0.081892,-0.651458,0.169000,0.000000,-1.000000,0.000000
-0.192950,0.567237,-0.031010,-0.987331,0.000000,-0.158676
0.168896,0.101834,-0.098313,0.864245,0.000000,-0.503071
-0.026501,0.596156,0.193621,-0.135605,0.000000,0.990763
-0.190439,0.029932,0.043866,-0.974483,0.000000,0.224463
-0.052070,0.651458,0.029275,0.000000,1.000000,0.000000
-0.091317,0.369497,0.172779,-0.467272,0.000000,0.884113
0.035805,-0.089272,0.192118,0.183214,0.000000,0.983073
-0.015231,0.037188,0.135426,0.000000,0.000000,1.000000
-0.046095,-0.285788,-0.189912,-0.235869,0.000000,-0.971785
-0.191355,0.381360,0.039682,-0.979167,0.000000,0.203056
0.101329,0.651458,0.042044,0.000000,1.000000,0.000000
-0.030232,0.651458,-0.106745,0.000000,1.000000,0.000000
0.024963,-0.082190,-0.193825,0.127738,0.000000,-0.991808
0.056051,0.028128,-0.187216,0.286813,0.000000,-0.957987
-0.166975,-0.190985,-0.101541,-0.854416,0.000000,-0.519589
0.049156,-0.557006,-0.189143,0.251530,0.000000,-0.967849
0.087524,0.389117,0.174731,0.447864,0.000000,0.894101
-0.009324,-0.086662,0.135426,0.000000,0.000000,1.000000
-0.139073,0.454546,-0.137295,-0.711640,0.000000,-0.702544
0.065501,-0.111894,0.184122,0.335172,0.000000,0.942157
0.147694,-0.651458,0.055805,0.000000,-1.000000,0.000000
0.179912,0.325929,-0.076309,0.920614,0.000000,-0.390474
-0.193420,-0.304883,-0.027930,-0.989734,0.000000,-0.142919
-0.193891,0.625639,0.024449,-0.992143,0.000000,0.125106
-0.163483,-0.313073,0.107073,-0.836547,0.000000,0.547895
-0.039221,0.010270,0.135426,0.000000,0.000000,1.000000
-0.173092,-0.427202,0.090723,-0.885715,0.000000,0.464229
-0.059731,0.651458,0.018262,0.000000,1.000000,0.000000
0.160537,0.434534,0.111441,0.821472,0.000000,0.570249
-0.147249,0.071979,-0.128487,-0.753478,0.000000,-0.657473
0.151055,-0.089711,-0.123991,0.772951,0.000000,-0.634465
-0.014739,-0.152971,0.135426,0.000000,0.000000,1.000000
-0.195411,-0.640026,-0.002447,-0.999922,0.000000,-0.012521
-0.146188,-0.352736,0.129694,-0.748046,0.000000,0.663647
0.146857,0.630794,-0.128936,0.751470,0.000000,-0.659767
-0.004817,-0.534628,-0.195367,-0.024650,0.000000,-0.999696
0.142892,-0.106778,0.133316,0.731181,0.000000,0.682184
-0.021132,0.126745,0.135426,0.000000,0.000000,1.000000
-0.157927,0.183649,-0.115110,-0.808118,0.000000,-0.589020
-0.194817,0.236028,-0.015417,-0.996883,0.000000,-0.078890
-0.029977,-0.651458,0.010690,0.000000,-1.000000,0.000000
0.185840,0.412139,0.060456,0.950946,0.000000,0.309356
-0.004993,-0.459986,0.195362,-0.025547,0.000000,0.999674
-0.188606,0.218889,0.051177,-0.965103,0.000000,0.261872
-0.099508,0.651458,-0.063428,0.000000,1.000000,0.000000
-0.172918,0.651458,-0.028085,0.000000,1.000000,0.000000
-0.100143,-0.651458,0.135181,0.000000,-1.000000,0.000000
0.045488,-0.203144,0.135426,0.000000,0.000000,1.000000
0.150469,-0.274838,-0.124702,0.769951,0.000000,-0.638103
-0.016245,-0.184801,0.135426,0.000000,0.000000,1.000000
0.027339,-0.081872,0.135426,0.000000,0.000000,1.000000
0.044245,-0.188548,-0.190352,0.226405,0.000000,-0.974033
-0.028117,0.651458,-0.087017,0.000000,1.000000,0.000000
-0.097044,-0.157550,-0.169629,-0.496575,0.000000,-0.867994
0.067695,-0.022006,-0.183327,0.346399,0.000000,-0.938087
-0.128982,-0.529344,0.146816,-0.660005,0.000000,0.751261
0.151350,0.233114,-0.123631,0.774459,0.000000,-0.632624
-0.178161,0.648080,0.080313,-0.911651,0.000000,0.410964
-0.113853,-0.041899,0.158836,-0.582591,0.000000,0.812766
-0.095126,-0.348084,-0.170712,-0.486759,0.000000,-0.873536
-0.176053,0.276630,0.084833,-0.900868,0.000000,0.434093
0.015011,0.651458,-0.091962,0.000000,1.000000,0.000000
0.190917,0.382158,-0.041739,0.976925,0.000000,-0.213581
-0.167820,-0.008657,0.100138,-0.858741,0.000000,0.512410
0.006054,-0.651458,-0.001047,0.000000,-1.000000,0.000000
-0.167611,0.508509,0.100489,-0.857667,0.000000,0.514205
0.187238,0.586668,-0.055977,0.958099,0.000000,-0.286436
-0.166155,0.560526,-0.102878,-0.850220,0.000000,-0.526427
-0.074785,0.651458,-0.016241,0.000000,1.000000,0.000000
0.070278,-0.651458,-0.009694,0.000000,-1.000000,0.000000
0.070528,0.651458,-0.015817,0.000000,1.000000,0.000000
-0.119438,-0.509197,0.154680,-0.611168,0.000000,0.791501
0.077208,0.243519,-0.179528,0.395077,0.000000,-0.918648
-0.003846,0.651458,0.001966,0.000000,1.000000,0.000000
0.078928,0.629128,0.178778,0.403877,0.000000,0.914813
0.047971,-0.597638,-0.189447,0.245469,0.000000,-0.969404
-0.157876,0.304082,0.115180,-0.807856,0.000000,0.589380
0.191250,0.301895,-0.040183,0.978632,0.000000,-0.205618
-0.061228,0.651458,0.023473,0.000000,1.000000,0.000000
0.041773,-0.651458,0.174316,0.000000,-1.000000,0.000000
-0.088853,-0.436442,0.174059,-0.454665,0.000000,0.890663
-0.177402,0.281790,0.081974,-0.907772,0.000000,0.419463
-0.195138,0.380339,0.010602,-0.998527,0.000000,0.054250
0.063051,-0.001783,-0.184976,0.322632,0.000000,-0.946525
-0.145522,0.224954,0.130441,-0.744638,0.000000,0.667469
0.046227,-0.174086,-0.189880,0.236545,0.000000,-0.971620
-0.048252,-0.196627,0.189376,-0.246907,0.000000,0.969039
-0.026847,0.651458,0.021235,0.000000,1.000000,0.000000
-0.031303,0.651458,0.017572,0.000000,1.000000,0.000000
0.116080,-0.246464,0.157216,0.593983,0.000000,0.804478
0.124062,-0.651458,0.127556,0.000000,-1.000000,0.000000
-0.033834,0.163388,0.135426,0.000000,0.000000,1.000000
0.005273,0.222299,-0.195355,0.026984,0.000000,-0.999636
-0.082983,0.328555,0.176933,-0.424625,0.000000,0.905370
0.132314,-0.401982,0.143821,0.677053,0.000000,0.735934
0.113463,0.137942,0.159115,0.580593,0.000000,0.814194
0.100706,-0.110385,0.167481,0.515313,0.000000,0.857002
0.083814,0.072920,0.176541,0.428876,0.000000,0.903364
0.152793,-0.495557,-0.121843,0.781846,0.000000,-0.623471
0.177068,-0.414242,-0.082695,0.906059,0.000000,-0.423152
-0.193951,0.161864,0.023970,-0.992449,0.000000,0.122656
0.020005,0.108430,0.194400,0.102367,0.000000,0.994747
-0.124856,0.651458,0.057539,0.000000,1.000000,0.000000
-0.032548,0.224892,0.192697,-0.166546,0.000000,0.986034
0.195260,-0.511213,0.008049,0.999152,0.000000,0.041184
0.117590,0.065252,-0.156089,0.601712,0.000000,-0.798713
0.163413,0.405693,0.107180,0.836189,0.000000,0.548441
-0.002519,-0.651458,-0.150370,0.000000,-1.000000,0.000000
0.135996,0.138392,-0.140344,0.695895,0.000000,-0.718143
0.173205,0.481730,-0.090507,0.886293,0.000000,-0.463124
0.132432,-0.651458,-0.057527,0.000000,-1.000000,0.000000
-0.138052,0.139817,-0.138322,-0.706418,0.000000,-0.707795
0.191380,0.559248,0.039559,0.979298,0.000000,0.202426
0.165829,-0.159624,0.103402,0.848552,0.000000,0.529113
-0.188136,0.294344,0.052881,-0.962694,0.000000,0.270593
-0.006397,-0.027366,0.135426,0.000000,0.000000,1.000000
0.027529,0.161796,0.193477,0.140869,0.000000,0.990028
0.160073,0.412413,-0.112107,0.819098,0.000000,-0.573654
0.133861,-0.256778,-0.142382,0.684972,0.000000,-0.728569
0.098054,0.651458,-0.161839,0.000000,1.000000,0.000000
0.181444,-0.622265,0.072591,0.928453,0.000000,0.371449
-0.073538,-0.651458,-0.052470,0.000000,-1.000000,0.000000
0.071785,-0.053282,0.135426,0.000000,0.000000,1.000000
-0.147745,-0.207667,0.127917,-0.756014,0.000000,0.654555
0.190619,-0.634743,0.043078,0.975402,0.000000,0.220433
0.041434,0.651458,-0.024793,0.000000,1.000000,0.000000
-0.188749,-0.095007,0.050650,-0.965830,0.000000,0.259175
0.178168,-0.036357,0.080297,0.911689,0.000000,0.410881
-0.005159,-0.275455,0.195358,-0.026401,0.000000,0.999651
