x,y,z,nx,ny,nz
-2.478283,-1.923049,9.878561,0.000000,0.000000,1.000000
-5.612766,-0.859544,0.000000,0.000000,0.000000,-1.000000
-4.093914,-0.295001,0.000000,0.000000,0.000000,-1.000000
-0.164869,3.606260,-30.589344,-0.098017,0.995185,0.000000
0.986968,-6.390515,6.457464,-0.000000,-1.000000,-0.000000
-0.452168,-3.577963,-43.154661,-0.098017,-0.995185,0.000000
7.050847,0.568605,8.963802,0.866025,0.500000,0.000000
-1.165612,-3.413687,-41.728670,-0.290284,-0.956940,0.000000
4.401893,5.156729,1.775038,0.866025,0.500000,0.000000
2.287121,-6.390515,2.261578,-0.000000,-1.000000,-0.000000
1.616251,-3.223824,-23.878680,0.471397,-0.881921,0.000000
4.253852,4.040694,9.878561,0.000000,0.000000,1.000000
-1.420715,-3.328340,-50.798694,-0.471397,-0.881921,0.000000
6.412739,-1.673841,5.732820,0.866025,-0.500000,0.000000
-3.518776,0.819181,-44.677887,-0.956940,0.290284,0.000000
4.189028,5.525422,2.175096,0.866025,0.500000,0.000000
0.019464,-3.620581,-41.000101,0.098017,-0.995185,0.000000
4.919108,-4.260885,8.984804,0.866025,-0.500000,0.000000
-1.800379,1.703287,9.878561,0.000000,0.000000,1.000000
-0.471626,3.576047,-30.806325,-0.098017,0.995185,0.000000
3.105453,1.837707,-40.318840,0.881921,0.471397,-0.000000
2.774409,-2.302054,-34.811832,0.773010,-0.634394,0.000000
-0.838657,3.512868,-37.961618,-0.290284,0.956940,0.000000
-2.543850,-2.575972,-49.811240,-0.634394,-0.773010,0.000000
-1.948609,3.046175,-36.829286,-0.471397,0.881921,0.000000
-0.492018,-3.574038,-51.746006,-0.098017,-0.995185,0.000000
3.150535,1.753366,-36.777607,0.881921,0.471397,-0.000000
2.255384,2.812710,-37.519594,0.634394,0.773010,-0.000000
0.431959,3.579954,-37.745808,0.098017,0.995185,0.000000
-0.541426,5.968345,0.000000,0.000000,0.000000,-1.000000
-3.444499,-6.390515,0.967376,-0.000000,-1.000000,-0.000000
-0.658786,-1.765608,0.000000,0.000000,0.000000,-1.000000
-5.306791,-3.589399,5.161658,-0.866025,-0.500000,0.000000
-0.487079,3.574525,-35.961776,-0.098017,0.995185,0.000000
6.666826,-1.233750,0.932128,0.866025,-0.500000,0.000000
1.298392,-2.488567,-53.870022,0.000000,0.000000,-1.000000
-2.873877,2.180852,-24.073447,-0.773010,0.634394,0.000000
0.347892,3.588233,-28.519412,0.098017,0.995185,-0.000000
-3.104728,1.839064,-51.686000,-0.881921,0.471397,0.000000
3.294216,-1.484558,-27.659234,0.881921,-0.471397,0.000000
-2.570531,-0.762126,0.000000,0.000000,0.000000,-1.000000
-1.565947,-3.250713,-31.203236,-0.471397,-0.881921,0.000000
2.249592,2.817463,-30.817032,0.634394,0.773010,-0.000000
-3.635498,6.390515,7.363734,-0.000000,1.000000,0.000000
-3.503961,0.868019,-39.467334,-0.956940,0.290284,0.000000
3.425611,0.184692,9.878561,-0.000000,0.000000,1.000000
-6.241899,1.969746,9.722592,-0.866025,0.500000,0.000000
-2.643475,2.461597,-35.957699,-0.773010,0.634394,0.000000
-1.859902,3.093590,-29.967086,-0.471397,0.881921,0.000000
-2.287623,2.786252,-50.653031,-0.634394,0.773010,0.000000
-5.837162,2.670770,4.769322,-0.866025,0.500000,0.000000
1.294441,3.374608,-33.223791,0.290284,0.956940,0.000000
-1.720104,3.168314,-38.909659,-0.471397,0.881921,0.000000
2.526342,2.590340,-34.031031,0.634394,0.773010,0.000000
-0.588827,3.564503,-47.191270,-0.098017,0.995185,0.000000
-1.135275,-6.053856,9.878561,-0.000000,0.000000,1.000000
-0.802605,-3.523804,-38.672251,-0.290284,-0.956940,0.000000
-3.819813,6.164921,8.617635,-0.866025,0.500000,0.000000
-2.740559,2.343300,-33.027014,-0.773010,0.634394,0.000000
-2.844135,2.217093,-36.965052,-0.773010,0.634394,0.000000
2.322759,-6.390515,2.979678,-0.000000,-1.000000,-0.000000
2.802608,-2.267693,-22.995444,0.773010,-0.634394,0.000000
0.445817,-2.631841,0.000000,0.000000,0.000000,-1.000000
-2.413927,-2.682597,-34.232926,-0.634394,-0.773010,0.000000
4.375718,5.202065,5.026557,0.866025,0.500000,0.000000
1.344044,-3.359561,-45.516667,0.290284,-0.956940,0.000000
3.212977,5.870644,0.000000,0.000000,0.000000,-1.000000
-2.087094,2.950822,-23.321591,-0.634394,0.773010,0.000000
-0.272610,3.595648,-34.980778,-0.098017,0.995185,0.000000
-1.025037,3.456330,-28.250773,-0.290284,0.956940,0.000000
-3.053427,-4.062238,9.878561,0.000000,0.000000,1.000000
-2.267905,2.802434,-27.231405,-0.634394,0.773010,0.000000
-0.053857,-1.442792,9.878561,-0.000000,0.000000,1.000000
-3.088240,-0.108377,-21.249527,-0.000000,0.000000,1.000000
-0.398067,0.269237,9.878561,0.000000,0.000000,1.000000
0.999771,-1.801766,-21.249527,0.000000,-0.000000,1.000000
1.735602,-3.160030,-34.608213,0.471397,-0.881921,0.000000
3.013154,-2.010388,-52.269277,0.881921,-0.471397,0.000000
0.369880,-3.586068,-38.228066,0.098017,-0.995185,0.000000
6.514908,-1.496879,7.337825,0.866025,-0.500000,0.000000
5.924586,-2.519347,6.620692,0.866025,-0.500000,0.000000
-1.500906,-3.285478,-31.758924,-0.471397,-0.881921,0.000000
4.699673,-4.640959,5.730448,0.866025,-0.500000,0.000000
6.999329,0.657838,4.206018,0.866025,0.500000,0.000000
2.785808,-4.591749,0.000000,0.000000,0.000000,-1.000000
5.470734,-3.305443,2.415766,0.866025,-0.500000,0.000000
-2.838447,-2.224023,-22.975681,-0.773010,-0.634394,0.000000
-4.961321,1.013610,9.878561,0.000000,0.000000,1.000000
-3.959066,5.923728,3.676032,-0.866025,0.500000,0.000000
0.821301,2.883853,-53.870022,-0.000000,0.000000,-1.000000
3.158973,-1.737579,-44.016037,0.881921,-0.471397,0.000000
-2.723378,-2.364235,-30.392812,-0.773010,-0.634394,0.000000
3.683137,-6.390515,2.510765,-0.000000,-1.000000,-0.000000
-5.547456,-3.172555,4.158274,-0.866025,-0.500000,-0.000000
-2.351082,2.376242,0.000000,0.000000,0.000000,-1.000000
1.973482,3.032880,-34.127020,0.471397,0.881921,0.000000
-4.679587,-4.675748,9.499138,-0.866025,-0.500000,0.000000
1.366412,3.352776,-22.138379,0.290284,0.956940,-0.000000
2.020534,6.390515,2.323354,-0.000000,1.000000,0.000000
2.865128,-2.191512,-32.544811,0.773010,-0.634394,0.000000
-0.412684,6.390515,0.853670,-0.000000,1.000000,0.000000
-1.216316,3.398306,-30.923042,-0.290284,0.956940,0.000000
0.285523,-3.594376,-49.577098,0.098017,-0.995185,0.000000
6.240572,-1.972043,5.002063,0.866025,-0.500000,0.000000
1.743343,3.155892,-49.857465,0.471397,0.881921,0.000000
-3.566128,-0.572333,-41.194217,-0.995185,-0.098017,0.000000
1.493505,1.439371,9.878561,-0.000000,0.000000,1.000000
1.039709,-3.451880,-32.147769,0.290284,-0.956940,0.000000
-6.218025,1.955696,9.878561,0.000000,0.000000,1.000000
6.748472,-1.092335,7.213758,0.866025,-0.500000,0.000000
-2.217982,-2.843405,-42.696775,-0.634394,-0.773010,0.000000
-2.742301,-3.826225,0.000000,0.000000,0.000000,-1.000000
-3.815646,-6.172138,1.399280,-0.866025,-0.500000,0.000000
3.618077,-0.044880,-39.708468,0.995185,-0.098017,0.000000
-4.922323,-0.687710,0.000000,0.000000,0.000000,-1.000000
-2.079216,2.957287,-27.225529,-0.634394,0.773010,0.000000
-1.650083,3.205741,-42.794666,-0.471397,0.881921,0.000000
-2.908268,2.138946,-35.570123,-0.773010,0.634394,0.000000
3.211559,1.639197,-50.468106,0.881921,0.471397,0.000000
-2.126568,-6.390515,2.580272,-0.000000,-1.000000,-0.000000
-5.374188,3.472664,1.479696,-0.866025,0.500000,0.000000
-3.293876,-1.485193,-43.735424,-0.881921,-0.471397,0.000000
2.003294,-3.016946,-26.433721,0.471397,-0.881921,0.000000
-2.994439,-2.695471,9.878561,0.000000,0.000000,1.000000
5.054835,1.746933,0.000000,0.000000,0.000000,-1.000000
-2.635369,-2.471475,-26.207085,-0.773010,-0.634394,0.000000
0.065693,-3.616028,-30.286903,0.098017,-0.995185,0.000000
2.364821,6.390515,8.767082,-0.000000,1.000000,0.000000
2.569794,2.551378,-33.928477,0.773010,0.634394,-0.000000
0.832518,-0.467474,-53.870022,0.000000,0.000000,-1.000000
1.684200,-6.390515,9.179904,-0.000000,-1.000000,-0.000000
2.840152,-6.390515,0.761192,-0.000000,-1.000000,-0.000000
3.864358,6.087767,8.292299,0.866025,0.500000,0.000000
-2.476162,-1.001291,-53.870022,0.000000,-0.000000,-1.000000
-2.162014,-2.889337,-26.123626,-0.634394,-0.773010,0.000000
3.269540,6.390515,8.209244,-0.000000,1.000000,0.000000
3.039090,-5.669921,0.000000,0.000000,0.000000,-1.000000
-3.603435,0.193553,-35.447682,-0.995185,0.098017,0.000000
-1.047769,3.449435,-53.215133,-0.290284,0.956940,0.000000
0.226956,-3.600145,-48.411851,0.098017,-0.995185,0.000000
-1.462410,-5.124559,9.878561,-0.000000,0.000000,1.000000
4.218029,-5.475190,2.310538,0.866025,-0.500000,0.000000
6.721667,-1.138762,5.618017,0.866025,-0.500000,0.000000
3.787477,-6.220929,8.962390,0.866025,-0.500000,0.000000
6.373691,-0.380778,9.878561,0.000000,0.000000,1.000000
-1.102765,3.432752,-35.822328,-0.290284,0.956940,0.000000
-2.882738,-2.170055,-51.000102,-0.773010,-0.634394,0.000000
-3.538010,0.755775,-24.183112,-0.956940,0.290284,0.000000
-4.668017,-4.254920,9.878561,0.000000,0.000000,1.000000
-0.567358,1.077036,-53.870022,-0.000000,-0.000000,-1.000000
2.387133,2.704586,-31.611217,0.634394,0.773010,0.000000
3.295078,-6.390515,5.743442,-0.000000,-1.000000,-0.000000
-3.677316,6.390515,8.611188,-0.000000,1.000000,0.000000
-2.229955,2.833579,-44.353755,-0.634394,0.773010,0.000000
2.868030,-3.670961,9.878561,-0.000000,0.000000,1.000000
-6.935749,0.767961,7.453624,-0.866025,0.500000,0.000000
1.825090,-0.693527,-21.249527,0.000000,-0.000000,1.000000
-1.711925,-3.172685,-24.690014,-0.471397,-0.881921,0.000000
-1.882538,3.081491,-38.306280,-0.471397,0.881921,0.000000
-6.117602,-2.185033,6.712553,-0.866025,-0.500000,0.000000
0.416605,6.390515,6.391737,-0.000000,1.000000,0.000000
-2.883332,-2.169330,-45.962044,-0.773010,-0.634394,0.000000
5.124056,-3.905905,8.236933,0.866025,-0.500000,0.000000
-1.744474,-3.155288,-53.279344,-0.471397,-0.881921,0.000000
-3.239151,1.587577,-49.769827,-0.881921,0.471397,0.000000
2.161524,-3.875863,0.000000,0.000000,0.000000,-1.000000
3.232634,-1.599770,-40.612188,0.881921,-0.471397,0.000000
3.005081,-2.020980,-34.822555,0.773010,-0.634394,0.000000
-3.543167,-0.738774,-28.749817,-0.956940,-0.290284,0.000000
-3.045952,1.949026,-29.401642,-0.881921,0.471397,0.000000
-5.203898,-3.424958,0.000000,0.000000,0.000000,-1.000000
-1.674910,-6.032985,0.000000,0.000000,0.000000,-1.000000
3.390634,-0.353731,-53.870022,0.000000,0.000000,-1.000000
-2.291775,-0.503249,-53.870022,0.000000,-0.000000,-1.000000
3.406494,1.189326,-23.728797,0.956940,0.290284,-0.000000
1.865492,-6.390515,8.014788,-0.000000,-1.000000,-0.000000
1.046218,-6.390515,6.427114,-0.000000,-1.000000,-0.000000
2.873282,-2.181577,-27.184963,0.773010,-0.634394,0.000000
0.638115,0.772725,-53.870022,-0.000000,0.000000,-1.000000
5.386851,3.450731,4.358834,0.866025,0.500000,0.000000
-2.942447,-2.097299,-22.533987,-0.773010,-0.634394,0.000000
1.673838,-0.330973,-53.870022,0.000000,0.000000,-1.000000
-5.715096,-1.791695,9.878561,0.000000,0.000000,1.000000
-3.125164,1.800832,-36.159484,-0.881921,0.471397,0.000000
-3.508943,0.851596,-49.718107,-0.956940,0.290284,0.000000
-6.007105,2.376420,9.496252,-0.866025,0.500000,0.000000
-0.030718,2.831626,-21.249527,0.000000,0.000000,1.000000
4.745613,-4.561388,0.863899,0.866025,-0.500000,0.000000
-0.558195,-1.234668,0.000000,0.000000,0.000000,-1.000000
1.012469,-6.390515,7.720202,-0.000000,-1.000000,-0.000000
0.857639,-6.390515,6.512053,-0.000000,-1.000000,-0.000000
-4.796827,-4.472682,4.624001,-0.866025,-0.500000,0.000000
-0.347428,-6.390515,5.170720,-0.000000,-1.000000,-0.000000
-3.125862,1.799525,-44.812373,-0.881921,0.471397,0.000000
-0.116483,-3.611025,-24.637024,-0.098017,-0.995185,0.000000
1.281808,-3.378440,-51.280419,0.290284,-0.956940,0.000000
-0.192798,3.603509,-32.834944,-0.098017,0.995185,0.000000
2.257180,2.811236,-31.685610,0.634394,0.773010,-0.000000
2.986596,2.043504,-44.610922,0.773010,0.634394,0.000000
-3.514361,0.833737,-48.287026,-0.956940,0.290284,0.000000
0.763925,-5.513554,9.878561,-0.000000,0.000000,1.000000
-1.014186,-6.390515,1.209936,-0.000000,-1.000000,-0.000000
-0.523465,0.356550,9.878561,0.000000,0.000000,1.000000
-0.895622,3.495588,-30.733152,-0.290284,0.956940,0.000000
-3.374047,5.910599,9.878561,0.000000,0.000000,1.000000
2.568907,2.552458,-43.087071,0.773010,0.634394,-0.000000
6.310899,-1.850234,0.434976,0.866025,-0.500000,0.000000
-2.712346,6.390515,6.452131,-0.000000,1.000000,0.000000
-3.537213,-6.390515,9.843591,-0.000000,-1.000000,-0.000000
6.126242,2.170069,1.239107,0.866025,0.500000,0.000000
-5.156752,2.346562,9.878561,0.000000,0.000000,1.000000
-0.134103,-3.609290,-28.982551,-0.098017,-0.995185,0.000000
-1.217943,6.390515,2.278831,-0.000000,1.000000,0.000000
2.324533,2.421252,-21.249527,0.000000,0.000000,1.000000
-3.102809,-1.842655,-35.613122,-0.881921,-0.471397,0.000000
-0.313801,3.591591,-36.567021,-0.098017,0.995185,0.000000
3.560167,-0.632851,-47.522772,0.995185,-0.098017,0.000000
3.299841,-1.474033,-30.818923,0.881921,-0.471397,0.000000
-4.376376,5.200925,8.037788,-0.866025,0.500000,0.000000
-0.396082,6.390515,5.806818,-0.000000,1.000000,0.000000
-3.615743,-6.390515,6.986661,-0.000000,-1.000000,-0.000000
-2.664865,6.222706,0.000000,0.000000,0.000000,-1.000000
-0.609760,-4.729308,0.000000,0.000000,0.000000,-1.000000
-0.020715,3.620458,-38.552751,-0.098017,0.995185,0.000000
1.969182,3.035179,-33.881881,0.471397,0.881921,0.000000
-4.664058,4.702646,3.007775,-0.866025,0.500000,0.000000
4.043105,5.778168,0.098449,0.866025,0.500000,0.000000
-0.592305,-3.564161,-53.269963,-0.098017,-0.995185,0.000000
-4.938376,-4.227513,3.764412,-0.866025,-0.500000,0.000000
-4.792102,-1.069886,0.000000,0.000000,0.000000,-1.000000
-3.467222,-1.100335,0.000000,0.000000,0.000000,-1.000000
-0.519351,3.571346,-27.026447,-0.098017,0.995185,0.000000
-2.319623,-2.759990,-47.640433,-0.634394,-0.773010,0.000000
2.283164,2.789912,-21.857528,0.634394,0.773010,-0.000000
1.125946,6.390515,4.903480,-0.000000,1.000000,0.000000
-4.635538,4.752044,9.710823,-0.866025,0.500000,0.000000
-4.435765,-5.098060,9.773981,-0.866025,-0.500000,0.000000
6.060384,2.284138,2.035848,0.866025,0.500000,0.000000
2.669040,2.430446,-40.590687,0.773010,0.634394,-0.000000
-1.635758,-1.217552,9.878561,0.000000,0.000000,1.000000
-0.653481,-3.558136,-25.869205,-0.098017,-0.995185,0.000000
2.467370,-2.638737,-24.660238,0.634394,-0.773010,0.000000
-1.180113,-2.034586,-53.870022,0.000000,-0.000000,-1.000000
3.203652,1.653991,-22.559871,0.881921,0.471397,-0.000000
-0.576624,-6.390515,0.234521,-0.000000,-1.000000,-0.000000
2.387691,2.704128,-50.474825,0.634394,0.773010,0.000000
-2.211799,2.848479,-21.294592,-0.634394,0.773010,0.000000
-1.127259,3.997469,0.000000,0.000000,0.000000,-1.000000
3.349168,2.104677,9.878561,-0.000000,0.000000,1.000000
-3.396359,1.222736,-37.153571,-0.956940,0.290284,0.000000
-1.227358,-3.349327,9.878561,-0.000000,0.000000,1.000000
-3.222803,1.618162,-25.871085,-0.881921,0.471397,0.000000
-3.946068,5.946240,4.745431,-0.866025,0.500000,0.000000
3.387915,-1.250573,-36.131275,0.956940,-0.290284,0.000000
-2.521039,2.594692,-39.301575,-0.634394,0.773010,0.000000
-1.768885,-3.142240,-36.190697,-0.471397,-0.881921,0.000000
-3.272746,1.524725,-49.496599,-0.881921,0.471397,0.000000
2.280749,4.555219,0.000000,0.000000,0.000000,-1.000000
-5.588475,3.101509,2.582921,-0.866025,0.500000,0.000000
-0.435843,5.526101,9.878561,0.000000,0.000000,1.000000
3.582629,0.404796,-49.921834,0.995185,0.098017,0.000000
-3.582802,0.403043,-24.945120,-0.995185,0.098017,0.000000
3.582677,0.404303,-46.309699,0.995185,0.098017,0.000000
4.933840,-4.235370,4.772623,0.866025,-0.500000,0.000000
-1.557089,5.567401,9.878561,0.000000,0.000000,1.000000
-3.322125,1.432344,-32.185276,-0.881921,0.471397,0.000000
-3.351253,1.915986,0.000000,0.000000,0.000000,-1.000000
-4.936374,4.230981,1.928134,-0.866025,0.500000,0.000000
0.379801,3.585091,-24.523756,0.098017,0.995185,-0.000000
-1.529239,-6.224721,9.878561,-0.000000,0.000000,1.000000
3.953334,-3.709906,9.878561,0.000000,0.000000,1.000000
3.903731,-4.730386,9.878561,0.000000,0.000000,1.000000
-3.590979,0.320014,-52.964084,-0.995185,0.098017,0.000000
-2.669716,2.429623,-41.199644,-0.773010,0.634394,0.000000
2.288600,-2.785450,-22.537698,0.634394,-0.773010,0.000000
5.648178,-2.998099,1.786761,0.866025,-0.500000,0.000000
-2.172242,2.880943,-28.594101,-0.634394,0.773010,0.000000
2.597929,2.517095,-30.365569,0.773010,0.634394,-0.000000
-3.542096,0.742306,-45.743368,-0.956940,0.290284,0.000000
3.214427,-1.471813,0.000000,0.000000,0.000000,-1.000000
4.027168,-4.847606,9.878561,0.000000,0.000000,1.000000
0.520825,3.571201,-40.279472,0.098017,0.995185,0.000000
5.177289,-3.813704,7.662138,0.866025,-0.500000,0.000000
5.009535,-4.104262,8.499437,0.866025,-0.500000,0.000000
2.871805,-2.183376,-22.805306,0.773010,-0.634394,0.000000
-2.111914,2.930452,-48.877270,-0.634394,0.773010,0.000000
-3.458744,1.017079,-24.997884,-0.956940,0.290284,0.000000
-1.648395,3.206643,-51.753184,-0.471397,0.881921,0.000000
2.022239,1.384939,-21.249527,0.000000,0.000000,1.000000
3.813189,2.221419,9.878561,0.000000,0.000000,1.000000
-1.581873,-2.606057,-21.249527,-0.000000,0.000000,1.000000
3.613582,0.090519,-24.843257,0.995185,0.098017,-0.000000
-3.594214,1.841247,0.000000,0.000000,0.000000,-1.000000
-1.472724,-6.390515,0.138758,-0.000000,-1.000000,-0.000000
-3.546437,0.727996,-31.553595,-0.956940,0.290284,0.000000
-2.222258,2.839895,-42.143002,-0.634394,0.773010,0.000000
1.030809,3.454580,-39.764949,0.290284,0.956940,0.000000
-3.375173,0.596172,-21.249527,0.000000,0.000000,1.000000
-2.472235,-2.634745,-42.682738,-0.634394,-0.773010,0.000000
-6.777605,1.041875,7.243025,-0.866025,0.500000,0.000000
3.829806,-6.147612,5.315899,0.866025,-0.500000,0.000000
1.550677,6.390515,1.960392,-0.000000,1.000000,0.000000
-5.370395,-3.479234,4.895087,-0.866025,-0.500000,0.000000
-0.207009,3.602109,-23.270042,-0.098017,0.995185,0.000000
0.445630,-3.064916,-21.249527,0.000000,-0.000000,1.000000
4.998567,4.123259,6.063398,0.866025,0.500000,0.000000
0.136906,-1.622334,-21.249527,0.000000,-0.000000,1.000000
7.249741,-0.224112,9.125950,0.866025,-0.500000,0.000000
-4.077644,-5.718345,1.961230,-0.866025,-0.500000,0.000000
-2.899825,1.220984,-21.249527,0.000000,0.000000,1.000000
-3.608203,0.145136,-37.891131,-0.995185,0.098017,0.000000
-2.959762,2.076201,-26.947421,-0.773010,0.634394,0.000000
5.306941,-3.589139,9.001024,0.866025,-0.500000,0.000000
2.212152,2.354256,9.878561,-0.000000,0.000000,1.000000
-3.905646,6.016254,7.711799,-0.866025,0.500000,0.000000
-6.891527,-0.844557,2.980302,-0.866025,-0.500000,-0.000000
-2.729842,2.356359,-34.334706,-0.773010,0.634394,0.000000
-4.225220,-5.462736,9.564492,-0.866025,-0.500000,0.000000
2.816166,2.251173,-29.553208,0.773010,0.634394,-0.000000
-0.760597,-3.536547,-36.183785,-0.290284,-0.956940,0.000000
2.029226,-2.998313,-21.765893,0.634394,-0.773010,0.000000
-3.031859,-1.975394,-49.223093,-0.881921,-0.471397,0.000000
0.406313,-6.390515,3.745214,-0.000000,-1.000000,-0.000000
2.785600,-2.288418,-34.619453,0.773010,-0.634394,0.000000
6.568064,-1.404811,3.842734,0.866025,-0.500000,0.000000
-3.179580,-1.699025,-45.314693,-0.881921,-0.471397,0.000000
4.230713,5.453221,4.955082,0.866025,0.500000,0.000000
3.412145,1.170696,-22.289538,0.956940,0.290284,-0.000000
-3.285682,-3.652485,0.000000,0.000000,0.000000,-1.000000
1.762919,3.145428,-41.206226,0.471397,0.881921,0.000000
6.218884,-2.009609,5.725851,0.866025,-0.500000,0.000000
-3.202892,1.655412,-34.139094,-0.881921,0.471397,0.000000
-2.870547,-3.782403,9.878561,0.000000,0.000000,1.000000
0.358470,-3.587192,-48.495665,0.098017,-0.995185,0.000000
0.233727,-3.599478,-35.802058,0.098017,-0.995185,0.000000
3.958344,-1.299949,0.000000,0.000000,0.000000,-1.000000
5.992111,-2.127040,9.878561,0.000000,0.000000,1.000000
6.520144,-1.487811,1.126648,0.866025,-0.500000,0.000000
1.809917,3.120308,-37.285974,0.471397,0.881921,0.000000
-2.858762,-2.199269,-38.578629,-0.773010,-0.634394,0.000000
-2.503445,-2.609131,-40.557897,-0.634394,-0.773010,0.000000
-2.576191,2.498973,-21.249527,0.000000,0.000000,1.000000
6.287969,-1.889949,9.181574,0.866025,-0.500000,0.000000
4.197016,-3.879479,9.878561,0.000000,0.000000,1.000000
-0.263344,3.713428,0.000000,0.000000,0.000000,-1.000000
-3.938882,-5.958687,1.431636,-0.866025,-0.500000,0.000000
-2.867900,-6.390515,4.688793,-0.000000,-1.000000,-0.000000
3.604083,-0.186973,-24.172015,0.995185,-0.098017,0.000000
3.562131,0.612916,-43.953710,0.995185,0.098017,-0.000000
2.050709,-2.980682,-40.660022,0.634394,-0.773010,0.000000
3.184400,-1.690008,-24.483843,0.881921,-0.471397,0.000000
-3.705833,-6.362340,7.475618,-0.866025,-0.500000,0.000000
1.442044,-6.390515,6.588926,-0.000000,-1.000000,-0.000000
5.980400,-2.422674,7.667949,0.866025,-0.500000,0.000000
2.115119,2.783161,-53.870022,-0.000000,0.000000,-1.000000
-6.394855,-1.704817,1.008818,-0.866025,-0.500000,-0.000000
1.464680,3.304841,-30.773121,0.471397,0.881921,-0.000000
-1.134283,-3.423191,-40.657933,-0.290284,-0.956940,0.000000
-2.629572,1.412014,9.878561,0.000000,0.000000,1.000000
-0.023471,-3.620186,-32.347553,-0.098017,-0.995185,0.000000
4.257891,5.406147,9.379093,0.866025,0.500000,0.000000
2.620816,2.489207,-30.938150,0.773010,0.634394,-0.000000
-4.171952,5.554998,4.149020,-0.866025,0.500000,0.000000
4.343570,5.257748,4.477517,0.866025,0.500000,0.000000
3.613964,0.086649,-25.147953,0.995185,0.098017,-0.000000
0.501399,-3.573114,-35.968431,0.098017,-0.995185,0.000000
-0.646351,3.558838,-37.995589,-0.098017,0.995185,0.000000
3.169874,-1.717186,-28.031970,0.881921,-0.471397,0.000000
-6.821389,0.966038,7.130979,-0.866025,0.500000,0.000000
-1.853282,2.651104,9.878561,0.000000,0.000000,1.000000
0.266306,-3.596269,-23.957385,0.098017,-0.995185,0.000000
3.043207,1.954161,-28.799258,0.881921,0.471397,-0.000000
0.726565,-0.082456,-21.249527,0.000000,-0.000000,1.000000
-1.900723,-5.101481,0.000000,0.000000,0.000000,-1.000000
-0.670280,1.206986,9.878561,0.000000,0.000000,1.000000
1.988156,-0.809731,9.878561,-0.000000,0.000000,1.000000
1.120110,3.427490,-44.211017,0.290284,0.956940,0.000000
0.791303,5.608065,0.000000,0.000000,0.000000,-1.000000
0.526580,6.390515,6.562150,-0.000000,1.000000,0.000000
-2.104236,6.390515,2.607017,-0.000000,1.000000,0.000000
-4.023542,5.812052,7.904164,-0.866025,0.500000,0.000000
3.218246,1.626687,-26.679596,0.881921,0.471397,-0.000000
-6.983476,0.105837,9.878561,0.000000,0.000000,1.000000
5.643082,-3.006927,1.898628,0.866025,-0.500000,0.000000
0.728421,1.360082,9.878561,0.000000,0.000000,1.000000
6.299193,1.870509,8.102912,0.866025,0.500000,0.000000
-6.256693,-1.944121,0.566721,-0.866025,-0.500000,-0.000000
-1.025945,3.456055,-40.960029,-0.290284,0.956940,0.000000
-4.555124,1.722837,0.000000,0.000000,0.000000,-1.000000
3.896776,6.031616,2.741766,0.866025,0.500000,0.000000
-0.247832,-6.216670,0.000000,0.000000,0.000000,-1.000000
-3.602328,0.204782,-36.052206,-0.995185,0.098017,0.000000
-3.031564,0.861768,0.000000,0.000000,0.000000,-1.000000
-2.442686,2.658995,-24.438326,-0.634394,0.773010,0.000000
0.575938,-3.565773,-39.053921,0.098017,-0.995185,0.000000
1.765027,-4.006704,0.000000,0.000000,0.000000,-1.000000
0.899690,3.494354,-46.247869,0.290284,0.956940,0.000000
0.240708,-3.598790,-27.700603,0.098017,-0.995185,0.000000
4.233929,-3.337756,9.878561,0.000000,0.000000,1.000000
2.544629,2.575332,-49.625507,0.634394,0.773010,0.000000
6.843234,-0.928203,7.405651,0.866025,-0.500000,0.000000
2.812113,-2.256111,-46.682881,0.773010,-0.634394,0.000000
0.501414,3.573113,-41.157068,0.098017,0.995185,0.000000
2.294303,1.348099,9.878561,-0.000000,0.000000,1.000000
0.065135,-3.616083,-33.230656,0.098017,-0.995185,0.000000
-2.863227,-6.390515,3.632771,-0.000000,-1.000000,-0.000000
1.675970,-3.466969,0.000000,0.000000,0.000000,-1.000000
2.041753,5.550875,9.878561,0.000000,0.000000,1.000000
-4.376828,-5.200142,1.139870,-0.866025,-0.500000,-0.000000
5.791951,2.749078,8.971418,0.866025,0.500000,0.000000
-0.561848,-3.567161,-25.626145,-0.098017,-0.995185,0.000000
1.345304,-3.359179,-26.911969,0.290284,-0.956940,0.000000
6.937611,0.764737,4.061529,0.866025,0.500000,0.000000
6.121402,-1.577613,9.878561,0.000000,0.000000,1.000000
3.351476,1.370695,-34.190045,0.956940,0.290284,-0.000000
-0.723350,5.505306,0.000000,0.000000,0.000000,-1.000000
3.569303,-0.540091,-31.880420,0.995185,-0.098017,0.000000
3.852523,-5.316485,9.878561,0.000000,0.000000,1.000000
4.992927,-4.133028,6.633497,0.866025,-0.500000,0.000000
3.549504,0.717886,-45.945399,0.956940,0.290284,0.000000
2.004005,3.016566,-51.015807,0.471397,0.881921,0.000000
-3.090636,-1.865429,-23.005901,-0.881921,-0.471397,0.000000
-1.162039,3.414771,-35.438876,-0.290284,0.956940,0.000000
0.879128,3.500591,-38.612858,0.290284,0.956940,-0.000000
3.842815,5.484924,0.000000,0.000000,0.000000,-1.000000
-3.562511,-0.609059,-44.095934,-0.995185,-0.098017,0.000000
-1.249616,6.390515,3.516143,-0.000000,1.000000,0.000000
0.337913,3.589216,-28.083351,0.098017,0.995185,-0.000000
2.036942,-2.153649,-21.249527,0.000000,-0.000000,1.000000
2.602973,2.510949,-26.221296,0.773010,0.634394,-0.000000
3.569365,0.539467,-41.446673,0.995185,0.098017,-0.000000
-3.313805,6.390515,7.410024,-0.000000,1.000000,0.000000
-1.968393,-3.035600,-35.522330,-0.471397,-0.881921,0.000000
0.938013,-0.218937,-53.870022,0.000000,0.000000,-1.000000
-0.657521,3.139570,0.000000,0.000000,0.000000,-1.000000
-5.310409,1.489542,9.878561,0.000000,0.000000,1.000000
0.960093,2.477567,0.000000,0.000000,0.000000,-1.000000
-1.103549,-3.432514,-37.900197,-0.290284,-0.956940,0.000000
-2.074505,5.094334,9.878561,0.000000,0.000000,1.000000
1.150559,-3.418254,-29.664969,0.290284,-0.956940,0.000000
-3.977531,1.264387,9.878561,0.000000,0.000000,1.000000
3.576813,0.463848,-45.095982,0.995185,0.098017,0.000000
-2.912288,6.390515,9.553864,-0.000000,1.000000,0.000000
6.792766,-1.015616,5.925019,0.866025,-0.500000,0.000000
-3.478878,0.950707,-28.761846,-0.956940,0.290284,0.000000
-0.699811,3.553572,-51.698986,-0.098017,0.995185,0.000000
-3.055866,-1.930478,-52.651161,-0.881921,-0.471397,0.000000
3.434574,-1.096760,-43.825017,0.956940,-0.290284,0.000000
4.712738,4.618329,7.464877,0.866025,0.500000,0.000000
0.144501,-3.481192,-21.249527,0.000000,-0.000000,1.000000
-4.304991,-5.324568,9.733123,-0.866025,-0.500000,0.000000
6.363392,-1.759313,0.572723,0.866025,-0.500000,0.000000
-3.549907,-0.716555,-24.429882,-0.956940,-0.290284,0.000000
3.220086,1.623245,-47.579808,0.881921,0.471397,0.000000
6.190641,2.058526,1.956525,0.866025,0.500000,0.000000
-4.200161,5.506139,4.935570,-0.866025,0.500000,0.000000
1.917551,6.390515,6.632179,-0.000000,1.000000,0.000000
-1.588804,3.238495,-22.307501,-0.471397,0.881921,0.000000
5.676186,2.066232,0.000000,0.000000,0.000000,-1.000000
2.167007,-2.885239,-36.907603,0.634394,-0.773010,0.000000
5.486334,3.278421,6.955469,0.866025,0.500000,0.000000
-1.925628,-3.058459,-51.999258,-0.471397,-0.881921,0.000000
3.744421,6.295504,1.165272,0.866025,0.500000,0.000000
-1.896709,3.073916,-27.680419,-0.471397,0.881921,0.000000
0.683234,3.555205,-47.615668,0.098017,0.995185,0.000000
-3.416898,4.820279,9.878561,0.000000,0.000000,1.000000
-1.503042,3.284336,-39.864812,-0.471397,0.881921,0.000000
-7.057136,0.557712,8.072407,-0.866025,0.500000,0.000000
-0.875930,-3.501561,-21.769720,-0.290284,-0.956940,0.000000
-1.110642,3.430362,-52.429399,-0.290284,0.956940,0.000000
2.776837,-2.299095,-36.854201,0.773010,-0.634394,0.000000
3.277724,-1.515412,-32.967961,0.881921,-0.471397,0.000000
5.741758,0.571355,9.878561,0.000000,0.000000,1.000000
0.927067,-3.486049,-51.455487,0.290284,-0.956940,0.000000
0.340075,-3.589003,-38.747798,0.098017,-0.995185,0.000000
-2.984959,-2.045498,-43.965345,-0.773010,-0.634394,0.000000
-3.222524,6.390515,0.163893,-0.000000,1.000000,0.000000
4.710185,4.622751,2.887028,0.866025,0.500000,0.000000
2.279391,-2.793008,-53.700110,0.634394,-0.773010,0.000000
-0.604229,0.259908,0.000000,0.000000,0.000000,-1.000000
7.226075,-0.265102,5.988749,0.866025,-0.500000,0.000000
-3.024953,0.317526,-53.870022,-0.000000,-0.000000,-1.000000
0.187672,-3.604014,-29.321549,0.098017,-0.995185,0.000000
-3.581369,-0.417584,-31.829980,-0.995185,-0.098017,0.000000
2.325782,-2.754936,-34.317562,0.634394,-0.773010,0.000000
3.455268,1.028539,-47.971011,0.956940,0.290284,0.000000
-1.270512,3.381866,-52.002213,-0.290284,0.956940,0.000000
-4.027068,0.701847,9.878561,0.000000,0.000000,1.000000
0.678698,3.555652,-26.300240,0.098017,0.995185,0.000000
3.087224,-1.871811,-38.857509,0.881921,-0.471397,0.000000
0.027599,-3.619779,-35.330439,0.098017,-0.995185,0.000000
-1.776520,3.138159,-25.019911,-0.471397,0.881921,0.000000
-0.594227,6.390515,3.827890,-0.000000,1.000000,0.000000
5.584983,-2.732752,0.000000,0.000000,0.000000,-1.000000
-2.472611,-2.634436,-22.710202,-0.634394,-0.773010,0.000000
-3.165221,1.725890,-26.738785,-0.881921,0.471397,0.000000
1.929633,-3.052879,9.878561,-0.000000,0.000000,1.000000
-6.801309,-1.000819,8.689960,-0.866025,-0.500000,0.000000
-2.042502,2.953684,-53.870022,-0.000000,-0.000000,-1.000000
-5.522157,-3.216374,6.033309,-0.866025,-0.500000,0.000000
-0.637767,-3.559683,-44.143956,-0.098017,-0.995185,0.000000
1.389580,-3.344982,-28.706985,0.471397,-0.881921,0.000000
-2.748226,-2.333957,-35.524971,-0.773010,-0.634394,0.000000
-2.661113,2.440106,-25.825431,-0.773010,0.634394,0.000000
7.363954,-0.026289,9.411985,0.866025,-0.500000,0.000000
-3.073050,1.898330,-26.171417,-0.881921,0.471397,0.000000
4.010146,-0.006682,0.000000,0.000000,0.000000,-1.000000
-4.691741,0.556400,9.878561,0.000000,0.000000,1.000000
-0.235691,3.931082,0.000000,0.000000,0.000000,-1.000000
-3.577248,0.459432,-48.676380,-0.995185,0.098017,0.000000
4.614458,4.561157,0.000000,0.000000,0.000000,-1.000000
4.612562,-4.791839,5.964959,0.866025,-0.500000,0.000000
-4.160606,-3.250479,0.000000,0.000000,0.000000,-1.000000
3.103839,1.840728,-36.101483,0.881921,0.471397,-0.000000
2.441083,-2.660311,-32.527477,0.634394,-0.773010,0.000000
-6.081432,-2.247683,4.790892,-0.866025,-0.500000,-0.000000
-1.240566,-3.390950,-28.549303,-0.290284,-0.956940,0.000000
3.167273,1.722051,-28.848253,0.881921,0.471397,-0.000000
3.620592,-0.019348,-28.753397,0.995185,-0.098017,0.000000
-0.419532,3.581177,-47.909446,-0.098017,0.995185,0.000000
3.330172,-5.150813,0.000000,0.000000,0.000000,-1.000000
-3.329759,-1.418061,-46.949049,-0.881921,-0.471397,0.000000
0.815946,0.493062,-53.870022,-0.000000,0.000000,-1.000000
-2.963261,-2.071937,-27.541985,-0.773010,-0.634394,0.000000
0.962807,3.475208,-40.887347,0.290284,0.956940,-0.000000
3.585331,0.377361,-44.842603,0.995185,0.098017,0.000000
-6.105104,-2.206681,6.360081,-0.866025,-0.500000,-0.000000
1.514185,-3.278380,-33.950683,0.471397,-0.881921,0.000000
-1.125906,-3.425732,-32.760553,-0.290284,-0.956940,0.000000
3.121575,-1.807546,-31.667221,0.881921,-0.471397,0.000000
-0.379819,3.585089,-52.263151,-0.098017,0.995185,0.000000
-3.587795,-0.352348,-45.185754,-0.995185,-0.098017,0.000000
-0.778517,3.531111,-44.208353,-0.290284,0.956940,0.000000
-3.316273,-0.373671,9.878561,0.000000,0.000000,1.000000
-2.904102,-2.144022,-26.604807,-0.773010,-0.634394,0.000000
1.562415,-1.782875,-21.249527,0.000000,-0.000000,1.000000
5.732407,-2.852211,0.317209,0.866025,-0.500000,0.000000
-0.121885,3.610493,-41.329108,-0.098017,0.995185,0.000000
3.564317,-0.590724,-25.838188,0.995185,-0.098017,0.000000
4.623842,4.589023,9.878561,0.000000,0.000000,1.000000
-5.837082,1.090213,0.000000,0.000000,0.000000,-1.000000
-2.128440,2.916890,-29.841745,-0.634394,0.773010,0.000000
4.914156,4.269464,7.335379,0.866025,0.500000,0.000000
1.106055,0.732259,-53.870022,-0.000000,0.000000,-1.000000
2.162851,-6.390515,0.182132,-0.000000,-1.000000,-0.000000
-0.396735,-6.390515,7.842396,-0.000000,-1.000000,-0.000000
-5.630294,1.584655,9.878561,0.000000,0.000000,1.000000
2.183320,-2.871852,-47.285881,0.634394,-0.773010,0.000000
3.231202,1.602448,-27.720654,0.881921,0.471397,-0.000000
1.262491,-6.390515,0.200483,-0.000000,-1.000000,-0.000000
3.271343,1.527350,-51.224502,0.881921,0.471397,0.000000
-0.495449,3.573700,-39.950208,-0.098017,0.995185,0.000000
-0.116693,3.370300,9.878561,0.000000,0.000000,1.000000
2.932657,-0.140648,-21.249527,0.000000,-0.000000,1.000000
6.569963,1.401521,0.633794,0.866025,0.500000,0.000000
3.523919,-6.390515,3.285738,-0.000000,-1.000000,-0.000000
6.465949,-1.581679,0.225124,0.866025,-0.500000,0.000000
-0.394128,6.390515,6.910097,-0.000000,1.000000,0.000000
1.830409,3.109355,-37.237298,0.471397,0.881921,0.000000
-3.206580,-1.648513,-30.817934,-0.881921,-0.471397,0.000000
3.519892,-0.815501,-31.632943,0.956940,-0.290284,0.000000
-3.843554,-1.005549,0.000000,0.000000,0.000000,-1.000000
-4.772853,4.514207,0.099220,-0.866025,0.500000,0.000000
3.092077,6.390515,6.914558,-0.000000,1.000000,0.000000
-1.626670,-3.218255,-28.427589,-0.471397,-0.881921,0.000000
2.949634,6.390515,4.616068,-0.000000,1.000000,0.000000
3.192639,1.674594,-51.003799,0.881921,0.471397,0.000000
-0.969410,-3.473205,-30.849248,-0.290284,-0.956940,0.000000
-3.541403,-0.744592,-51.057026,-0.956940,-0.290284,0.000000
-2.714890,6.390515,4.306037,-0.000000,1.000000,0.000000
-2.342552,-2.741173,-46.450177,-0.634394,-0.773010,0.000000
2.102461,-4.244447,9.878561,-0.000000,0.000000,1.000000
-4.961553,-4.187369,0.837468,-0.866025,-0.500000,-0.000000
6.353442,-1.776546,5.607290,0.866025,-0.500000,0.000000
-5.499186,3.256161,8.189769,-0.866025,0.500000,0.000000
2.766741,2.311397,-27.913119,0.773010,0.634394,-0.000000
-5.757675,2.808445,7.233428,-0.866025,0.500000,0.000000
-1.559828,-3.253983,-30.464056,-0.471397,-0.881921,0.000000
-6.005145,-2.379815,2.384394,-0.866025,-0.500000,-0.000000
1.634215,3.214222,-48.914497,0.471397,0.881921,0.000000
-0.106794,-3.611979,-28.404744,-0.098017,-0.995185,0.000000
-1.905018,-1.101325,-53.870022,0.000000,-0.000000,-1.000000
4.805117,4.458325,0.070641,0.866025,0.500000,0.000000
3.479822,-0.947595,-51.146662,0.956940,-0.290284,0.000000
-2.757940,6.390515,5.626741,-0.000000,1.000000,0.000000
3.152637,-1.749433,-38.159470,0.881921,-0.471397,0.000000
-2.862339,-2.194911,-31.518490,-0.773010,-0.634394,0.000000
-1.462218,3.306156,-53.772055,-0.471397,0.881921,0.000000
3.561499,0.619335,-37.650203,0.995185,0.098017,-0.000000
-3.569941,0.533614,-32.700851,-0.995185,0.098017,0.000000
3.251778,-6.390515,0.770994,-0.000000,-1.000000,-0.000000
-3.555999,0.675170,-32.526231,-0.995185,0.098017,0.000000
0.230344,-6.390515,8.225383,-0.000000,-1.000000,-0.000000
1.141623,2.553354,-53.870022,-0.000000,0.000000,-1.000000
1.031340,-3.454418,-25.133255,0.290284,-0.956940,0.000000
3.277396,1.516025,-44.537998,0.881921,0.471397,0.000000
4.371358,-4.232219,9.878561,0.000000,0.000000,1.000000
-0.713293,6.032700,9.878561,0.000000,0.000000,1.000000
-3.068249,1.907312,-25.320961,-0.881921,0.471397,0.000000
0.692843,3.554259,-30.907529,0.098017,0.995185,0.000000
0.109929,-6.390515,4.079468,-0.000000,-1.000000,-0.000000
-3.571618,0.516595,-40.304467,-0.995185,0.098017,0.000000
6.685497,1.201411,1.742830,0.866025,0.500000,0.000000
4.013011,4.004314,9.878561,0.000000,0.000000,1.000000
3.180166,-1.697930,-52.374717,0.881921,-0.471397,0.000000
-3.097817,1.562862,9.878561,0.000000,0.000000,1.000000
-0.021471,-1.200735,-53.870022,0.000000,-0.000000,-1.000000
-0.601979,5.683687,9.878561,0.000000,0.000000,1.000000
6.076442,2.256326,6.309839,0.866025,0.500000,0.000000
2.787240,2.286419,-31.744331,0.773010,0.634394,-0.000000
0.854848,3.507957,-42.241671,0.290284,0.956940,-0.000000
7.059219,0.554105,1.743051,0.866025,0.500000,0.000000
-0.322289,0.082724,-53.870022,-0.000000,-0.000000,-1.000000
-0.026601,-3.619878,-21.404399,-0.098017,-0.995185,0.000000
0.020614,-3.620467,-51.523620,0.098017,-0.995185,0.000000
5.468051,-3.310090,0.333493,0.866025,-0.500000,0.000000
1.328507,-3.364274,-44.581518,0.290284,-0.956940,0.000000
3.620281,-0.022503,-39.970339,0.995185,-0.098017,0.000000
2.498389,2.613281,-42.587475,0.634394,0.773010,0.000000
-2.354858,-2.731074,-38.375490,-0.634394,-0.773010,0.000000
0.592688,-3.564123,-31.686588,0.098017,-0.995185,0.000000
0.709754,3.551970,-30.014805,0.290284,0.956940,-0.000000
-1.791242,6.390515,8.456628,-0.000000,1.000000,0.000000
-3.619644,-0.028977,-43.525119,-0.995185,-0.098017,0.000000
-0.169254,-3.605828,-53.662430,-0.098017,-0.995185,0.000000
4.428151,-5.111248,5.303371,0.866025,-0.500000,0.000000
-3.555199,-0.683290,-40.055743,-0.995185,-0.098017,0.000000
1.271905,6.390515,5.704937,-0.000000,1.000000,0.000000
1.782336,-1.346679,9.878561,-0.000000,0.000000,1.000000
-0.306708,-6.390515,3.017940,-0.000000,-1.000000,-0.000000
1.828334,3.110464,-43.820946,0.471397,0.881921,0.000000
3.347100,1.385123,-50.835677,0.956940,0.290284,-0.000000
3.821688,5.627624,9.878561,0.000000,0.000000,1.000000
3.523535,-0.803493,-31.220331,0.956940,-0.290284,0.000000
1.350594,-1.511600,-53.870022,0.000000,0.000000,-1.000000
-3.531952,-0.775747,-26.546448,-0.956940,-0.290284,0.000000
2.476158,2.201495,9.878561,-0.000000,0.000000,1.000000
0.945230,3.480540,-46.664570,0.290284,0.956940,0.000000
7.368387,-0.018611,6.600341,0.866025,-0.500000,0.000000
0.253012,-6.390515,6.774805,-0.000000,-1.000000,-0.000000
2.969044,-1.893017,9.878561,-0.000000,0.000000,1.000000
1.589890,-3.237914,-44.487340,0.471397,-0.881921,0.000000
-2.213973,2.846695,-49.441165,-0.634394,0.773010,0.000000
5.285222,3.626759,3.405393,0.866025,0.500000,0.000000
2.911133,-2.135455,-45.903133,0.773010,-0.634394,0.000000
3.066326,-1.757986,-21.249527,0.000000,-0.000000,1.000000
0.350086,-3.588017,-25.971746,0.098017,-0.995185,0.000000
-6.225629,1.997925,7.562317,-0.866025,0.500000,0.000000
-1.811904,3.119246,-41.028232,-0.471397,0.881921,0.000000
-3.511077,-0.844563,-49.682665,-0.956940,-0.290284,0.000000
-1.805441,-3.122700,-48.061325,-0.471397,-0.881921,0.000000
-4.491908,5.000818,5.214316,-0.866025,0.500000,0.000000
-3.594616,-0.283089,-27.782240,-0.995185,-0.098017,0.000000
2.263484,-6.390515,4.178126,-0.000000,-1.000000,-0.000000
3.474029,0.966693,-32.788858,0.956940,0.290284,-0.000000
6.364063,-1.758150,8.452661,0.866025,-0.500000,0.000000
3.472394,0.972082,-49.003644,0.956940,0.290284,0.000000
-5.120357,3.912312,9.156815,-0.866025,0.500000,0.000000
-3.152897,-1.748947,-52.991684,-0.881921,-0.471397,0.000000
-0.488763,3.574359,-30.598802,-0.098017,0.995185,0.000000
-5.498616,3.257149,9.188738,-0.866025,0.500000,0.000000
3.406922,1.187916,-39.653327,0.956940,0.290284,-0.000000
-1.324232,-3.365571,-42.158417,-0.290284,-0.956940,0.000000
0.632766,5.655777,0.000000,0.000000,0.000000,-1.000000
2.102204,-2.563919,-21.249527,0.000000,-0.000000,1.000000
-1.143058,3.420529,-40.422239,-0.290284,0.956940,0.000000
2.392002,0.863103,-21.249527,0.000000,0.000000,1.000000
-2.184195,-2.871133,-26.520108,-0.634394,-0.773010,0.000000
1.163026,-3.414472,-52.816203,0.290284,-0.956940,0.000000
-2.725345,-2.361838,-35.981900,-0.773010,-0.634394,0.000000
2.589283,6.390515,5.050126,-0.000000,1.000000,0.000000
-3.156502,-4.468315,9.878561,0.000000,0.000000,1.000000
-3.557854,0.656339,-24.001981,-0.995185,0.098017,0.000000
-4.608525,4.798831,2.157642,-0.866025,0.500000,0.000000
-1.820381,3.114714,-53.747220,-0.471397,0.881921,0.000000
-1.795025,6.390515,8.032235,-0.000000,1.000000,0.000000
3.569944,-0.533584,-24.221613,0.995185,-0.098017,0.000000
2.753961,2.326970,-34.344317,0.773010,0.634394,-0.000000
-5.010177,-4.103151,0.128026,-0.866025,-0.500000,-0.000000
-3.559320,0.641451,-52.737752,-0.995185,0.098017,0.000000
3.363508,-1.331033,-49.832207,0.956940,-0.290284,0.000000
3.134604,-1.783171,-29.969424,0.881921,-0.471397,0.000000
-0.098034,3.612842,-31.024554,-0.098017,0.995185,0.000000
2.689024,0.252989,-21.249527,0.000000,0.000000,1.000000
-0.460052,0.883714,-21.249527,0.000000,0.000000,1.000000
4.225722,-5.461865,0.785276,0.866025,-0.500000,0.000000
7.329848,-0.085362,9.635535,0.866025,-0.500000,0.000000
-1.628104,3.217489,-30.102726,-0.471397,0.881921,0.000000
-3.588841,0.341718,-47.159143,-0.995185,0.098017,0.000000
-6.348493,-1.785119,4.114488,-0.866025,-0.500000,-0.000000
2.064073,-6.390515,1.264574,-0.000000,-1.000000,-0.000000
-1.052194,-3.448092,-33.916209,-0.290284,-0.956940,0.000000
-0.785283,-6.390515,3.394420,-0.000000,-1.000000,-0.000000
-4.535293,-4.925673,0.818067,-0.866025,-0.500000,-0.000000
0.823250,-3.517542,-51.335018,0.290284,-0.956940,0.000000
2.123678,6.390515,7.679042,-0.000000,1.000000,0.000000
-1.135800,-3.422731,-44.213929,-0.290284,-0.956940,0.000000
4.831492,4.412641,3.981407,0.866025,0.500000,0.000000
-0.411413,3.993619,9.878561,0.000000,0.000000,1.000000
3.462308,-0.569182,0.000000,0.000000,0.000000,-1.000000
-2.793481,6.390515,6.459594,-0.000000,1.000000,0.000000
-3.606270,0.164761,-34.247423,-0.995185,0.098017,0.000000
1.134826,1.857710,0.000000,0.000000,0.000000,-1.000000
-0.983980,-0.691118,-53.870022,0.000000,-0.000000,-1.000000
0.543685,3.568949,-35.272035,0.098017,0.995185,0.000000
-1.167893,-3.412995,-23.476874,-0.290284,-0.956940,0.000000
-3.486088,0.926940,-52.328050,-0.956940,0.290284,0.000000
2.326399,2.754429,-31.918390,0.634394,0.773010,-0.000000
6.236451,-1.979181,4.188413,0.866025,-0.500000,0.000000
3.597931,-0.249429,-22.367431,0.995185,-0.098017,0.000000
3.798672,-2.407060,9.878561,0.000000,0.000000,1.000000
-0.715651,3.550181,-51.641066,-0.290284,0.956940,0.000000
7.117128,-0.453804,9.329757,0.866025,-0.500000,0.000000
0.932045,3.952879,9.878561,0.000000,0.000000,1.000000
-2.544768,2.575218,-34.905780,-0.634394,0.773010,0.000000
4.922971,-4.254196,0.311134,0.866025,-0.500000,0.000000
3.009313,2.015822,-35.582142,0.773010,0.634394,0.000000
0.161597,-1.302621,0.000000,0.000000,0.000000,-1.000000
-3.107908,1.833114,-38.001273,-0.881921,0.471397,0.000000
-3.929420,-1.528104,9.878561,0.000000,0.000000,1.000000
-2.894308,-2.155956,-25.792351,-0.773010,-0.634394,0.000000
-3.237973,1.589781,-53.342541,-0.881921,0.471397,0.000000
-0.004883,0.453068,-53.870022,-0.000000,0.000000,-1.000000
0.744237,6.390515,9.738231,-0.000000,1.000000,0.000000
6.946905,-0.748639,0.846081,0.866025,-0.500000,0.000000
-4.819424,4.433543,2.133011,-0.866025,0.500000,0.000000
3.339027,-1.400722,-47.892151,0.881921,-0.471397,0.000000
-0.502890,3.572967,-21.582545,-0.098017,0.995185,0.000000
-6.000127,-0.880297,0.000000,0.000000,0.000000,-1.000000
-5.000696,-3.932333,0.000000,0.000000,0.000000,-1.000000
3.615397,-0.072093,-50.799734,0.995185,-0.098017,0.000000
-3.915264,5.999594,1.474827,-0.866025,0.500000,0.000000
-3.337169,5.796597,0.000000,0.000000,0.000000,-1.000000
0.030279,2.696557,-21.249527,0.000000,0.000000,1.000000
6.122157,-2.177145,9.480222,0.866025,-0.500000,0.000000
0.572678,-6.390515,5.004718,-0.000000,-1.000000,-0.000000
-6.838170,-0.936973,4.258320,-0.866025,-0.500000,-0.000000
-3.547511,0.724454,-37.526949,-0.956940,0.290284,0.000000
-3.335311,-0.865179,0.000000,0.000000,0.000000,-1.000000
-0.802971,-1.760831,-21.249527,-0.000000,0.000000,1.000000
2.035396,5.721825,0.000000,0.000000,0.000000,-1.000000
-3.477769,-0.954362,-24.718856,-0.956940,-0.290284,0.000000
-0.888259,-6.390515,1.966423,-0.000000,-1.000000,-0.000000
3.490626,6.390515,9.629027,-0.000000,1.000000,0.000000
2.142828,6.390515,4.840707,-0.000000,1.000000,0.000000
5.601112,-2.928521,0.000000,0.000000,0.000000,-1.000000
-0.248053,-3.598067,-38.800988,-0.098017,-0.995185,0.000000
2.002355,3.017447,-30.734825,0.471397,0.881921,0.000000
-3.064596,-1.914145,-36.871103,-0.881921,-0.471397,0.000000
-1.394305,1.970992,-21.249527,0.000000,0.000000,1.000000
2.858610,-2.199454,-35.688283,0.773010,-0.634394,0.000000
-4.308910,2.457331,9.878561,0.000000,0.000000,1.000000
3.406517,1.189251,-40.403821,0.956940,0.290284,-0.000000
3.414381,-1.163325,-31.075625,0.956940,-0.290284,0.000000
3.857306,-6.099981,5.468068,0.866025,-0.500000,0.000000
1.577343,-3.244621,-50.906247,0.471397,-0.881921,0.000000
-5.675046,-2.951563,0.665190,-0.866025,-0.500000,-0.000000
1.428426,-3.324219,-33.540174,0.471397,-0.881921,0.000000
3.933521,1.940976,9.878561,0.000000,0.000000,1.000000
3.575412,-0.478072,-32.081787,0.995185,-0.098017,0.000000
3.609590,0.131058,-42.832258,0.995185,0.098017,0.000000
0.019858,-3.620542,-28.543320,0.098017,-0.995185,0.000000
-3.759441,6.269488,8.927067,-0.866025,0.500000,0.000000
-1.200172,3.403204,-37.706775,-0.290284,0.956940,0.000000
1.167367,3.413155,-46.732303,0.290284,0.956940,0.000000
-3.604374,-0.184016,-48.796512,-0.995185,-0.098017,0.000000
0.962022,1.997974,-21.249527,0.000000,0.000000,1.000000
3.574106,0.491329,-53.401641,0.995185,0.098017,0.000000
3.352515,6.390515,3.616386,-0.000000,1.000000,0.000000
0.150696,-1.172523,-53.870022,0.000000,0.000000,-1.000000
5.201839,3.771182,0.846073,0.866025,0.500000,0.000000
-3.170424,1.716157,-50.851009,-0.881921,0.471397,0.000000
2.860295,-2.197401,-47.322594,0.773010,-0.634394,0.000000
0.000210,6.286718,0.000000,0.000000,0.000000,-1.000000
-3.309070,6.390515,5.912028,-0.000000,1.000000,0.000000
3.440050,-0.174751,-21.249527,0.000000,-0.000000,1.000000
5.465222,3.314989,7.409003,0.866025,0.500000,0.000000
5.680398,-2.942293,7.980279,0.866025,-0.500000,0.000000
3.270098,-1.529679,-33.196319,0.881921,-0.471397,0.000000
-3.566154,-0.572063,-49.256186,-0.995185,-0.098017,0.000000
0.258954,-2.640746,-21.249527,0.000000,-0.000000,1.000000
-4.296067,0.266874,9.878561,0.000000,0.000000,1.000000
2.851737,2.207829,-48.540804,0.773010,0.634394,0.000000
-1.144177,-3.420190,-30.359234,-0.290284,-0.956940,0.000000
5.957883,2.461676,5.023014,0.866025,0.500000,0.000000
-1.789114,6.390515,6.372738,-0.000000,1.000000,0.000000
-2.263184,2.806308,-46.768251,-0.634394,0.773010,0.000000
-2.010587,-1.655644,-21.249527,-0.000000,0.000000,1.000000
-4.319440,2.130175,9.878561,0.000000,0.000000,1.000000
-2.063101,-2.970512,-21.319002,-0.634394,-0.773010,0.000000
3.037551,1.964743,-51.381738,0.881921,0.471397,0.000000
-1.362194,-1.462515,0.000000,0.000000,0.000000,-1.000000
-3.739941,6.303263,4.160156,-0.866025,0.500000,0.000000
4.173908,-5.551611,6.636210,0.866025,-0.500000,0.000000
-1.452436,3.311385,-33.243884,-0.471397,0.881921,0.000000
-5.715215,2.881989,6.132331,-0.866025,0.500000,0.000000
-0.179702,6.390515,1.168940,-0.000000,1.000000,0.000000
2.188937,-2.867241,-26.994815,0.634394,-0.773010,0.000000
6.969814,-0.708959,6.976807,0.866025,-0.500000,0.000000
-3.071486,0.576494,0.000000,0.000000,0.000000,-1.000000
-0.803730,-3.523463,-21.721667,-0.290284,-0.956940,0.000000
0.265465,-3.596352,-39.540325,0.098017,-0.995185,0.000000
-3.472048,0.973224,-42.620230,-0.956940,0.290284,0.000000
5.716544,2.879686,3.802516,0.866025,0.500000,0.000000
-5.631856,-1.636083,9.878561,0.000000,0.000000,1.000000
-6.375968,-1.737530,4.853715,-0.866025,-0.500000,-0.000000
-1.226886,3.395100,-35.141086,-0.290284,0.956940,0.000000
0.221002,-3.600731,-43.748405,0.098017,-0.995185,0.000000
-6.517121,1.493047,8.481699,-0.866025,0.500000,0.000000
-0.782119,-1.736453,0.000000,0.000000,0.000000,-1.000000
-3.362041,1.335868,-41.782173,-0.956940,0.290284,0.000000
-3.111133,1.827082,-35.250291,-0.881921,0.471397,0.000000
1.163036,-6.390515,9.860222,-0.000000,-1.000000,-0.000000
1.847783,-3.100068,-40.997985,0.471397,-0.881921,0.000000
-2.377751,-3.494457,0.000000,0.000000,0.000000,-1.000000
-0.855442,3.507776,-44.714825,-0.290284,0.956940,0.000000
-5.013897,4.096707,2.930049,-0.866025,0.500000,0.000000
-5.159446,3.844609,1.775580,-0.866025,0.500000,0.000000
1.302022,6.390515,0.508395,-0.000000,1.000000,0.000000
3.407854,1.184844,-23.195705,0.956940,0.290284,-0.000000
1.179884,3.409358,-26.558660,0.290284,0.956940,-0.000000
-0.273843,2.588128,0.000000,0.000000,0.000000,-1.000000
-5.514091,3.230345,7.583329,-0.866025,0.500000,0.000000
3.950245,-5.939006,3.032155,0.866025,-0.500000,0.000000
-0.900695,3.494049,-48.854399,-0.290284,0.956940,0.000000
0.998989,3.464232,-41.919029,0.290284,0.956940,0.000000
-0.950697,3.478881,-23.421735,-0.290284,0.956940,0.000000
-3.458884,-1.016619,-34.668134,-0.956940,-0.290284,0.000000
-3.008124,2.017271,-38.616168,-0.773010,0.634394,0.000000
-1.418012,3.329785,-51.442885,-0.471397,0.881921,0.000000
-5.078951,3.984031,3.163429,-0.866025,0.500000,0.000000
3.558209,-0.652731,-42.598569,0.995185,-0.098017,0.000000
0.200199,6.390515,9.307245,-0.000000,1.000000,0.000000
3.439474,-1.080603,-21.746885,0.956940,-0.290284,0.000000
2.734474,-3.851317,0.000000,0.000000,0.000000,-1.000000
2.286875,6.390515,2.723633,-0.000000,1.000000,0.000000
-3.901298,6.023785,1.632252,-0.866025,0.500000,0.000000
5.187252,3.796448,7.606864,0.866025,0.500000,0.000000
-2.061514,2.971815,-29.644077,-0.634394,0.773010,0.000000
