x,y,z,nx,ny,nz
2.385294,9.679977,1.654186,0.000000,0.000000,1.000000
10.641034,-9.963301,1.654186,0.000000,-0.000000,1.000000
-6.265520,13.010287,1.654186,0.000000,0.000000,1.000000
5.688118,8.581340,1.654186,0.000000,0.000000,1.000000
-9.506037,-11.749419,0.954755,-0.595699,-0.803208,0.000000
15.063474,1.113395,-1.161395,0.998795,0.049068,0.000000
10.612135,-6.051756,-1.654186,0.000000,0.000000,-1.000000
4.888338,13.900883,-1.654186,-0.000000,0.000000,-1.000000
-4.369947,8.051689,-1.654186,-0.000000,0.000000,-1.000000
7.082742,-2.675741,1.654186,-0.000000,-0.000000,1.000000
-12.810368,-0.212107,-1.654186,0.000000,-0.000000,-1.000000
10.569327,-0.976737,-1.654186,0.000000,0.000000,-1.000000
-12.904937,-2.995448,1.654186,-0.000000,0.000000,1.000000
-11.898489,9.102614,-1.654186,-0.000000,-0.000000,-1.000000
-11.540436,-8.479868,-1.654186,0.000000,-0.000000,-1.000000
-9.767052,-6.107075,1.654186,-0.000000,0.000000,1.000000
8.944574,-4.895203,-1.654186,0.000000,0.000000,-1.000000
-14.107144,-2.643952,-1.654186,0.000000,-0.000000,-1.000000
-13.205366,4.363303,1.654186,0.000000,0.000000,1.000000
4.126848,5.456818,1.148392,-0.595699,-0.803208,0.000000
7.758135,-11.339796,-1.654186,0.000000,0.000000,-1.000000
-12.090970,-2.108415,-1.654186,0.000000,-0.000000,-1.000000
-1.632944,15.022959,-0.217289,-0.146730,0.989177,0.000000
9.339948,-11.872599,-0.292701,0.595699,-0.803208,0.000000
-11.451760,9.849867,0.024258,-0.740951,0.671559,0.000000
2.531996,-7.638248,1.654186,0.000000,-0.000000,1.000000
-14.763680,3.204910,-0.622028,-0.970031,0.242980,0.000000
-0.059206,14.294518,-1.654186,-0.000000,0.000000,-1.000000
3.279512,-6.010423,-1.417079,-0.514103,0.857729,0.000000
13.859214,-2.715280,-1.654186,0.000000,0.000000,-1.000000
1.215853,-11.375028,1.654186,0.000000,-0.000000,1.000000
10.759808,6.508427,1.654186,0.000000,0.000000,1.000000
10.717388,-8.864028,-1.654186,0.000000,0.000000,-1.000000
14.247437,5.002737,1.019332,0.941544,0.336890,-0.000000
-11.787164,-6.679945,1.654186,-0.000000,0.000000,1.000000
7.298888,9.955333,-1.654186,-0.000000,0.000000,-1.000000
5.976527,-13.877008,-0.773067,0.427555,-0.903989,0.000000
-5.683826,9.117949,-1.654186,-0.000000,-0.000000,-1.000000
2.099848,-11.948256,1.654186,0.000000,-0.000000,1.000000
9.773286,11.521169,-1.395300,0.671559,0.740951,0.000000
-9.370017,-11.850298,0.035233,-0.595699,-0.803208,0.000000
5.967171,13.526856,-1.654186,-0.000000,0.000000,-1.000000
9.741186,-2.027277,1.654186,-0.000000,-0.000000,1.000000
13.019840,-7.649194,-0.775020,0.857729,-0.514103,0.000000
10.928758,1.133951,1.654186,0.000000,0.000000,1.000000
-0.531421,6.823461,-0.486828,0.049068,-0.998795,0.000000
6.629420,-5.255346,1.654186,0.000000,-0.000000,1.000000
-3.471221,14.696973,1.464123,-0.242980,0.970031,0.000000
-11.219571,-10.106048,0.587219,-0.740951,-0.671559,0.000000
-2.143519,-13.493774,1.654186,-0.000000,0.000000,1.000000
4.453358,5.196868,1.397788,-0.671559,-0.740951,0.000000
-12.383226,-6.396504,1.654186,-0.000000,0.000000,1.000000
-2.089690,-6.518359,-0.081926,0.336890,0.941544,0.000000
-4.631695,11.883180,1.654186,0.000000,0.000000,1.000000
-9.138222,0.790704,-1.654186,-0.000000,0.000000,-1.000000
7.662174,-10.570670,-1.654186,0.000000,0.000000,-1.000000
-6.622416,8.736182,-1.654186,-0.000000,-0.000000,-1.000000
11.170887,-5.356298,-1.654186,0.000000,0.000000,-1.000000
0.794782,11.004105,1.654186,0.000000,0.000000,1.000000
-8.524232,-2.531851,1.654186,-0.000000,0.000000,1.000000
-2.320610,-6.435735,-0.827418,0.336890,0.941544,0.000000
-6.551827,2.079102,-1.654186,-0.000000,0.000000,-1.000000
-14.760250,1.841967,-1.654186,-0.000000,-0.000000,-1.000000
6.200823,2.890481,0.078815,-0.903989,-0.427555,0.000000
-0.032594,15.116570,0.746929,-0.049068,0.998795,0.000000
-6.847566,-0.040765,-0.002585,0.998795,0.049068,0.000000
8.079488,-9.227358,-1.654186,0.000000,0.000000,-1.000000
-6.187188,-9.060420,-1.654186,0.000000,-0.000000,-1.000000
-2.319845,7.763139,-1.654186,-0.000000,-0.000000,-1.000000
4.719436,8.055198,1.654186,0.000000,-0.000000,1.000000
-9.866650,2.239513,1.654186,0.000000,0.000000,1.000000
-3.848483,13.642749,-1.654186,-0.000000,-0.000000,-1.000000
-3.865139,7.894369,-1.654186,-0.000000,-0.000000,-1.000000
-10.582901,-10.787377,1.202169,-0.671559,-0.740951,0.000000
-13.187069,0.667640,1.654186,-0.000000,0.000000,1.000000
-2.050999,11.225092,-1.654186,-0.000000,-0.000000,-1.000000
5.800264,-9.665726,1.654186,0.000000,-0.000000,1.000000
2.722701,-11.081549,-1.654186,0.000000,0.000000,-1.000000
5.550730,14.051362,0.139607,0.336890,0.941544,0.000000
-10.498207,-9.251033,-1.654186,0.000000,-0.000000,-1.000000
1.753278,6.613504,-0.395285,-0.242980,-0.970031,0.000000
-5.162091,7.769039,1.654186,0.000000,0.000000,1.000000
-11.044809,8.543090,1.654186,0.000000,0.000000,1.000000
-6.029112,3.307498,1.654186,0.000000,0.000000,1.000000
-10.593377,-3.885918,-1.654186,0.000000,-0.000000,-1.000000
-11.269059,-10.051447,1.335207,-0.740951,-0.671559,0.000000
-1.066071,-13.121133,1.654186,-0.000000,-0.000000,1.000000
-3.508802,6.346464,1.654186,0.000000,0.000000,1.000000
-7.196540,-9.071366,-1.654186,0.000000,-0.000000,-1.000000
-6.477673,4.485975,-1.654186,-0.000000,-0.000000,-1.000000
-13.351270,7.088106,-0.836185,-0.903989,0.427555,0.000000
13.189814,-5.864592,1.654186,0.000000,-0.000000,1.000000
4.943397,13.327982,-1.654186,-0.000000,0.000000,-1.000000
-14.769793,3.180506,-1.282686,-0.970031,0.242980,0.000000
10.169454,5.511266,-1.654186,0.000000,0.000000,-1.000000
8.497524,11.566286,1.654186,0.000000,0.000000,1.000000
-9.660863,11.396393,1.654186,0.000000,0.000000,1.000000
-14.803778,-2.956302,-1.654186,0.000000,-0.000000,-1.000000
-3.019864,11.234576,-1.654186,-0.000000,-0.000000,-1.000000
13.022665,-2.248200,1.654186,0.000000,-0.000000,1.000000
7.995103,3.175050,-1.654186,-0.000000,0.000000,-1.000000
5.802970,6.417667,-1.654186,0.000000,0.000000,-1.000000
3.182737,6.943971,-1.654186,0.000000,0.000000,-1.000000
-3.490475,-5.883976,-0.697911,0.514103,0.857729,0.000000
-0.066274,14.173649,-1.654186,-0.000000,0.000000,-1.000000
-0.238317,-7.068050,1.654186,-0.000000,0.000000,1.000000
-8.267278,4.575445,1.654186,0.000000,0.000000,1.000000
11.891992,7.873935,1.654186,0.000000,-0.000000,1.000000
-12.917858,-0.726769,1.654186,-0.000000,0.000000,1.000000
-2.238938,-7.248717,-1.654186,0.000000,-0.000000,-1.000000
8.326442,12.613913,-0.598743,0.514103,0.857729,0.000000
-8.570532,9.929660,-1.654186,-0.000000,-0.000000,-1.000000
-2.526823,14.890365,0.072720,-0.146730,0.989177,0.000000
14.231260,-5.047950,-0.746489,0.941544,-0.336890,0.000000
6.333988,6.787578,1.654186,0.000000,0.000000,1.000000
-12.587332,-6.422275,-1.654186,0.000000,-0.000000,-1.000000
-14.805396,3.038371,0.690107,-0.970031,0.242980,0.000000
4.540256,14.412915,0.936849,0.336890,0.941544,-0.000000
-9.959758,-5.546186,-1.654186,0.000000,-0.000000,-1.000000
7.004931,-12.133064,1.654186,0.000000,-0.000000,1.000000
-8.924547,-11.227507,1.654186,-0.000000,0.000000,1.000000
8.444365,-6.689236,-1.654186,0.000000,0.000000,-1.000000
-10.704975,-10.673817,0.273820,-0.740951,-0.671559,0.000000
-1.467004,-14.195933,1.654186,-0.000000,0.000000,1.000000
-3.253822,-11.155639,1.654186,-0.000000,0.000000,1.000000
-4.381650,-14.468922,0.088793,-0.242980,-0.970031,0.000000
6.849274,-0.005993,0.957540,-0.998795,0.049068,0.000000
15.083914,0.697322,1.066329,0.998795,0.049068,-0.000000
13.813328,-1.962377,1.654186,0.000000,-0.000000,1.000000
-12.585414,7.467638,-1.654186,-0.000000,-0.000000,-1.000000
14.737215,-3.310566,1.479090,0.970031,-0.242980,0.000000
-1.741261,-9.403635,1.654186,-0.000000,0.000000,1.000000
-6.394328,7.842442,1.654186,0.000000,0.000000,1.000000
9.210428,2.321688,-1.654186,-0.000000,0.000000,-1.000000
-0.947025,-6.775697,-0.465123,0.146730,0.989177,0.000000
7.337615,-0.016107,-1.654186,0.000000,0.000000,-1.000000
-0.309621,14.174618,1.654186,0.000000,0.000000,1.000000
14.005194,-5.679760,-0.013380,0.941544,-0.336890,0.000000
8.878617,9.181934,-1.654186,-0.000000,0.000000,-1.000000
-6.499040,-13.544532,-1.654186,0.000000,-0.000000,-1.000000
15.059169,1.201024,-1.273664,0.998795,0.049068,0.000000
7.996849,2.404392,1.654186,0.000000,-0.000000,1.000000
-9.873057,-2.327207,-1.654186,0.000000,-0.000000,-1.000000
-8.516617,-5.613902,1.654186,-0.000000,0.000000,1.000000
3.490272,7.961593,1.654186,0.000000,-0.000000,1.000000
-4.038002,-14.505370,-1.654186,0.000000,-0.000000,-1.000000
11.520941,-1.608709,-1.654186,0.000000,0.000000,-1.000000
-6.625579,-13.570029,-1.169455,-0.427555,-0.903989,0.000000
-9.792678,5.028034,1.654186,0.000000,0.000000,1.000000
1.182529,-7.293484,1.654186,-0.000000,-0.000000,1.000000
4.887369,-5.110051,-1.654186,0.000000,0.000000,-1.000000
2.000320,-14.968464,0.738274,0.146730,-0.989177,0.000000
12.319509,-3.223945,1.654186,0.000000,-0.000000,1.000000
2.180775,-14.941696,-1.120254,0.146730,-0.989177,0.000000
-14.250590,-4.993925,-0.620771,-0.941544,-0.336890,0.000000
6.521909,2.079768,0.151620,-0.941544,-0.336890,0.000000
-2.969136,6.623734,1.654186,0.000000,0.000000,1.000000
-10.490762,-4.601311,1.654186,-0.000000,0.000000,1.000000
-5.100295,4.559910,-0.004420,0.740951,-0.671559,0.000000
-6.237293,-11.619793,-1.654186,0.000000,-0.000000,-1.000000
10.327388,-0.841860,-1.654186,0.000000,0.000000,-1.000000
-0.507823,6.824621,-1.420120,0.049068,-0.998795,0.000000
8.543073,-4.618815,1.654186,-0.000000,-0.000000,1.000000
0.521065,-8.431564,-1.654186,0.000000,-0.000000,-1.000000
-0.101320,-6.844591,-0.354435,0.049068,0.998795,0.000000
-13.725622,3.985322,1.654186,0.000000,0.000000,1.000000
-8.132810,-11.834359,1.654186,-0.000000,0.000000,1.000000
2.579047,-6.343264,0.229872,-0.336890,0.941544,0.000000
-9.667011,5.750792,1.654186,0.000000,0.000000,1.000000
-4.690707,-7.089481,1.654186,-0.000000,0.000000,1.000000
1.584942,-12.499284,1.654186,0.000000,-0.000000,1.000000
-11.688722,-8.818552,-1.654186,0.000000,-0.000000,-1.000000
13.674029,-6.405690,0.432914,0.903989,-0.427555,0.000000
-3.767548,6.393932,-1.654186,-0.000000,0.000000,-1.000000
10.954156,7.850604,1.654186,0.000000,0.000000,1.000000
-0.058655,-15.115290,0.196939,-0.049068,-0.998795,0.000000
-6.489714,11.911801,-1.654186,-0.000000,0.000000,-1.000000
14.676070,3.554669,-1.129103,0.970031,0.242980,0.000000
-7.986349,6.195358,-1.654186,-0.000000,0.000000,-1.000000
4.438166,-5.210638,-0.658026,-0.671559,0.740951,0.000000
11.418954,-5.655400,-1.654186,0.000000,0.000000,-1.000000
11.936351,8.687329,1.654186,0.000000,0.000000,1.000000
0.791838,-11.972089,-1.654186,0.000000,0.000000,-1.000000
-11.388432,4.794964,1.654186,0.000000,0.000000,1.000000
-1.144805,-15.061931,-1.339028,-0.049068,-0.998795,0.000000
-10.465162,10.418720,1.654186,0.000000,0.000000,1.000000
-0.846581,-7.450540,1.654186,-0.000000,0.000000,1.000000
-12.433065,-5.813870,-1.654186,0.000000,-0.000000,-1.000000
8.309333,6.231619,-1.654186,-0.000000,0.000000,-1.000000
-11.068472,-3.481686,1.654186,-0.000000,0.000000,1.000000
-8.179655,3.964015,-1.654186,-0.000000,0.000000,-1.000000
-10.159947,-0.353066,1.654186,-0.000000,0.000000,1.000000
1.658356,9.114706,-1.654186,0.000000,0.000000,-1.000000
11.518651,-1.090171,-1.654186,0.000000,0.000000,-1.000000
1.671039,8.718454,-1.654186,0.000000,0.000000,-1.000000
9.855294,-9.392100,1.654186,0.000000,-0.000000,1.000000
2.670881,11.260344,1.654186,0.000000,0.000000,1.000000
12.216885,4.229089,1.654186,0.000000,0.000000,1.000000
-1.982547,-7.507456,1.654186,-0.000000,0.000000,1.000000
-0.014749,6.848844,0.170743,0.049068,-0.998795,0.000000
4.122847,7.871618,1.654186,0.000000,0.000000,1.000000
2.806445,10.144297,1.654186,0.000000,0.000000,1.000000
-3.086032,7.094598,-1.654186,-0.000000,0.000000,-1.000000
7.231333,-0.412005,1.654186,0.000000,-0.000000,1.000000
-1.273437,-10.225173,-1.654186,0.000000,-0.000000,-1.000000
-7.304309,-9.193340,-1.654186,0.000000,-0.000000,-1.000000
-13.569651,-6.626378,0.966048,-0.903989,-0.427555,0.000000
7.731016,7.453578,1.654186,0.000000,-0.000000,1.000000
-4.077146,-5.493679,-0.590538,0.595699,0.803208,0.000000
10.704450,-1.547064,-1.654186,0.000000,0.000000,-1.000000
11.746826,9.509532,-1.594686,0.803208,0.595699,0.000000
-6.643452,5.407476,1.654186,0.000000,0.000000,1.000000
2.847010,-9.279076,-1.654186,0.000000,0.000000,-1.000000
9.363836,6.060070,-1.654186,-0.000000,0.000000,-1.000000
-7.599049,-8.704101,-1.654186,0.000000,-0.000000,-1.000000
-3.195470,-10.447997,1.654186,-0.000000,0.000000,1.000000
-1.042043,-13.672967,-1.654186,0.000000,-0.000000,-1.000000
-10.930741,-9.680833,-1.654186,0.000000,-0.000000,-1.000000
-6.644967,-12.462942,-1.654186,0.000000,-0.000000,-1.000000
-9.926898,-3.795175,-1.654186,0.000000,-0.000000,-1.000000
-11.116366,3.804825,1.654186,0.000000,0.000000,1.000000
3.131747,-12.931996,-1.654186,0.000000,0.000000,-1.000000
0.590626,7.311806,-1.654186,0.000000,0.000000,-1.000000
5.224862,4.422471,0.477511,-0.740951,-0.671559,0.000000
-12.771736,-7.619333,1.654186,-0.000000,0.000000,1.000000
-7.924712,5.473160,1.654186,0.000000,0.000000,1.000000
-13.825035,6.086413,-1.012746,-0.903989,0.427555,0.000000
7.604066,8.879075,1.654186,0.000000,-0.000000,1.000000
3.155257,13.341088,1.654186,0.000000,0.000000,1.000000
11.255032,-7.537908,1.654186,-0.000000,-0.000000,1.000000
-12.572920,2.060411,-1.654186,-0.000000,-0.000000,-1.000000
-6.667976,13.549977,1.257590,-0.427555,0.903989,0.000000
9.302083,-4.239299,-1.654186,0.000000,0.000000,-1.000000
4.947327,5.910609,1.654186,0.000000,-0.000000,1.000000
-2.183130,-14.931615,1.654186,-0.000000,0.000000,1.000000
-6.257237,2.771204,0.458057,0.903989,-0.427555,0.000000
12.250710,4.490461,1.654186,0.000000,0.000000,1.000000
6.555374,-2.087737,1.654186,-0.000000,-0.000000,1.000000
2.794490,6.246224,-0.264930,-0.427555,-0.903989,-0.000000
-2.549990,-12.317970,-1.654186,0.000000,-0.000000,-1.000000
-14.283737,-4.901285,-0.484598,-0.941544,-0.336890,0.000000
4.258171,-8.146494,-1.654186,0.000000,0.000000,-1.000000
-15.117917,-0.005186,-0.466143,-0.998795,-0.049068,0.000000
-0.863160,15.075767,0.888883,-0.049068,0.998795,0.000000
10.811935,-10.555805,-0.509492,0.740951,-0.671559,0.000000
1.857334,13.733033,1.654186,0.000000,0.000000,1.000000
10.194302,-7.814741,1.654186,0.000000,-0.000000,1.000000
-10.519096,-5.925718,1.654186,-0.000000,0.000000,1.000000
-10.494503,-9.170967,-1.654186,0.000000,-0.000000,-1.000000
-10.976836,-3.189107,-1.654186,0.000000,-0.000000,-1.000000
8.459934,-8.409680,-1.654186,0.000000,0.000000,-1.000000
10.198827,-11.135481,-0.292657,0.671559,-0.740951,0.000000
-14.047704,5.560952,0.721572,-0.941544,0.336890,0.000000
1.755340,-9.359398,-1.654186,0.000000,0.000000,-1.000000
6.788938,-5.566701,1.654186,0.000000,-0.000000,1.000000
3.871694,14.596660,-0.163998,0.242980,0.970031,0.000000
-6.379505,-2.477761,-0.673539,0.941544,0.336890,0.000000
-14.894143,-2.501355,-0.814335,-0.989177,-0.146730,0.000000
-4.805561,-8.491241,-1.654186,0.000000,-0.000000,-1.000000
-5.054826,14.228799,1.161401,-0.336890,0.941544,0.000000
14.947558,-2.141255,-0.460283,0.989177,-0.146730,0.000000
9.087460,8.677577,1.654186,0.000000,0.000000,1.000000
13.181283,5.830186,1.654186,0.000000,0.000000,1.000000
-8.509747,-11.826679,1.654186,-0.000000,0.000000,1.000000
-5.039595,9.703245,-1.654186,-0.000000,-0.000000,-1.000000
6.165023,-2.966175,1.555923,-0.903989,0.427555,0.000000
-1.098200,11.298219,-1.654186,-0.000000,0.000000,-1.000000
-12.586463,4.852813,-1.654186,-0.000000,-0.000000,-1.000000
-4.901246,-10.799481,1.654186,-0.000000,0.000000,1.000000
8.511703,1.623734,-1.654186,-0.000000,0.000000,-1.000000
9.245998,0.344313,1.654186,0.000000,0.000000,1.000000
-0.263595,-12.658396,-1.654186,0.000000,-0.000000,-1.000000
11.051275,6.988075,-1.654186,-0.000000,0.000000,-1.000000
-6.523812,13.618162,0.708729,-0.427555,0.903989,0.000000
2.641394,-10.200688,-1.654186,0.000000,0.000000,-1.000000
-5.900272,-10.335253,1.654186,-0.000000,0.000000,1.000000
0.630728,-9.897364,1.654186,-0.000000,-0.000000,1.000000
7.653420,12.234378,1.654186,0.000000,0.000000,1.000000
0.809630,-8.081122,-1.654186,0.000000,0.000000,-1.000000
-8.696424,4.346973,1.654186,0.000000,0.000000,1.000000
-5.808241,8.677878,1.654186,0.000000,0.000000,1.000000
0.425545,10.664336,1.654186,0.000000,0.000000,1.000000
-14.592106,3.889873,-0.978416,-0.970031,0.242980,0.000000
-11.216381,-1.901798,-1.654186,0.000000,-0.000000,-1.000000
-12.374480,8.663239,-1.040836,-0.803208,0.595699,0.000000
10.922735,-2.344808,-1.654186,0.000000,0.000000,-1.000000
-11.620753,3.066427,1.654186,0.000000,0.000000,1.000000
-5.286160,-4.354839,-1.166356,0.740951,0.671559,0.000000
8.102435,-0.406141,-1.654186,0.000000,0.000000,-1.000000
-2.188044,-13.201054,-1.654186,0.000000,-0.000000,-1.000000
-8.673303,5.303661,1.654186,0.000000,0.000000,1.000000
-6.557093,-5.759642,-1.654186,0.000000,-0.000000,-1.000000
-2.218171,-14.936149,0.552237,-0.146730,-0.989177,0.000000
8.551976,-0.346140,1.654186,0.000000,-0.000000,1.000000
-0.800278,-9.776098,-1.654186,0.000000,-0.000000,-1.000000
-6.852086,5.683218,1.654186,0.000000,0.000000,1.000000
4.358996,-9.969942,-1.654186,0.000000,0.000000,-1.000000
5.581186,3.959157,0.341888,-0.803208,-0.595699,0.000000
15.092291,0.526805,0.655263,0.998795,0.049068,-0.000000
14.437000,4.472944,-0.207213,0.941544,0.336890,0.000000
15.106808,0.231303,-0.208401,0.998795,0.049068,0.000000
3.001189,-14.637248,1.654186,0.000000,-0.000000,1.000000
6.623993,2.547785,1.654186,0.000000,-0.000000,1.000000
-0.570465,-13.405320,1.654186,-0.000000,-0.000000,1.000000
13.717020,-6.314793,-0.451601,0.903989,-0.427555,0.000000
-14.533938,-4.122092,0.723748,-0.970031,-0.242980,0.000000
14.525907,2.692884,1.654186,0.000000,0.000000,1.000000
-5.038427,-4.870583,1.654186,-0.000000,0.000000,1.000000
-7.268467,9.242907,1.654186,0.000000,0.000000,1.000000
-14.791360,3.094406,-0.536371,-0.970031,0.242980,0.000000
13.231686,7.295751,0.127834,0.857729,0.514103,0.000000
12.265040,8.810802,1.075208,0.803208,0.595699,-0.000000
-2.833496,-6.227775,0.160714,0.427555,0.903989,0.000000
-1.352550,12.408036,-1.654186,-0.000000,0.000000,-1.000000
1.105448,15.063864,0.825895,0.049068,0.998795,-0.000000
-0.691861,6.813547,0.158038,0.146730,-0.989177,0.000000
8.502169,-9.703027,-1.654186,0.000000,0.000000,-1.000000
6.194582,11.215651,1.654186,0.000000,-0.000000,1.000000
-14.028143,0.763827,-1.654186,-0.000000,-0.000000,-1.000000
10.940593,-6.093306,1.654186,0.000000,-0.000000,1.000000
-7.793455,-12.933373,1.370472,-0.514103,-0.857729,0.000000
4.591063,-14.394736,-0.847208,0.336890,-0.941544,0.000000
-4.562530,10.920147,-1.654186,-0.000000,0.000000,-1.000000
-3.033520,-12.142066,1.654186,-0.000000,0.000000,1.000000
9.044204,2.755565,-1.654186,0.000000,0.000000,-1.000000
13.413441,5.066562,1.654186,0.000000,0.000000,1.000000
8.134571,-4.582676,-1.654186,0.000000,0.000000,-1.000000
2.437725,14.035420,-1.654186,-0.000000,0.000000,-1.000000
7.569571,-4.336489,-1.654186,0.000000,0.000000,-1.000000
-0.318102,-9.016577,-1.654186,0.000000,-0.000000,-1.000000
-8.286495,-4.295632,1.654186,-0.000000,0.000000,1.000000
-5.578779,-13.914297,-1.654186,0.000000,-0.000000,-1.000000
14.744253,3.282470,-0.343919,0.970031,0.242980,0.000000
-4.072491,14.546363,1.545140,-0.242980,0.970031,0.000000
9.366732,11.852734,0.233150,0.595699,0.803208,0.000000
-8.469210,7.877852,1.654186,0.000000,0.000000,1.000000
-10.789160,-0.667449,1.654186,-0.000000,0.000000,1.000000
11.330894,9.983223,-0.706227,0.740951,0.671559,0.000000
7.608947,7.754564,1.654186,0.000000,0.000000,1.000000
4.697668,-13.227178,-1.654186,0.000000,0.000000,-1.000000
4.122790,14.533763,1.471524,0.242980,0.970031,-0.000000
6.125315,-13.806636,-0.823967,0.427555,-0.903989,0.000000
6.855460,-9.848752,1.654186,0.000000,-0.000000,1.000000
-6.034210,-3.239825,0.136317,0.857729,0.514103,0.000000
-1.797781,14.298556,1.654186,0.000000,0.000000,1.000000
-6.004603,-8.794742,1.654186,-0.000000,0.000000,1.000000
-10.922102,-9.746098,1.654186,-0.000000,0.000000,1.000000
8.720874,3.333238,-1.654186,-0.000000,0.000000,-1.000000
-2.909916,-6.191631,1.037464,0.427555,0.903989,0.000000
12.394330,-3.012113,1.654186,0.000000,-0.000000,1.000000
-5.593953,9.975916,1.654186,0.000000,0.000000,1.000000
-5.705892,3.787591,0.343847,0.857729,-0.514103,0.000000
-14.410217,4.547798,-0.553558,-0.941544,0.336890,0.000000
14.219838,3.851807,1.654186,0.000000,0.000000,1.000000
-5.174261,8.099074,1.654186,0.000000,0.000000,1.000000
1.077882,-11.863240,-1.654186,0.000000,0.000000,-1.000000
5.925002,-12.366736,1.654186,0.000000,-0.000000,1.000000
12.130232,-2.221193,1.654186,0.000000,-0.000000,1.000000
9.469756,11.776326,-1.089515,0.595699,0.803208,0.000000
-14.971454,1.980167,0.894055,-0.989177,0.146730,0.000000
0.195303,-12.480939,-1.654186,0.000000,-0.000000,-1.000000
-13.883381,-0.160668,-1.654186,0.000000,-0.000000,-1.000000
-7.095163,4.829171,1.654186,0.000000,0.000000,1.000000
-10.269140,-6.468795,-1.654186,0.000000,-0.000000,-1.000000
-0.355397,7.349265,-1.654186,-0.000000,0.000000,-1.000000
-13.227189,5.478205,-1.654186,-0.000000,0.000000,-1.000000
6.022806,-3.258852,0.144808,-0.857729,0.514103,0.000000
-1.988687,8.030230,-1.654186,-0.000000,0.000000,-1.000000
6.753819,1.094514,0.526893,-0.989177,-0.146730,0.000000
-0.935825,-14.749632,-1.654186,0.000000,-0.000000,-1.000000
11.751901,3.929277,-1.654186,-0.000000,0.000000,-1.000000
-2.850005,-6.219967,1.516481,0.427555,0.903989,0.000000
-10.510193,-10.853275,-0.513915,-0.671559,-0.740951,0.000000
1.298935,10.604317,1.654186,0.000000,-0.000000,1.000000
-5.512191,14.065151,-0.301681,-0.336890,0.941544,0.000000
-7.146747,11.276334,-1.654186,-0.000000,-0.000000,-1.000000
-0.574746,-8.420263,-1.654186,0.000000,-0.000000,-1.000000
1.243617,15.057077,0.003296,0.049068,0.998795,0.000000
7.368831,8.132112,-1.654186,-0.000000,0.000000,-1.000000
-13.949434,-5.823395,-1.226480,-0.903989,-0.427555,0.000000
13.089943,6.822248,1.654186,0.000000,0.000000,1.000000
1.438237,6.718677,-1.654186,0.000000,0.000000,-1.000000
-5.532513,7.247759,1.654186,0.000000,0.000000,1.000000
-8.820120,-1.716932,1.654186,-0.000000,0.000000,1.000000
-6.009222,-3.997953,-1.654186,0.000000,-0.000000,-1.000000
11.118738,-5.728130,-1.654186,0.000000,0.000000,-1.000000
0.862454,13.980460,1.654186,0.000000,0.000000,1.000000
15.084815,-0.678984,0.985943,0.998795,-0.049068,0.000000
-7.642467,-0.081155,1.654186,-0.000000,0.000000,1.000000
-13.384319,-2.379838,1.654186,-0.000000,0.000000,1.000000
-5.312829,-14.136484,-1.385555,-0.336890,-0.941544,0.000000
-2.901134,-14.834841,1.431064,-0.146730,-0.989177,0.000000
-10.936924,-7.185018,-1.654186,0.000000,-0.000000,-1.000000
14.063410,-0.860184,-1.654186,0.000000,0.000000,-1.000000
-14.863791,-2.705968,0.762365,-0.989177,-0.146730,0.000000
1.617281,-6.647570,-0.173865,-0.242980,0.970031,0.000000
11.308072,-2.517166,1.654186,-0.000000,-0.000000,1.000000
-9.698070,11.026151,-1.654186,-0.000000,-0.000000,-1.000000
1.631715,11.504175,1.654186,0.000000,0.000000,1.000000
11.985544,9.187658,1.319064,0.803208,0.595699,-0.000000
9.531474,-5.916623,1.654186,0.000000,-0.000000,1.000000
7.409605,2.961297,1.654186,0.000000,-0.000000,1.000000
-5.801686,4.461512,-1.654186,-0.000000,0.000000,-1.000000
11.707905,-5.129249,-1.654186,0.000000,0.000000,-1.000000
13.011473,7.502131,-1.654186,-0.000000,0.000000,-1.000000
0.392060,-9.556663,-1.654186,0.000000,-0.000000,-1.000000
12.633585,1.164304,1.654186,0.000000,-0.000000,1.000000
-11.117611,-3.892164,1.654186,-0.000000,0.000000,1.000000
-10.371703,10.978796,0.100533,-0.671559,0.740951,0.000000
9.559167,3.582898,-1.654186,-0.000000,0.000000,-1.000000
10.164086,3.583793,-1.654186,-0.000000,0.000000,-1.000000
-3.680382,-8.780042,1.654186,-0.000000,0.000000,1.000000
-10.149450,-11.180234,-1.036430,-0.671559,-0.740951,0.000000
-2.975272,11.382134,1.654186,0.000000,0.000000,1.000000
10.878953,10.481862,1.597636,0.740951,0.671559,-0.000000
7.828562,-0.936876,1.654186,-0.000000,-0.000000,1.000000
10.958372,4.074262,-1.654186,-0.000000,0.000000,-1.000000
10.592528,-10.484463,1.654186,0.000000,-0.000000,1.000000
2.973843,-13.169574,-1.654186,0.000000,0.000000,-1.000000
8.985028,11.659551,-1.654186,-0.000000,0.000000,-1.000000
9.611885,-3.800932,1.654186,0.000000,-0.000000,1.000000
-0.344120,15.101266,1.218880,-0.049068,0.998795,0.000000
-2.803772,6.241834,0.578083,0.427555,-0.903989,0.000000
10.376859,-10.974122,-1.298536,0.671559,-0.740951,0.000000
6.971333,-9.281533,-1.654186,0.000000,0.000000,-1.000000
-0.737434,-10.624968,1.654186,-0.000000,-0.000000,1.000000
10.262960,5.227540,1.654186,0.000000,-0.000000,1.000000
2.801460,-14.849626,0.597884,0.146730,-0.989177,0.000000
-3.767010,-10.036090,-1.654186,0.000000,-0.000000,-1.000000
-0.672861,12.512522,1.654186,0.000000,0.000000,1.000000
7.914808,4.345700,1.654186,0.000000,0.000000,1.000000
-9.068568,-5.376788,-1.654186,0.000000,-0.000000,-1.000000
-6.097546,-10.502396,1.654186,-0.000000,0.000000,1.000000
5.620600,4.919243,1.654186,0.000000,-0.000000,1.000000
-3.565800,9.617152,1.654186,0.000000,0.000000,1.000000
5.720599,13.990582,-1.160833,0.336890,0.941544,0.000000
-12.316673,1.758509,-1.654186,-0.000000,-0.000000,-1.000000
2.709711,9.924858,1.654186,0.000000,0.000000,1.000000
-14.495041,4.277378,0.935348,-0.970031,0.242980,0.000000
-6.405588,2.446878,-1.654186,-0.000000,0.000000,-1.000000
9.393594,8.934684,1.654186,0.000000,0.000000,1.000000
-6.468808,13.644176,-0.294444,-0.427555,0.903989,0.000000
0.400435,13.615114,1.654186,0.000000,0.000000,1.000000
10.731295,10.644777,-0.516784,0.740951,0.671559,-0.000000
-14.527929,4.146083,-1.000881,-0.970031,0.242980,0.000000
-6.179044,-13.258473,1.654186,-0.000000,0.000000,1.000000
-0.714786,-14.240399,-1.654186,0.000000,-0.000000,-1.000000
14.996257,-1.812959,0.207015,0.989177,-0.146730,0.000000
10.380985,3.475334,1.654186,0.000000,0.000000,1.000000
3.249296,-6.700598,-1.654186,0.000000,0.000000,-1.000000
-13.062196,-7.047339,1.654186,-0.000000,0.000000,1.000000
12.890287,7.865341,-1.322045,0.857729,0.514103,0.000000
2.403321,-6.406140,1.190525,-0.336890,0.941544,0.000000
-6.134994,3.029666,-1.163678,0.903989,-0.427555,0.000000
-6.837784,0.239875,1.251806,0.998795,-0.049068,0.000000
-10.881300,-4.089498,-1.654186,0.000000,-0.000000,-1.000000
8.600791,5.853749,-1.654186,0.000000,0.000000,-1.000000
-1.078500,8.288312,1.654186,0.000000,0.000000,1.000000
-11.779808,1.958871,-1.654186,-0.000000,-0.000000,-1.000000
11.104300,10.233231,-1.573514,0.740951,0.671559,0.000000
13.719329,-6.309912,-1.625020,0.903989,-0.427555,0.000000
8.546276,4.458933,1.654186,0.000000,-0.000000,1.000000
-7.324769,9.251705,-1.654186,-0.000000,-0.000000,-1.000000
-13.307997,-6.438278,-1.654186,0.000000,-0.000000,-1.000000
7.409188,-9.863598,1.654186,0.000000,-0.000000,1.000000
1.850866,12.699278,1.654186,0.000000,0.000000,1.000000
12.217825,4.194311,-1.654186,-0.000000,0.000000,-1.000000
8.861513,-11.991843,1.654186,0.000000,-0.000000,1.000000
-3.649175,-10.716927,1.654186,-0.000000,0.000000,1.000000
7.145293,-13.321867,-1.479032,0.514103,-0.857729,0.000000
0.466300,-15.095264,1.229106,0.049068,-0.998795,0.000000
0.382484,6.830778,1.410580,-0.049068,-0.998795,0.000000
-6.792622,0.832924,-1.620636,0.989177,-0.146730,0.000000
-6.628783,3.290341,-1.654186,-0.000000,0.000000,-1.000000
9.749880,9.163306,1.654186,0.000000,0.000000,1.000000
-7.338189,-7.224875,-1.654186,0.000000,-0.000000,-1.000000
-14.052612,2.374417,-1.654186,-0.000000,-0.000000,-1.000000
0.648028,6.817733,1.036120,-0.049068,-0.998795,0.000000
2.105429,14.952873,0.696349,0.146730,0.989177,-0.000000
0.891220,-14.121938,1.654186,0.000000,-0.000000,1.000000
4.734747,4.941832,-0.048468,-0.671559,-0.740951,0.000000
14.534124,-4.121350,-1.533834,0.970031,-0.242980,0.000000
-6.785162,0.883219,-0.498198,0.989177,-0.146730,0.000000
5.938596,-4.261288,-1.654186,0.000000,0.000000,-1.000000
-0.654465,13.001016,1.654186,0.000000,0.000000,1.000000
1.490753,7.677380,1.654186,0.000000,0.000000,1.000000
-11.088751,-3.430116,-1.654186,0.000000,-0.000000,-1.000000
4.090868,5.483503,-0.634221,-0.595699,-0.803208,-0.000000
-5.256203,14.156745,-0.759258,-0.336890,0.941544,0.000000
-14.406733,3.948659,-1.654186,-0.000000,-0.000000,-1.000000
-1.710525,-10.151471,1.654186,-0.000000,0.000000,1.000000
-9.339554,-11.872890,-1.457007,-0.595699,-0.803208,0.000000
6.211539,10.752696,1.654186,0.000000,0.000000,1.000000
-4.882303,14.290529,0.072776,-0.336890,0.941544,0.000000
-13.860419,-0.971451,-1.654186,0.000000,-0.000000,-1.000000
13.188213,-6.473269,1.654186,0.000000,-0.000000,1.000000
6.392432,13.201553,-1.654186,-0.000000,0.000000,-1.000000
-10.553003,9.897921,1.654186,0.000000,0.000000,1.000000
7.758166,1.898611,-1.654186,0.000000,0.000000,-1.000000
-9.108803,9.565477,-1.654186,-0.000000,-0.000000,-1.000000
-0.768001,13.888810,-1.654186,-0.000000,0.000000,-1.000000
-0.428498,10.946354,-1.654186,-0.000000,0.000000,-1.000000
-9.586650,10.959011,1.654186,0.000000,0.000000,1.000000
11.104945,-7.633817,-1.654186,0.000000,0.000000,-1.000000
-10.234297,7.965607,1.654186,0.000000,0.000000,1.000000
-5.904840,-3.455666,-1.283791,0.857729,0.514103,0.000000
-0.682998,-9.096891,1.654186,-0.000000,-0.000000,1.000000
14.557982,-1.471170,-1.654186,0.000000,0.000000,-1.000000
13.212511,3.389876,-1.654186,-0.000000,0.000000,-1.000000
2.812525,-8.931593,1.654186,0.000000,-0.000000,1.000000
-7.813035,-9.910063,1.654186,-0.000000,0.000000,1.000000
6.587036,13.588259,0.245542,0.427555,0.903989,0.000000
14.426827,-4.501374,0.714868,0.941544,-0.336890,0.000000
-14.730983,3.015814,-1.654186,-0.000000,-0.000000,-1.000000
-13.714124,-3.126435,-1.654186,0.000000,-0.000000,-1.000000
5.508367,-11.218607,1.654186,0.000000,-0.000000,1.000000
5.424915,-11.466218,1.654186,0.000000,-0.000000,1.000000
6.084238,-10.979140,1.654186,0.000000,-0.000000,1.000000
-4.254011,-14.500894,1.338652,-0.242980,-0.970031,0.000000
4.027792,-5.530283,0.525031,-0.595699,0.803208,0.000000
8.932720,1.769902,-1.654186,-0.000000,0.000000,-1.000000
-11.553794,3.979108,-1.654186,-0.000000,-0.000000,-1.000000
-1.270670,10.088884,-1.654186,-0.000000,0.000000,-1.000000
-9.184041,10.443675,-1.654186,-0.000000,-0.000000,-1.000000
-10.710143,-9.750171,1.654186,-0.000000,0.000000,1.000000
11.489724,-5.691102,1.654186,0.000000,-0.000000,1.000000
2.362775,-10.837597,1.654186,0.000000,-0.000000,1.000000
3.455754,5.986657,-1.654186,0.000000,0.000000,-1.000000
8.156049,10.482062,-1.654186,-0.000000,0.000000,-1.000000
10.144308,-6.620473,-1.654186,0.000000,0.000000,-1.000000
-7.673790,1.932945,1.654186,0.000000,0.000000,1.000000
7.553305,-1.148491,1.654186,-0.000000,-0.000000,1.000000
-11.186974,5.976169,1.654186,0.000000,0.000000,1.000000
6.858712,0.314980,1.654186,0.000000,-0.000000,1.000000
7.675132,11.585057,-1.654186,0.000000,0.000000,-1.000000
1.085374,-14.981149,-1.654186,0.000000,0.000000,-1.000000
8.964890,-4.643508,-1.654186,0.000000,0.000000,-1.000000
-10.999162,-0.618057,-1.654186,0.000000,-0.000000,-1.000000
-1.151157,6.745417,-0.104377,0.146730,-0.989177,0.000000
-5.055034,9.898247,-1.654186,-0.000000,-0.000000,-1.000000
-14.637022,3.710561,-0.137487,-0.970031,0.242980,0.000000
2.483143,8.766359,-1.654186,0.000000,0.000000,-1.000000
-12.527176,-0.643206,1.654186,-0.000000,0.000000,1.000000
-8.186487,-4.693551,1.654186,-0.000000,0.000000,1.000000
8.800122,12.272960,1.646020,0.595699,0.803208,-0.000000
-14.879269,-2.601626,-0.876041,-0.989177,-0.146730,0.000000
-3.721499,5.837596,-1.654186,-0.000000,0.000000,-1.000000
4.704405,7.484148,1.654186,0.000000,0.000000,1.000000
6.145377,-3.720773,1.654186,-0.000000,-0.000000,1.000000
9.441663,-7.406582,1.654186,0.000000,-0.000000,1.000000
5.685996,-14.002963,0.572990,0.336890,-0.941544,0.000000
8.980304,-10.744942,1.654186,0.000000,-0.000000,1.000000
8.601737,-5.444776,1.654186,0.000000,-0.000000,1.000000
-4.595230,-10.608010,1.654186,-0.000000,0.000000,1.000000
-3.300984,-10.529113,1.654186,-0.000000,0.000000,1.000000
14.958697,-2.066167,-0.005463,0.989177,-0.146730,0.000000
3.827124,-13.721137,-1.654186,0.000000,0.000000,-1.000000
7.639477,-5.252514,-1.654186,0.000000,0.000000,-1.000000
-6.847975,0.032428,-0.916032,0.998795,-0.049068,0.000000
8.930142,6.546505,1.654186,0.000000,0.000000,1.000000
-14.953179,-2.103367,-0.772753,-0.989177,-0.146730,0.000000
-10.958612,-10.215798,-1.654186,0.000000,-0.000000,-1.000000
7.120783,-10.971163,-1.654186,0.000000,0.000000,-1.000000
12.934119,-3.167025,-1.654186,0.000000,0.000000,-1.000000
-4.573414,9.634562,1.654186,0.000000,0.000000,1.000000
-7.683689,4.390643,1.654186,0.000000,0.000000,1.000000
6.314538,-11.194106,1.654186,0.000000,-0.000000,1.000000
-8.545206,-4.989684,-1.654186,0.000000,-0.000000,-1.000000
-13.099313,3.684791,-1.654186,-0.000000,-0.000000,-1.000000
-9.634933,-8.864559,1.654186,-0.000000,0.000000,1.000000
11.131691,-10.203009,0.404353,0.740951,-0.671559,0.000000
4.764867,6.748607,1.654186,0.000000,-0.000000,1.000000
4.912323,4.767306,0.719021,-0.740951,-0.671559,-0.000000
13.584197,-6.595623,1.498454,0.903989,-0.427555,0.000000
9.448229,4.003657,1.654186,0.000000,0.000000,1.000000
-3.689795,-6.739153,-1.654186,0.000000,-0.000000,-1.000000
-8.544891,0.300997,1.654186,0.000000,0.000000,1.000000
-5.113560,-10.667287,1.654186,-0.000000,0.000000,1.000000
2.359627,12.587309,-1.654186,0.000000,0.000000,-1.000000
-13.851362,2.319708,-1.654186,-0.000000,-0.000000,-1.000000
-5.976194,-7.260375,1.654186,-0.000000,0.000000,1.000000
0.652063,-14.958963,-1.654186,0.000000,0.000000,-1.000000
0.888191,-10.906225,-1.654186,0.000000,0.000000,-1.000000
-1.138197,-15.062256,1.220792,-0.049068,-0.998795,0.000000
2.245187,10.423221,-1.654186,-0.000000,0.000000,-1.000000
6.685567,-9.544205,1.654186,0.000000,-0.000000,1.000000
-6.936546,-7.381989,1.654186,-0.000000,0.000000,1.000000
-1.494611,-9.121799,1.654186,-0.000000,0.000000,1.000000
-3.133007,14.781691,0.996836,-0.242980,0.970031,0.000000
-12.073359,7.182478,-1.654186,-0.000000,-0.000000,-1.000000
-7.236283,8.522933,1.654186,0.000000,0.000000,1.000000
-14.625864,-3.755104,-0.323565,-0.970031,-0.242980,0.000000
-9.871068,4.327951,-1.654186,-0.000000,-0.000000,-1.000000
-4.854652,4.830936,0.033395,0.740951,-0.671559,0.000000
-8.833925,1.680905,-1.654186,-0.000000,0.000000,-1.000000
-15.061408,1.155445,0.210010,-0.998795,0.049068,0.000000
4.977268,-13.611361,1.654186,0.000000,-0.000000,1.000000
-11.262534,4.777654,1.654186,0.000000,0.000000,1.000000
-9.585513,-10.629886,1.654186,-0.000000,0.000000,1.000000
1.000626,-6.767746,0.281931,-0.146730,0.989177,0.000000
-6.224713,9.500771,1.654186,0.000000,0.000000,1.000000
2.745253,8.607909,1.654186,0.000000,-0.000000,1.000000
4.516049,14.421577,1.001180,0.336890,0.941544,-0.000000
-10.723801,-6.510668,-1.654186,0.000000,-0.000000,-1.000000
10.061108,6.375796,-1.654186,-0.000000,0.000000,-1.000000
9.789966,0.136262,-1.654186,0.000000,0.000000,-1.000000
-4.923297,-14.275861,-1.507582,-0.336890,-0.941544,0.000000
-6.596098,-9.561132,1.654186,-0.000000,0.000000,1.000000
-6.139047,-13.800142,-0.653414,-0.427555,-0.903989,0.000000
-14.836758,0.959706,1.654186,-0.000000,0.000000,1.000000
-9.878509,-5.309686,-1.654186,0.000000,-0.000000,-1.000000
-11.827655,-7.499682,1.654186,-0.000000,0.000000,1.000000
11.733128,-5.009481,-1.654186,0.000000,0.000000,-1.000000
-12.178761,5.525834,-1.654186,-0.000000,-0.000000,-1.000000
-15.090477,-0.563739,0.870270,-0.998795,-0.049068,0.000000
12.135364,-8.985650,1.275746,0.803208,-0.595699,0.000000
3.704183,9.281395,-1.654186,0.000000,0.000000,-1.000000
-7.049673,-10.181464,1.654186,-0.000000,0.000000,1.000000
12.580012,5.857771,1.654186,0.000000,0.000000,1.000000
6.074532,-10.676105,-1.654186,0.000000,0.000000,-1.000000
9.017892,-7.999445,-1.654186,0.000000,0.000000,-1.000000
-14.884974,-2.563163,0.898297,-0.989177,-0.146730,0.000000
8.371189,10.351645,1.654186,0.000000,0.000000,1.000000
-6.758401,1.063624,-1.204959,0.989177,-0.146730,0.000000
5.298872,4.339813,0.900580,-0.803208,-0.595699,-0.000000
11.757249,5.562498,-1.654186,-0.000000,0.000000,-1.000000
9.608020,8.863551,-1.654186,-0.000000,0.000000,-1.000000
-12.953491,7.759891,1.105943,-0.857729,0.514103,0.000000
-4.684776,12.113262,-1.654186,-0.000000,-0.000000,-1.000000
2.117882,13.258098,1.654186,0.000000,0.000000,1.000000
-13.563364,-6.639671,-0.169061,-0.903989,-0.427555,0.000000
-5.672091,9.166441,-1.654186,-0.000000,-0.000000,-1.000000
-1.459906,-6.759473,-1.654186,0.000000,-0.000000,-1.000000
15.087669,-0.620901,-0.305438,0.998795,-0.049068,0.000000
-6.581520,1.880968,1.068873,0.970031,-0.242980,0.000000
8.269154,-8.940085,-1.654186,0.000000,0.000000,-1.000000
-1.801232,14.997996,1.402822,-0.146730,0.989177,0.000000
12.344111,-5.926549,-1.654186,0.000000,0.000000,-1.000000
-11.432955,2.993822,1.654186,0.000000,0.000000,1.000000
9.288237,-8.826352,1.654186,0.000000,-0.000000,1.000000
6.553151,10.114218,-1.654186,0.000000,0.000000,-1.000000
0.334429,6.833139,0.489015,-0.049068,-0.998795,0.000000
3.001425,-13.816629,-1.654186,0.000000,0.000000,-1.000000
-11.055964,1.134249,-1.654186,-0.000000,-0.000000,-1.000000
9.609244,10.694895,1.654186,0.000000,0.000000,1.000000
6.880905,8.844219,-1.654186,0.000000,0.000000,-1.000000
-11.965416,-0.677213,-1.654186,0.000000,-0.000000,-1.000000
2.999628,-6.149200,-0.511954,-0.427555,0.903989,0.000000
4.181740,-10.571624,1.654186,-0.000000,-0.000000,1.000000
-9.131389,3.141995,1.654186,0.000000,0.000000,1.000000
2.807080,13.886524,1.654186,0.000000,-0.000000,1.000000
-3.812010,14.611610,-1.618503,-0.242980,0.970031,0.000000
6.720475,1.319300,-1.032415,-0.989177,-0.146730,-0.000000
9.716022,10.238498,1.654186,0.000000,0.000000,1.000000
-7.502526,7.862797,-1.654186,-0.000000,-0.000000,-1.000000
5.690111,14.001491,-0.222656,0.336890,0.941544,0.000000
0.010831,15.117639,-0.080731,0.049068,0.998795,-0.000000
14.267029,4.947981,1.329924,0.941544,0.336890,-0.000000
4.822357,-11.638132,1.654186,0.000000,-0.000000,1.000000
-6.832315,13.472250,0.617061,-0.427555,0.903989,0.000000
12.992936,4.925312,1.654186,0.000000,0.000000,1.000000
-7.537975,5.014652,1.654186,0.000000,0.000000,1.000000
10.686896,-9.071646,-1.654186,0.000000,0.000000,-1.000000
-12.263397,-8.813017,0.792242,-0.803208,-0.595699,0.000000
1.471108,6.684184,-0.704229,-0.242980,-0.970031,-0.000000
0.333052,7.577750,1.654186,0.000000,0.000000,1.000000
-3.077782,-6.112237,-1.486792,0.427555,0.903989,0.000000
3.470641,-11.230074,-1.654186,0.000000,0.000000,-1.000000
-9.442559,7.638259,-1.654186,-0.000000,0.000000,-1.000000
-4.432173,11.664584,-1.654186,-0.000000,-0.000000,-1.000000
-8.241392,-12.664890,-0.888573,-0.514103,-0.857729,0.000000
14.100637,1.533252,-1.654186,-0.000000,0.000000,-1.000000
-9.450082,-5.981040,-1.654186,0.000000,-0.000000,-1.000000
-8.983833,2.334568,1.654186,0.000000,0.000000,1.000000
-9.633677,0.327747,1.654186,0.000000,0.000000,1.000000
-8.241540,6.232534,1.654186,0.000000,0.000000,1.000000
-11.487722,9.810189,0.425648,-0.740951,0.671559,0.000000
-1.290720,6.724715,-0.649049,0.146730,-0.989177,0.000000
-4.104542,9.919318,-1.654186,-0.000000,-0.000000,-1.000000
2.184475,6.484444,-1.308147,-0.336890,-0.941544,-0.000000
1.449429,14.198434,1.654186,0.000000,-0.000000,1.000000
-10.153961,-3.731482,-1.654186,0.000000,-0.000000,-1.000000
5.176987,14.185089,0.651190,0.336890,0.941544,-0.000000
2.802141,-9.769033,1.654186,-0.000000,-0.000000,1.000000
-0.012170,12.090266,1.654186,0.000000,0.000000,1.000000
12.370325,-7.541075,1.654186,0.000000,-0.000000,1.000000
-7.961210,0.598197,1.654186,-0.000000,0.000000,1.000000
10.454556,6.795999,-1.654186,-0.000000,0.000000,-1.000000
13.402830,3.537684,1.654186,0.000000,0.000000,1.000000
3.343462,10.896690,1.654186,0.000000,-0.000000,1.000000
13.269199,-7.233164,-1.630374,0.857729,-0.514103,0.000000
-7.437750,6.821294,-1.654186,-0.000000,-0.000000,-1.000000
5.302679,-4.350310,-1.654186,0.000000,0.000000,-1.000000
0.272594,-7.758232,-1.654186,0.000000,-0.000000,-1.000000
-1.263869,-10.063233,-1.654186,0.000000,-0.000000,-1.000000
12.486566,-8.512109,-0.178931,0.803208,-0.595699,0.000000
1.580348,10.489413,1.654186,0.000000,0.000000,1.000000
-9.193044,-0.880508,1.654186,-0.000000,0.000000,1.000000
-0.485315,12.691680,1.654186,0.000000,0.000000,1.000000
-3.033475,6.133192,0.126507,0.427555,-0.903989,0.000000
6.787511,13.493441,-1.599200,0.427555,0.903989,0.000000
5.611640,7.553854,1.654186,0.000000,0.000000,1.000000
-12.323310,-3.717141,1.654186,-0.000000,0.000000,1.000000
-6.915184,-12.478169,1.654186,-0.000000,0.000000,1.000000
-6.920348,-5.665541,1.654186,-0.000000,0.000000,1.000000
-6.846021,0.072207,-0.098179,0.998795,-0.049068,0.000000
6.649491,-1.609609,-1.401701,-0.970031,0.242980,0.000000
-10.556166,10.518374,-1.654186,-0.000000,-0.000000,-1.000000
3.435830,14.705838,0.737388,0.242980,0.970031,-0.000000
14.369125,-4.662640,0.595165,0.941544,-0.336890,0.000000
-12.575993,-5.545755,1.654186,-0.000000,0.000000,1.000000
10.904836,-5.152851,1.654186,0.000000,-0.000000,1.000000
-6.904544,4.559293,-1.654186,-0.000000,0.000000,-1.000000
-5.443012,-13.452443,-1.654186,0.000000,-0.000000,-1.000000
-7.196458,4.144936,1.654186,0.000000,0.000000,1.000000
1.932912,-14.491682,-1.654186,0.000000,0.000000,-1.000000
12.530858,1.804088,-1.654186,-0.000000,0.000000,-1.000000
7.589837,-2.342848,1.654186,-0.000000,-0.000000,1.000000
6.574911,-5.219468,-1.654186,0.000000,0.000000,-1.000000
15.108874,-0.189252,1.398238,0.998795,-0.049068,0.000000
8.276972,1.207511,-1.654186,0.000000,0.000000,-1.000000
2.809332,11.098033,1.654186,0.000000,0.000000,1.000000
7.715933,-5.002766,-1.654186,0.000000,0.000000,-1.000000
-13.163706,-6.353719,-1.654186,0.000000,-0.000000,-1.000000
1.859817,14.706006,-1.654186,-0.000000,0.000000,-1.000000
-0.152463,-15.110682,0.452484,-0.049068,-0.998795,0.000000
-0.356130,12.954257,-1.654186,-0.000000,0.000000,-1.000000
-9.151079,12.012674,-1.312116,-0.595699,0.803208,0.000000
5.989119,-8.720059,1.654186,0.000000,-0.000000,1.000000
6.102927,5.784134,1.654186,0.000000,-0.000000,1.000000
-9.201724,-7.352841,-1.654186,0.000000,-0.000000,-1.000000
-6.367400,9.269485,1.654186,0.000000,0.000000,1.000000
3.293057,13.705296,1.654186,0.000000,0.000000,1.000000
12.953252,5.788905,1.654186,0.000000,0.000000,1.000000
11.391486,-9.916369,-1.323745,0.740951,-0.671559,0.000000
0.657694,-15.085861,1.307936,0.049068,-0.998795,0.000000
12.071301,6.059338,1.654186,0.000000,0.000000,1.000000
-9.464339,-0.334028,1.654186,-0.000000,0.000000,1.000000
8.723529,1.140709,1.654186,0.000000,0.000000,1.000000
1.719618,14.593191,1.654186,0.000000,0.000000,1.000000
2.526663,-6.362008,-1.540014,-0.336890,0.941544,0.000000
7.866205,-8.507438,1.654186,0.000000,-0.000000,1.000000
-7.191197,-10.450998,-1.654186,0.000000,-0.000000,-1.000000
-7.341126,-13.204489,0.088271,-0.514103,-0.857729,0.000000
9.786099,-8.807727,-1.654186,0.000000,0.000000,-1.000000
-8.922966,-3.934741,-1.654186,0.000000,-0.000000,-1.000000
-10.116870,10.260416,-1.654186,-0.000000,-0.000000,-1.000000
13.800199,-2.402670,-1.654186,0.000000,0.000000,-1.000000
10.444926,7.834107,1.654186,0.000000,0.000000,1.000000
5.962133,7.678640,1.654186,0.000000,0.000000,1.000000
-2.330632,-6.432149,-1.541035,0.336890,0.941544,0.000000
8.075989,-3.066169,1.654186,0.000000,-0.000000,1.000000
-5.631891,5.668279,1.654186,0.000000,0.000000,1.000000
0.063116,-9.550039,-1.654186,0.000000,-0.000000,-1.000000
-6.656080,13.555603,0.112279,-0.427555,0.903989,0.000000
-14.444591,-0.753046,-1.654186,0.000000,-0.000000,-1.000000
11.196949,0.801999,1.654186,0.000000,-0.000000,1.000000
0.669911,7.164992,1.654186,0.000000,0.000000,1.000000
0.851684,13.858400,-1.654186,-0.000000,0.000000,-1.000000
13.933676,-5.856712,0.382694,0.903989,-0.427555,0.000000
-13.982863,-5.621130,1.654186,-0.000000,0.000000,1.000000
4.801463,4.881364,-1.127016,-0.671559,-0.740951,0.000000
4.684114,7.598673,-1.654186,0.000000,0.000000,-1.000000
-7.473027,7.946526,1.654186,0.000000,0.000000,1.000000
-5.339721,-7.476388,-1.654186,0.000000,-0.000000,-1.000000
6.284648,-12.345129,-1.654186,0.000000,0.000000,-1.000000
14.831458,2.923944,0.810565,0.989177,0.146730,-0.000000
13.769682,-6.203449,-0.358922,0.903989,-0.427555,0.000000
10.185480,11.147579,-0.916057,0.671559,0.740951,0.000000
6.034241,-11.353079,-1.654186,0.000000,0.000000,-1.000000
-14.065432,-5.511407,0.796987,-0.941544,-0.336890,0.000000
-11.744184,-9.513095,-0.718145,-0.803208,-0.595699,0.000000
2.066178,7.836352,1.654186,0.000000,-0.000000,1.000000
8.736651,-11.073080,-1.654186,0.000000,0.000000,-1.000000
12.201249,-4.219902,1.654186,0.000000,-0.000000,1.000000
6.921732,-13.289599,1.654186,0.000000,-0.000000,1.000000
8.372759,12.586152,0.218452,0.514103,0.857729,0.000000
7.226642,-11.716735,1.654186,0.000000,-0.000000,1.000000
13.891337,-3.104789,1.654186,0.000000,-0.000000,1.000000
3.537732,13.475356,1.654186,0.000000,0.000000,1.000000
7.824354,-0.700633,-1.654186,0.000000,0.000000,-1.000000
4.852157,4.833688,0.945319,-0.740951,-0.671559,-0.000000
6.140308,3.018429,1.004862,-0.903989,-0.427555,0.000000
0.773727,10.644376,1.654186,0.000000,0.000000,1.000000
-6.382306,4.109003,1.654186,0.000000,0.000000,1.000000
-8.184232,-1.953622,1.654186,-0.000000,0.000000,1.000000
-9.134477,-3.012621,1.654186,-0.000000,0.000000,1.000000
-9.260174,3.278775,1.654186,0.000000,0.000000,1.000000
9.298313,4.437928,1.654186,0.000000,0.000000,1.000000
-7.755052,-0.939976,1.654186,-0.000000,0.000000,1.000000
-3.357569,13.988255,-1.654186,-0.000000,-0.000000,-1.000000
0.164075,-6.841508,-0.900970,-0.049068,0.998795,0.000000
-10.726279,2.064564,-1.654186,-0.000000,0.000000,-1.000000
-7.680524,13.001061,0.234671,-0.514103,0.857729,0.000000
12.480189,-8.096026,-1.654186,0.000000,0.000000,-1.000000
8.170058,-3.209012,-1.654186,0.000000,0.000000,-1.000000
-4.976184,4.696845,0.320147,0.740951,-0.671559,0.000000
3.042607,6.692463,-1.654186,0.000000,0.000000,-1.000000
1.167321,-12.799585,-1.654186,0.000000,0.000000,-1.000000
-9.174327,9.545502,1.654186,0.000000,0.000000,1.000000
-12.448851,-5.554421,1.654186,-0.000000,0.000000,1.000000
-12.940210,7.782049,-0.443942,-0.857729,0.514103,0.000000
-5.042468,13.240171,1.654186,0.000000,0.000000,1.000000
4.698794,13.895845,1.654186,0.000000,0.000000,1.000000
-7.995342,5.678317,-1.654186,-0.000000,-0.000000,-1.000000
4.359299,6.560113,1.654186,0.000000,0.000000,1.000000
6.800665,-13.487219,0.933236,0.427555,-0.903989,0.000000
-5.087386,-5.790651,1.654186,-0.000000,0.000000,1.000000
6.185183,-10.524626,1.654186,0.000000,-0.000000,1.000000
-8.034598,7.925244,1.654186,0.000000,0.000000,1.000000
-6.824877,-0.502608,1.165492,0.998795,0.049068,0.000000
12.467220,8.538194,-0.989088,0.803208,0.595699,0.000000
-5.177246,-5.955414,1.654186,-0.000000,0.000000,1.000000
7.273946,-7.073191,1.654186,0.000000,-0.000000,1.000000
-13.415499,-6.112672,1.654186,-0.000000,0.000000,1.000000
-10.649339,-2.634710,1.654186,-0.000000,0.000000,1.000000
3.425930,-10.360066,-1.654186,0.000000,0.000000,-1.000000
8.421368,-6.795285,1.654186,0.000000,-0.000000,1.000000
-4.291667,-13.645076,-1.654186,0.000000,-0.000000,-1.000000
-10.376514,-2.401362,-1.654186,0.000000,-0.000000,-1.000000
3.079515,10.905286,1.654186,0.000000,0.000000,1.000000
-7.504452,-9.088783,-1.654186,0.000000,-0.000000,-1.000000
11.261117,10.060210,-1.439539,0.740951,0.671559,0.000000
10.346831,1.822164,-1.654186,-0.000000,0.000000,-1.000000
-7.383062,-13.179354,0.875680,-0.514103,-0.857729,0.000000
2.608999,-8.000981,-1.654186,0.000000,0.000000,-1.000000
-8.291025,-6.758578,-1.654186,0.000000,-0.000000,-1.000000
4.076840,9.847208,-1.654186,0.000000,0.000000,-1.000000
6.815202,-0.680707,0.303123,-0.989177,0.146730,0.000000
10.629897,-1.282591,1.654186,-0.000000,-0.000000,1.000000
6.309246,-4.253715,1.654186,-0.000000,-0.000000,1.000000
-1.580505,15.030738,-1.366443,-0.146730,0.989177,0.000000
6.800789,2.716683,-1.654186,0.000000,0.000000,-1.000000
-7.447085,9.798030,1.654186,0.000000,0.000000,1.000000
-6.470537,-11.471758,-1.654186,0.000000,-0.000000,-1.000000
-6.848423,0.023317,0.586783,0.998795,-0.049068,0.000000
-9.310743,5.510754,1.654186,0.000000,0.000000,1.000000
