x,y,z,nx,ny,nz
59.719068,0.000000,4.172273,0.000000,-1.000000,0.000000
64.339698,0.374441,9.490212,0.975286,0.195885,0.102211
55.077978,0.000000,0.857070,0.000000,-1.000000,0.000000
61.814857,1.830353,-3.699289,-0.634393,0.773011,0.000000
54.380336,0.000000,-6.224994,0.000000,-1.000000,0.000000
57.061845,0.000000,5.407007,0.000000,-1.000000,0.000000
58.005075,0.000000,3.655244,0.000000,-1.000000,0.000000
64.293601,0.000000,7.313932,0.000000,-1.000000,0.000000
60.064948,0.000000,0.841779,0.000000,-1.000000,0.000000
56.423733,1.790047,1.679949,0.634395,0.773009,0.000000
55.396448,1.789602,10.936892,0.000000,-0.000000,1.000000
62.712920,2.801950,-2.166225,-0.881921,0.471397,0.000000
62.117730,2.078914,-0.383223,-0.634393,0.773011,0.000000
55.491209,0.000000,-0.592519,0.000000,-1.000000,0.000000
60.408833,1.067630,-8.236161,-0.290285,0.956940,0.000000
59.420491,0.000000,7.505171,0.000000,-1.000000,0.000000
60.507967,1.097702,8.768938,-0.290285,0.956940,0.000000
62.991695,0.000000,6.374279,0.000000,-1.000000,0.000000
56.130685,0.000000,0.870783,0.000000,-1.000000,0.000000
64.264042,0.751785,9.488939,0.975286,0.195885,0.102211
63.702823,2.665981,7.943603,0.831124,0.555338,0.028847
63.048083,0.000000,9.514330,0.000000,-1.000000,0.000000
63.799753,1.489281,10.936892,-0.000000,-0.000000,1.000000
54.184870,2.749919,10.169136,-0.825863,0.557188,-0.086550
54.442246,2.556740,4.240273,-0.831123,0.555340,-0.028847
63.389429,0.000000,-5.488016,0.000000,-1.000000,0.000000
61.941937,0.000000,9.045592,0.000000,-1.000000,0.000000
58.889921,0.000000,9.312969,0.000000,-1.000000,0.000000
59.893886,0.920688,-9.786110,-0.098017,0.995185,0.000000
63.464798,3.170248,5.093685,0.831125,0.555337,0.028847
58.763216,0.000000,2.192052,0.000000,-1.000000,0.000000
58.711555,0.879719,-4.724784,0.098017,0.995185,-0.000000
60.525642,1.103064,-0.508185,-0.290285,0.956940,0.000000
58.380690,0.000000,2.908971,0.000000,-1.000000,0.000000
61.631169,1.091881,-10.936892,0.000000,0.000000,-1.000000
55.581767,2.661053,-4.143317,0.773010,0.634394,-0.000000
53.715747,0.017922,4.299229,-0.980218,0.194977,-0.034022
55.520013,2.736300,-6.279435,0.773010,0.634394,-0.000000
57.531534,0.000000,6.851367,0.000000,-1.000000,0.000000
58.743190,0.000000,-2.403521,0.000000,-1.000000,0.000000
54.041239,1.853224,5.439398,-0.980217,0.194978,-0.034021
61.481500,0.000000,-10.334609,0.000000,-1.000000,0.000000
55.230174,3.262897,-2.880007,0.881922,0.471395,0.000000
55.809970,2.382987,10.788453,0.773010,0.634394,0.000000
60.456193,0.000000,8.668551,0.000000,-1.000000,0.000000
57.248230,1.273103,-6.726140,0.471396,0.881922,-0.000000
61.030041,0.000000,0.165411,0.000000,-1.000000,0.000000
56.032637,2.111667,-10.445561,0.773010,0.634394,0.000000
62.282862,2.265223,-5.717394,-0.773012,0.634392,0.000000
55.985584,0.000000,10.434416,0.000000,-1.000000,0.000000
56.192938,1.979457,9.024325,0.634395,0.773009,0.000000
63.146717,3.689513,-0.633338,-0.956939,0.290289,-0.000000
63.683636,0.000000,5.288881,0.000000,-1.000000,0.000000
55.494047,0.000000,-8.856372,0.000000,-1.000000,0.000000
64.072589,2.467444,1.112095,0.831125,0.555337,0.028847
57.780755,0.000000,-9.056526,0.000000,-1.000000,0.000000
62.460022,0.000000,-1.600029,0.000000,-1.000000,0.000000
61.522289,1.590248,-4.811895,-0.634393,0.773011,0.000000
54.582916,0.000000,-4.188215,0.000000,-1.000000,0.000000
59.350974,0.867216,7.218203,-0.098017,0.995185,0.000000
64.164233,2.095416,5.633698,0.831124,0.555338,0.028847
55.902120,2.270703,-6.072543,0.773010,0.634394,-0.000000
62.198838,2.162839,2.743669,-0.773012,0.634392,0.000000
53.845850,1.491635,8.004822,-0.975286,0.195884,-0.102209
57.601246,0.000000,6.539184,0.000000,-1.000000,0.000000
55.725776,2.485578,10.019953,0.773010,0.634394,0.000000
59.409080,0.000000,-0.544299,0.000000,-1.000000,0.000000
61.579728,0.000000,-7.995512,0.000000,-1.000000,0.000000
54.496691,2.439738,-0.419142,-0.831123,0.555339,0.028847
57.575820,0.000000,2.059016,0.000000,-1.000000,0.000000
63.290909,0.000000,-10.165257,0.000000,-1.000000,0.000000
64.360009,1.774770,-1.916167,0.980217,0.194980,-0.034021
54.873907,3.330309,6.695614,-0.831124,0.555338,-0.028847
60.222541,0.000000,-10.576073,0.000000,-1.000000,0.000000
54.246979,2.565629,8.390072,-0.825864,0.557188,-0.086549
56.259434,1.924884,5.459087,0.634395,0.773009,0.000000
64.219971,0.000000,-5.540613,0.000000,-1.000000,0.000000
53.508162,0.000000,-10.124711,0.000000,-1.000000,0.000000
63.933488,2.628748,-2.014538,0.831125,0.555337,-0.028847
53.613776,0.000000,-10.579888,0.000000,-1.000000,0.000000
63.273205,3.545795,3.384049,0.831125,0.555337,0.028847
56.482452,1.741858,0.647779,0.634395,0.773009,0.000000
53.465214,0.000000,-10.377156,0.000000,-1.000000,0.000000
56.609906,1.637258,-2.860665,0.634395,0.773009,0.000000
59.475990,0.614146,10.936892,0.000000,-0.000000,1.000000
55.282020,3.165901,-7.132383,0.881922,0.471395,0.000000
54.479878,0.000000,5.976035,0.000000,-1.000000,0.000000
54.589549,3.464343,-10.906971,-0.825863,0.557189,0.086549
62.628815,2.686770,-3.892578,-0.773012,0.634392,0.000000
55.106914,3.401238,1.347807,-0.831123,0.555339,-0.028846
61.907773,1.906607,-5.216094,-0.634393,0.773011,0.000000
54.939033,3.357096,5.334917,-0.831124,0.555338,-0.028847
55.272585,0.000000,10.885539,0.000000,-1.000000,0.000000
55.184533,0.000000,-3.719331,0.000000,-1.000000,0.000000
64.355599,0.726762,8.049453,0.980217,0.194980,0.034021
63.936618,2.347955,-7.330004,0.831125,0.555337,-0.028847
55.696339,2.521446,-5.642149,0.773010,0.634394,-0.000000
62.391356,2.397424,-8.667080,-0.773012,0.634392,0.000000
64.575015,0.305820,-4.140115,0.980217,0.194979,-0.034021
62.042823,2.017439,-0.553714,-0.634393,0.773011,0.000000
63.712614,0.000000,2.555004,0.000000,-1.000000,0.000000
64.416613,1.781784,0.245085,0.980217,0.194979,0.034021
61.368040,0.000000,-8.048969,0.000000,-1.000000,0.000000
62.335029,0.000000,6.561979,0.000000,-1.000000,0.000000
60.852165,1.225488,-3.701591,-0.471396,0.881922,0.000000
62.792215,2.950301,-6.340385,-0.881921,0.471397,0.000000
53.985337,0.678588,-0.318168,-0.980218,0.194977,0.034021
58.170908,0.000000,1.145967,0.000000,-1.000000,0.000000
56.246541,0.522723,10.936892,0.000000,-0.000000,1.000000
61.583245,1.640274,3.504331,-0.634393,0.773011,0.000000
55.221112,3.279852,-5.752086,0.881922,0.471395,0.000000
55.241412,0.000000,-4.767673,0.000000,-1.000000,0.000000
60.951635,1.278656,-1.973313,-0.471396,0.881922,0.000000
55.056739,3.427519,3.299388,-0.831124,0.555338,-0.028847
56.147245,2.016956,-10.077566,0.634395,0.773009,-0.000000
61.000314,1.304676,1.942985,-0.471396,0.881922,0.000000
55.936586,2.228705,2.795196,0.773010,0.634394,0.000000
64.179687,2.207187,3.036696,0.831124,0.555338,0.028847
57.928284,1.022844,0.892384,0.290284,0.956941,0.000000
56.064359,0.000000,3.978407,0.000000,-1.000000,0.000000
60.456569,1.082111,-4.607333,-0.290285,0.956940,0.000000
64.283376,0.000000,-0.386914,0.000000,-1.000000,0.000000
63.813176,2.854790,1.129315,0.831125,0.555337,0.028847
61.557086,1.618805,-3.750392,-0.634393,0.773011,0.000000
59.777661,0.000000,-4.116747,0.000000,-1.000000,0.000000
62.945030,3.236197,1.776351,-0.881922,0.471396,-0.000000
60.593142,0.000000,-3.370270,0.000000,-1.000000,0.000000
62.688880,2.161456,-10.936892,0.000000,0.000000,-1.000000
53.537280,1.184631,10.360835,-0.975286,0.195884,-0.102209
64.606849,0.561761,1.756092,0.980217,0.194979,0.034021
61.705390,0.000000,-6.064562,0.000000,-1.000000,0.000000
55.412777,2.921272,-5.290278,0.881921,0.471397,0.000000
60.964916,0.000000,-1.845010,0.000000,-1.000000,0.000000
54.523766,0.773696,-10.936892,0.000000,0.000000,-1.000000
56.593865,1.650422,-0.783254,0.634395,0.773009,0.000000
57.004456,1.403403,-4.737599,0.471396,0.881922,-0.000000
54.105051,0.000000,-0.208949,0.000000,-1.000000,0.000000
62.797959,2.961048,6.325382,-0.881922,0.471396,-0.000000
62.356240,2.354635,-6.844131,-0.773012,0.634392,0.000000
59.094974,0.000000,-10.242997,0.000000,-1.000000,0.000000
59.587987,0.890560,0.445940,-0.098017,0.995185,0.000000
58.574765,0.000000,-10.438770,0.000000,-1.000000,0.000000
54.324581,0.000000,3.232973,0.000000,-1.000000,0.000000
64.223921,2.235636,-1.214566,0.831125,0.555337,-0.028847
61.578368,0.000000,6.022469,0.000000,-1.000000,0.000000
56.841854,0.000000,7.580150,0.000000,-1.000000,0.000000
59.838901,0.915273,8.068195,-0.098017,0.995185,0.000000
58.887916,0.862349,-3.567530,0.098017,0.995185,0.000000
61.422682,0.000000,-8.061528,0.000000,-1.000000,0.000000
54.899551,3.254374,-4.494895,-0.831123,0.555340,0.028847
54.358289,2.419752,4.022024,-0.831123,0.555340,-0.028847
56.058399,2.089870,-4.528437,0.634395,0.773009,-0.000000
64.614332,0.089052,4.249621,0.980217,0.194980,0.034021
56.689328,0.000000,-8.704848,0.000000,-1.000000,0.000000
54.813488,2.956059,1.231609,-0.831123,0.555340,-0.028847
54.545700,0.000000,6.119572,0.000000,-1.000000,0.000000
61.110223,1.363423,1.981666,-0.471396,0.881922,0.000000
56.792990,1.516434,2.069535,0.471396,0.881922,-0.000000
59.047446,0.846637,8.850567,0.098017,0.995185,0.000000
58.635406,0.000000,2.101390,0.000000,-1.000000,0.000000
62.375939,0.000000,8.611588,0.000000,-1.000000,0.000000
54.144960,2.007886,3.337369,-0.980217,0.194978,-0.034021
55.565172,2.592953,10.936892,0.000000,-0.000000,1.000000
64.197581,0.000000,-4.054363,0.000000,-1.000000,0.000000
53.925931,1.625821,7.458375,-0.980217,0.194978,-0.034021
54.431809,3.160938,10.458877,-0.825863,0.557188,-0.086550
54.027172,1.163036,-1.889206,-0.980218,0.194977,0.034021
60.517973,0.000000,-9.934289,0.000000,-1.000000,0.000000
58.969033,0.000000,0.488286,0.000000,-1.000000,0.000000
55.619447,2.615139,0.469066,0.773010,0.634394,-0.000000
57.506787,0.000000,-10.451083,0.000000,-1.000000,0.000000
54.180361,2.030825,-2.448878,-0.980218,0.194977,0.034021
62.608582,2.662115,-8.291417,-0.773012,0.634392,0.000000
57.268664,1.262181,2.330119,0.471396,0.881922,0.000000
54.133073,2.508790,9.111049,-0.825863,0.557188,-0.086550
61.924523,0.000000,-6.390693,0.000000,-1.000000,0.000000
54.000276,1.584355,-5.078742,-0.980218,0.194977,0.034021
64.303256,1.914843,-2.748525,0.980217,0.194980,-0.034021
58.894038,0.000000,1.268738,0.000000,-1.000000,0.000000
55.544032,2.707032,6.620359,0.773010,0.634394,-0.000000
56.725243,1.552646,-3.230303,0.471396,0.881922,-0.000000
61.318283,0.000000,-9.496884,0.000000,-1.000000,0.000000
62.271876,2.251836,-10.931911,-0.773012,0.634392,0.000000
60.395970,0.000000,4.409750,0.000000,-1.000000,0.000000
63.721346,0.000000,2.856872,0.000000,-1.000000,0.000000
61.346492,1.489712,-9.896963,-0.471396,0.881922,0.000000
61.333405,1.482716,5.001133,-0.471396,0.881922,0.000000
62.777227,2.922259,-8.516270,-0.881921,0.471397,0.000000
62.726423,2.827214,-5.408003,-0.881921,0.471397,0.000000
53.602393,0.000000,-8.829282,0.000000,-1.000000,0.000000
64.497650,0.000000,-6.077618,0.000000,-1.000000,0.000000
64.378094,0.000000,5.494414,0.000000,-1.000000,0.000000
64.472798,0.487143,6.045991,0.980217,0.194980,0.034021
64.190133,0.000000,1.291454,0.000000,-1.000000,0.000000
56.899931,1.459273,-8.764884,0.471396,0.881922,-0.000000
55.386605,2.970236,4.686889,0.881921,0.471397,0.000000
56.025696,2.120125,-8.124027,0.773010,0.634394,0.000000
60.538266,0.000000,-8.330971,0.000000,-1.000000,0.000000
55.616283,0.000000,-1.516273,0.000000,-1.000000,0.000000
53.941809,2.478330,10.740008,-0.825863,0.557188,-0.086550
62.700432,2.778587,-4.126975,-0.881921,0.471397,0.000000
55.269643,0.000000,1.808200,0.000000,-1.000000,0.000000
64.674833,0.091582,-2.491983,0.980217,0.194979,-0.034021
64.380720,1.822542,-1.045654,0.980217,0.194979,-0.034021
64.510826,1.142295,1.195598,0.980217,0.194979,0.034021
60.630702,0.532952,10.936892,0.000000,-0.000000,1.000000
56.659636,0.053279,-10.936892,0.000000,0.000000,-1.000000
63.795600,1.991415,-10.936892,0.000000,0.000000,-1.000000
63.948120,2.524158,-3.606445,0.831125,0.555337,-0.028847
60.911538,0.000000,5.176666,0.000000,-1.000000,0.000000
56.176051,0.000000,9.990949,0.000000,-1.000000,0.000000
64.443014,1.265879,-2.441126,0.980217,0.194979,-0.034021
56.248251,0.000000,-0.668596,0.000000,-1.000000,0.000000
63.073800,3.477108,-6.419100,-0.881924,0.471391,-0.000000
60.916750,1.260010,-1.069459,-0.471396,0.881922,0.000000
53.991267,1.578934,5.307226,-0.980217,0.194978,-0.034021
56.423086,1.790578,-10.090057,0.634395,0.773009,-0.000000
62.024356,2.002284,3.392443,-0.634393,0.773011,0.000000
63.453550,2.849212,9.766261,0.825863,0.557189,0.086550
63.902287,0.000000,10.562066,0.000000,-1.000000,0.000000
59.086842,0.842757,4.891710,0.098017,0.995185,0.000000
58.319707,0.918313,-0.450392,0.098017,0.995185,-0.000000
55.338519,0.000000,-2.835229,0.000000,-1.000000,0.000000
57.649772,0.000000,-4.934447,0.000000,-1.000000,0.000000
54.494545,2.555070,-2.701286,-0.831124,0.555338,0.028847
54.569087,0.000000,-0.793606,0.000000,-1.000000,0.000000
63.662581,2.856837,5.428794,0.831124,0.555338,0.028847
63.176653,3.694659,-3.300084,0.831124,0.555339,-0.028847
62.518524,0.000000,-0.942402,0.000000,-1.000000,0.000000
56.803576,1.510776,8.109508,0.471396,0.881922,0.000000
58.448038,0.000000,-1.231163,0.000000,-1.000000,0.000000
54.690451,0.000000,-1.613773,0.000000,-1.000000,0.000000
58.454050,0.905082,0.756225,0.098017,0.995185,-0.000000
55.945531,2.217807,0.457833,0.773010,0.634394,0.000000
55.481138,2.793378,3.147938,0.881921,0.471397,0.000000
61.889882,0.000000,-8.778229,0.000000,-1.000000,0.000000
60.665437,1.145470,-7.001200,-0.290285,0.956940,0.000000
57.121318,0.000000,0.400179,0.000000,-1.000000,0.000000
58.178739,0.000000,9.702908,0.000000,-1.000000,0.000000
61.438955,1.539134,-1.022788,-0.471396,0.881922,0.000000
57.837732,1.050313,-5.076115,0.290284,0.956941,-0.000000
59.607414,0.892473,4.913082,-0.098017,0.995185,0.000000
64.152346,1.501653,-9.117625,0.975286,0.195885,-0.102209
54.912760,3.849375,-10.301617,-0.825863,0.557189,0.086549
60.280708,0.402807,10.936892,0.000000,-0.000000,1.000000
55.508711,2.750071,-6.791683,0.773010,0.634394,-0.000000
57.785521,0.000000,-7.462513,0.000000,-1.000000,0.000000
56.152554,0.000000,-9.415523,0.000000,-1.000000,0.000000
54.632677,2.779180,-3.035863,-0.831124,0.555338,0.028847
61.116309,1.366676,8.275736,-0.471396,0.881922,0.000000
63.506717,0.000000,1.735330,0.000000,-1.000000,0.000000
55.880409,0.000000,-5.369585,0.000000,-1.000000,0.000000
56.695057,1.568780,6.641314,0.471396,0.881922,-0.000000
59.963834,0.932641,-6.033088,-0.290285,0.956940,0.000000
61.048421,0.000000,5.058990,0.000000,-1.000000,0.000000
53.841431,0.287410,2.222515,-0.980218,0.194977,-0.034022
57.279255,0.000000,7.964864,0.000000,-1.000000,0.000000
57.761046,0.000000,10.107897,0.000000,-1.000000,0.000000
58.694391,0.881410,2.909973,0.098017,0.995185,0.000000
56.032300,2.112078,9.597925,0.773010,0.634394,0.000000
61.620490,1.670840,8.015971,-0.634393,0.773011,0.000000
55.560681,2.686746,0.443191,0.773010,0.634394,-0.000000
63.274632,3.430448,5.563490,0.831125,0.555337,0.028847
63.800836,0.000000,1.674385,0.000000,-1.000000,0.000000
62.691444,2.763084,9.511104,-0.773012,0.634392,0.000000
64.398899,1.034062,-5.040729,0.980217,0.194980,-0.034021
63.434451,3.366315,-2.193533,0.831125,0.555337,-0.028847
56.901913,1.458213,-1.072114,0.471396,0.881922,-0.000000
63.953036,2.056596,9.955887,0.975286,0.195884,0.102209
63.659613,2.705040,8.436604,0.831124,0.555339,0.028847
64.172947,2.249982,2.407027,0.831124,0.555338,0.028847
54.801975,3.342600,-8.096244,-0.825863,0.557189,0.086550
62.436116,0.000000,0.554207,0.000000,-1.000000,0.000000
54.389638,0.132310,-10.936892,0.000000,0.000000,-1.000000
56.872000,0.698642,-10.936892,0.000000,0.000000,-1.000000
54.105894,1.460356,1.325014,-0.980218,0.194977,-0.034022
64.561396,0.885260,-1.211664,0.980217,0.194979,-0.034021
57.518144,0.000000,0.861620,0.000000,-1.000000,0.000000
61.699746,1.735883,2.547349,-0.634393,0.773011,0.000000
63.190796,0.000000,5.864491,0.000000,-1.000000,0.000000
62.772203,2.912860,-3.874737,-0.881921,0.471397,0.000000
56.175942,1.993405,-6.060446,0.634395,0.773009,-0.000000
55.861109,2.320674,9.076362,0.773010,0.634394,0.000000
54.559986,0.785787,-10.936892,0.000000,0.000000,-1.000000
63.567357,3.185648,1.842339,0.831125,0.555337,0.028847
56.137989,2.024552,-1.343650,0.634395,0.773009,-0.000000
64.489102,0.600564,4.926217,0.980217,0.194980,0.034021
63.204186,3.395665,8.262773,0.831124,0.555339,0.028847
55.090848,0.000000,5.828765,0.000000,-1.000000,0.000000
58.850401,0.866044,-5.360214,0.098017,0.995185,-0.000000
60.106316,0.975862,-0.196275,-0.290285,0.956940,0.000000
57.280431,0.000000,5.627593,0.000000,-1.000000,0.000000
54.987497,0.999219,10.936892,0.000000,-0.000000,1.000000
62.210872,0.000000,-8.334469,0.000000,-1.000000,0.000000
57.189172,1.304671,-6.051812,0.471396,0.881922,-0.000000
56.751636,0.000000,-3.588045,0.000000,-1.000000,0.000000
58.699178,0.880938,-5.087765,0.098017,0.995185,-0.000000
62.566591,2.610949,8.461362,-0.773012,0.634392,0.000000
55.396056,2.952554,-7.677894,0.881919,0.471400,-0.000000
54.424018,2.361390,1.004691,-0.831123,0.555340,-0.028847
58.831231,0.000000,4.151409,0.000000,-1.000000,0.000000
54.800633,3.160138,5.530754,-0.831124,0.555338,-0.028847
53.526318,1.154170,-10.407053,-0.975286,0.195884,0.102209
57.516304,0.000000,-3.425566,0.000000,-1.000000,0.000000
58.298965,0.235423,10.936892,0.000000,-0.000000,1.000000
63.604819,3.051639,-3.342858,0.831125,0.555337,-0.028847
62.636155,0.443537,10.936892,-0.000000,-0.000000,1.000000
55.911243,2.259586,5.275342,0.773010,0.634394,0.000000
60.176873,0.997266,-10.059156,-0.290285,0.956940,0.000000
64.677958,0.047291,2.655785,0.980217,0.194980,0.034021
59.982123,0.000000,9.868543,0.000000,-1.000000,0.000000
60.006843,0.000000,-6.866364,0.000000,-1.000000,0.000000
63.906594,2.023514,10.462447,0.975286,0.195884,0.102209
53.983789,1.921896,-7.488201,-0.980217,0.194978,0.034022
54.889010,3.340130,6.449544,-0.831124,0.555338,-0.028847
64.578984,0.598876,2.346215,0.980217,0.194979,0.034021
53.362692,0.000000,10.537102,0.000000,-1.000000,0.000000
64.351428,1.671914,2.752844,0.980217,0.194979,0.034021
54.613470,0.000000,-4.241668,0.000000,-1.000000,0.000000
58.424451,0.000000,-5.543448,0.000000,-1.000000,0.000000
57.123174,1.339947,6.296528,0.471396,0.881922,0.000000
64.069632,0.991908,10.883803,0.975286,0.195884,0.102209
59.850846,0.916449,1.338307,-0.098017,0.995185,0.000000
63.652428,2.728387,8.194175,0.831124,0.555338,0.028847
54.072929,0.845199,10.936892,0.000000,-0.000000,1.000000
61.825821,1.839350,-2.878634,-0.634393,0.773011,0.000000
64.317477,0.802601,-8.713167,0.980217,0.194980,-0.034021
64.023956,1.815824,-9.740612,0.975286,0.195885,-0.102209
54.848116,0.000000,-1.318138,0.000000,-1.000000,0.000000
56.404700,1.805667,6.521671,0.634395,0.773009,0.000000
59.563657,0.000000,-2.442523,0.000000,-1.000000,0.000000
57.143262,0.000000,-7.785269,0.000000,-1.000000,0.000000
61.556203,1.618081,2.884976,-0.634393,0.773011,0.000000
59.945288,0.000000,9.928972,0.000000,-1.000000,0.000000
61.751901,1.778686,7.910993,-0.634393,0.773011,0.000000
54.146650,1.795853,2.073521,-0.980217,0.194978,-0.034021
63.443482,0.000000,6.070542,0.000000,-1.000000,0.000000
58.717313,0.000000,-5.913511,0.000000,-1.000000,0.000000
63.480087,2.979894,-8.317730,0.831124,0.555339,-0.028847
54.188926,2.202960,4.728114,-0.831123,0.555340,-0.028847
64.221533,0.984445,-9.448669,0.975286,0.195885,-0.102209
54.755211,0.000000,1.210149,0.000000,-1.000000,0.000000
61.540478,1.605176,10.858556,-0.634393,0.773011,0.000000
56.765056,0.000000,6.064974,0.000000,-1.000000,0.000000
57.880602,1.037308,-0.107645,0.290284,0.956941,0.000000
59.828064,0.914205,8.755526,-0.098017,0.995185,0.000000
54.376558,3.111706,10.669144,-0.825863,0.557188,-0.086550
55.334112,3.068444,6.653662,0.881921,0.471397,0.000000
56.833125,1.494981,0.236969,0.471396,0.881922,-0.000000
53.711201,0.186394,-5.395718,-0.980217,0.194978,0.034022
59.779114,0.909384,9.876705,-0.098017,0.995185,0.000000
61.664682,1.707107,-10.184384,-0.634393,0.773011,0.000000
63.204528,3.796153,0.543072,0.831125,0.555337,0.028847
62.822976,3.007850,-0.314815,-0.881921,0.471397,0.000000
57.188947,1.304791,5.382956,0.471396,0.881922,0.000000
59.964183,0.000000,-9.861713,0.000000,-1.000000,0.000000
62.879534,0.000000,-0.796585,0.000000,-1.000000,0.000000
63.977608,2.418761,4.785874,0.831124,0.555338,0.028847
57.533775,0.000000,7.106240,0.000000,-1.000000,0.000000
57.411149,0.000000,1.252675,0.000000,-1.000000,0.000000
57.844680,1.048205,5.356653,0.290284,0.956941,0.000000
64.417950,0.493534,7.589650,0.980217,0.194980,0.034021
62.862193,0.000000,-0.659965,0.000000,-1.000000,0.000000
62.825517,0.000000,6.257938,0.000000,-1.000000,0.000000
62.116564,0.000000,3.837661,0.000000,-1.000000,0.000000
60.448769,0.168657,-10.936892,0.000000,0.000000,-1.000000
55.860594,0.000000,7.173715,0.000000,-1.000000,0.000000
55.011220,3.793483,10.032664,0.956939,0.290287,-0.000000
55.326317,0.000000,-1.649104,0.000000,-1.000000,0.000000
61.599525,1.653634,-10.356403,-0.634393,0.773011,0.000000
57.811557,1.058253,0.416360,0.290284,0.956941,-0.000000
64.405779,1.834683,0.254051,0.980217,0.194979,0.034021
53.807392,0.191998,-2.656421,-0.980217,0.194978,0.034022
58.142830,0.000000,6.697864,0.000000,-1.000000,0.000000
62.572184,0.000000,10.868514,0.000000,-1.000000,0.000000
58.743583,0.876565,1.697201,0.098017,0.995185,0.000000
60.000402,0.000000,4.471795,0.000000,-1.000000,0.000000
63.049653,3.431933,-2.458654,-0.881924,0.471391,-0.000000
63.797636,2.458111,-9.000807,0.825863,0.557189,-0.086549
62.203973,0.000000,-6.499020,0.000000,-1.000000,0.000000
61.880117,0.232504,-10.936892,0.000000,0.000000,-1.000000
61.166951,1.393745,1.315608,-0.471396,0.881922,0.000000
58.676033,0.883218,-9.254784,0.098017,0.995185,-0.000000
58.727045,0.000000,1.997538,0.000000,-1.000000,0.000000
54.919847,3.118125,-1.287189,-0.831123,0.555339,0.028847
61.167644,1.394115,5.755157,-0.471396,0.881922,0.000000
64.017181,2.562034,-0.887522,0.831125,0.555337,-0.028847
55.323128,3.088995,-10.667597,0.881921,0.471397,-0.000000
55.598426,0.000000,7.105839,0.000000,-1.000000,0.000000
60.175712,0.000000,5.095045,0.000000,-1.000000,0.000000
54.151252,2.131939,-4.446298,-0.831124,0.555338,0.028847
55.514098,0.000000,7.197456,0.000000,-1.000000,0.000000
58.443153,0.906155,-10.473273,0.098017,0.995185,-0.000000
55.155460,3.402677,4.730475,0.881919,0.471400,-0.000000
62.431788,0.000000,-6.831917,0.000000,-1.000000,0.000000
56.586506,0.000000,-5.345168,0.000000,-1.000000,0.000000
62.829324,0.000000,-2.501854,0.000000,-1.000000,0.000000
53.965032,0.818526,1.705165,-0.980218,0.194977,-0.034022
54.380386,0.000000,3.824096,0.000000,-1.000000,0.000000
56.288177,0.000000,10.581347,0.000000,-1.000000,0.000000
55.902245,0.000000,6.505789,0.000000,-1.000000,0.000000
57.116638,0.000000,1.998549,0.000000,-1.000000,0.000000
56.261364,0.000000,-7.326060,0.000000,-1.000000,0.000000
62.706827,0.000000,-7.706836,0.000000,-1.000000,0.000000
61.248900,1.437548,-1.361439,-0.471396,0.881922,0.000000
56.914806,0.000000,-0.423414,0.000000,-1.000000,0.000000
64.467669,0.000000,-8.942441,0.000000,-1.000000,0.000000
55.557893,2.690143,0.945518,0.773010,0.634394,-0.000000
62.703672,2.784649,-3.114256,-0.881921,0.471397,0.000000
53.779962,1.815670,-9.254539,-0.975286,0.195884,0.102209
62.444753,0.000000,3.446834,0.000000,-1.000000,0.000000
55.345637,0.000000,-2.919073,0.000000,-1.000000,0.000000
54.216978,2.223582,-4.316860,-0.831124,0.555338,0.028847
64.716750,0.154483,-0.923769,0.980217,0.194979,-0.034021
63.241144,0.000000,6.011720,0.000000,-1.000000,0.000000
63.204024,0.000000,-3.044796,0.000000,-1.000000,0.000000
61.866784,1.872968,5.369161,-0.634393,0.773011,0.000000
62.103129,0.000000,3.675087,0.000000,-1.000000,0.000000
59.338673,0.000000,-7.364940,0.000000,-1.000000,0.000000
63.879103,0.000000,2.966787,0.000000,-1.000000,0.000000
59.404549,0.872493,-9.262902,-0.098017,0.995185,0.000000
60.656207,1.142670,-10.100433,-0.290285,0.956940,0.000000
60.810630,0.000000,0.471368,0.000000,-1.000000,0.000000
63.676412,2.820583,5.728247,0.831124,0.555338,0.028847
63.817406,0.000000,-0.200990,0.000000,-1.000000,0.000000
57.866423,0.000000,-6.814097,0.000000,-1.000000,0.000000
57.343805,0.000000,2.056496,0.000000,-1.000000,0.000000
63.064739,3.273814,10.742837,0.825863,0.557188,0.086549
61.391116,0.000000,-8.003877,0.000000,-1.000000,0.000000
56.946915,0.167167,10.936892,0.000000,-0.000000,1.000000
62.391682,2.397821,-4.183741,-0.773012,0.634392,0.000000
54.367982,0.569374,10.936892,0.000000,-0.000000,1.000000
63.493294,2.997364,7.600916,0.831124,0.555338,0.028847
64.248508,0.000000,-10.461099,0.000000,-1.000000,0.000000
55.645116,0.000000,-0.685450,0.000000,-1.000000,0.000000
55.319948,3.094944,5.170448,0.881921,0.471397,0.000000
56.109413,0.000000,3.779763,0.000000,-1.000000,0.000000
57.226049,1.284960,6.878153,0.471396,0.881922,0.000000
59.992198,0.000000,6.360379,0.000000,-1.000000,0.000000
53.964248,0.000000,-6.017848,0.000000,-1.000000,0.000000
64.477974,1.151187,2.091169,0.980217,0.194979,0.034021
61.859111,1.273329,10.936892,-0.000000,-0.000000,1.000000
62.957131,0.000000,5.114045,0.000000,-1.000000,0.000000
60.368282,1.055329,3.719961,-0.290285,0.956940,0.000000
63.171440,3.354085,9.207908,0.825863,0.557189,0.086550
55.345522,3.047097,0.291656,0.881921,0.471397,0.000000
57.626219,0.000000,-2.029502,0.000000,-1.000000,0.000000
61.135496,1.376932,1.265236,-0.471396,0.881922,0.000000
58.126138,0.962826,-10.609700,0.290284,0.956941,-0.000000
56.044734,2.101085,-4.047243,0.634395,0.773009,-0.000000
60.769132,0.000000,8.963276,0.000000,-1.000000,0.000000
54.830367,3.065482,-2.851809,-0.831123,0.555340,0.028847
62.447920,0.000000,7.441057,0.000000,-1.000000,0.000000
63.853844,0.000000,-5.903031,0.000000,-1.000000,0.000000
64.541708,1.070612,-0.716646,0.980217,0.194979,-0.034021
64.245666,2.216671,-0.953150,0.831125,0.555337,-0.028847
63.924444,0.000000,-2.550621,0.000000,-1.000000,0.000000
61.613453,1.665064,-6.508860,-0.634393,0.773011,0.000000
55.382600,0.000000,2.824486,0.000000,-1.000000,0.000000
54.776326,0.000000,8.397324,0.000000,-1.000000,0.000000
61.146968,1.383064,7.859759,-0.471396,0.881922,0.000000
63.717174,2.823135,-4.504726,0.831125,0.555337,-0.028847
60.417499,1.070259,-3.099265,-0.290285,0.956940,0.000000
57.935558,0.000000,2.023865,0.000000,-1.000000,0.000000
55.326048,3.083531,-8.941908,0.881921,0.471397,-0.000000
59.013413,0.849989,-5.906677,0.098017,0.995185,0.000000
62.547368,0.995200,10.936892,-0.000000,-0.000000,1.000000
56.268944,1.917080,1.640185,0.634395,0.773009,-0.000000
60.671679,1.147364,3.715209,-0.290285,0.956940,0.000000
63.259586,0.000000,-6.462322,0.000000,-1.000000,0.000000
61.142613,1.380736,-9.898791,-0.471396,0.881922,0.000000
62.530155,0.000000,-5.824357,0.000000,-1.000000,0.000000
60.303148,1.035571,9.924957,-0.290285,0.956940,0.000000
54.571034,2.961766,-7.848167,-0.825863,0.557189,0.086550
55.073141,3.326063,-0.873615,-0.831123,0.555339,0.028847
64.457866,0.276877,7.681288,0.980217,0.194980,0.034021
59.140890,0.000000,-8.155902,0.000000,-1.000000,0.000000
60.235908,1.015174,3.430157,-0.290285,0.956940,0.000000
61.626203,0.000000,-4.711370,0.000000,-1.000000,0.000000
57.902761,0.000000,9.805405,0.000000,-1.000000,0.000000
57.537850,1.082621,-10.936892,0.000000,0.000000,-1.000000
54.257629,2.455574,7.579940,-0.825863,0.557188,-0.086550
53.925540,0.000000,-8.983753,0.000000,-1.000000,0.000000
64.632047,0.409750,-1.901275,0.980217,0.194979,-0.034021
62.901915,3.155534,0.184239,-0.881922,0.471396,-0.000000
62.938518,3.224013,-1.650432,-0.881922,0.471396,-0.000000
61.348254,0.000000,4.175819,0.000000,-1.000000,0.000000
54.403768,0.000000,-6.588041,0.000000,-1.000000,0.000000
63.683000,2.783347,-6.255297,0.831124,0.555339,-0.028847
59.332858,0.865432,8.321350,-0.098017,0.995185,0.000000
63.531417,2.535822,10.936892,-0.000000,-0.000000,1.000000
61.170622,0.000000,-4.821628,0.000000,-1.000000,0.000000
64.219624,1.432358,-7.923301,0.980217,0.194980,-0.034021
55.069122,3.387559,-2.173283,-0.831123,0.555339,0.028847
56.048091,2.098330,5.780079,0.634395,0.773009,-0.000000
55.590731,0.000000,-10.906614,0.000000,-1.000000,0.000000
54.174847,0.000000,-4.959951,0.000000,-1.000000,0.000000
62.841623,3.042736,5.667190,-0.881922,0.471396,-0.000000
60.362806,0.000000,9.851367,0.000000,-1.000000,0.000000
58.674507,0.883368,-10.733567,0.098017,0.995185,-0.000000
64.223250,1.590371,-6.913229,0.980217,0.194980,-0.034021
63.092959,0.000000,-2.285504,0.000000,-1.000000,0.000000
58.282207,0.000000,10.127317,0.000000,-1.000000,0.000000
53.671348,1.416608,-9.526139,-0.975286,0.195884,0.102209
62.203525,2.168550,3.827786,-0.773012,0.634392,0.000000
64.446899,0.057410,-9.074897,0.975286,0.195884,-0.102211
55.780370,0.000000,2.831007,0.000000,-1.000000,0.000000
61.283345,1.455959,-7.976671,-0.471396,0.881922,0.000000
53.986894,1.115820,-2.779109,-0.980218,0.194977,0.034021
59.915723,0.922839,3.638001,-0.098017,0.995185,0.000000
58.030455,0.000000,-6.887982,0.000000,-1.000000,0.000000
61.729092,1.759967,1.314765,-0.634393,0.773011,0.000000
55.946056,2.217166,-0.799327,0.773010,0.634394,0.000000
54.303325,2.130782,-0.042509,-0.831123,0.555339,0.028847
56.398081,0.000000,-4.558111,0.000000,-1.000000,0.000000
56.869706,0.000000,5.078854,0.000000,-1.000000,0.000000
56.536347,1.162340,10.936892,0.000000,-0.000000,1.000000
53.532651,1.074357,10.193667,-0.975286,0.195884,-0.102209
55.030657,3.729407,-9.642543,0.956939,0.290289,-0.000000
54.621863,2.717552,2.161059,-0.831123,0.555340,-0.028847
59.431574,0.000000,2.522828,0.000000,-1.000000,0.000000
64.372444,0.164311,9.580464,0.975286,0.195885,0.102211
59.895351,0.920832,2.421374,-0.098017,0.995185,0.000000
62.517280,2.550863,-1.479049,-0.773012,0.634392,0.000000
55.500833,0.000000,10.396334,0.000000,-1.000000,0.000000
57.075623,0.000000,0.384929,0.000000,-1.000000,0.000000
53.909886,0.000000,-7.942680,0.000000,-1.000000,0.000000
55.331288,3.073728,1.765416,0.881921,0.471397,0.000000
58.255406,0.924646,4.198821,0.098017,0.995185,-0.000000
55.075506,3.581561,8.285964,0.956938,0.290294,0.000000
62.955862,3.256463,9.222432,-0.881922,0.471396,-0.000000
57.407861,1.187779,-4.945212,0.471396,0.881922,0.000000
53.709828,0.000000,5.534436,0.000000,-1.000000,0.000000
59.264622,0.000000,9.106026,0.000000,-1.000000,0.000000
53.800792,0.770126,-6.159833,-0.980217,0.194978,0.034022
63.959366,0.000000,-7.066766,0.000000,-1.000000,0.000000
64.146855,1.692482,-8.529098,0.980217,0.194980,-0.034021
61.510161,0.000000,3.602087,0.000000,-1.000000,0.000000
63.840438,2.557370,-6.069613,0.831125,0.555337,-0.028847
59.375752,0.000000,-4.141032,0.000000,-1.000000,0.000000
64.262454,2.143769,-1.872931,0.831125,0.555337,-0.028847
57.927177,1.023180,-10.065031,0.290284,0.956941,-0.000000
58.327125,0.917583,10.630220,0.098017,0.995185,0.000000
64.388027,0.000000,-5.690677,0.000000,-1.000000,0.000000
60.488388,0.000000,8.106127,0.000000,-1.000000,0.000000
53.972493,1.617791,-6.070827,-0.980217,0.194978,0.034022
54.749199,3.398578,-8.960198,-0.825864,0.557188,0.086551
59.539660,0.000000,-10.181350,0.000000,-1.000000,0.000000
57.447292,0.228239,10.936892,0.000000,-0.000000,1.000000
60.295696,1.033310,9.206722,-0.290285,0.956940,0.000000
54.525791,2.907464,7.930291,-0.825863,0.557188,-0.086550
53.690041,0.163775,-5.875745,-0.980217,0.194978,0.034022
53.860408,1.725281,8.313688,-0.975286,0.195884,-0.102209
62.830783,3.022457,9.713084,-0.881922,0.471396,-0.000000
55.739775,1.564184,-10.936892,0.000000,0.000000,-1.000000
60.231151,0.000000,10.659661,0.000000,-1.000000,0.000000
57.373250,0.000000,-0.536753,0.000000,-1.000000,0.000000
55.954866,2.206431,-1.243710,0.773010,0.634394,0.000000
58.853147,0.865774,-5.280765,0.098017,0.995185,-0.000000
60.545439,1.109069,-7.359176,-0.290285,0.956940,0.000000
56.708603,0.000000,9.660601,0.000000,-1.000000,0.000000
54.233127,0.000000,-2.277994,0.000000,-1.000000,0.000000
59.215100,0.853834,-8.047285,-0.098017,0.995185,0.000000
63.681694,0.709935,-10.936892,0.000000,0.000000,-1.000000
54.263329,2.894642,10.352176,-0.825863,0.557188,-0.086550
64.273302,1.685422,4.926397,0.980217,0.194979,0.034021
56.566746,1.672679,-4.079055,0.634395,0.773009,0.000000
54.190631,0.000000,-8.692646,0.000000,-1.000000,0.000000
58.688921,0.881949,-1.705893,0.098017,0.995185,-0.000000
64.226962,0.000000,-1.280974,0.000000,-1.000000,0.000000
57.386788,0.000000,-4.973139,0.000000,-1.000000,0.000000
60.500242,1.095359,4.199877,-0.290285,0.956940,0.000000
64.062536,0.000000,2.963851,0.000000,-1.000000,0.000000
59.455445,0.000000,-1.790670,0.000000,-1.000000,0.000000
64.607376,0.326082,-3.091606,0.980217,0.194979,-0.034021
61.058928,0.000000,-2.900846,0.000000,-1.000000,0.000000
55.194438,3.329755,-10.400254,0.881921,0.471397,-0.000000
56.136528,0.000000,1.676021,0.000000,-1.000000,0.000000
64.390099,1.922129,0.204664,0.980217,0.194979,0.034021
53.969348,0.696383,0.880811,-0.980218,0.194977,-0.034022
59.532467,0.885092,-9.454972,-0.098017,0.995185,0.000000
56.695257,0.000000,2.190280,0.000000,-1.000000,0.000000
62.226261,2.196254,3.904115,-0.773012,0.634392,0.000000
63.285488,3.636915,-1.276054,0.831124,0.555339,-0.028847
62.851868,3.061905,10.388543,-0.881921,0.471397,0.000001
61.230551,1.427740,-1.963748,-0.471396,0.881922,0.000000
58.648576,0.000000,-7.624483,0.000000,-1.000000,0.000000
54.545197,3.351851,10.605976,-0.825863,0.557188,-0.086550
64.487971,0.012410,-8.329593,0.980217,0.194979,-0.034021
61.637033,0.000000,4.103658,0.000000,-1.000000,0.000000
59.459868,0.877941,10.609059,-0.098017,0.995185,0.000000
55.156653,3.400445,-0.028813,0.881919,0.471400,-0.000000
54.754315,3.205024,7.665320,-0.825863,0.557188,-0.086550
61.706623,0.460655,-10.936892,0.000000,0.000000,-1.000000
61.468661,0.000000,2.593630,0.000000,-1.000000,0.000000
59.186458,0.851013,-5.062595,-0.098017,0.995185,0.000000
53.649699,1.949792,10.936892,0.000000,-0.000000,1.000000
63.961341,2.523444,-3.239275,0.831125,0.555337,-0.028847
63.510960,3.284363,-1.566883,0.831125,0.555337,-0.028847
57.556247,0.000000,2.740096,0.000000,-1.000000,0.000000
64.309667,1.548214,-4.665011,0.980217,0.194980,-0.034021
61.957186,0.000000,-9.492401,0.000000,-1.000000,0.000000
53.297522,0.109387,10.587911,-0.975286,0.195884,-0.102209
63.733543,0.000000,-1.335553,0.000000,-1.000000,0.000000
62.480137,0.000000,-9.813787,0.000000,-1.000000,0.000000
60.896152,0.000000,10.811515,0.000000,-1.000000,0.000000
55.138473,3.434459,7.193208,0.881919,0.471400,-0.000000
64.243409,0.412509,10.336028,0.975286,0.195885,0.102211
61.179258,0.000000,6.921075,0.000000,-1.000000,0.000000
62.361047,2.360492,4.085582,-0.773012,0.634392,0.000000
57.894822,0.000000,7.185074,0.000000,-1.000000,0.000000
56.120480,2.038922,5.590333,0.634395,0.773009,-0.000000
56.924554,0.000000,-9.657696,0.000000,-1.000000,0.000000
57.801099,1.061425,9.759239,0.290284,0.956941,0.000000
57.940014,0.000000,-3.392355,0.000000,-1.000000,0.000000
64.370101,1.602136,-2.614773,0.980217,0.194980,-0.034021
61.975118,1.961875,-6.430240,-0.634393,0.773011,0.000000
56.497438,1.729558,9.857849,0.634395,0.773009,0.000000
60.476152,1.088051,-1.068153,-0.290285,0.956940,0.000000
63.999735,2.440050,-3.738535,0.831125,0.555337,-0.028847
59.541378,0.000000,-0.334521,0.000000,-1.000000,0.000000
57.833250,0.000000,0.114802,0.000000,-1.000000,0.000000
59.043140,0.847061,0.965106,0.098017,0.995185,0.000000
53.901357,0.921509,-4.129979,-0.980217,0.194978,0.034022
54.384956,2.496583,-4.732776,-0.831124,0.555338,0.028847
55.904526,0.000000,-4.834040,0.000000,-1.000000,0.000000
53.374859,0.150361,-9.928491,-0.975286,0.195884,0.102209
64.268105,1.629748,-5.395218,0.980217,0.194980,-0.034021
54.754423,3.104602,5.793007,-0.831124,0.555338,-0.028847
64.393401,1.114928,4.735660,0.980217,0.194979,0.034021
58.618905,0.000000,-0.222083,0.000000,-1.000000,0.000000
57.297421,1.032043,10.936892,0.000000,-0.000000,1.000000
60.519758,1.101279,-0.169019,-0.290285,0.956940,0.000000
61.920029,1.916664,-4.803833,-0.634393,0.773011,0.000000
54.385184,0.000000,-0.685458,0.000000,-1.000000,0.000000
61.334734,1.483427,-1.770376,-0.471396,0.881922,0.000000
63.492667,2.866895,9.279170,0.825863,0.557189,0.086550
60.700626,1.156145,-8.389950,-0.290285,0.956940,0.000000
64.310171,1.319426,-5.961697,0.980217,0.194980,-0.034021
57.999033,0.000000,-7.439665,0.000000,-1.000000,0.000000
64.535491,0.195234,-5.912674,0.980217,0.194979,-0.034021
54.078573,2.311386,8.360251,-0.825863,0.557188,-0.086550
60.373176,0.000000,-2.658654,0.000000,-1.000000,0.000000
58.138046,0.000000,6.896707,0.000000,-1.000000,0.000000
61.201126,1.412012,10.364487,-0.471396,0.881922,0.000000
64.321529,0.000000,6.026346,0.000000,-1.000000,0.000000
62.955112,3.255059,-5.898367,-0.881916,0.471406,0.000000
58.123297,0.000000,-6.749970,0.000000,-1.000000,0.000000
57.868349,1.041025,4.639947,0.290284,0.956941,0.000000
64.332448,1.067651,-6.762800,0.980217,0.194980,-0.034021
63.609368,2.992564,4.349018,0.831125,0.555337,0.028847
58.723938,0.878500,-4.871678,0.098017,0.995185,-0.000000
55.265300,0.000000,2.987347,0.000000,-1.000000,0.000000
55.626194,0.000000,-5.107130,0.000000,-1.000000,0.000000
60.902205,1.252236,-6.564116,-0.471396,0.881922,0.000000
62.594029,0.000000,-1.935368,0.000000,-1.000000,0.000000
64.272301,1.331726,-6.982311,0.980217,0.194980,-0.034021
58.832962,0.000000,-6.732809,0.000000,-1.000000,0.000000
54.954248,3.589569,8.233161,-0.825863,0.557188,-0.086550
63.114289,3.582615,-1.040414,-0.956939,0.290289,-0.000000
56.001294,2.149859,2.338329,0.773010,0.634394,0.000000
62.861776,0.000000,0.111159,0.000000,-1.000000,0.000000
61.855972,1.864095,2.700804,-0.634393,0.773011,0.000000
63.776491,0.000000,9.055569,0.000000,-1.000000,0.000000
53.930250,0.345532,-10.936892,0.000000,0.000000,-1.000000
62.915352,0.000000,-9.555961,0.000000,-1.000000,0.000000
62.733998,2.841384,2.226952,-0.881921,0.471397,0.000000
57.209732,1.293681,-7.263297,0.471396,0.881922,-0.000000
53.716768,0.073787,4.589992,-0.980218,0.194977,-0.034022
58.114056,0.000000,-9.325909,0.000000,-1.000000,0.000000
53.780928,0.000000,-4.784676,0.000000,-1.000000,0.000000
54.133467,1.712181,-1.973826,-0.980218,0.194977,0.034021
59.233393,0.000000,1.214280,0.000000,-1.000000,0.000000
62.498042,2.527421,1.878743,-0.773012,0.634392,0.000000
58.773901,0.873579,-6.713940,0.098017,0.995185,-0.000000
54.161704,2.145105,4.398655,-0.831123,0.555340,-0.028847
61.748772,1.776118,10.601596,-0.634393,0.773011,0.000000
60.764156,0.000000,5.007176,0.000000,-1.000000,0.000000
54.643529,0.000000,0.004476,0.000000,-1.000000,0.000000
61.825084,0.000000,-9.731043,0.000000,-1.000000,0.000000
64.297870,2.167525,-0.395180,0.831125,0.555337,-0.028847
58.434221,0.000000,-7.740252,0.000000,-1.000000,0.000000
60.613455,0.000000,9.721437,0.000000,-1.000000,0.000000
62.203459,2.168469,10.253802,-0.773012,0.634392,0.000000
54.127576,1.528819,-1.092693,-0.980218,0.194977,0.034021
61.472715,1.557179,8.457363,-0.471396,0.881922,0.000000
64.443482,0.552165,-6.518007,0.980217,0.194979,-0.034021
53.503800,0.576000,-9.513861,-0.975286,0.195884,0.102209
63.250626,3.536554,4.212495,0.831125,0.555337,0.028847
56.658777,0.000000,-4.021193,0.000000,-1.000000,0.000000
57.365214,0.000000,-10.873224,0.000000,-1.000000,0.000000
56.544839,1.690658,10.484964,0.634395,0.773009,0.000000
54.710472,2.890173,-2.931225,-0.831123,0.555340,0.028847
61.778802,1.800763,-0.388941,-0.634393,0.773011,0.000000
54.238045,2.398039,7.068455,-0.831124,0.555338,-0.028847
62.638744,1.614158,-10.936892,0.000000,0.000000,-1.000000
53.739341,1.722245,-9.463093,-0.975286,0.195884,0.102209
60.614533,0.000000,-0.597789,0.000000,-1.000000,0.000000
58.557850,0.000000,-1.582869,0.000000,-1.000000,0.000000
57.499941,1.152780,9.360607,0.290284,0.956941,0.000000
62.814800,2.992554,10.168930,-0.881922,0.471396,-0.000000
64.176848,0.000000,4.249967,0.000000,-1.000000,0.000000
53.756274,0.273471,4.596135,-0.980218,0.194977,-0.034022
54.534884,0.000000,7.013387,0.000000,-1.000000,0.000000
54.260131,2.059083,-0.312503,-0.980218,0.194977,0.034021
53.709705,0.059509,-4.711651,-0.980217,0.194978,0.034022
60.114080,0.000000,-1.194675,0.000000,-1.000000,0.000000
61.808304,1.234534,-10.936892,0.000000,0.000000,-1.000000
58.673496,0.883468,-4.841190,0.098017,0.995185,-0.000000
53.617288,1.830081,10.936892,0.000000,-0.000000,1.000000
60.337185,0.000000,-10.471874,0.000000,-1.000000,0.000000
60.537854,0.000000,8.954905,0.000000,-1.000000,0.000000
63.113338,0.000000,9.737388,0.000000,-1.000000,0.000000
55.304376,0.000000,7.259028,0.000000,-1.000000,0.000000
59.958021,0.930877,-4.409316,-0.290285,0.956940,0.000000
54.002417,0.000000,5.318640,0.000000,-1.000000,0.000000
59.811438,0.912568,-5.993939,-0.098017,0.995185,0.000000
64.406708,0.858707,-5.820721,0.980217,0.194980,-0.034021
57.327489,1.230739,-4.839104,0.471396,0.881922,0.000000
62.574366,2.620423,-2.256206,-0.773012,0.634392,0.000000
55.707689,2.507616,5.353546,0.773010,0.634394,0.000000
62.840227,3.040125,-5.100357,-0.881921,0.471397,0.000000
57.237825,1.278665,-5.255960,0.471396,0.881922,-0.000000
56.059854,2.088676,10.690535,0.634395,0.773009,0.000000
61.907833,1.906656,1.239746,-0.634393,0.773011,0.000000
54.009352,1.308131,3.234167,-0.980217,0.194978,-0.034021
60.644019,1.138973,3.905301,-0.290285,0.956940,0.000000
64.299138,1.723916,-3.961413,0.980217,0.194980,-0.034021
53.841911,0.000000,-2.749885,0.000000,-1.000000,0.000000
64.563396,0.628421,2.625994,0.980217,0.194979,0.034021
57.785746,0.000000,4.123234,0.000000,-1.000000,0.000000
57.615553,0.000000,10.516846,0.000000,-1.000000,0.000000
58.625721,0.000000,-6.725282,0.000000,-1.000000,0.000000
64.065738,0.000000,7.638124,0.000000,-1.000000,0.000000
62.783559,2.934107,-4.847408,-0.881921,0.471397,0.000000
54.899834,3.831058,10.307037,-0.825864,0.557188,-0.086549
63.453629,3.354680,1.864945,0.831125,0.555337,0.028847
56.374778,0.000000,4.166610,0.000000,-1.000000,0.000000
63.544990,0.000000,7.779134,0.000000,-1.000000,0.000000
62.957831,0.000000,2.566455,0.000000,-1.000000,0.000000
61.483493,1.562940,0.154901,-0.471396,0.881922,0.000000
62.351401,0.000000,0.357952,0.000000,-1.000000,0.000000
59.608682,0.000000,7.771652,0.000000,-1.000000,0.000000
55.477122,2.800892,-9.402506,0.881921,0.471397,0.000000
62.935484,3.218337,-3.977483,-0.881922,0.471396,-0.000000
62.505631,2.536669,4.844106,-0.773012,0.634392,0.000000
57.037133,0.000000,-1.141962,0.000000,-1.000000,0.000000
54.514731,1.589237,10.936892,0.000000,-0.000000,1.000000
53.968524,2.330976,9.536452,-0.825863,0.557188,-0.086550
61.972007,0.000000,9.409540,0.000000,-1.000000,0.000000
53.949025,1.160589,4.126720,-0.980217,0.194978,-0.034021
57.049876,1.379126,6.716727,0.471396,0.881922,0.000000
64.163522,1.583339,-8.674401,0.980217,0.194980,-0.034021
57.585725,0.000000,-2.839365,0.000000,-1.000000,0.000000
62.624423,0.000000,10.688382,0.000000,-1.000000,0.000000
60.530239,0.000000,-5.523058,0.000000,-1.000000,0.000000
53.823630,0.520045,-4.068625,-0.980217,0.194978,0.034022
57.359592,1.213579,10.722206,0.471396,0.881922,0.000000
62.120632,2.081295,-2.657214,-0.634393,0.773011,0.000000
56.173922,0.000000,-7.169001,0.000000,-1.000000,0.000000
64.532888,0.746595,-2.827757,0.980217,0.194979,-0.034021
62.808783,2.981297,-0.465010,-0.881921,0.471397,0.000000
53.808725,0.908808,6.726063,-0.980217,0.194978,-0.034021
54.095500,2.255026,-7.835895,-0.825863,0.557189,0.086550
61.683904,1.722883,-3.250088,-0.634393,0.773011,0.000000
58.140648,0.958425,4.016750,0.290284,0.956941,0.000000
62.002098,1.984017,-8.624348,-0.634393,0.773011,0.000000
64.339323,1.739058,-2.716815,0.980217,0.194980,-0.034021
59.948012,0.927841,-10.753012,-0.290285,0.956940,0.000000
63.461628,0.937955,10.936892,-0.000000,-0.000000,1.000000
62.252468,0.000000,2.019254,0.000000,-1.000000,0.000000
53.933797,1.236112,-4.998327,-0.980217,0.194978,0.034022
53.802112,0.881488,6.760027,-0.980217,0.194978,-0.034021
56.692578,1.570105,5.222038,0.471396,0.881922,-0.000000
60.101336,0.000000,3.107578,0.000000,-1.000000,0.000000
56.769012,1.529251,2.378071,0.471396,0.881922,-0.000000
58.741691,0.000000,-9.459415,0.000000,-1.000000,0.000000
63.109973,3.568386,-4.317779,-0.956939,0.290289,-0.000000
58.404939,0.000000,-4.992210,0.000000,-1.000000,0.000000
57.274293,1.259173,2.874877,0.471396,0.881922,0.000000
56.137360,1.367992,-10.936892,0.000000,0.000000,-1.000000
61.751283,1.778179,7.615745,-0.634393,0.773011,0.000000
56.549871,1.686528,4.000586,0.634395,0.773009,0.000000
54.122250,1.386251,-0.429097,-0.980218,0.194977,0.034021
53.700036,0.000000,-8.675693,0.000000,-1.000000,0.000000
63.800272,2.524811,7.853637,0.831124,0.555338,0.028847
55.241131,3.242399,3.345663,0.881921,0.471397,0.000000
61.156250,0.000000,5.277023,0.000000,-1.000000,0.000000
63.071794,0.000000,-7.674765,0.000000,-1.000000,0.000000
63.629140,3.048637,2.699887,0.831125,0.555337,0.028847
55.442622,2.865437,8.946147,0.881921,0.471397,0.000000
63.315142,0.000000,-7.461091,0.000000,-1.000000,0.000000
61.707698,0.000000,5.398228,0.000000,-1.000000,0.000000
59.252589,0.857526,0.137642,-0.098017,0.995185,0.000000
58.444084,0.000000,1.721435,0.000000,-1.000000,0.000000
57.781990,1.067222,-8.165547,0.290284,0.956941,-0.000000
59.821743,0.913583,-6.881108,-0.098017,0.995185,0.000000
55.421177,2.639500,-10.936892,0.000000,0.000000,-1.000000
58.569406,0.000000,-0.945762,0.000000,-1.000000,0.000000
58.683988,0.000000,5.945394,0.000000,-1.000000,0.000000
58.863035,0.864800,-5.742355,0.098017,0.995185,-0.000000
62.268971,2.248297,-10.691723,-0.773012,0.634392,0.000000
53.724522,0.104479,-4.542478,-0.980217,0.194978,0.034022
55.079254,0.000000,-8.191846,0.000000,-1.000000,0.000000
59.539820,0.885816,-9.214511,-0.098017,0.995185,0.000000
64.400235,1.776783,-0.745634,0.980217,0.194979,-0.034021
54.213755,0.000000,-9.381367,0.000000,-1.000000,0.000000
63.630781,3.082285,-2.004884,0.831125,0.555337,-0.028847
61.743968,1.772175,1.288020,-0.634393,0.773011,0.000000
63.887650,2.704055,-1.885444,0.831125,0.555337,-0.028847
60.121875,0.980582,7.594093,-0.290285,0.956940,0.000000
59.340922,0.000000,-5.949593,0.000000,-1.000000,0.000000
61.949336,0.000000,5.802548,0.000000,-1.000000,0.000000
63.408558,3.288335,4.440748,0.831125,0.555337,0.028847
61.243349,1.434581,7.419807,-0.471396,0.881922,0.000000
63.428518,3.462310,0.516429,0.831125,0.555337,0.028847
61.296663,1.463078,5.910164,-0.471396,0.881922,0.000000
64.328615,1.170112,-6.286024,0.980217,0.194980,-0.034021
64.354871,0.784797,7.737829,0.980217,0.194980,0.034021
64.610332,0.216525,-3.634321,0.980217,0.194979,-0.034021
53.914089,1.420656,-6.623755,-0.980217,0.194978,0.034022
54.171558,2.341731,-7.668334,-0.825863,0.557189,0.086550
56.855439,0.000000,7.734051,0.000000,-1.000000,0.000000
59.012997,0.000000,8.064532,0.000000,-1.000000,0.000000
53.790946,0.147302,2.874089,-0.980218,0.194977,-0.034022
55.543576,0.444764,10.936892,0.000000,-0.000000,1.000000
55.766210,2.436309,2.904460,0.773010,0.634394,0.000000
57.958797,1.013588,-1.252168,0.290284,0.956941,0.000000
58.756556,0.000000,-6.670289,0.000000,-1.000000,0.000000
54.094292,1.650456,-2.748786,-0.980218,0.194977,0.034021
60.252786,0.000000,9.914120,0.000000,-1.000000,0.000000
55.880771,2.296716,-3.258950,0.773010,0.634394,0.000000
58.512759,0.899299,-1.201827,0.098017,0.995185,-0.000000
58.070195,0.000000,-1.574450,0.000000,-1.000000,0.000000
64.268314,1.283109,7.375801,0.980217,0.194980,0.034021
62.599707,2.651301,4.452547,-0.773012,0.634392,0.000000
55.154378,0.000000,4.866116,0.000000,-1.000000,0.000000
64.591026,0.932516,-0.087139,0.980217,0.194979,-0.034021
55.254394,3.217586,8.556829,0.881921,0.471397,0.000000
62.957811,3.260108,-1.208369,-0.881922,0.471396,-0.000000
61.286692,0.000000,0.668259,0.000000,-1.000000,0.000000
53.560682,0.000000,10.038023,0.000000,-1.000000,0.000000
63.115426,0.000000,-9.810273,0.000000,-1.000000,0.000000
56.350201,1.850393,-7.557400,0.634395,0.773009,-0.000000
59.115884,0.000000,6.535605,0.000000,-1.000000,0.000000
59.826786,0.000000,-2.377969,0.000000,-1.000000,0.000000
62.985606,3.312109,-2.421911,-0.881922,0.471396,-0.000000
60.535961,1.106194,-6.438894,-0.290285,0.956940,0.000000
