x,y,z,nx,ny,nz
3.535340,1.599778,-40.367066,0.881921,0.471397,0.000000
7.428005,-0.698285,4.256894,0.866025,-0.500000,0.000000
-4.512852,5.747478,2.333011,-0.866025,0.500000,0.000000
-2.010200,3.315964,-33.936373,-0.471397,0.881921,0.000000
-4.213336,6.266255,2.049779,-0.866025,0.500000,0.000000
-0.918915,-3.767502,-20.898611,-0.290285,-0.956940,0.000000
-6.038648,-3.104722,4.794461,-0.866025,-0.500000,0.000000
-1.835645,-3.409266,-38.480339,-0.471397,-0.881921,0.000000
-1.661178,-3.502521,-22.134238,-0.471397,-0.881921,0.000000
-3.657012,6.781983,1.902454,-0.000000,1.000000,0.000000
-4.935490,-0.016050,0.000000,0.000000,0.000000,-1.000000
-2.931198,2.531828,-31.871968,-0.773010,0.634393,0.000000
1.818311,-6.781983,4.655983,-0.000000,-1.000000,-0.000000
2.933649,-2.528841,-38.107825,0.773010,-0.634393,0.000000
-1.490224,-6.781983,2.300662,-0.000000,-1.000000,-0.000000
3.823246,0.685442,-23.025315,0.995185,0.098017,-0.000000
-3.884468,0.063847,-48.404936,-0.995185,0.098017,0.000000
3.826830,0.649052,-33.457387,0.995185,0.098017,-0.000000
-3.687447,-1.182822,-33.539193,-0.956940,-0.290285,0.000000
3.240931,-2.150578,-29.517447,0.881921,-0.471397,0.000000
2.688766,2.802402,-41.963752,0.634393,0.773010,0.000000
1.524315,-1.944022,-49.203381,0.000000,0.000000,-1.000000
-0.528624,3.838692,-25.357871,-0.098017,0.995185,0.000000
4.986152,4.927698,2.538503,0.866025,0.500000,0.000000
-1.075614,3.719968,-25.330878,-0.290285,0.956940,0.000000
-2.255994,3.157569,-29.875705,-0.634393,0.773010,0.000000
3.267390,-2.101076,-32.720312,0.881921,-0.471397,0.000000
3.177642,2.231535,-27.936574,0.773010,0.634393,0.000000
-3.490164,1.684296,-28.781525,-0.881921,0.471397,0.000000
-2.580869,2.890951,-26.991337,-0.634393,0.773010,0.000000
-3.829854,0.618357,-23.587506,-0.995185,0.098017,0.000000
-3.827301,6.781983,0.137993,-0.000000,1.000000,0.000000
0.906583,-3.771243,-26.379285,0.290285,-0.956940,0.000000
3.822085,-0.697229,-18.704447,0.995185,-0.098017,0.000000
-3.318950,2.004614,-23.336924,-0.881921,0.471397,0.000000
3.203400,-2.200149,-24.479724,0.773010,-0.634393,0.000000
7.157447,-1.166905,1.833997,0.866025,-0.500000,0.000000
-1.459445,1.770177,0.000000,0.000000,0.000000,-1.000000
-0.505907,-3.840929,-34.748020,-0.098017,-0.995185,0.000000
-1.602440,-6.781983,1.940344,-0.000000,-1.000000,-0.000000
1.084819,-0.204168,6.468741,-0.000000,0.000000,1.000000
-1.650530,-3.508212,-46.556751,-0.471397,-0.881921,0.000000
-1.752234,3.453850,-36.577206,-0.471397,0.881921,0.000000
-2.601444,1.584634,-49.203381,-0.000000,-0.000000,-1.000000
6.326502,2.606143,1.567143,0.866025,0.500000,0.000000
-1.686635,-3.488914,-40.507113,-0.471397,-0.881921,0.000000
-3.794907,-0.770035,0.000000,0.000000,0.000000,-1.000000
-3.613486,1.828610,6.468741,0.000000,0.000000,1.000000
5.340554,4.313855,3.886036,0.866025,0.500000,0.000000
-3.417619,-1.820017,-22.629381,-0.881921,-0.471397,0.000000
1.559992,3.556606,-29.929231,0.471397,0.881921,-0.000000
-7.228280,-1.044219,5.253859,-0.866025,-0.500000,-0.000000
2.053307,3.292923,-41.111884,0.471397,0.881921,0.000000
-3.274685,-3.874114,6.468741,0.000000,0.000000,1.000000
-3.814063,-0.765423,-46.327402,-0.956940,-0.290285,0.000000
-1.558090,-0.380222,-49.203381,0.000000,-0.000000,-1.000000
3.139862,-2.277570,-21.377962,0.773010,-0.634393,0.000000
-1.982669,6.781983,1.836738,-0.000000,1.000000,0.000000
5.454432,1.429769,6.468741,0.000000,0.000000,1.000000
1.666840,6.781983,2.280940,-0.000000,1.000000,0.000000
-3.852206,-0.391410,-39.293832,-0.995185,-0.098017,0.000000
-3.804319,-0.797544,-30.597612,-0.956940,-0.290285,0.000000
-2.190151,-6.781983,0.858789,-0.000000,-1.000000,-0.000000
-5.674170,-3.736016,0.107183,-0.866025,-0.500000,-0.000000
4.148576,-6.378422,0.341027,0.866025,-0.500000,0.000000
-5.223046,2.744492,0.000000,0.000000,0.000000,-1.000000
-3.217155,2.183388,-41.363338,-0.773010,0.634393,0.000000
-3.174535,6.781983,1.331315,-0.000000,1.000000,0.000000
4.203268,-6.283692,1.024884,0.866025,-0.500000,0.000000
-3.588789,-6.781983,2.700336,-0.000000,-1.000000,-0.000000
2.309937,-6.781983,3.523494,-0.000000,-1.000000,-0.000000
0.457789,3.845668,-41.849183,0.098017,0.995185,0.000000
-3.513410,-5.578240,0.000000,0.000000,0.000000,-1.000000
3.157110,2.256554,-24.504936,0.773010,0.634393,0.000000
3.121951,2.243524,6.468741,-0.000000,0.000000,1.000000
2.121576,6.781983,0.973756,-0.000000,1.000000,0.000000
0.041991,-2.869325,-49.203381,0.000000,0.000000,-1.000000
-1.416013,6.781983,5.280074,-0.000000,1.000000,0.000000
2.136001,-1.773024,6.468741,-0.000000,0.000000,1.000000
-3.678601,-1.211981,-35.968929,-0.956940,-0.290285,0.000000
3.806213,0.791302,-33.171787,0.956940,0.290285,0.000000
-3.712434,-0.051166,-18.557373,-0.000000,0.000000,1.000000
-3.931460,-3.245313,0.000000,0.000000,0.000000,-1.000000
3.006206,-4.619486,6.468741,-0.000000,0.000000,1.000000
3.665017,1.256761,-45.003352,0.956940,0.290285,0.000000
-0.889151,1.013519,-18.557373,0.000000,0.000000,1.000000
3.351344,1.944009,-31.734226,0.881921,0.471397,-0.000000
-2.196914,5.873950,0.000000,0.000000,0.000000,-1.000000
3.540170,-1.590741,-19.832220,0.881921,-0.471397,0.000000
-1.572151,6.781983,0.095437,-0.000000,1.000000,0.000000
2.992256,2.457429,-30.296389,0.773010,0.634393,-0.000000
-1.706857,-3.478105,-44.196903,-0.471397,-0.881921,0.000000
-1.928615,5.218672,0.000000,0.000000,0.000000,-1.000000
0.602381,3.423429,-18.557373,0.000000,0.000000,1.000000
2.486936,2.968040,-47.041850,0.634393,0.773010,0.000000
2.155765,2.994380,-49.203381,-0.000000,0.000000,-1.000000
1.730335,3.465555,-40.429438,0.471397,0.881921,0.000000
3.456768,-1.746776,-41.367588,0.881921,-0.471397,0.000000
3.577752,1.520431,-26.065927,0.881921,0.471397,0.000000
0.197871,3.871268,-31.355798,0.098017,0.995185,-0.000000
-2.059858,6.781983,4.571916,-0.000000,1.000000,0.000000
-4.401519,1.916045,6.468741,0.000000,0.000000,1.000000
2.049574,3.294919,-35.840229,0.471397,0.881921,0.000000
-3.504361,-3.191622,6.468741,0.000000,0.000000,1.000000
3.320979,-2.000819,-26.708088,0.881921,-0.471397,0.000000
-3.005577,-2.441197,-47.867666,-0.773010,-0.634393,0.000000
-3.851541,0.398163,-43.566676,-0.995185,0.098017,0.000000
-3.688063,1.180790,-24.755580,-0.956940,0.290285,0.000000
4.299934,2.508967,0.000000,0.000000,0.000000,-1.000000
2.996312,-2.452486,-21.345887,0.773010,-0.634393,0.000000
-3.725203,-1.058357,-48.400267,-0.956940,-0.290285,0.000000
1.498073,-1.002937,6.468741,-0.000000,0.000000,1.000000
0.160666,6.781983,1.106395,-0.000000,1.000000,0.000000
-3.727906,-6.485421,6.468741,-0.000000,0.000000,1.000000
1.433919,-0.529502,0.000000,0.000000,0.000000,-1.000000
2.319194,-3.105702,-24.214446,0.634393,-0.773010,0.000000
5.902035,-1.949160,6.468741,0.000000,0.000000,1.000000
-1.379724,-3.627717,-33.561871,-0.290285,-0.956940,0.000000
-1.172686,3.690521,-25.807004,-0.290285,0.956940,0.000000
-3.837890,-0.536766,-49.027558,-0.995185,-0.098017,0.000000
7.719949,0.192623,0.531932,0.866025,0.500000,0.000000
-0.084898,-3.882395,-31.735726,-0.098017,-0.995185,0.000000
-0.715248,-3.820311,-26.472018,-0.098017,-0.995185,0.000000
7.271035,0.970164,2.159320,0.866025,0.500000,0.000000
-5.421209,-2.029697,6.468741,0.000000,0.000000,1.000000
1.849978,3.401605,-35.424308,0.471397,0.881921,0.000000
-1.849695,6.781983,1.375936,-0.000000,1.000000,0.000000
-2.804831,2.685807,-47.105348,-0.773010,0.634393,0.000000
3.639237,-1.341749,-31.680749,0.956940,-0.290285,0.000000
-2.577997,2.893308,-38.032099,-0.634393,0.773010,0.000000
-3.869073,-0.220155,-47.680659,-0.995185,-0.098017,0.000000
6.810367,0.986859,0.000000,0.000000,0.000000,-1.000000
-1.626828,3.649161,6.468741,0.000000,0.000000,1.000000
2.698872,6.781983,2.546609,-0.000000,1.000000,0.000000
-3.255516,2.123292,-49.004287,-0.881921,0.471397,0.000000
-6.570614,2.183330,3.422927,-0.866025,0.500000,0.000000
3.873397,0.176249,-22.788660,0.995185,0.098017,-0.000000
1.383758,2.590979,-18.557373,0.000000,0.000000,1.000000
-6.705465,-1.949761,0.275064,-0.866025,-0.500000,-0.000000
1.690161,-6.615321,0.000000,0.000000,0.000000,-1.000000
0.539939,3.837577,-35.053572,0.098017,0.995185,0.000000
-2.113117,4.057160,0.000000,0.000000,0.000000,-1.000000
-6.162220,0.702459,0.000000,0.000000,0.000000,-1.000000
-2.280236,3.137674,-30.922994,-0.634393,0.773010,0.000000
0.191409,-3.871904,-25.471549,0.098017,-0.995185,0.000000
3.863306,-0.278710,-33.809356,0.995185,-0.098017,0.000000
2.021597,0.101592,0.000000,0.000000,0.000000,-1.000000
0.029241,-3.887876,-32.149262,0.098017,-0.995185,0.000000
-2.769196,2.729228,-42.339307,-0.773010,0.634393,0.000000
0.743137,3.173574,-18.557373,0.000000,0.000000,1.000000
3.204506,2.198801,-38.026964,0.773010,0.634393,0.000000
0.634931,2.753447,-18.557373,0.000000,0.000000,1.000000
3.444297,-1.770106,-40.480191,0.881921,-0.471397,0.000000
6.112796,-2.976293,5.994269,0.866025,-0.500000,0.000000
1.113877,-1.107442,-18.557373,0.000000,-0.000000,1.000000
2.833836,-2.650464,-41.813255,0.773010,-0.634393,0.000000
7.469946,-0.625640,2.688104,0.866025,-0.500000,0.000000
3.844714,-0.467480,-44.425797,0.995185,-0.098017,0.000000
3.484257,1.695346,-40.870187,0.881921,0.471397,0.000000
0.058624,6.781983,6.142312,-0.000000,1.000000,0.000000
-0.875598,-3.780642,-48.662774,-0.290285,-0.956940,0.000000
-0.425722,3.848826,-23.001960,-0.098017,0.995185,0.000000
-2.363950,3.068972,-31.030434,-0.634393,0.773010,0.000000
-2.427612,3.016726,-37.818900,-0.634393,0.773010,0.000000
2.198494,-3.204758,-19.947579,0.634393,-0.773010,0.000000
-2.282731,2.082881,6.468741,0.000000,0.000000,1.000000
0.615724,-6.781983,3.584274,-0.000000,-1.000000,-0.000000
-1.311356,-3.648456,-33.107150,-0.290285,-0.956940,0.000000
2.066024,2.561701,6.468741,-0.000000,0.000000,1.000000
-2.236522,6.692310,0.000000,0.000000,0.000000,-1.000000
-2.033199,3.303671,-40.771366,-0.471397,0.881921,0.000000
-3.821277,-0.705434,-39.176962,-0.995185,-0.098017,0.000000
0.887597,3.777002,-32.300657,0.290285,0.956940,-0.000000
1.223940,-3.674973,-34.250942,0.290285,-0.956940,0.000000
0.546439,-3.836937,-37.914710,0.098017,-0.995185,0.000000
-6.641936,0.565512,6.468741,0.000000,0.000000,1.000000
-1.479211,-2.332668,6.468741,0.000000,0.000000,1.000000
-4.590326,5.613288,2.718591,-0.866025,0.500000,0.000000
0.825382,-3.795875,-45.691701,0.290285,-0.956940,0.000000
0.574345,-3.834188,-20.608017,0.098017,-0.995185,0.000000
-3.177836,2.231299,-37.963842,-0.773010,0.634393,0.000000
4.118219,-4.571585,6.468741,0.000000,0.000000,1.000000
0.827347,2.986303,-49.203381,-0.000000,0.000000,-1.000000
-3.217053,-2.183512,-39.344829,-0.773010,-0.634393,0.000000
0.735841,3.818282,-37.311613,0.098017,0.995185,0.000000
2.006321,-6.781983,2.028122,-0.000000,-1.000000,-0.000000
-3.461366,1.738173,-48.942722,-0.881921,0.471397,0.000000
1.189118,3.685537,-21.815508,0.290285,0.956940,-0.000000
-1.330790,3.642561,-35.537735,-0.290285,0.956940,0.000000
2.950078,2.508822,-19.470554,0.773010,0.634393,-0.000000
-3.460967,-1.738920,-19.341325,-0.881921,-0.471397,0.000000
-3.491113,-1.682521,-39.886860,-0.881921,-0.471397,0.000000
-2.083229,-3.276930,-40.016172,-0.471397,-0.881921,0.000000
2.491829,-2.964024,-29.314034,0.634393,-0.773010,0.000000
-1.019245,-2.283750,6.468741,-0.000000,0.000000,1.000000
3.705159,-6.113105,6.468741,-0.000000,0.000000,1.000000
6.970934,-1.489955,0.193094,0.866025,-0.500000,0.000000
3.837345,0.542298,-44.485032,0.995185,0.098017,0.000000
-2.216318,3.190131,-29.621701,-0.634393,0.773010,0.000000
-3.244468,-1.983572,0.000000,0.000000,0.000000,-1.000000
3.714285,-0.121053,-49.203381,0.000000,0.000000,-1.000000
7.308280,0.905653,2.778944,0.866025,0.500000,0.000000
-2.008331,4.595447,6.468741,0.000000,0.000000,1.000000
2.696162,-2.566398,6.468741,-0.000000,0.000000,1.000000
4.106002,-6.452162,6.440240,0.866025,-0.500000,0.000000
3.876974,-0.139933,-40.234960,0.995185,-0.098017,0.000000
-3.720475,2.288367,6.468741,0.000000,0.000000,1.000000
-0.035410,-3.887269,-48.880324,-0.098017,-0.995185,0.000000
3.845721,5.910442,6.468741,-0.000000,0.000000,1.000000
-0.244113,-3.158412,0.000000,0.000000,0.000000,-1.000000
-1.694609,3.484651,-38.962989,-0.471397,0.881921,0.000000
-4.341135,-6.044899,2.745258,-0.866025,-0.500000,0.000000
-2.196684,3.206244,-37.517993,-0.634393,0.773010,0.000000
0.194220,1.751035,-49.203381,-0.000000,0.000000,-1.000000
-0.390022,-6.781983,3.740423,-0.000000,-1.000000,-0.000000
-4.983399,-4.932465,1.439352,-0.866025,-0.500000,-0.000000
3.652593,-1.297717,-42.035547,0.956940,-0.290285,0.000000
-4.575334,-3.836190,6.468741,0.000000,0.000000,1.000000
-3.856299,-0.349849,-35.813498,-0.995185,-0.098017,0.000000
-1.624342,3.522210,-37.246837,-0.471397,0.881921,0.000000
-3.984396,6.662791,0.060116,-0.866025,0.500000,0.000000
4.981492,-4.935768,2.997974,0.866025,-0.500000,0.000000
-3.730155,-4.438177,6.468741,0.000000,0.000000,1.000000
-4.532453,5.713528,5.986202,-0.866025,0.500000,0.000000
-2.576050,2.894906,-48.194346,-0.634393,0.773010,0.000000
-0.696184,-0.354251,-18.557373,-0.000000,0.000000,1.000000
-5.258979,1.225028,6.468741,0.000000,0.000000,1.000000
-0.553454,5.790444,0.000000,0.000000,0.000000,-1.000000
0.646482,-3.827084,-22.590421,0.098017,-0.995185,0.000000
-1.158073,-3.694954,-48.866004,-0.290285,-0.956940,0.000000
0.256817,3.865462,-29.569532,0.098017,0.995185,-0.000000
-1.358166,-3.634257,-41.944009,-0.290285,-0.956940,0.000000
-2.479583,2.974074,-23.519107,-0.634393,0.773010,0.000000
-2.847492,-2.633824,-47.638002,-0.773010,-0.634393,0.000000
1.523910,3.575892,-27.890625,0.471397,0.881921,-0.000000
3.717192,-1.084765,-30.203223,0.956940,-0.290285,0.000000
2.227541,-3.180920,-29.169055,0.634393,-0.773010,0.000000
-3.841128,-0.503889,-46.811623,-0.995185,-0.098017,0.000000
-4.094763,4.546965,6.468741,0.000000,0.000000,1.000000
-4.186066,6.313487,3.565353,-0.866025,0.500000,0.000000
2.431276,3.013719,-33.337800,0.634393,0.773010,-0.000000
3.325931,1.991554,-30.442925,0.881921,0.471397,-0.000000
-6.232940,-2.768197,5.136017,-0.866025,-0.500000,0.000000
-7.693673,-0.238133,2.688220,-0.866025,-0.500000,-0.000000
-3.771719,-0.905011,-41.380597,-0.956940,-0.290285,0.000000
-3.607271,-6.418494,0.000000,0.000000,0.000000,-1.000000
2.477885,-1.583329,-49.203381,0.000000,0.000000,-1.000000
-0.067932,-3.111327,6.468741,-0.000000,0.000000,1.000000
1.102727,6.144797,6.468741,0.000000,0.000000,1.000000
7.552642,0.482407,1.020424,0.866025,0.500000,0.000000
-0.609437,-3.333428,-49.203381,0.000000,-0.000000,-1.000000
-1.554324,-3.559635,-39.449248,-0.471397,-0.881921,0.000000
-7.014245,1.414938,5.216347,-0.866025,0.500000,0.000000
0.700883,-3.821725,-33.652745,0.098017,-0.995185,0.000000
-1.571562,-2.026482,-49.203381,0.000000,-0.000000,-1.000000
3.518806,-1.630711,-36.438341,0.881921,-0.471397,0.000000
3.879990,-0.109314,-29.307115,0.995185,-0.098017,0.000000
-1.360638,-1.360224,-18.557373,-0.000000,0.000000,1.000000
-3.406455,-1.840903,-27.264887,-0.881921,-0.471397,0.000000
-0.162968,3.874705,-33.151706,-0.098017,0.995185,0.000000
-3.099190,-2.327130,-18.976083,-0.773010,-0.634393,0.000000
-1.405449,-5.950675,6.468741,-0.000000,0.000000,1.000000
-2.689931,-2.801446,-24.034559,-0.634393,-0.773010,0.000000
-0.788879,-3.729244,0.000000,0.000000,0.000000,-1.000000
3.843367,-0.481153,-18.618373,0.995185,-0.098017,0.000000
3.713087,-1.098298,-45.479654,0.956940,-0.290285,0.000000
1.717320,1.671158,-49.203381,-0.000000,0.000000,-1.000000
1.986969,-1.688707,-18.557373,0.000000,-0.000000,1.000000
-3.251951,-2.129961,-21.554020,-0.881921,-0.471397,0.000000
-3.049941,2.387139,-18.772217,-0.773010,0.634393,0.000000
-0.222423,6.781983,6.310028,-0.000000,1.000000,0.000000
0.162372,-3.874764,-19.895448,0.098017,-0.995185,0.000000
7.228028,-1.044655,2.800392,0.866025,-0.500000,0.000000
3.234661,2.162057,-44.384987,0.773010,0.634393,0.000000
-0.737438,-6.781983,2.257837,-0.000000,-1.000000,-0.000000
-2.541745,-2.923059,-30.810731,-0.634393,-0.773010,0.000000
3.694347,1.160075,-19.250778,0.956940,0.290285,-0.000000
5.424773,-3.010919,6.468741,0.000000,0.000000,1.000000
3.107224,-5.084819,0.000000,0.000000,0.000000,-1.000000
-4.248319,3.066883,6.468741,0.000000,0.000000,1.000000
2.870992,-2.605189,-22.944245,0.773010,-0.634393,0.000000
0.814943,-5.785811,6.468741,-0.000000,0.000000,1.000000
-3.866833,-0.242898,-45.215253,-0.995185,-0.098017,0.000000
3.884995,-0.058495,-45.870679,0.995185,-0.098017,0.000000
-2.860663,5.653655,0.000000,0.000000,0.000000,-1.000000
3.350433,-1.945713,-37.393529,0.881921,-0.471397,0.000000
-3.856411,0.348713,-47.060800,-0.995185,0.098017,0.000000
3.397211,1.858199,-40.453465,0.881921,0.471397,0.000000
-3.633201,-1.361647,-21.327911,-0.956940,-0.290285,0.000000
-0.992498,-3.745181,-43.180625,-0.290285,-0.956940,0.000000
1.728434,-3.466572,-36.683141,0.471397,-0.881921,0.000000
6.294731,-2.661173,6.083223,0.866025,-0.500000,0.000000
-3.859717,0.315153,-39.519063,-0.995185,0.098017,0.000000
-4.976018,-3.270196,0.000000,0.000000,0.000000,-1.000000
3.799010,0.815047,-24.982288,0.956940,0.290285,0.000000
-3.687921,-1.181259,-28.240680,-0.956940,-0.290285,0.000000
-1.450172,-2.510039,-18.557373,-0.000000,0.000000,1.000000
4.691133,4.670986,0.000000,0.000000,0.000000,-1.000000
-5.197506,-0.141100,6.468741,0.000000,0.000000,1.000000
1.476381,3.045079,-18.557373,0.000000,0.000000,1.000000
6.136916,2.885947,6.468741,0.000000,0.000000,1.000000
3.809029,-0.782018,-22.738129,0.956940,-0.290285,0.000000
4.144222,6.385964,1.807236,0.866025,0.500000,0.000000
3.142362,2.274524,-46.657210,0.773010,0.634393,0.000000
7.497778,0.577435,0.114392,0.866025,0.500000,0.000000
-5.816943,-3.488725,1.748367,-0.866025,-0.500000,-0.000000
2.695271,3.174120,6.468741,-0.000000,0.000000,1.000000
-3.607780,-1.445448,-26.155978,-0.956940,-0.290285,0.000000
3.845396,-0.460555,-24.301336,0.995185,-0.098017,0.000000
-4.869547,-0.589730,0.000000,0.000000,0.000000,-1.000000
3.475095,-1.712488,-44.259622,0.881921,-0.471397,0.000000
-3.124219,-2.296631,-24.359030,-0.773010,-0.634393,0.000000
-2.241231,3.062191,-49.203381,-0.000000,-0.000000,-1.000000
1.050843,-3.727482,-45.304417,0.290285,-0.956940,0.000000
5.514359,1.149354,0.000000,0.000000,0.000000,-1.000000
-2.323319,-3.102316,-34.129542,-0.634393,-0.773010,0.000000
3.433464,4.490865,0.000000,0.000000,0.000000,-1.000000
2.758915,2.741756,-21.287326,0.773010,0.634393,-0.000000
-2.624579,6.163879,0.000000,0.000000,0.000000,-1.000000
1.324054,3.644604,-39.927543,0.290285,0.956940,0.000000
1.939087,-3.353975,-26.695178,0.471397,-0.881921,0.000000
-3.481681,-3.428474,0.000000,0.000000,0.000000,-1.000000
-3.859634,-0.315996,-43.914779,-0.995185,-0.098017,0.000000
0.342132,3.596825,6.468741,0.000000,0.000000,1.000000
3.645800,1.320113,-32.647729,0.956940,0.290285,-0.000000
-0.616954,-3.495576,6.468741,-0.000000,0.000000,1.000000
-6.206737,2.813582,3.907268,-0.866025,0.500000,0.000000
-3.492426,-1.680064,-26.777276,-0.881921,-0.471397,0.000000
-1.926819,-3.360533,-34.537836,-0.471397,-0.881921,0.000000
-5.835324,-3.456890,0.541357,-0.866025,-0.500000,-0.000000
0.283764,3.862808,-30.107870,0.098017,0.995185,-0.000000
-6.879481,1.648355,3.211424,-0.866025,0.500000,0.000000
-1.793109,3.432002,-43.944561,-0.471397,0.881921,0.000000
-3.472376,6.781983,1.774841,-0.000000,1.000000,0.000000
0.154069,-3.875582,-46.146465,0.098017,-0.995185,0.000000
3.792908,6.781983,0.724875,-0.000000,1.000000,0.000000
-3.611679,-0.433484,-18.557373,-0.000000,0.000000,1.000000
5.968128,3.226866,2.066997,0.866025,0.500000,0.000000
3.825533,0.662226,-22.324342,0.995185,0.098017,-0.000000
-1.101644,1.900807,-49.203381,-0.000000,-0.000000,-1.000000
5.738221,3.625076,5.919661,0.866025,0.500000,0.000000
-3.501281,0.475477,-49.203381,-0.000000,-0.000000,-1.000000
-7.739312,-0.159085,4.577297,-0.866025,-0.500000,-0.000000
-3.010877,-2.434738,-38.531445,-0.773010,-0.634393,0.000000
3.303583,-6.781983,3.145344,-0.000000,-1.000000,-0.000000
1.731862,6.781983,2.462390,-0.000000,1.000000,0.000000
5.076264,2.523230,0.000000,0.000000,0.000000,-1.000000
-0.911402,5.699058,6.468741,0.000000,0.000000,1.000000
-3.805631,-0.793221,-47.674372,-0.956940,-0.290285,0.000000
5.126169,-4.281931,0.000000,0.000000,0.000000,-1.000000
-0.341068,-3.857164,-29.432521,-0.098017,-0.995185,0.000000
2.610444,-2.866679,-39.389370,0.634393,-0.773010,0.000000
3.877818,-0.131367,-33.992832,0.995185,-0.098017,0.000000
0.445123,-6.362943,6.468741,-0.000000,0.000000,1.000000
-4.650190,5.509601,3.528128,-0.866025,0.500000,0.000000
-3.819751,-0.720931,-19.960515,-0.995185,-0.098017,0.000000
-1.016255,3.737974,-29.204483,-0.290285,0.956940,0.000000
-2.370316,3.063747,-45.954871,-0.634393,0.773010,0.000000
3.781232,-0.873653,-39.897195,0.956940,-0.290285,0.000000
-2.718996,-0.005213,6.468741,0.000000,0.000000,1.000000
0.180977,4.002112,0.000000,0.000000,0.000000,-1.000000
-3.705717,-1.122591,-34.842301,-0.956940,-0.290285,0.000000
1.975845,3.334328,-21.939456,0.471397,0.881921,-0.000000
-5.410039,-2.921982,0.000000,0.000000,0.000000,-1.000000
1.165015,-3.692848,-20.637619,0.290285,-0.956940,0.000000
-2.485748,2.969014,-34.143709,-0.634393,0.773010,0.000000
2.759917,2.740535,-37.076419,0.773010,0.634393,-0.000000
-0.421217,0.337963,-49.203381,-0.000000,-0.000000,-1.000000
3.154090,2.260233,-19.400823,0.773010,0.634393,-0.000000
-5.292226,-4.397563,6.440825,-0.866025,-0.500000,0.000000
1.491180,2.512052,0.000000,0.000000,0.000000,-1.000000
3.268998,-2.098068,-31.534683,0.881921,-0.471397,0.000000
3.857830,-0.334305,-49.032633,0.995185,-0.098017,0.000000
-1.373657,3.629557,-44.018371,-0.290285,0.956940,0.000000
1.341463,-3.639323,-32.812072,0.290285,-0.956940,0.000000
3.798656,-0.816213,-22.208773,0.956940,-0.290285,0.000000
-5.735952,-3.629006,6.104132,-0.866025,-0.500000,0.000000
-2.401963,3.037776,-44.806495,-0.634393,0.773010,0.000000
-0.976422,1.208615,6.468741,0.000000,0.000000,1.000000
3.873012,0.180164,-26.347034,0.995185,0.098017,0.000000
0.239597,-2.780640,0.000000,0.000000,0.000000,-1.000000
1.928898,-3.359421,-46.921290,0.471397,-0.881921,0.000000
-7.448333,0.663076,2.755158,-0.866025,0.500000,0.000000
2.324251,-6.781983,6.299229,-0.000000,-1.000000,-0.000000
-4.887239,-5.099020,4.729343,-0.866025,-0.500000,0.000000
-1.748724,3.455726,-20.000594,-0.471397,0.881921,0.000000
0.905962,3.771431,-44.354784,0.290285,0.956940,0.000000
-1.109265,3.561991,-18.557373,0.000000,0.000000,1.000000
0.054567,4.183576,6.468741,0.000000,0.000000,1.000000
-0.787723,3.807299,-35.560554,-0.290285,0.956940,0.000000
-2.137020,-3.248178,-38.259460,-0.471397,-0.881921,0.000000
4.049030,-6.550841,1.921527,0.866025,-0.500000,0.000000
-0.743171,3.817560,-39.079271,-0.098017,0.995185,0.000000
-1.429069,3.612748,-38.104233,-0.290285,0.956940,0.000000
-0.763578,-3.814623,-34.277216,-0.290285,-0.956940,0.000000
1.775729,-6.781983,6.061644,-0.000000,-1.000000,-0.000000
6.871794,1.661670,2.130245,0.866025,0.500000,0.000000
-3.587941,1.501368,-26.035221,-0.881921,0.471397,0.000000
3.213494,-2.187849,-30.982598,0.773010,-0.634393,0.000000
1.649575,-3.508723,-28.097276,0.471397,-0.881921,0.000000
-3.141267,2.275857,-33.033252,-0.773010,0.634393,0.000000
2.277256,-3.959068,0.000000,0.000000,0.000000,-1.000000
-6.500070,-2.305515,2.589405,-0.866025,-0.500000,-0.000000
-3.890359,-0.004032,-33.118164,-0.995185,-0.098017,0.000000
-0.310259,3.860199,-21.006174,-0.098017,0.995185,0.000000
5.158449,4.629271,2.745936,0.866025,0.500000,0.000000
-6.057604,-3.071888,1.335821,-0.866025,-0.500000,-0.000000
-2.504626,2.953522,-46.690690,-0.634393,0.773010,0.000000
-0.886018,-2.778486,0.000000,0.000000,0.000000,-1.000000
1.047445,-0.801870,-18.557373,0.000000,-0.000000,1.000000
-1.734523,3.463317,-22.141289,-0.471397,0.881921,0.000000
0.659672,3.825784,-22.985865,0.098017,0.995185,0.000000
-0.914001,-3.162771,0.000000,0.000000,0.000000,-1.000000
6.178089,1.866507,6.468741,0.000000,0.000000,1.000000
5.328083,-4.335457,5.297905,0.866025,-0.500000,0.000000
3.280188,-2.077134,-34.365418,0.881921,-0.471397,0.000000
3.866589,-0.245378,-32.346064,0.995185,-0.098017,0.000000
1.408032,3.619130,-48.058529,0.290285,0.956940,0.000000
3.212164,2.189470,-31.585269,0.773010,0.634393,0.000000
-3.764579,0.928550,-35.346588,-0.956940,0.290285,0.000000
-0.780416,6.781983,1.856903,-0.000000,1.000000,0.000000
6.122012,2.960331,0.866754,0.866025,0.500000,0.000000
0.165027,3.874503,-47.852564,0.098017,0.995185,0.000000
2.534550,-0.112123,6.468741,-0.000000,0.000000,1.000000
-2.704425,-2.789551,-33.940019,-0.634393,-0.773010,0.000000
4.979427,-4.159470,0.000000,0.000000,0.000000,-1.000000
2.116729,3.259023,-18.565537,0.471397,0.881921,-0.000000
-3.803615,-3.328162,6.468741,0.000000,0.000000,1.000000
7.074918,1.309849,3.053571,0.866025,0.500000,0.000000
-3.686532,2.806722,0.000000,0.000000,0.000000,-1.000000
-7.809252,-0.037946,2.178586,-0.866025,-0.500000,-0.000000
-6.259511,0.627365,0.000000,0.000000,0.000000,-1.000000
3.928363,-6.177276,0.000000,0.000000,0.000000,-1.000000
-3.790475,-0.843183,-30.651121,-0.956940,-0.290285,0.000000
-2.117620,3.258547,-37.719537,-0.471397,0.881921,0.000000
-1.912132,-3.368383,-20.820138,-0.471397,-0.881921,0.000000
2.465342,4.615869,0.000000,0.000000,0.000000,-1.000000
-7.032379,-0.917162,6.468741,0.000000,0.000000,1.000000
0.273633,3.574620,0.000000,0.000000,0.000000,-1.000000
6.172853,-2.872271,5.062096,0.866025,-0.500000,0.000000
-1.542249,5.059656,0.000000,0.000000,0.000000,-1.000000
5.019807,4.869407,5.937427,0.866025,0.500000,0.000000
6.001777,-3.168584,3.397925,0.866025,-0.500000,0.000000
2.933541,-2.719377,6.468741,-0.000000,0.000000,1.000000
0.432167,-3.848192,-31.785578,0.098017,-0.995185,0.000000
-3.316782,2.008670,-31.899345,-0.881921,0.471397,0.000000
-7.105945,1.256108,4.242246,-0.866025,0.500000,0.000000
-3.874300,-0.167089,-44.731842,-0.995185,-0.098017,0.000000
-3.410412,-1.833501,-46.411605,-0.881921,-0.471397,0.000000
-6.791173,1.801310,2.702709,-0.866025,0.500000,0.000000
-1.511068,3.582756,-41.453488,-0.471397,0.881921,0.000000
3.772133,0.903647,-28.506531,0.956940,0.290285,0.000000
3.999559,-6.636527,4.281415,0.866025,-0.500000,0.000000
2.756451,-6.781983,5.661695,-0.000000,-1.000000,-0.000000
-6.967113,-1.496573,1.262486,-0.866025,-0.500000,-0.000000
-3.826839,-0.648968,-40.704331,-0.995185,-0.098017,0.000000
4.615384,5.569887,4.401061,0.866025,0.500000,0.000000
-0.543732,2.192730,6.468741,0.000000,0.000000,1.000000
-3.842669,-0.488235,-45.630909,-0.995185,-0.098017,0.000000
-1.771674,0.650381,6.468741,0.000000,0.000000,1.000000
2.115730,-6.781983,6.347610,-0.000000,-1.000000,-0.000000
4.895149,4.864097,0.000000,0.000000,0.000000,-1.000000
-1.170034,-6.732581,0.000000,0.000000,0.000000,-1.000000
-3.058674,5.273050,6.468741,0.000000,0.000000,1.000000
2.908433,-2.559567,-38.284322,0.773010,-0.634393,0.000000
-3.840485,0.510413,-42.936335,-0.995185,0.098017,0.000000
-3.366365,-6.781983,1.174970,-0.000000,-1.000000,-0.000000
3.848093,-0.433171,-26.642917,0.995185,-0.098017,0.000000
7.480763,0.606904,5.928231,0.866025,0.500000,0.000000
-2.809021,2.680700,-35.672863,-0.773010,0.634393,0.000000
-5.356826,4.285672,5.820941,-0.866025,0.500000,0.000000
2.198369,3.204861,-46.499296,0.634393,0.773010,-0.000000
0.119260,3.879010,-35.788197,0.098017,0.995185,-0.000000
-1.088598,-3.716029,-40.878624,-0.290285,-0.956940,0.000000
-3.516532,-1.634964,-27.437634,-0.881921,-0.471397,0.000000
-3.504756,-1.656995,-29.500588,-0.881921,-0.471397,0.000000
4.575433,1.941940,0.000000,0.000000,0.000000,-1.000000
5.422626,4.171702,2.148779,0.866025,0.500000,0.000000
-2.870397,-0.889174,6.468741,0.000000,0.000000,1.000000
-3.515765,1.636399,-30.197862,-0.881921,0.471397,0.000000
-3.874330,-0.166784,-40.918229,-0.995185,-0.098017,0.000000
-2.740580,2.759880,-18.829366,-0.634393,0.773010,0.000000
-6.571016,0.262779,6.468741,0.000000,0.000000,1.000000
-3.804301,0.797606,-20.032123,-0.956940,0.290285,0.000000
1.539084,3.567781,-21.211981,0.471397,0.881921,-0.000000
-3.018864,-3.603377,6.468741,0.000000,0.000000,1.000000
-5.564691,3.925639,4.836210,-0.866025,0.500000,0.000000
-3.119547,2.302324,-29.490697,-0.773010,0.634393,0.000000
3.860976,0.302363,-26.293014,0.995185,0.098017,-0.000000
-2.169924,-3.228205,-47.888792,-0.634393,-0.773010,0.000000
4.631720,5.541592,2.891684,0.866025,0.500000,0.000000
3.714669,-1.093081,-28.594667,0.956940,-0.290285,0.000000
3.821660,-0.701545,-28.044573,0.995185,-0.098017,0.000000
-2.578526,2.892874,-18.755381,-0.634393,0.773010,0.000000
0.589656,-3.832680,-27.164118,0.098017,-0.995185,0.000000
3.846260,-0.451777,-45.201603,0.995185,-0.098017,0.000000
-3.602629,1.462428,-25.035099,-0.956940,0.290285,0.000000
-5.094411,-3.865553,6.468741,0.000000,0.000000,1.000000
-0.441268,-6.669898,6.468741,-0.000000,0.000000,1.000000
3.336892,1.975957,6.468741,-0.000000,0.000000,1.000000
-4.477873,-5.808064,1.095535,-0.866025,-0.500000,0.000000
2.237649,6.781983,4.202325,-0.000000,1.000000,0.000000
3.713806,-1.095925,-45.154708,0.956940,-0.290285,0.000000
2.978023,-2.474772,-33.536216,0.773010,-0.634393,0.000000
-3.651052,1.302798,-47.727061,-0.956940,0.290285,0.000000
-3.739441,1.011420,-36.147206,-0.956940,0.290285,0.000000
-3.253567,2.126938,-19.485803,-0.881921,0.471397,0.000000
-3.739256,-1.012028,-31.316728,-0.956940,-0.290285,0.000000
-3.726262,1.054865,-36.741897,-0.956940,0.290285,0.000000
1.971187,0.243848,-18.557373,0.000000,0.000000,1.000000
-1.544036,0.721297,6.468741,0.000000,0.000000,1.000000
-1.520916,3.577492,-36.267742,-0.471397,0.881921,0.000000
-3.279336,2.069396,0.000000,0.000000,0.000000,-1.000000
-1.499913,-3.286467,-49.203381,0.000000,-0.000000,-1.000000
1.912348,3.368268,-20.130736,0.471397,0.881921,-0.000000
-0.390606,-0.568918,-49.203381,0.000000,-0.000000,-1.000000
-2.603500,2.872378,-31.155124,-0.634393,0.773010,0.000000
3.436588,1.784529,-39.354095,0.881921,0.471397,0.000000
0.372351,-6.781983,2.005237,-0.000000,-1.000000,-0.000000
-0.876065,1.584195,0.000000,0.000000,0.000000,-1.000000
-3.660603,-1.271314,-31.090865,-0.956940,-0.290285,0.000000
-0.221499,-3.868941,-23.357860,-0.098017,-0.995185,0.000000
2.372010,-5.617732,0.000000,0.000000,0.000000,-1.000000
-3.159378,-2.253790,-27.169619,-0.773010,-0.634393,0.000000
3.051392,-0.152873,6.468741,-0.000000,0.000000,1.000000
3.824278,6.781983,5.974504,-0.000000,1.000000,0.000000
-0.804226,-4.515173,6.468741,-0.000000,0.000000,1.000000
3.752118,-0.969627,-29.855233,0.956940,-0.290285,0.000000
-2.616927,-6.781983,3.684823,-0.000000,-1.000000,-0.000000
-0.474686,-2.103059,-18.557373,-0.000000,0.000000,1.000000
1.100691,0.375922,-18.557373,0.000000,0.000000,1.000000
0.112810,3.879646,-20.701010,0.098017,0.995185,-0.000000
2.613037,-2.864551,-39.883419,0.634393,-0.773010,0.000000
3.839597,-0.519425,-29.867060,0.995185,-0.098017,0.000000
3.246931,-2.139353,-36.038690,0.881921,-0.471397,0.000000
-5.649030,3.779560,2.809557,-0.866025,0.500000,0.000000
7.736196,0.164483,2.581797,0.866025,0.500000,0.000000
3.706836,-0.550286,-49.203381,0.000000,0.000000,-1.000000
3.558437,-1.556566,-47.484721,0.881921,-0.471397,0.000000
4.640530,-5.526333,4.131530,0.866025,-0.500000,0.000000
2.622971,1.773350,0.000000,0.000000,0.000000,-1.000000
-3.689417,1.176325,-38.414868,-0.956940,0.290285,0.000000
-4.858424,5.147277,0.000000,0.000000,0.000000,-1.000000
-0.738229,-3.818047,-41.957482,-0.098017,-0.995185,0.000000
2.142858,6.781983,5.082803,-0.000000,1.000000,0.000000
-3.849603,-0.417833,-42.386787,-0.995185,-0.098017,0.000000
-3.217397,4.812317,6.468741,0.000000,0.000000,1.000000
-7.793671,-0.064933,4.665886,-0.866025,-0.500000,-0.000000
-6.922004,1.574704,3.137302,-0.866025,0.500000,0.000000
1.506567,2.609308,0.000000,0.000000,0.000000,-1.000000
2.691896,2.256893,-18.557373,0.000000,0.000000,1.000000
3.650230,-1.305509,-35.409800,0.956940,-0.290285,0.000000
3.564290,1.545616,-19.331507,0.881921,0.471397,-0.000000
-4.402174,5.939177,1.345580,-0.866025,0.500000,0.000000
-0.138118,-3.877153,-20.699643,-0.098017,-0.995185,0.000000
-1.776221,3.441029,-37.490606,-0.471397,0.881921,0.000000
5.960570,3.239957,1.617327,0.866025,0.500000,0.000000
0.259084,-3.865239,-31.416616,0.098017,-0.995185,0.000000
1.522915,3.576424,-40.975528,0.471397,0.881921,-0.000000
-0.944042,4.408450,6.468741,0.000000,0.000000,1.000000
6.692221,-1.972700,4.028755,0.866025,-0.500000,0.000000
4.639352,5.528374,5.134168,0.866025,0.500000,0.000000
-0.340275,-3.857242,-23.755821,-0.098017,-0.995185,0.000000
-5.999776,-3.172050,5.489072,-0.866025,-0.500000,0.000000
-4.271689,-6.165184,0.277147,-0.866025,-0.500000,-0.000000
3.135179,-2.210340,-49.203381,0.000000,0.000000,-1.000000
3.844737,0.467246,-41.941819,0.995185,0.098017,0.000000
-4.655666,4.841421,0.000000,0.000000,0.000000,-1.000000
-5.914478,-3.319790,1.138186,-0.866025,-0.500000,-0.000000
0.594995,3.832155,-46.108063,0.098017,0.995185,0.000000
-2.678703,2.951803,0.000000,0.000000,0.000000,-1.000000
2.227102,3.181280,-44.921157,0.634393,0.773010,-0.000000
6.539559,-2.237118,2.533799,0.866025,-0.500000,0.000000
-1.077908,6.781983,3.410313,-0.000000,1.000000,0.000000
0.815505,-1.490605,-49.203381,0.000000,0.000000,-1.000000
1.169671,-0.748322,-18.557373,0.000000,-0.000000,1.000000
-3.532896,1.604349,-39.518037,-0.881921,0.471397,0.000000
-3.512949,1.641668,-47.208978,-0.881921,0.471397,0.000000
-3.654702,-1.290767,-20.022866,-0.956940,-0.290285,0.000000
2.148509,-3.242037,-48.860266,0.471397,-0.881921,0.000000
-3.430916,-1.795140,-39.886490,-0.881921,-0.471397,0.000000
-1.881231,2.715613,6.468741,0.000000,0.000000,1.000000
2.646719,2.836909,-23.210130,0.634393,0.773010,-0.000000
1.217824,-3.676829,-41.979697,0.290285,-0.956940,0.000000
3.867638,-0.234724,-32.686253,0.995185,-0.098017,0.000000
-1.616118,-3.526606,-25.081895,-0.471397,-0.881921,0.000000
-1.292754,4.003777,6.468741,0.000000,0.000000,1.000000
-2.732208,3.980281,0.000000,0.000000,0.000000,-1.000000
-3.822677,0.691222,-45.755698,-0.995185,0.098017,0.000000
-3.889605,0.011686,-43.200226,-0.995185,0.098017,0.000000
-1.760031,-3.449683,-48.314008,-0.471397,-0.881921,0.000000
-3.473786,1.714937,-20.637303,-0.881921,0.471397,0.000000
3.271836,-2.092758,-35.141397,0.881921,-0.471397,0.000000
3.884331,-0.065233,-42.685501,0.995185,-0.098017,0.000000
-1.802611,-3.426923,-46.197358,-0.471397,-0.881921,0.000000
3.178811,-2.230111,-26.020955,0.773010,-0.634393,0.000000
-3.556587,1.560027,-35.298414,-0.881921,0.471397,0.000000
3.145609,-2.270567,-21.525368,0.773010,-0.634393,0.000000
1.569617,3.551461,-37.993165,0.471397,0.881921,-0.000000
-0.092340,5.178534,0.000000,0.000000,0.000000,-1.000000
0.708929,-3.794223,-18.557373,0.000000,-0.000000,1.000000
-2.852142,-2.628158,-41.345222,-0.773010,-0.634393,0.000000
-2.244696,3.166841,-25.366913,-0.634393,0.773010,0.000000
-2.341193,2.170432,6.468741,0.000000,0.000000,1.000000
2.233142,6.781983,4.101936,-0.000000,1.000000,0.000000
-3.322575,-1.997832,-47.073980,-0.881921,-0.471397,0.000000
-3.508854,-1.649328,-37.444953,-0.881921,-0.471397,0.000000
-1.215223,2.402839,0.000000,0.000000,0.000000,-1.000000
3.857169,0.341014,-45.769850,0.995185,0.098017,0.000000
3.504248,6.781983,1.396068,-0.000000,1.000000,0.000000
-3.270972,1.939115,0.000000,0.000000,0.000000,-1.000000
-6.132103,-2.942853,6.143658,-0.866025,-0.500000,0.000000
1.916763,-3.365907,-19.146116,0.471397,-0.881921,0.000000
-5.004127,-4.896563,3.703064,-0.866025,-0.500000,0.000000
-5.047540,-1.342477,6.468741,0.000000,0.000000,1.000000
3.154163,2.260144,-44.097207,0.773010,0.634393,0.000000
-2.599664,6.781983,3.684046,-0.000000,1.000000,0.000000
-0.485973,-2.687774,-49.203381,0.000000,-0.000000,-1.000000
3.806330,-0.790914,-26.555281,0.956940,-0.290285,0.000000
0.096713,-6.781983,3.573876,-0.000000,-1.000000,-0.000000
3.519722,-1.628997,-39.880209,0.881921,-0.471397,0.000000
3.097006,2.445691,0.000000,0.000000,0.000000,-1.000000
-0.441813,-2.047626,-18.557373,-0.000000,0.000000,1.000000
4.930378,5.024301,4.026300,0.866025,0.500000,0.000000
5.396854,4.216341,0.190094,0.866025,0.500000,0.000000
-3.592272,1.493264,-31.186199,-0.881921,0.471397,0.000000
-3.670550,-1.715159,0.000000,0.000000,0.000000,-1.000000
-3.871152,0.199046,-41.158909,-0.995185,0.098017,0.000000
1.717881,-4.581965,6.468741,-0.000000,0.000000,1.000000
-7.173343,1.139371,2.999557,-0.866025,0.500000,0.000000
-6.077328,-3.037725,6.237921,-0.866025,-0.500000,0.000000
-6.828296,1.737011,2.234525,-0.866025,0.500000,0.000000
1.818367,-3.418502,-19.860567,0.471397,-0.881921,0.000000
3.876335,0.545874,0.000000,0.000000,0.000000,-1.000000
5.562028,3.930251,5.347607,0.866025,0.500000,0.000000
1.338645,0.821049,-49.203381,-0.000000,0.000000,-1.000000
1.275243,6.781983,4.252100,-0.000000,1.000000,0.000000
-3.606418,1.449937,-38.102266,-0.956940,0.290285,0.000000
-3.307402,-2.026220,-20.088351,-0.881921,-0.471397,0.000000
2.862719,-2.615270,-25.943133,0.773010,-0.634393,0.000000
3.727882,-1.049523,-25.641783,0.956940,-0.290285,0.000000
3.198833,6.781983,0.630833,-0.000000,1.000000,0.000000
-0.255159,6.781983,4.159340,-0.000000,1.000000,0.000000
0.080608,6.781983,4.534879,-0.000000,1.000000,0.000000
-6.028955,2.382785,0.000000,0.000000,0.000000,-1.000000
0.435050,6.781983,5.434751,-0.000000,1.000000,0.000000
3.876768,0.142027,-35.288435,0.995185,0.098017,0.000000
-1.092107,4.781926,6.468741,0.000000,0.000000,1.000000
2.796131,-0.865694,0.000000,0.000000,0.000000,-1.000000
1.025524,3.735162,-21.317240,0.290285,0.956940,-0.000000
3.630567,-1.295502,0.000000,0.000000,0.000000,-1.000000
-3.745294,-0.992125,-47.542275,-0.956940,-0.290285,0.000000
0.801666,-6.781983,0.816215,-0.000000,-1.000000,-0.000000
-1.252027,-6.781983,5.245552,-0.000000,-1.000000,-0.000000
3.559955,-1.553726,-43.073195,0.881921,-0.471397,0.000000
-3.645687,-1.320484,-35.958789,-0.956940,-0.290285,0.000000
6.419941,0.359368,0.000000,0.000000,0.000000,-1.000000
3.210183,-2.191884,-44.259614,0.773010,-0.634393,0.000000
-3.631751,1.366427,-47.207585,-0.956940,0.290285,0.000000
6.525698,-2.261126,6.153991,0.866025,-0.500000,0.000000
-3.450820,-1.757904,-25.070303,-0.881921,-0.471397,0.000000
-2.948054,-2.511289,-19.209018,-0.773010,-0.634393,0.000000
2.136306,3.248559,-33.864445,0.471397,0.881921,0.000000
-1.552660,-1.505591,6.468741,0.000000,0.000000,1.000000
-4.244626,2.330346,0.000000,0.000000,0.000000,-1.000000
1.020557,-3.736669,-25.067117,0.290285,-0.956940,0.000000
-2.820954,-2.666160,-23.897178,-0.773010,-0.634393,0.000000
2.013909,-0.947629,-18.557373,0.000000,-0.000000,1.000000
3.771047,-0.907227,-19.784077,0.956940,-0.290285,0.000000
1.369464,3.630829,-41.385251,0.290285,0.956940,0.000000
-3.610553,1.436305,-48.265636,-0.956940,0.290285,0.000000
1.728309,-3.466638,-42.491827,0.471397,-0.881921,0.000000
0.397871,-6.781983,2.423115,-0.000000,-1.000000,-0.000000
-2.401695,6.058480,6.468741,0.000000,0.000000,1.000000
-7.797442,-0.058401,3.658011,-0.866025,-0.500000,-0.000000
-3.378527,1.893154,-26.857254,-0.881921,0.471397,0.000000
3.556263,-1.560633,-45.922468,0.881921,-0.471397,0.000000
5.355024,4.288793,4.150558,0.866025,0.500000,0.000000
3.816936,0.749513,-46.335169,0.995185,0.098017,-0.000000
-0.954608,-3.756675,-34.662587,-0.290285,-0.956940,0.000000
-3.136175,-2.282062,-42.665879,-0.773010,-0.634393,0.000000
1.210348,3.679097,-41.879447,0.290285,0.956940,0.000000
1.148098,3.697980,-20.764667,0.290285,0.956940,-0.000000
3.752752,0.967539,-26.595822,0.956940,0.290285,-0.000000
-2.020812,5.380573,0.000000,0.000000,0.000000,-1.000000
-1.446142,-3.607569,-19.049149,-0.290285,-0.956940,0.000000
1.551240,3.561284,-48.887953,0.471397,0.881921,0.000000
4.043046,-5.113881,6.468741,0.000000,0.000000,1.000000
-2.511124,2.948189,-28.273413,-0.634393,0.773010,0.000000
2.074749,6.397762,6.468741,0.000000,0.000000,1.000000
3.843861,0.476138,-36.828476,0.995185,0.098017,-0.000000
7.187466,-1.114910,4.864966,0.866025,-0.500000,0.000000
3.757149,0.953042,-38.466443,0.956940,0.290285,0.000000
-1.728691,-3.466434,-22.415077,-0.471397,-0.881921,0.000000
4.783791,-1.092909,6.468741,0.000000,0.000000,1.000000
-3.862846,0.283374,-25.567403,-0.995185,0.098017,0.000000
-2.776934,-2.719799,-45.262175,-0.773010,-0.634393,0.000000
3.830967,-0.607048,-35.072683,0.995185,-0.098017,0.000000
2.372747,-3.061752,-26.717029,0.634393,-0.773010,0.000000
7.768937,0.107773,0.691153,0.866025,0.500000,0.000000
2.112558,0.476435,-49.203381,-0.000000,0.000000,-1.000000
5.240491,4.487170,6.029253,0.866025,0.500000,0.000000
-2.610062,2.866993,-44.441250,-0.634393,0.773010,0.000000
-3.886717,-0.041016,-20.058896,-0.995185,-0.098017,0.000000
-0.054469,1.756021,-18.557373,0.000000,0.000000,1.000000
2.956795,0.562662,6.468741,-0.000000,0.000000,1.000000
-2.192789,-3.209440,-19.116165,-0.634393,-0.773010,0.000000
6.843861,-1.710052,0.548203,0.866025,-0.500000,0.000000
3.883942,0.069188,-40.618395,0.995185,0.098017,0.000000
2.831268,2.331781,-18.557373,0.000000,0.000000,1.000000
3.332123,-2.278983,0.000000,0.000000,0.000000,-1.000000
1.025191,3.735263,-26.839261,0.290285,0.956940,-0.000000
-7.116503,1.237822,0.867356,-0.866025,0.500000,0.000000
6.988088,-1.460243,2.723320,0.866025,-0.500000,0.000000
2.802936,2.688115,-19.398323,0.773010,0.634393,-0.000000
2.672267,2.815943,-46.401713,0.634393,0.773010,0.000000
3.816760,0.751294,-41.815428,0.995185,0.098017,-0.000000
1.489736,3.505549,6.468741,0.000000,0.000000,1.000000
-1.099620,1.526251,-18.557373,0.000000,0.000000,1.000000
-2.260875,3.153563,-25.593814,-0.634393,0.773010,0.000000
-0.213216,-6.781983,4.906538,-0.000000,-1.000000,-0.000000
3.779806,0.878354,-32.177678,0.956940,0.290285,0.000000
-3.749801,0.977266,-26.254176,-0.956940,0.290285,0.000000
-6.178946,-2.861718,4.342002,-0.866025,-0.500000,0.000000
5.175584,4.599592,0.328242,0.866025,0.500000,0.000000
4.136559,-5.792185,0.000000,0.000000,0.000000,-1.000000
0.639165,3.827804,-28.635049,0.098017,0.995185,0.000000
0.323467,-3.858898,-31.349274,0.098017,-0.995185,0.000000
0.256811,-3.094797,0.000000,0.000000,0.000000,-1.000000
-3.374220,-6.773986,6.468741,-0.000000,0.000000,1.000000
0.586867,-3.832955,-19.364596,0.098017,-0.995185,0.000000
3.716062,-1.088490,-25.498167,0.956940,-0.290285,0.000000
3.552433,1.567799,-47.975540,0.881921,0.471397,0.000000
2.469631,-2.982242,-22.869601,0.634393,-0.773010,0.000000
2.645977,-2.837518,-30.048448,0.634393,-0.773010,0.000000
-1.438202,-3.609978,-26.449562,-0.290285,-0.956940,0.000000
7.097288,-1.271104,4.119557,0.866025,-0.500000,0.000000
-2.912911,-2.554111,-36.906763,-0.773010,-0.634393,0.000000
2.060387,3.289139,-36.611225,0.471397,0.881921,0.000000
2.753634,-4.322800,0.000000,0.000000,0.000000,-1.000000
-1.219645,-3.676276,-37.706253,-0.290285,-0.956940,0.000000
0.490530,3.842443,-43.633155,0.098017,0.995185,0.000000
2.071211,1.343004,-49.203381,-0.000000,0.000000,-1.000000
3.718852,1.079290,-37.240868,0.956940,0.290285,0.000000
-2.710121,-3.109747,6.468741,0.000000,0.000000,1.000000
1.641627,-3.512971,-40.407689,0.471397,-0.881921,0.000000
-1.378680,1.804840,6.468741,0.000000,0.000000,1.000000
1.293967,-3.653731,-18.982906,0.290285,-0.956940,0.000000
-3.740792,-1.006965,-45.825912,-0.956940,-0.290285,0.000000
2.274384,-3.142476,-42.719033,0.634393,-0.773010,0.000000
3.681790,6.781983,1.143056,-0.000000,1.000000,0.000000
-2.591678,-5.271287,6.468741,-0.000000,0.000000,1.000000
-3.022976,-6.781983,2.095519,-0.000000,-1.000000,-0.000000
1.844839,3.404352,-20.850094,0.471397,0.881921,-0.000000
-3.846605,0.448277,-44.217803,-0.995185,0.098017,0.000000
-3.001729,6.781983,2.299900,-0.000000,1.000000,0.000000
0.143567,3.876616,-45.781952,0.098017,0.995185,0.000000
-5.410219,4.193191,1.186358,-0.866025,0.500000,0.000000
-1.459881,-3.603402,-31.400213,-0.290285,-0.956940,0.000000
5.562127,-3.930080,1.113939,0.866025,-0.500000,0.000000
1.739505,3.460654,-35.245156,0.471397,0.881921,-0.000000
2.192461,3.209709,-43.453529,0.634393,0.773010,-0.000000
-3.037723,-6.781983,1.665988,-0.000000,-1.000000,-0.000000
3.388914,1.873721,-21.990509,0.881921,0.471397,-0.000000
-3.843496,0.479846,-23.588177,-0.995185,0.098017,0.000000
-6.272108,-2.700356,0.746792,-0.866025,-0.500000,-0.000000
1.957014,-3.344393,-24.215401,0.471397,-0.881921,0.000000
2.837385,1.492807,6.468741,-0.000000,0.000000,1.000000
-0.162167,3.874784,-21.966220,-0.098017,0.995185,0.000000
-0.967768,3.752683,-46.406039,-0.290285,0.956940,0.000000
3.172203,2.238163,-49.144097,0.773010,0.634393,0.000000
2.695767,-2.796657,-27.834659,0.634393,-0.773010,0.000000
-0.436608,1.258459,-49.203381,-0.000000,-0.000000,-1.000000
-1.622389,-3.523254,-48.479484,-0.471397,-0.881921,0.000000
-7.006039,-0.495052,0.000000,0.000000,0.000000,-1.000000
-2.190128,3.211624,-40.199527,-0.634393,0.773010,0.000000
5.766529,-3.576046,0.048181,0.866025,-0.500000,0.000000
-6.320131,-2.617178,2.424982,-0.866025,-0.500000,-0.000000
-3.229644,-2.168170,-32.160156,-0.773010,-0.634393,0.000000
0.970374,-3.751892,-36.326164,0.290285,-0.956940,0.000000
3.614137,1.424491,-27.658118,0.956940,0.290285,-0.000000
3.274687,3.389648,6.468741,-0.000000,0.000000,1.000000
3.341938,0.051761,-18.557373,0.000000,0.000000,1.000000
-4.284773,6.142522,5.783389,-0.866025,0.500000,0.000000
-3.109574,2.314477,-35.560955,-0.773010,0.634393,0.000000
-5.271084,4.434181,2.743661,-0.866025,0.500000,0.000000
-0.751600,2.470279,-18.557373,0.000000,0.000000,1.000000
0.930051,3.673599,0.000000,0.000000,0.000000,-1.000000
2.950644,-6.781983,0.262261,-0.000000,-1.000000,-0.000000
-2.283530,3.134971,-20.715477,-0.634393,0.773010,0.000000
-4.660174,5.492308,5.012924,-0.866025,0.500000,0.000000
-2.154170,-3.239011,-40.777607,-0.471397,-0.881921,0.000000
5.167868,-4.612956,3.945768,0.866025,-0.500000,0.000000
2.938388,1.441466,0.000000,0.000000,0.000000,-1.000000
1.687466,3.488470,-28.537992,0.471397,0.881921,-0.000000
-1.071520,3.721209,-39.852802,-0.290285,0.956940,0.000000
-3.085690,-2.343579,-21.533267,-0.773010,-0.634393,0.000000
-3.682206,-1.200098,-33.675791,-0.956940,-0.290285,0.000000
2.611395,2.865899,-31.976588,0.634393,0.773010,0.000000
-5.029406,4.852781,4.163625,-0.866025,0.500000,0.000000
0.109667,3.396635,-18.557373,0.000000,0.000000,1.000000
3.076970,-2.354204,-31.422069,0.773010,-0.634393,0.000000
3.510478,0.931979,6.468741,-0.000000,0.000000,1.000000
0.819975,-3.797515,-42.155072,0.290285,-0.956940,0.000000
0.186888,-3.872350,-24.197204,0.098017,-0.995185,0.000000
3.864055,-0.271107,-32.540697,0.995185,-0.098017,0.000000
-5.189814,4.574946,6.015147,-0.866025,0.500000,0.000000
-0.637535,-3.827965,-28.910624,-0.098017,-0.995185,0.000000
-3.491695,1.681432,-37.251825,-0.881921,0.471397,0.000000
3.241342,-2.149808,-47.385751,0.881921,-0.471397,0.000000
-1.594754,-3.538025,-22.721098,-0.471397,-0.881921,0.000000
3.104037,2.321223,-36.555014,0.773010,0.634393,0.000000
-1.861629,-6.781983,2.762433,-0.000000,-1.000000,-0.000000
-3.290197,-2.058408,-31.499303,-0.881921,-0.471397,0.000000
0.783057,3.808714,-21.882041,0.290285,0.956940,-0.000000
-0.196355,-3.871417,-18.747495,-0.098017,-0.995185,0.000000
-2.545131,6.781983,2.761282,-0.000000,1.000000,0.000000
-1.766465,3.446244,-23.333085,-0.471397,0.881921,0.000000
-1.423718,-6.781983,0.971185,-0.000000,-1.000000,-0.000000
-1.141489,-3.699985,-43.106116,-0.290285,-0.956940,0.000000
1.868248,-3.391839,-47.632023,0.471397,-0.881921,0.000000
-3.844358,-0.471096,-43.028729,-0.995185,-0.098017,0.000000
6.401086,-2.476960,3.700021,0.866025,-0.500000,0.000000
3.843404,0.480782,-43.994133,0.995185,0.098017,0.000000
-1.161280,-3.693981,-22.134813,-0.290285,-0.956940,0.000000
2.774738,-2.722475,-35.779218,0.773010,-0.634393,0.000000
-0.186271,-3.872410,-30.621021,-0.098017,-0.995185,0.000000
0.489307,3.842564,-45.374652,0.098017,0.995185,0.000000
-3.168111,-1.485393,0.000000,0.000000,0.000000,-1.000000
1.268433,-3.661477,-31.138319,0.290285,-0.956940,0.000000
3.690408,-1.173061,-40.260328,0.956940,-0.290285,0.000000
-0.338836,3.857384,-24.628238,-0.098017,0.995185,0.000000
-3.779418,0.879632,-45.896997,-0.956940,0.290285,0.000000
6.771846,1.834786,6.170831,0.866025,0.500000,0.000000
-3.843127,0.483590,-42.536591,-0.995185,0.098017,0.000000
-6.710518,1.941008,1.599292,-0.866025,0.500000,0.000000
-3.423443,-3.430025,6.468741,0.000000,0.000000,1.000000
