x,y,z,nx,ny,nz
0.030424,0.109069,-0.208591,0.144327,0.000000,-0.989530
0.274577,0.029081,0.224849,0.000000,1.000000,0.000000
0.276621,0.029081,-0.336870,0.000000,1.000000,0.000000
-0.284132,-0.008946,0.303100,-0.429081,0.000000,0.903266
-0.139401,-0.029081,-0.373929,0.000000,-1.000000,0.000000
-0.133024,0.200725,0.163525,-0.631047,0.000000,0.775744
0.420417,0.029081,-0.038205,0.000000,1.000000,0.000000
-0.039546,0.011559,0.383559,-0.988656,0.000000,0.150195
0.387206,-0.000116,-0.038817,0.241376,0.000000,-0.970432
-0.281367,0.009123,0.304288,-0.359938,0.000000,0.932976
-0.252243,0.029081,-0.017866,0.000000,1.000000,0.000000
-0.393268,0.010187,0.376308,-0.722515,0.000000,0.691355
0.231035,-0.029081,0.187614,0.000000,-1.000000,0.000000
0.245714,-0.029081,-0.440491,0.000000,-1.000000,0.000000
0.408424,-0.025580,0.025433,0.771829,0.000000,0.635830
0.039950,0.015468,-0.375551,0.998749,0.000000,0.050006
0.306569,-0.000773,0.261326,0.990001,0.000000,-0.141064
-0.264800,-0.029081,0.245392,0.000000,-1.000000,0.000000
-0.060862,0.029081,0.345128,0.000000,1.000000,0.000000
0.290937,-0.029081,-0.100962,0.000000,-1.000000,0.000000
-0.497711,-0.010665,-0.220343,-0.914398,0.000000,-0.404816
-0.028780,-0.015937,-0.349772,-0.719507,0.000000,0.694485
0.505289,0.027465,-0.202361,0.928321,0.000000,-0.371778
-0.368571,-0.008409,0.038979,0.224511,0.000000,0.974472
-0.398867,0.016871,-0.033847,-0.532888,0.000000,-0.846186
-0.203222,0.072648,-0.056005,-0.964061,0.000000,-0.265683
-0.016985,-0.025812,0.413766,-0.424622,0.000000,0.905371
0.004316,0.026521,0.337785,0.107891,0.000000,-0.994163
-0.514226,0.011614,0.178434,-0.944740,0.000000,0.327820
-0.092886,0.216283,0.189230,-0.440641,0.000000,0.897683
-0.268604,0.014580,-0.227002,-0.040887,0.000000,0.999164
-0.181626,0.029081,-0.141316,0.000000,1.000000,0.000000
0.242267,-0.004129,-0.298430,-0.617548,0.000000,-0.786534
-0.062247,0.029081,-0.251770,0.000000,1.000000,0.000000
0.346178,0.029081,-0.099340,0.000000,1.000000,0.000000
0.035583,-0.027132,-0.359280,0.889581,0.000000,0.456777
0.210591,0.020374,0.009332,0.999020,0.000000,0.044272
0.065538,0.029081,0.385941,0.000000,1.000000,0.000000
0.424115,-0.023206,0.341165,0.779188,0.000000,0.626791
-0.306263,-0.004781,-0.259487,-0.982350,0.000000,0.187050
-0.204297,0.029081,0.467098,0.000000,1.000000,0.000000
0.271598,0.017994,0.471701,0.498983,0.000000,0.866612
-0.014923,0.025160,0.340439,-0.373087,0.000000,-0.927796
-0.306876,0.024663,0.264250,-0.997686,0.000000,-0.067984
-0.035329,0.027477,0.396310,-0.883217,0.000000,0.468964
-0.182727,0.029081,0.268967,0.000000,1.000000,0.000000
-0.279737,-0.013786,0.229061,-0.319197,0.000000,-0.947688
0.305602,-0.001456,-0.256600,0.965815,0.000000,0.259234
0.204050,0.136246,-0.052910,0.967988,0.000000,-0.250997
0.020832,0.023794,0.343404,0.520799,0.000000,-0.853679
-0.194468,0.038500,0.081350,-0.922534,0.000000,0.385915
-0.328885,-0.029081,0.105797,0.000000,-1.000000,0.000000
0.388254,-0.029081,-0.343767,0.000000,-1.000000,0.000000
-0.373677,0.018016,0.039812,0.096851,0.000000,0.995299
-0.276940,0.029081,0.031962,0.000000,1.000000,0.000000
-0.269367,-0.021413,0.306897,-0.059953,0.000000,0.998201
0.210744,0.047516,-0.004758,0.999745,0.000000,-0.022571
-0.043418,0.029081,-0.239413,0.000000,1.000000,0.000000
0.103966,0.070546,-0.183377,0.493200,0.000000,-0.869916
0.091799,-0.029081,0.445912,0.000000,-1.000000,0.000000
-0.396976,0.029081,-0.067939,0.000000,1.000000,0.000000
-0.304711,-0.010430,0.280219,-0.943540,0.000000,0.331259
0.208124,-0.003681,-0.033467,0.987317,0.000000,-0.158764
-0.306501,0.005502,0.273071,-0.988295,0.000000,0.152553
0.016627,0.239886,-0.210141,0.078878,0.000000,-0.996884
-0.152249,0.000521,-0.145795,-0.722251,0.000000,-0.691631
-0.039941,-0.027482,-0.379725,-0.998522,0.000000,-0.054354
0.302726,-0.013999,0.249040,0.893920,0.000000,-0.448226
-0.144358,0.001961,0.524812,-0.265216,0.000000,0.964189
0.372579,-0.011617,0.039690,-0.124313,0.000000,0.992243
0.033467,-0.007105,-0.355643,0.836665,0.000000,0.547715
-0.258261,-0.029081,-0.151067,0.000000,-1.000000,0.000000
0.001592,0.009865,0.337583,0.039789,0.000000,-0.999208
-0.158931,0.077416,-0.138480,-0.753950,0.000000,-0.656931
0.446741,-0.017057,-0.310949,0.820757,0.000000,-0.571278
0.065721,-0.029081,-0.321855,0.000000,-1.000000,0.000000
-0.371781,-0.029081,0.207490,0.000000,-1.000000,0.000000
-0.086817,0.203061,0.192090,-0.411850,0.000000,0.911251
-0.309812,-0.029081,-0.122732,0.000000,-1.000000,0.000000
0.330062,-0.029081,-0.342704,0.000000,-1.000000,0.000000
-0.307968,-0.029081,0.053914,0.000000,-1.000000,0.000000
-0.016028,0.235764,-0.210188,-0.076035,0.000000,-0.997105
0.181824,0.029081,-0.110453,0.000000,1.000000,0.000000
0.208485,0.156516,0.031140,0.989029,0.000000,0.147722
0.067727,-0.029081,-0.241670,0.000000,-1.000000,0.000000
-0.208972,0.004895,-0.027689,-0.991336,0.000000,-0.131353
0.294766,0.021125,0.238206,0.694924,0.000000,-0.719083
-0.145527,-0.029081,0.187104,0.000000,-1.000000,0.000000
0.381323,0.029081,0.210417,0.000000,1.000000,0.000000
-0.248037,-0.029081,-0.063806,0.000000,-1.000000,0.000000
-0.363830,-0.002105,0.037573,0.343038,0.000000,0.939321
-0.413580,0.010521,-0.353863,-0.759832,0.000000,-0.650119
0.481008,0.029081,0.147209,0.000000,1.000000,0.000000
-0.155605,0.158048,0.142208,-0.738169,0.000000,0.674615
-0.396322,-0.029081,-0.371159,0.000000,-1.000000,0.000000
0.241453,0.027376,-0.297773,-0.637911,0.000000,-0.770110
0.491783,-0.005107,0.233275,0.903507,0.000000,0.428574
-0.018219,-0.005957,-0.341941,-0.455483,0.000000,0.890244
-0.051504,-0.027105,-0.204409,-0.244330,0.000000,-0.969692
-0.016240,-0.029081,-0.392181,0.000000,-1.000000,0.000000
-0.089944,0.029081,-0.241300,0.000000,1.000000,0.000000
0.306760,-0.005420,0.271056,0.994767,0.000000,0.102171
0.233703,-0.013996,0.244757,-0.831650,0.000000,-0.555301
0.385845,-0.020154,0.039131,0.207351,0.000000,0.978267
-0.181514,0.093114,0.107184,-0.861082,0.000000,0.508466
0.117759,-0.010802,0.174839,0.558632,0.000000,0.829415
-0.019892,0.019747,-0.412254,-0.497294,0.000000,-0.867582
0.243097,-0.008596,0.299064,-0.596812,0.000000,0.802381
0.388403,0.029081,-0.318970,0.000000,1.000000,0.000000
-0.227162,0.014291,0.270894,0.995175,0.000000,0.098114
0.475444,0.029081,-0.080528,0.000000,1.000000,0.000000
-0.375444,-0.018238,0.039944,0.052683,0.000000,0.998611
0.329611,-0.029081,-0.359876,0.000000,-1.000000,0.000000
0.535154,0.002573,0.099385,0.983189,0.000000,0.182592
0.104433,-0.028190,-0.534192,0.191865,0.000000,-0.981421
0.330832,0.029081,-0.413091,0.000000,1.000000,0.000000
0.539149,0.005883,0.074738,0.990528,0.000000,0.137310
0.203678,-0.029081,-0.168803,0.000000,-1.000000,0.000000
-0.212969,-0.029081,0.107388,0.000000,-1.000000,0.000000
0.230290,0.004378,-0.251011,-0.916977,0.000000,0.398941
-0.249143,-0.020896,-0.483937,-0.457728,0.000000,-0.889092
0.083032,0.029081,0.248855,0.000000,1.000000,0.000000
-0.183450,0.029081,0.153982,0.000000,1.000000,0.000000
0.000636,-0.013425,0.417546,0.015909,0.000000,0.999873
-0.227387,0.029081,-0.094202,0.000000,1.000000,0.000000
0.257306,-0.029081,0.030472,0.000000,-1.000000,0.000000
-0.256421,0.029081,0.298215,0.000000,1.000000,0.000000
-0.306817,0.027576,-0.263482,-0.996194,0.000000,0.087166
0.022607,-0.017988,0.344552,0.565174,0.000000,-0.824972
-0.416686,0.007661,-0.008274,-0.978372,0.000000,-0.206855
-0.250764,0.004975,-0.303539,0.405133,0.000000,-0.914258
-0.210696,0.118808,-0.006550,-0.999517,0.000000,-0.031073
0.460929,0.006402,-0.289503,0.846822,0.000000,-0.531877
0.003131,0.021477,-0.210775,0.014854,0.000000,-0.999890
-0.227655,0.017574,-0.259592,0.982845,0.000000,0.184432
0.226971,-0.024091,0.266528,-0.999939,0.000000,-0.011024
-0.023647,-0.028284,-0.409813,-0.591172,0.000000,-0.806545
0.366120,0.019938,-0.038332,-0.285776,0.000000,-0.958296
0.018507,0.029081,0.501169,0.000000,1.000000,0.000000
0.104305,-0.029081,0.392511,0.000000,-1.000000,0.000000
-0.227673,0.009301,-0.259500,0.982412,0.000000,0.186727
0.247151,-0.029081,0.113953,0.000000,-1.000000,0.000000
0.269044,-0.029081,0.352475,0.000000,-1.000000,0.000000
0.326146,0.029081,0.261864,0.000000,1.000000,0.000000
-0.119981,-0.029081,0.176064,0.000000,-1.000000,0.000000
0.011706,-0.029081,-0.411272,0.000000,-1.000000,0.000000
0.089280,-0.010854,0.190958,0.423534,0.000000,0.905880
-0.109619,0.161187,-0.180054,-0.520018,0.000000,-0.854155
-0.437454,-0.029081,-0.087070,0.000000,-1.000000,0.000000
0.135545,-0.029081,-0.346800,0.000000,-1.000000,0.000000
-0.192269,0.029081,0.136916,0.000000,1.000000,0.000000
-0.290686,-0.019476,-0.234759,-0.592922,0.000000,0.805260
-0.421056,0.029081,-0.247171,0.000000,1.000000,0.000000
-0.148897,-0.029081,0.219455,0.000000,-1.000000,0.000000
-0.236172,0.029081,0.401999,0.000000,1.000000,0.000000
0.265208,0.013491,-0.227008,-0.044025,0.000000,0.999030
0.227699,-0.020970,0.274575,-0.981755,0.000000,0.190151
0.115751,0.041458,-0.176175,0.549108,0.000000,-0.835751
-0.102151,0.051859,0.184394,-0.484591,0.000000,0.874741
-0.222501,0.029081,-0.203912,0.000000,1.000000,0.000000
-0.243879,0.029081,-0.047560,0.000000,1.000000,0.000000
0.216939,-0.029081,0.003256,0.000000,-1.000000,0.000000
-0.156512,-0.029081,-0.416428,0.000000,-1.000000,0.000000
0.243470,-0.029081,0.017614,0.000000,-1.000000,0.000000
0.032330,0.000320,0.401104,0.808256,0.000000,0.588831
0.347601,-0.009549,0.026514,-0.748763,0.000000,0.662838
-0.092410,0.006851,-0.189463,-0.438382,0.000000,-0.898789
-0.346499,0.013956,-0.025214,0.776306,0.000000,-0.630356
-0.349136,-0.029081,0.156244,0.000000,-1.000000,0.000000
-0.148925,0.082516,0.149188,-0.706482,0.000000,0.707731
-0.533381,0.011622,-0.108499,-0.979931,0.000000,-0.199335
-0.188708,0.029081,-0.245490,0.000000,1.000000,0.000000
0.343565,-0.009729,0.021094,-0.849645,0.000000,0.527356
-0.303811,0.005255,-0.282548,-0.921041,0.000000,-0.389465
0.351890,-0.012841,0.030684,-0.641518,0.000000,0.767108
0.050325,0.029081,-0.261603,0.000000,1.000000,0.000000
0.366263,-0.019517,0.038374,-0.282202,0.000000,0.959355
-0.072317,0.078468,-0.198005,-0.343063,0.000000,-0.939312
-0.377275,-0.024013,0.039999,0.006894,0.000000,0.999976
-0.191559,0.029081,0.400553,0.000000,1.000000,0.000000
0.306738,-0.028804,0.271266,0.994213,0.000000,0.107422
0.016009,-0.023074,-0.210189,0.075944,0.000000,-0.997112
-0.402984,-0.014850,-0.030874,-0.635819,0.000000,-0.771838
0.111144,-0.028468,-0.532836,0.204195,0.000000,-0.978930
0.110442,0.057021,-0.179550,0.523923,0.000000,-0.851765
0.217370,0.029081,0.390922,0.000000,1.000000,0.000000
0.362649,0.029081,0.161311,0.000000,1.000000,0.000000
-0.201475,-0.029081,-0.478896,0.000000,-1.000000,0.000000
-0.254546,-0.021377,0.228947,0.310566,0.000000,-0.950552
-0.407578,-0.027627,-0.026427,-0.750680,0.000000,-0.660665
-0.201880,0.029081,-0.065256,0.000000,1.000000,0.000000
0.388953,-0.017688,-0.380766,0.714588,0.000000,-0.699546
-0.202749,-0.029081,0.302984,0.000000,-1.000000,0.000000
0.109699,0.023680,-0.180005,0.520400,0.000000,-0.853922
-0.210229,-0.029081,-0.134918,0.000000,-1.000000,0.000000
0.342193,-0.029081,0.297266,0.000000,-1.000000,0.000000
0.220725,0.029081,-0.355156,0.000000,1.000000,0.000000
-0.058250,0.248145,0.202590,-0.276332,0.000000,0.961062
-0.519752,0.028929,-0.161633,-0.954892,0.000000,-0.296954
0.082553,0.029081,0.302142,0.000000,1.000000,0.000000
-0.378774,-0.007376,-0.390893,-0.695887,0.000000,-0.718151
-0.006225,0.026676,-0.417064,-0.155633,0.000000,-0.987815
0.529514,-0.008829,-0.126024,0.972827,0.000000,-0.231533
-0.279534,-0.026297,-0.467042,-0.513561,0.000000,-0.858053
0.016362,0.029081,0.336374,0.000000,1.000000,0.000000
0.080563,0.174980,-0.194796,0.382179,0.000000,-0.924088
0.049454,-0.023937,0.542053,0.090858,0.000000,0.995864
-0.013861,-0.026122,-0.340029,-0.346519,0.000000,0.938043
0.171593,0.005501,-0.516549,0.315251,0.000000,-0.949008
0.027911,0.026398,0.406204,0.697775,0.000000,0.716317
-0.007240,0.023195,-0.338212,-0.180990,0.000000,0.983485
-0.174108,0.251568,-0.118838,-0.825945,0.000000,-0.563751
-0.080148,-0.029081,0.278470,0.000000,-1.000000,0.000000
-0.147209,0.029081,0.289886,0.000000,1.000000,0.000000
0.320335,-0.006967,-0.440060,0.588522,0.000000,-0.808481
-0.020519,0.029081,-0.329908,0.000000,1.000000,0.000000
-0.091809,-0.001470,-0.189755,-0.435528,0.000000,-0.900175
0.206010,0.220310,0.044671,0.977288,0.000000,0.211915
-0.149012,0.173018,0.149101,-0.706895,0.000000,0.707318
-0.025777,-0.029081,-0.542551,0.000000,-1.000000,0.000000
-0.250931,0.002365,-0.230325,0.400945,0.000000,0.916102
0.034252,0.010063,0.356892,0.856292,0.000000,-0.516492
0.127438,-0.029081,0.347327,0.000000,-1.000000,0.000000
-0.044279,0.014133,-0.206095,-0.210056,0.000000,-0.977689
-0.254015,0.029081,0.348307,0.000000,1.000000,0.000000
-0.271757,0.026308,0.227257,-0.119712,0.000000,-0.992809
-0.008411,0.196968,-0.210630,-0.039899,0.000000,-0.999204
-0.075481,0.134595,-0.196821,-0.358073,0.000000,-0.933694
0.015895,0.137446,0.210198,0.075403,0.000000,0.997153
-0.054379,0.087656,0.203663,-0.257967,0.000000,0.966154
0.114695,0.010491,0.532083,0.210718,0.000000,0.977547
0.062488,0.029081,-0.447349,0.000000,1.000000,0.000000
0.135495,0.028546,0.161483,0.642772,0.000000,0.766058
0.229012,-0.008030,-0.279589,-0.948926,0.000000,-0.315499
0.185877,-0.020336,-0.511583,0.341494,0.000000,-0.939884
-0.018301,-0.029081,0.279011,0.000000,-1.000000,0.000000
-0.110227,0.029081,-0.461408,0.000000,1.000000,0.000000
0.130916,0.029081,-0.371096,0.000000,1.000000,0.000000
0.238924,-0.019525,0.238447,-0.701116,0.000000,-0.713047
-0.484166,-0.008875,0.248697,-0.889514,0.000000,0.456908
0.231626,0.024573,-0.285701,-0.883574,0.000000,-0.468291
0.197825,0.170579,0.072808,0.938459,0.000000,0.345392
-0.038964,-0.008291,0.386597,-0.974092,0.000000,0.226153
0.334458,0.017356,-0.429424,0.614469,0.000000,-0.788941
0.043891,0.002233,0.542532,0.080636,0.000000,0.996744
0.250462,-0.029081,-0.203105,0.000000,-1.000000,0.000000
0.128469,0.029081,-0.415600,0.000000,1.000000,0.000000
-0.537800,-0.024764,0.083896,-0.988050,0.000000,0.154134
0.248082,-0.000303,0.231709,-0.472174,0.000000,-0.881505
0.091312,0.029081,0.399212,0.000000,1.000000,0.000000
0.209050,-0.004240,-0.027090,0.991708,0.000000,-0.128509
-0.251290,0.003122,0.230170,0.391964,0.000000,-0.919980
0.192414,0.240110,-0.086097,0.912788,0.000000,-0.408435
0.399583,0.004626,-0.033386,0.550794,0.000000,-0.834641
-0.252357,-0.029081,-0.151775,0.000000,-1.000000,0.000000
0.300677,0.012852,-0.245434,0.842699,0.000000,0.538385
-0.449118,-0.029081,0.282722,0.000000,-1.000000,0.000000
0.005700,0.002325,0.417143,0.142502,0.000000,0.989795
0.198698,0.096863,-0.070391,0.942599,0.000000,-0.333927
-0.289473,0.016093,-0.233900,-0.562591,0.000000,0.826735
-0.209579,0.023355,0.022636,-0.994218,0.000000,0.107384
0.515881,0.021945,0.173591,0.947781,0.000000,0.318923
0.093186,0.029081,-0.273539,0.000000,1.000000,0.000000
0.006930,0.000199,-0.338156,0.173243,0.000000,0.984879
-0.133291,0.006224,-0.527732,-0.244884,0.000000,-0.969552
-0.329075,-0.029081,-0.031794,0.000000,-1.000000,0.000000
0.350666,0.029081,0.041193,0.000000,1.000000,0.000000
0.370859,0.029081,0.147856,0.000000,1.000000,0.000000
-0.227541,-0.022735,-0.260228,0.985696,0.000000,0.168531
-0.258889,0.021120,0.478794,-0.475632,0.000000,0.879644
-0.309048,0.029081,0.169712,0.000000,1.000000,0.000000
0.079755,0.151626,-0.195128,0.378347,0.000000,-0.925664
-0.115584,0.029081,-0.234799,0.000000,1.000000,0.000000
0.301741,0.017658,0.286741,0.869292,0.000000,0.494299
-0.359745,0.029081,-0.307503,0.000000,1.000000,0.000000
-0.104961,0.006866,-0.182809,-0.497920,0.000000,-0.867223
-0.278553,-0.029081,0.167254,0.000000,-1.000000,0.000000
0.446480,0.029081,-0.153085,0.000000,1.000000,0.000000
0.005907,0.011907,-0.210715,0.028022,0.000000,-0.999607
-0.039497,-0.014097,-0.371227,-0.987421,0.000000,0.158113
0.184342,-0.013729,0.102244,0.874496,0.000000,0.485033
-0.159874,0.018833,0.520296,-0.293721,0.000000,0.955891
-0.398583,-0.008609,0.370674,-0.732279,0.000000,0.681005
0.307309,0.029081,-0.230746,0.000000,1.000000,0.000000
-0.494749,0.002822,-0.226916,-0.908956,0.000000,-0.416891
-0.308749,-0.029081,-0.162496,0.000000,-1.000000,0.000000
-0.373094,-0.029081,-0.074824,0.000000,-1.000000,0.000000
-0.028667,0.025485,0.405447,-0.716677,0.000000,0.697405
0.223684,-0.029081,-0.087167,0.000000,-1.000000,0.000000
0.094161,0.029081,-0.228694,0.000000,1.000000,0.000000
0.171741,0.082212,-0.122232,0.814720,0.000000,-0.579854
0.272068,-0.009261,0.306643,0.127469,0.000000,0.991843
-0.245908,-0.029081,0.136863,0.000000,-1.000000,0.000000
0.113710,0.118388,-0.177499,0.539425,0.000000,-0.842034
0.387705,0.029081,-0.312302,0.000000,1.000000,0.000000
0.160382,0.041017,-0.136797,0.760831,0.000000,-0.648950
0.285049,-0.009279,-0.302650,0.452008,0.000000,-0.892014
0.259566,0.021419,-0.306278,-0.185070,0.000000,-0.982725
-0.202058,0.029081,0.420436,0.000000,1.000000,0.000000
-0.305622,0.024949,-0.277261,-0.966333,0.000000,-0.257296
0.014700,0.025893,-0.414752,0.367488,0.000000,-0.930028
0.247254,-0.001029,0.301773,-0.492869,0.000000,0.870103
0.419337,0.011891,-0.347021,0.770409,0.000000,-0.637550
0.068219,0.029081,0.343065,0.000000,1.000000,0.000000
-0.138191,-0.029081,-0.444998,0.000000,-1.000000,0.000000
-0.034462,0.021624,-0.357244,-0.861541,0.000000,0.507689
0.259927,0.029081,-0.375951,0.000000,1.000000,0.000000
-0.178686,-0.029081,0.347241,0.000000,-1.000000,0.000000
-0.496403,-0.029081,-0.103544,0.000000,-1.000000,0.000000
0.216573,-0.029081,-0.167752,0.000000,-1.000000,0.000000
-0.090861,0.029081,-0.225658,0.000000,1.000000,0.000000
0.273487,0.029081,0.262774,0.000000,1.000000,0.000000
0.053253,-0.029081,0.456123,0.000000,-1.000000,0.000000
-0.511547,-0.029081,-0.142358,0.000000,-1.000000,0.000000
0.417046,0.014135,-0.006340,0.987360,0.000000,-0.158496
0.283231,-0.011399,0.230424,0.406549,0.000000,-0.913629
0.015596,-0.016271,-0.340717,0.389889,0.000000,0.920862
-0.063783,0.217294,-0.200917,-0.302579,0.000000,-0.953124
-0.280846,0.029081,0.265692,0.000000,1.000000,0.000000
-0.321828,-0.029081,0.255661,0.000000,-1.000000,0.000000
0.165018,-0.009479,0.131167,0.782825,0.000000,0.622242
-0.065309,-0.029081,0.202683,0.000000,-1.000000,0.000000
-0.122347,-0.029081,0.177261,0.000000,-1.000000,0.000000
-0.341388,0.025414,0.017094,0.904090,0.000000,0.427342
0.005942,-0.006974,0.337995,0.148553,0.000000,-0.988904
-0.489765,-0.029081,-0.182648,0.000000,-1.000000,0.000000
0.320751,0.029081,0.121166,0.000000,1.000000,0.000000
0.452643,0.025032,-0.302293,0.831600,0.000000,-0.555376
-0.063012,0.029081,-0.352530,0.000000,1.000000,0.000000
-0.166926,-0.029081,-0.193755,0.000000,-1.000000,0.000000
0.249101,-0.028892,-0.231181,-0.446690,0.000000,0.894689
0.109558,0.019641,-0.533164,0.201281,0.000000,-0.979533
0.234649,0.007816,0.243401,-0.807996,0.000000,-0.589188
0.179240,-0.029081,-0.416674,0.000000,-1.000000,0.000000
-0.299737,-0.005816,-0.289909,-0.819200,0.000000,-0.573508
0.231837,-0.013704,0.286093,-0.878308,0.000000,0.478096
-0.407608,0.016293,0.026393,-0.751429,0.000000,0.659814
0.284763,0.009852,-0.302793,0.444862,0.000000,-0.895599
0.100583,0.029081,-0.284613,0.000000,1.000000,0.000000
-0.147783,0.029081,-0.185445,0.000000,1.000000,0.000000
0.152027,0.012106,0.146026,0.721196,0.000000,0.692731
0.046356,0.097457,-0.205638,0.219905,0.000000,-0.975521
-0.306467,-0.028273,-0.260654,-0.987459,0.000000,0.157879
-0.005785,0.216029,0.210719,-0.027445,0.000000,0.999623
-0.490916,0.029081,-0.208041,0.000000,1.000000,0.000000
0.077611,0.054716,0.195991,0.368176,0.000000,0.929756
-0.257267,0.005322,-0.305775,0.242555,0.000000,-0.970138
-0.019949,0.013387,0.412222,-0.498721,0.000000,0.866762
-0.267747,0.029081,-0.352468,0.000000,1.000000,0.000000
-0.101846,0.029081,0.409071,0.000000,1.000000,0.000000
0.111172,0.115197,-0.179100,0.527385,0.000000,-0.849626
-0.202349,-0.004395,-0.059082,-0.959919,0.000000,-0.280278
0.210763,0.237555,0.003871,0.999831,0.000000,0.018362
-0.358449,0.002983,-0.035144,0.477549,0.000000,-0.878605
-0.302397,-0.029081,0.199797,0.000000,-1.000000,0.000000
-0.074930,-0.029081,0.430802,0.000000,-1.000000,0.000000
-0.105107,0.029081,0.216393,0.000000,1.000000,0.000000
-0.111844,-0.007753,0.532690,-0.205480,0.000000,0.978661
0.014714,-0.016262,-0.340356,0.367855,0.000000,0.929883
-0.014591,-0.029081,-0.371203,0.000000,-1.000000,0.000000
0.151566,-0.029081,0.353492,0.000000,-1.000000,0.000000
-0.212257,-0.029081,-0.327053,0.000000,-1.000000,0.000000
0.021416,0.003909,-0.209707,0.101593,0.000000,-0.994826
0.354164,-0.029081,0.249204,0.000000,-1.000000,0.000000
0.011703,-0.008632,0.339302,0.292576,0.000000,-0.956242
-0.202241,-0.029081,-0.336031,0.000000,-1.000000,0.000000
-0.039767,-0.027059,0.373243,-0.994183,0.000000,-0.107701
0.094909,0.087495,-0.188223,0.450238,0.000000,-0.892908
0.209565,0.112495,0.022770,0.994149,0.000000,0.108018
0.188815,0.029081,0.167843,0.000000,1.000000,0.000000
0.477077,-0.008187,-0.262040,0.876489,0.000000,-0.481422
0.197173,0.089549,-0.074556,0.935366,0.000000,-0.353683
0.169884,0.234650,-0.124801,0.805907,0.000000,-0.592042
0.151714,-0.029081,-0.190223,0.000000,-1.000000,0.000000
0.367644,0.020531,0.038754,-0.247689,0.000000,0.968839
0.039159,0.034419,0.207129,0.185766,0.000000,0.982594
-0.106212,-0.029081,0.382977,0.000000,-1.000000,0.000000
-0.121193,0.050450,-0.172476,-0.574924,0.000000,-0.818207
-0.063962,0.009436,-0.540533,-0.117512,0.000000,-0.993072
-0.174218,-0.029081,0.382460,0.000000,-1.000000,0.000000
0.248645,-0.029081,0.094296,0.000000,-1.000000,0.000000
0.340461,-0.029081,-0.208369,0.000000,-1.000000,0.000000
0.266564,-0.029081,-0.185435,0.000000,-1.000000,0.000000
-0.051532,0.029081,0.233653,0.000000,1.000000,0.000000
0.376320,0.003555,0.039981,-0.030789,0.000000,0.999526
-0.248192,0.011301,0.302288,0.469418,0.000000,0.882976
-0.255831,0.026791,0.305387,0.278454,0.000000,0.960450
-0.440553,0.024635,-0.319656,-0.809388,0.000000,-0.587274
0.525982,0.029081,0.097844,0.000000,1.000000,0.000000
0.281583,0.021018,0.304204,0.365349,0.000000,0.930870
-0.153982,-0.020133,-0.143963,-0.730472,0.000000,-0.682942
0.457097,0.029081,-0.175842,0.000000,1.000000,0.000000
-0.370300,-0.029081,0.245024,0.000000,-1.000000,0.000000
0.098498,-0.029081,-0.445113,0.000000,-1.000000,0.000000
0.118924,0.029081,-0.377335,0.000000,1.000000,0.000000
-0.209209,0.191325,0.025833,-0.992462,0.000000,0.122550
0.138650,0.023308,-0.158783,0.657740,0.000000,-0.753245
-0.208765,0.157000,0.029208,-0.990354,0.000000,0.138561
0.020366,-0.000341,0.343124,0.509146,0.000000,-0.860680
-0.395829,-0.015682,0.035580,-0.456940,0.000000,0.889497
0.018224,-0.009028,0.413158,0.455612,0.000000,0.890178
0.028600,0.005705,0.405516,0.714997,0.000000,0.699128
-0.411488,0.014300,0.356293,-0.755989,0.000000,0.654584
0.338074,-0.002446,0.006444,-0.986937,0.000000,0.161108
0.039591,0.005368,-0.371848,0.989783,0.000000,0.142580
0.259369,0.012414,-0.306240,-0.190005,0.000000,-0.981783
-0.300886,0.026661,-0.288173,-0.847931,0.000000,-0.530107
-0.125350,0.029081,0.250175,0.000000,1.000000,0.000000
-0.019771,0.070297,0.209869,-0.093790,0.000000,0.995592
0.012818,0.018669,0.544153,0.023549,0.000000,0.999723
0.232433,-0.019751,0.246788,-0.863395,0.000000,-0.504529
0.385812,-0.029081,0.168502,0.000000,-1.000000,0.000000
-0.238051,-0.013285,0.239333,0.722946,0.000000,-0.690905
-0.265575,0.025767,-0.226993,0.034855,0.000000,0.999392
0.366408,0.006781,-0.038417,-0.278581,0.000000,-0.960413
-0.200552,0.055202,0.064920,-0.951396,0.000000,0.307971
-0.221236,0.029081,0.387915,0.000000,1.000000,0.000000
0.048064,0.029081,-0.222861,0.000000,1.000000,0.000000
0.435323,-0.029081,0.186963,0.000000,-1.000000,0.000000
0.021477,-0.029081,0.316985,0.000000,-1.000000,0.000000
0.338572,0.029081,-0.171920,0.000000,1.000000,0.000000
0.241300,-0.029081,0.338663,0.000000,-1.000000,0.000000
0.039112,0.017409,0.385934,0.977796,0.000000,0.209558
0.395759,0.021308,0.373687,0.727091,0.000000,0.686541
0.285332,-0.029081,0.026860,0.000000,-1.000000,0.000000
-0.209604,0.178154,-0.022402,-0.994337,0.000000,-0.106271
0.079315,-0.029081,0.253087,0.000000,-1.000000,0.000000
0.110306,0.185708,0.179634,0.523279,0.000000,0.852161
-0.515473,-0.001633,0.174799,-0.947031,0.000000,0.321142
-0.328852,-0.017337,-0.433732,-0.604169,0.000000,-0.796857
-0.176406,-0.029081,-0.273070,0.000000,-1.000000,0.000000
0.154620,0.186260,-0.143278,0.733499,0.000000,-0.679691
0.168350,0.195445,0.126862,0.798633,0.000000,0.601818
-0.541181,0.006669,-0.058230,-0.994261,0.000000,-0.106981
0.059458,0.112882,0.202239,0.282063,0.000000,0.959396
0.229232,0.016361,0.280232,-0.943432,0.000000,0.331567
-0.474995,-0.029081,-0.008031,0.000000,-1.000000,0.000000
-0.189118,-0.029081,-0.201904,0.000000,-1.000000,0.000000
-0.033731,-0.002055,0.356052,-0.843271,0.000000,-0.537489
-0.081835,-0.029081,-0.245744,0.000000,-1.000000,0.000000
0.039780,0.186346,-0.207011,0.188712,0.000000,-0.982032
-0.109704,0.245667,0.180002,-0.520423,0.000000,0.853909
-0.258005,-0.029081,0.042230,0.000000,-1.000000,0.000000
0.016350,-0.029081,0.270647,0.000000,-1.000000,0.000000
-0.543309,-0.004094,0.032894,-0.998172,0.000000,0.060433
0.085021,0.029081,-0.437754,0.000000,1.000000,0.000000
0.199063,0.176368,0.069352,0.944331,0.000000,0.328997
0.210565,0.042122,0.009916,0.998893,0.000000,0.047042
-0.305582,-0.029081,-0.046139,0.000000,-1.000000,0.000000
-0.122615,0.089709,0.171468,-0.581671,0.000000,0.813424
0.363401,-0.016520,-0.037413,-0.353757,0.000000,-0.935337
-0.024210,-0.010182,0.209403,-0.114850,0.000000,0.993383
-0.033807,-0.000060,-0.398930,-0.845180,0.000000,-0.534481
-0.169561,-0.029081,-0.355301,0.000000,-1.000000,0.000000
0.438209,-0.011116,0.322862,0.805081,0.000000,0.593165
-0.370425,-0.029081,-0.092138,0.000000,-1.000000,0.000000
0.279929,-0.025563,-0.304811,0.324011,0.000000,-0.946053
0.025952,-0.029081,0.239775,0.000000,-1.000000,0.000000
-0.287983,-0.022712,0.301004,-0.525355,0.000000,0.850883
-0.327312,-0.029081,0.016308,0.000000,-1.000000,0.000000
0.293093,0.029081,0.315137,0.000000,1.000000,0.000000
0.232974,0.016676,-0.245889,-0.849868,0.000000,0.526995
-0.342930,0.017483,-0.422689,-0.630034,0.000000,-0.776568
-0.121511,0.173129,0.172253,-0.576432,0.000000,0.817145
-0.182079,0.024723,0.512947,-0.334518,0.000000,0.942389
-0.512915,-0.029081,0.000054,0.000000,-1.000000,0.000000
-0.405358,-0.029081,0.361067,0.000000,-1.000000,0.000000
0.228222,0.009982,-0.276902,-0.968678,0.000000,-0.248320
0.030948,-0.029081,-0.268739,0.000000,-1.000000,0.000000
-0.016303,-0.029081,-0.310927,0.000000,-1.000000,0.000000
0.011608,0.022078,-0.544181,0.021327,0.000000,-0.999773
-0.278623,0.029081,-0.124949,0.000000,1.000000,0.000000
-0.277349,-0.020163,-0.228339,-0.259505,0.000000,0.965742
0.178474,0.063860,-0.112174,0.846658,0.000000,-0.532138
0.150235,0.057359,0.147869,0.712698,0.000000,0.701471
0.243143,0.019603,-0.299099,-0.595643,0.000000,-0.803249
-0.204267,0.057861,-0.052065,-0.969018,0.000000,-0.246990
-0.484339,-0.029081,0.054095,0.000000,-1.000000,0.000000
0.280654,0.009544,-0.304555,0.342129,0.000000,-0.939653
0.154724,0.029081,0.242085,0.000000,1.000000,0.000000
-0.218493,-0.029081,-0.234061,0.000000,-1.000000,0.000000
0.270317,0.004068,-0.227109,0.083708,0.000000,0.996490
0.210415,0.087896,0.012711,0.998180,0.000000,0.060297
-0.513957,0.010167,0.179208,-0.944246,0.000000,0.329241
-0.201690,0.083296,0.061293,-0.956794,0.000000,0.290766
0.270993,-0.024418,0.227172,0.100611,0.000000,-0.994926
-0.177431,0.005468,-0.514573,-0.325977,0.000000,-0.945378
-0.178730,0.071712,0.111764,-0.847875,0.000000,0.530196
-0.411093,-0.016020,0.021793,-0.838547,0.000000,0.544830
-0.430178,0.029081,-0.177591,0.000000,1.000000,0.000000
-0.206319,0.179387,0.043223,-0.978752,0.000000,0.205045
0.443587,0.029081,0.052739,0.000000,1.000000,0.000000
0.220567,-0.029081,0.253968,0.000000,-1.000000,0.000000
-0.189949,-0.014935,-0.510085,-0.348976,0.000000,-0.937132
0.375526,-0.023841,-0.039949,-0.050630,0.000000,-0.998717
-0.107796,0.208626,0.181151,-0.511373,0.000000,0.859359
-0.009383,0.017849,0.338667,-0.234566,0.000000,-0.972100
-0.385971,-0.018436,-0.383788,-0.709109,0.000000,-0.705099
0.210498,0.240968,-0.011246,0.998576,0.000000,-0.053351
-0.229453,0.010841,0.280846,0.937897,0.000000,0.346913
0.533579,0.001475,-0.107522,0.980295,0.000000,-0.197540
0.497992,-0.005084,0.219707,0.914915,0.000000,0.403648
-0.191099,-0.018474,0.509655,-0.351089,0.000000,0.936342
0.037560,-0.029081,-0.401384,0.000000,-1.000000,0.000000
0.087099,-0.029081,-0.284647,0.000000,-1.000000,0.000000
-0.287620,-0.016663,-0.301226,-0.516278,0.000000,-0.856421
-0.014249,-0.029081,-0.416564,0.000000,-1.000000,0.000000
0.264834,0.020912,0.475531,0.486556,0.000000,0.873650
-0.180012,0.029081,0.415936,0.000000,1.000000,0.000000
0.239052,-0.029081,-0.417350,0.000000,-1.000000,0.000000
0.461886,-0.029081,-0.017314,0.000000,-1.000000,0.000000
0.192596,-0.023914,-0.085690,0.913650,0.000000,-0.406501
-0.342001,0.001007,0.018336,0.888750,0.000000,0.458393
-0.044094,0.164140,-0.206135,-0.209179,0.000000,-0.977877
-0.229098,-0.029081,0.461487,0.000000,-1.000000,0.000000
0.184034,0.023304,-0.102798,0.873033,0.000000,-0.487662
-0.121310,0.029081,-0.276728,0.000000,1.000000,0.000000
-0.281028,-0.028349,0.304417,-0.351477,0.000000,0.936197
0.050321,0.029081,0.520147,0.000000,1.000000,0.000000
-0.210162,0.029081,0.113782,0.000000,1.000000,0.000000
0.172547,0.029081,0.423730,0.000000,1.000000,0.000000
0.243917,-0.024493,-0.234279,-0.576291,0.000000,0.817245
0.525694,-0.029081,0.124631,0.000000,-1.000000,0.000000
-0.198475,0.069101,0.071017,-0.941542,0.000000,0.336895
0.383819,0.028286,0.039506,0.156705,0.000000,0.987645
0.288470,-0.019112,0.300699,0.537513,0.000000,0.843256
-0.256057,-0.020950,0.305452,0.272800,0.000000,0.962071
-0.050495,0.225066,-0.204661,-0.239542,0.000000,-0.970886
0.538071,-0.028696,-0.082141,0.988548,0.000000,-0.150910
0.384590,-0.017617,-0.039376,0.175978,0.000000,-0.984394
0.056164,0.029081,0.259930,0.000000,1.000000,0.000000
-0.312903,-0.029081,0.183235,0.000000,-1.000000,0.000000
-0.227415,-0.011275,0.261015,0.988860,0.000000,-0.148845
-0.069925,0.096935,-0.198863,-0.331715,0.000000,-0.943380
-0.208518,0.181455,0.030923,-0.989182,0.000000,0.146695
0.338593,0.021643,-0.009068,-0.973963,0.000000,-0.226705
0.016555,0.029081,-0.476420,0.000000,1.000000,0.000000
0.210797,0.160406,0.000683,0.999995,0.000000,0.003239
-0.201017,0.207800,0.063467,-0.953599,0.000000,0.301081
0.019143,0.029081,-0.311935,0.000000,1.000000,0.000000
0.293509,0.029081,-0.177633,0.000000,1.000000,0.000000
-0.183691,0.077135,0.103409,-0.871407,0.000000,0.490561
-0.299659,-0.029081,-0.245204,0.000000,-1.000000,0.000000
-0.483220,-0.029081,0.181359,0.000000,-1.000000,0.000000
-0.331558,-0.029081,0.311220,0.000000,-1.000000,0.000000
0.024426,0.026973,0.345875,0.610659,0.000000,-0.791894
0.063961,-0.029081,-0.520231,0.000000,-1.000000,0.000000
0.201171,0.180075,-0.062977,0.954330,0.000000,-0.298754
0.235887,0.022397,0.292146,-0.777053,0.000000,0.629436
-0.003100,0.026234,-0.417431,-0.077505,0.000000,-0.996992
-0.294693,0.029081,-0.072078,0.000000,1.000000,0.000000
0.441182,0.029081,0.035985,0.000000,1.000000,0.000000
-0.039092,-0.023962,-0.542899,-0.071820,0.000000,-0.997418
-0.477126,0.024753,0.261951,-0.876579,0.000000,0.481258
0.285875,-0.029081,0.214407,0.000000,-1.000000,0.000000
0.136961,-0.029081,-0.294544,0.000000,-1.000000,0.000000
-0.452610,0.027118,-0.302344,-0.831538,0.000000,-0.555468
-0.225854,-0.029081,0.315081,0.000000,-1.000000,0.000000
0.361084,0.029081,0.214134,0.000000,1.000000,0.000000
-0.318638,-0.029081,0.176665,0.000000,-1.000000,0.000000
-0.196114,0.094053,-0.077298,-0.930342,0.000000,-0.366693
0.128185,0.081043,0.167346,0.608091,0.000000,0.793867
0.414161,-0.005301,0.016115,0.915257,0.000000,0.402869
-0.417067,0.008191,0.006202,-0.987905,0.000000,0.155061
0.316725,-0.029081,-0.257251,0.000000,-1.000000,0.000000
-0.104610,0.029081,0.229030,0.000000,1.000000,0.000000
-0.057612,0.029081,-0.251592,0.000000,1.000000,0.000000
-0.035588,-0.001985,-0.207772,-0.168827,0.000000,-0.985646
-0.284778,0.029081,-0.210317,0.000000,1.000000,0.000000
0.193654,0.029081,0.111413,0.000000,1.000000,0.000000
-0.126374,0.011493,0.529431,-0.232175,0.000000,0.972674
0.013810,0.007810,0.340011,0.345247,0.000000,-0.938512
-0.245816,0.029081,0.432296,0.000000,1.000000,0.000000
0.110170,-0.029081,-0.272347,0.000000,-1.000000,0.000000
0.165161,-0.029081,0.416189,0.000000,-1.000000,0.000000
-0.454983,-0.029081,-0.210265,0.000000,-1.000000,0.000000
-0.089188,-0.006720,0.536948,-0.163856,0.000000,0.986484
0.449796,-0.027150,-0.306514,0.826369,0.000000,-0.563129
-0.250205,-0.028321,-0.483389,-0.459679,0.000000,-0.888085
-0.045983,0.029081,-0.538004,0.000000,1.000000,0.000000
-0.296813,-0.009181,-0.293603,-0.746091,0.000000,-0.665844
0.038943,0.017222,0.368415,0.973567,0.000000,-0.228402
-0.009100,0.029081,-0.412134,0.000000,1.000000,0.000000
-0.446734,-0.029081,-0.296609,0.000000,-1.000000,0.000000
0.116497,0.029081,0.265235,0.000000,1.000000,0.000000
0.378083,0.029081,0.139501,0.000000,1.000000,0.000000
0.139653,-0.029081,0.393191,0.000000,-1.000000,0.000000
-0.140280,-0.029081,0.241761,0.000000,-1.000000,0.000000
0.296180,0.000744,0.294295,0.730273,0.000000,0.683156
0.343109,-0.002219,-0.020340,-0.861061,0.000000,-0.508502
0.418493,0.028465,0.348038,0.768859,0.000000,0.639419
-0.203468,0.135379,0.055106,-0.965226,0.000000,0.261415
-0.030965,0.201148,-0.208511,-0.146894,0.000000,-0.989152
-0.470948,-0.029081,0.269169,0.000000,-1.000000,0.000000
-0.316729,0.029081,-0.111894,0.000000,1.000000,0.000000
0.168491,0.230524,-0.126675,0.799303,0.000000,-0.600929
0.055488,0.000707,-0.203364,0.263227,0.000000,-0.964734
-0.209560,0.054975,0.022814,-0.994126,0.000000,0.108227
-0.108078,0.029081,-0.396951,0.000000,1.000000,0.000000
-0.261555,-0.029081,-0.145745,0.000000,-1.000000,0.000000
0.484080,-0.020403,-0.248865,0.889355,0.000000,-0.457218
0.156193,0.018560,-0.141562,0.740958,0.000000,-0.671551
0.412160,0.010747,-0.355516,0.757223,0.000000,-0.653156
-0.267303,0.029081,0.396321,0.000000,1.000000,0.000000
-0.315121,0.029081,0.087811,0.000000,1.000000,0.000000
0.068377,0.203522,0.199400,0.324371,0.000000,0.945930
-0.532056,-0.016795,0.114818,-0.977498,0.000000,0.210944
0.024282,0.029081,0.494797,0.000000,1.000000,0.000000
0.419092,-0.016381,0.347316,0.769960,0.000000,0.638092
0.207753,0.029081,-0.300380,0.000000,1.000000,0.000000
-0.003345,0.029081,-0.459220,0.000000,1.000000,0.000000
0.031620,-0.026887,-0.402050,0.790498,0.000000,-0.612464
-0.185684,-0.029081,-0.363230,0.000000,-1.000000,0.000000
0.007327,-0.011607,-0.416874,0.183179,0.000000,-0.983079
0.471734,0.029081,0.105459,0.000000,1.000000,0.000000
0.529645,-0.004712,-0.125472,0.973068,0.000000,-0.230517
-0.270954,0.027715,-0.227168,-0.099637,0.000000,0.995024
-0.230100,-0.029081,0.053533,0.000000,-1.000000,0.000000
-0.018524,-0.028854,-0.342099,-0.463094,0.000000,0.886309
0.289206,0.029081,0.009208,0.000000,1.000000,0.000000
-0.462382,-0.026689,0.287176,-0.849492,0.000000,0.527602
-0.304901,0.009580,0.279663,-0.948308,0.000000,0.317350
0.026234,0.009706,0.347356,0.655860,0.000000,-0.754882
0.008421,-0.006867,-0.544239,0.015470,0.000000,-0.999880
0.416811,-0.010465,-0.007658,0.981503,0.000000,-0.191446
0.397469,0.029081,-0.169705,0.000000,1.000000,0.000000
0.156404,-0.022625,0.141328,0.741962,0.000000,0.670442
-0.305330,0.000836,0.278301,-0.959032,0.000000,0.283296
0.007957,-0.029081,-0.407238,0.000000,-1.000000,0.000000
0.214351,0.029081,0.408788,0.000000,1.000000,0.000000
-0.011941,-0.019850,-0.210460,-0.056645,0.000000,-0.998394
0.067690,-0.029081,0.245624,0.000000,-1.000000,0.000000
0.306811,0.015496,0.270516,0.996060,0.000000,0.088681
-0.147340,0.074136,0.150754,-0.698964,0.000000,0.715156
-0.382553,-0.015030,0.387195,-0.702830,0.000000,0.711358
-0.036716,-0.016584,-0.361679,-0.917900,0.000000,0.396812
0.198442,0.230332,0.071109,0.941385,0.000000,0.337333
0.384594,-0.029081,0.053482,0.000000,-1.000000,0.000000
-0.301413,0.000272,0.246632,-0.861112,0.000000,-0.508415
-0.023097,0.219105,-0.209529,-0.109571,0.000000,-0.993979
0.349359,-0.010746,-0.417391,0.641845,0.000000,-0.766835
-0.248985,-0.015617,-0.302698,0.449609,0.000000,-0.893225
0.346772,-0.026503,0.025547,-0.769483,0.000000,0.638667
-0.416610,-0.007824,-0.008627,-0.976463,0.000000,-0.215685
0.181736,0.103529,0.106808,0.862131,0.000000,0.506686
-0.133654,0.131112,0.163011,-0.634036,0.000000,0.773303
-0.089974,0.029081,0.272851,0.000000,1.000000,0.000000
-0.035057,0.110016,0.207862,-0.166308,0.000000,0.986074
-0.044232,0.011894,0.542504,-0.081264,0.000000,0.996693
-0.210685,0.230587,0.006890,-0.999466,0.000000,0.032685
0.283258,0.011995,0.303502,0.407228,0.000000,0.913326
-0.010281,0.002104,-0.338895,-0.257028,0.000000,0.966404
-0.044361,-0.029081,-0.226538,0.000000,-1.000000,0.000000
-0.200416,0.182263,-0.065340,-0.950748,0.000000,-0.309965
0.042223,0.244801,-0.206526,0.200301,0.000000,-0.979734
0.401795,-0.029081,-0.266569,0.000000,-1.000000,0.000000
-0.311294,0.029081,0.370724,0.000000,1.000000,0.000000
-0.268700,-0.027065,0.306932,-0.043276,0.000000,0.999063
-0.015333,0.001729,-0.414496,-0.383326,0.000000,-0.923613
0.017419,-0.003215,-0.413559,0.435480,0.000000,-0.900198
-0.037765,0.026393,-0.364369,-0.944135,0.000000,0.329560
0.209075,0.134740,-0.026899,0.991825,0.000000,-0.127606
0.138926,-0.010730,-0.526276,0.255237,0.000000,-0.966879
0.133411,0.194150,-0.163210,0.632883,0.000000,-0.774247
0.456685,-0.029081,0.275795,0.000000,-1.000000,0.000000
-0.541044,0.016042,0.059489,-0.994010,0.000000,0.109294
0.263590,0.019515,-0.476222,0.484270,0.000000,-0.874919
-0.059550,0.029081,-0.521006,0.000000,1.000000,0.000000
-0.099265,-0.029081,0.435576,0.000000,-1.000000,0.000000
-0.077245,0.029081,0.259682,0.000000,1.000000,0.000000
-0.039955,0.001761,0.375661,-0.998882,0.000000,-0.047265
0.208581,0.022793,-0.030494,0.989482,0.000000,-0.144659
-0.050553,0.247977,-0.204647,-0.239815,0.000000,-0.970819
-0.316071,-0.029081,-0.259322,0.000000,-1.000000,0.000000
-0.025109,-0.029081,0.317596,0.000000,-1.000000,0.000000
-0.016669,-0.024535,-0.341190,-0.416736,0.000000,0.909028
0.286256,-0.012058,-0.462952,0.525912,0.000000,-0.850539
0.417525,-0.014396,0.001458,0.999336,0.000000,0.036449
0.105067,0.251049,-0.182748,0.498425,0.000000,-0.866933
0.402541,0.029081,0.262898,0.000000,1.000000,0.000000
0.073098,0.029081,0.290972,0.000000,1.000000,0.000000
-0.485761,-0.010929,-0.245567,-0.892444,0.000000,-0.451158
-0.143277,0.029081,0.271856,0.000000,1.000000,0.000000
-0.448682,-0.029081,-0.223978,0.000000,-1.000000,0.000000
-0.210498,0.240601,-0.011245,-0.998576,0.000000,-0.053343
0.227027,0.010514,-0.269121,-0.998551,0.000000,-0.053808
0.245081,0.029081,0.012668,0.000000,1.000000,0.000000
0.162499,-0.001704,-0.134276,0.770874,0.000000,-0.636988
0.272622,-0.029081,0.222909,0.000000,-1.000000,0.000000
-0.142130,-0.029081,0.195670,0.000000,-1.000000,0.000000
0.023245,0.029081,0.293491,0.000000,1.000000,0.000000
0.172837,0.029081,0.262963,0.000000,1.000000,0.000000
0.006806,-0.010553,-0.338135,0.170162,0.000000,0.985416
-0.181509,0.195244,-0.107193,-0.861055,0.000000,-0.508512
0.434994,0.008325,0.327180,0.799175,0.000000,0.601098
-0.214801,-0.029081,-0.217057,0.000000,-1.000000,0.000000
0.488940,0.029081,-0.057259,0.000000,1.000000,0.000000
-0.246648,0.027804,-0.232516,0.508037,0.000000,0.861335
0.021484,0.010115,0.411292,0.537095,0.000000,0.843522
-0.315746,0.029081,0.139293,0.000000,1.000000,0.000000
-0.304418,0.008904,0.252914,-0.936230,0.000000,-0.351387
0.270045,-0.018467,0.227087,0.076894,0.000000,-0.997039
-0.138513,-0.029081,-0.178273,0.000000,-1.000000,0.000000
0.210792,-0.023505,-0.001642,0.999970,0.000000,-0.007791
-0.122420,-0.029081,-0.223855,0.000000,-1.000000,0.000000
-0.459993,0.020238,-0.290987,-0.845103,0.000000,-0.534603
0.203325,0.168834,-0.055629,0.964551,0.000000,-0.263897
-0.349281,0.029081,-0.024497,0.000000,1.000000,0.000000
-0.304898,0.025223,-0.279674,-0.948217,0.000000,-0.317622
0.172946,0.193168,0.120522,0.820433,0.000000,0.571742
-0.029638,0.240183,-0.208704,-0.140599,0.000000,-0.990067
0.209977,0.115837,0.018585,0.996106,0.000000,0.088164
-0.417401,0.018844,0.003461,-0.996251,0.000000,0.086513
-0.410760,-0.029081,-0.131899,0.000000,-1.000000,0.000000
-0.382364,0.029081,-0.292178,0.000000,1.000000,0.000000
0.396020,0.009964,0.035481,0.461712,0.000000,0.887030
0.417370,-0.022838,-0.003804,0.995468,0.000000,-0.095094
-0.060191,0.029081,-0.291036,0.000000,1.000000,0.000000
0.300653,0.025423,-0.245396,0.842094,0.000000,0.539330
-0.461939,0.009637,-0.287889,-0.848677,0.000000,-0.528911
0.013076,0.029081,-0.259478,0.000000,1.000000,0.000000
-0.185464,-0.029081,-0.282380,0.000000,-1.000000,0.000000
0.209080,0.058704,0.026859,0.991850,0.000000,0.127414
-0.020603,-0.022221,0.411837,-0.515066,0.000000,0.857151
0.295955,0.029081,-0.117032,0.000000,1.000000,0.000000
-0.396506,-0.026201,-0.035224,-0.473883,0.000000,-0.880588
0.434234,0.029081,-0.178570,0.000000,1.000000,0.000000
0.291490,0.025265,0.298571,0.613034,0.000000,0.790056
-0.298656,0.029081,0.251994,0.000000,1.000000,0.000000
0.205082,0.072702,0.048755,0.972885,0.000000,0.231290
-0.227769,-0.023054,-0.259008,0.979992,0.000000,0.199036
0.377894,-0.006215,-0.039999,0.008565,0.000000,-0.999963
0.245339,0.019804,-0.300616,-0.540756,0.000000,-0.841180
0.130361,0.029081,0.302194,0.000000,1.000000,0.000000
-0.033349,0.009386,-0.399639,-0.833713,0.000000,-0.552197
-0.210120,0.122615,0.016900,-0.996781,0.000000,0.080170
0.036423,0.041891,0.207628,0.172786,0.000000,0.984959
-0.036521,0.027187,-0.393867,-0.913034,0.000000,-0.407884
0.025611,0.029081,-0.293336,0.000000,1.000000,0.000000
0.333577,-0.029081,-0.376891,0.000000,-1.000000,0.000000
-0.257684,0.029081,-0.111287,0.000000,1.000000,0.000000
0.367871,-0.029081,-0.261806,0.000000,-1.000000,0.000000
0.372163,0.025031,-0.039635,-0.134710,0.000000,-0.990885
0.279605,0.025392,0.304921,0.315911,0.000000,0.948789
0.264913,-0.015956,-0.227022,-0.051393,0.000000,0.998679
-0.541636,-0.023485,-0.053829,-0.995098,0.000000,-0.098895
-0.206202,0.068899,-0.043779,-0.978197,0.000000,-0.207681
-0.356453,0.024944,-0.411349,-0.654879,0.000000,-0.755734
-0.050231,0.029081,0.518861,0.000000,1.000000,0.000000
-0.208738,0.052030,-0.029399,-0.990227,0.000000,-0.139463
-0.155938,0.153629,0.141842,-0.739752,0.000000,0.672880
-0.156764,0.238287,-0.140929,-0.743668,0.000000,-0.668550
-0.005697,0.003859,0.417143,-0.142437,0.000000,0.989804
0.207873,0.024147,-0.034998,0.986122,0.000000,-0.166024
0.277016,0.024080,-0.468540,0.508936,0.000000,-0.860805
-0.103179,0.108030,-0.183820,-0.489469,0.000000,-0.872021
-0.442426,0.029081,0.094257,0.000000,1.000000,0.000000
0.002435,0.012048,-0.337625,0.060863,0.000000,0.998146
-0.155178,0.127065,-0.142673,-0.736145,0.000000,-0.676824
0.040388,-0.029081,-0.243482,0.000000,-1.000000,0.000000
-0.336824,0.027612,0.427571,-0.618816,0.000000,0.785536
-0.335200,0.029081,-0.029423,0.000000,1.000000,0.000000
-0.362951,-0.003389,0.037240,0.364995,0.000000,0.931009
0.026541,0.029015,0.347625,0.663525,0.000000,-0.748155
0.005937,-0.003638,0.417108,0.148435,0.000000,0.988922
-0.166867,0.011959,0.128807,-0.791596,0.000000,0.611045
0.508239,-0.029081,-0.064558,0.000000,-1.000000,0.000000
0.228867,0.002010,0.279144,-0.952554,0.000000,0.304371
0.151590,0.029081,0.228984,0.000000,1.000000,0.000000
0.347723,0.000402,-0.026651,-0.745699,0.000000,-0.666283
0.379373,0.029081,-0.296277,0.000000,1.000000,0.000000
-0.130740,0.139461,-0.165357,-0.620214,0.000000,-0.784432
-0.030411,0.016514,-0.351567,-0.760263,0.000000,0.649615
0.106076,0.029081,0.303708,0.000000,1.000000,0.000000
0.195047,0.023655,0.508157,0.358343,0.000000,0.933590
0.377661,0.029081,0.193961,0.000000,1.000000,0.000000
0.430867,-0.029081,-0.168046,0.000000,-1.000000,0.000000
-0.275541,0.029081,0.246972,0.000000,1.000000,0.000000
-0.117833,0.138202,0.174789,-0.558986,0.000000,0.829177
0.306800,0.014978,0.270640,0.995779,0.000000,0.091783
-0.340767,-0.007950,0.015713,0.919610,0.000000,0.392833
0.456864,-0.029081,0.176275,0.000000,-1.000000,0.000000
-0.280863,0.006828,-0.229460,-0.347348,0.000000,0.937736
-0.210643,0.088380,0.008083,-0.999265,0.000000,0.038346
0.276675,-0.029081,0.337386,0.000000,-1.000000,0.000000
0.367267,-0.010237,-0.038655,-0.257102,0.000000,-0.966384
0.187451,0.152326,-0.096426,0.889245,0.000000,-0.457432
-0.246942,-0.027041,0.301594,0.500684,0.000000,0.865630
-0.254436,0.008241,0.304955,0.313336,0.000000,0.949642
0.155271,0.053604,0.142572,0.736586,0.000000,0.676344
0.327053,-0.029081,-0.401184,0.000000,-1.000000,0.000000
0.062880,0.039927,0.201201,0.298297,0.000000,0.954473
0.389210,0.009444,0.038263,0.291474,0.000000,0.956579
-0.279522,0.016716,-0.228990,-0.313822,0.000000,0.949482
0.297467,-0.002769,-0.241087,0.762457,0.000000,0.647039
0.106411,-0.029081,-0.259134,0.000000,-1.000000,0.000000
0.251611,0.027496,-0.230035,-0.383947,0.000000,0.923355
-0.056292,0.029081,-0.258330,0.000000,1.000000,0.000000
-0.003884,-0.013185,0.544290,-0.007136,0.000000,0.999975
0.502916,0.023020,0.208189,0.923961,0.000000,0.382486
0.014429,0.183334,0.210304,0.068448,0.000000,0.997655
0.375038,-0.014651,-0.039921,-0.062824,0.000000,-0.998025
0.270483,0.029081,0.072121,0.000000,1.000000,0.000000
-0.301505,-0.029081,0.442812,0.000000,-1.000000,0.000000
-0.198239,-0.009628,-0.071673,-0.940422,0.000000,-0.340008
0.134081,-0.013815,-0.162659,0.636066,0.000000,-0.771635
-0.206756,0.210680,0.041081,-0.980826,0.000000,0.194883
-0.309772,-0.029081,-0.288256,0.000000,-1.000000,0.000000
-0.397134,0.022809,-0.372225,-0.729618,0.000000,-0.683855
-0.252096,0.007998,-0.304101,0.371837,0.000000,-0.928298
-0.332326,-0.029081,0.121340,0.000000,-1.000000,0.000000
0.138990,0.026310,0.158485,0.659352,0.000000,0.751834
-0.244561,-0.029081,-0.265860,0.000000,-1.000000,0.000000
-0.087157,0.091129,-0.191936,-0.413461,0.000000,-0.910522
-0.285702,0.011340,-0.302311,-0.468318,0.000000,-0.883560
-0.073000,0.029081,0.493096,0.000000,1.000000,0.000000
0.039900,-0.020503,-0.374727,0.997505,0.000000,0.070594
-0.298209,0.001924,0.241987,-0.780993,0.000000,-0.624540
-0.068957,0.125849,0.199200,-0.327126,0.000000,0.944981
-0.101760,-0.029081,-0.335535,0.000000,-1.000000,0.000000
0.138401,-0.029081,-0.486660,0.000000,-1.000000,0.000000
-0.139254,-0.027548,0.158253,-0.660605,0.000000,0.750734
-0.446531,0.029081,0.276374,0.000000,1.000000,0.000000
0.044793,-0.029081,0.513870,0.000000,-1.000000,0.000000
-0.196394,-0.029081,-0.136619,0.000000,-1.000000,0.000000
-0.172935,0.208190,-0.120537,-0.820384,0.000000,-0.571812
-0.036541,0.081870,0.207607,-0.173346,0.000000,0.984861
-0.242923,0.027186,-0.235003,0.601144,0.000000,0.799141
-0.173009,0.134945,-0.120431,-0.820733,0.000000,-0.571312
-0.517313,-0.027969,0.169277,-0.950411,0.000000,0.310997
-0.254078,-0.029081,0.336673,0.000000,-1.000000,0.000000
0.271277,0.022452,0.227202,0.107697,0.000000,-0.994184
-0.192157,-0.022713,-0.509257,-0.353033,0.000000,-0.935611
0.305615,-0.019869,0.277288,0.966150,0.000000,0.257983
0.201004,0.101024,-0.063507,0.953539,0.000000,-0.301270
-0.283012,-0.029081,-0.296127,0.000000,-1.000000,0.000000
0.473614,-0.029081,-0.081976,0.000000,-1.000000,0.000000
0.147500,-0.000173,-0.150597,0.699724,0.000000,-0.714413
0.344314,-0.000579,0.022255,-0.830925,0.000000,0.556385
0.238868,-0.027594,-0.295435,-0.702527,0.000000,-0.711657
0.120708,0.013898,0.530751,0.221765,0.000000,0.975100
0.210740,0.246456,-0.004940,0.999725,0.000000,-0.023433
-0.342817,0.007926,-0.019837,0.868365,0.000000,-0.495925
-0.083707,-0.029081,0.479535,0.000000,-1.000000,0.000000
0.081333,0.033974,-0.194476,0.385833,0.000000,-0.922569
-0.212253,0.029081,-0.139038,0.000000,1.000000,0.000000
-0.134617,0.222378,-0.162216,-0.638606,0.000000,-0.769534
-0.337904,0.007562,-0.005302,0.991176,0.000000,-0.132551
-0.021562,-0.029081,-0.476804,0.000000,-1.000000,0.000000
-0.337649,0.011453,-0.002793,0.997559,0.000000,-0.069822
-0.383405,-0.029081,0.139662,0.000000,-1.000000,0.000000
0.115378,0.004143,-0.531935,0.211974,0.000000,-0.977275
