x,y,z,nx,ny,nz
-16.232781,-4.749986,-42.711380,0.000000,-0.000000,1.000000
7.722466,-2.263167,35.149480,0.946930,-0.321440,0.000000
3.705862,-23.994850,-44.091375,0.195090,-0.980785,0.000000
-10.129445,15.881036,48.794910,0.000000,0.000000,1.000000
7.607130,-20.113252,-48.794910,0.000000,-0.000000,-1.000000
0.672302,-8.013294,-32.324377,0.065403,-0.997859,0.000000
0.246488,-7.185416,48.794910,0.000000,-0.000000,1.000000
17.578933,-8.817219,48.794910,0.000000,0.000000,1.000000
-4.462525,-6.687991,-32.839553,-0.555570,-0.831470,0.000000
-3.792953,7.094124,-8.110058,-0.442288,0.896873,0.000000
-1.060261,-19.001047,-44.393698,0.634393,0.773010,0.000000
0.648328,-8.014865,35.956453,0.065403,-0.997859,0.000000
-15.263285,-8.162646,48.794910,0.000000,0.000000,1.000000
2.770758,7.550162,8.311217,0.321440,0.946930,0.000000
9.514969,10.040580,-42.711380,0.000000,-0.000000,1.000000
4.222548,-10.679283,48.794910,-0.000000,0.000000,1.000000
-8.050782,0.100342,24.514288,-0.997859,0.065403,-0.000000
-8.032356,-0.381471,29.990024,-0.997859,-0.065403,0.000000
-3.303160,-0.626061,26.276578,0.995185,0.098017,0.000000
-7.466633,-20.494076,-42.711380,-0.000000,0.000000,1.000000
-15.832238,3.972986,48.794910,0.000000,0.000000,1.000000
-7.948874,1.250540,15.610837,-0.980785,0.195090,0.000000
-15.496360,-5.157361,42.711380,0.000000,0.000000,-1.000000
-15.862639,-18.352060,-47.804676,-0.659346,-0.751840,-0.000000
-9.375305,4.674692,48.794910,0.000000,0.000000,1.000000
-10.942221,1.859527,48.794910,0.000000,0.000000,1.000000
2.706924,-7.571831,29.369118,0.321440,-0.946930,0.000000
0.487027,-19.791309,-48.794910,0.000000,0.000000,-1.000000
-3.324151,-0.412941,-22.071609,0.995185,0.098017,-0.000000
7.821342,-1.891689,-19.374191,0.980785,-0.195090,0.000000
-6.549748,4.669419,-23.299441,-0.831470,0.555570,0.000000
-7.744811,2.197341,27.052015,-0.946930,0.321440,0.000000
-8.989754,-2.555053,48.794910,0.000000,0.000000,1.000000
-3.556066,7.210944,32.983023,-0.442288,0.896873,0.000000
7.204323,-3.569492,1.625261,0.896873,-0.442288,0.000000
15.086021,5.239778,-42.711380,0.000000,-0.000000,1.000000
-2.908308,7.503470,-41.290522,-0.321440,0.946930,0.000000
3.343342,-0.218087,44.376543,-0.995185,0.098017,0.000000
3.232851,-0.878358,44.824955,-0.956940,0.290284,0.000000
19.179504,1.523936,-48.794910,0.000000,-0.000000,-1.000000
6.895568,-4.151863,-8.003255,0.831470,-0.555570,0.000000
0.679860,-8.012798,-12.298600,0.065403,-0.997859,0.000000
7.707960,-2.305901,14.636284,0.946930,-0.321440,0.000000
-7.110918,3.758900,-0.299700,-0.896873,0.442288,0.000000
5.986854,-5.367368,16.027309,0.751840,-0.659346,0.000000
15.424590,14.051276,42.711380,0.000000,0.000000,-1.000000
-4.101266,6.929376,-11.687753,-0.555570,0.831470,0.000000
-11.462453,7.334747,42.711380,0.000000,-0.000000,-1.000000
2.690462,2.000122,2.003229,-0.773010,-0.634393,0.000000
2.353221,12.469922,-48.794910,0.000000,0.000000,-1.000000
5.154938,-6.173150,15.007581,0.659346,-0.751840,0.000000
13.098019,7.672966,-42.711380,0.000000,-0.000000,1.000000
-3.651136,-7.164061,-21.937480,-0.442288,-0.896873,0.000000
-3.956180,7.013630,14.780208,-0.442288,0.896873,0.000000
-16.449415,17.837472,-48.028283,-0.659346,0.751840,0.000000
-3.577560,-24.020371,-48.793293,-0.195090,-0.980785,0.000000
-21.730458,9.087121,-42.711380,-0.000000,-0.000000,1.000000
-20.867733,-12.430268,44.163816,-0.831470,-0.555570,-0.000000
6.545124,-4.676341,10.550404,0.831470,-0.555570,0.000000
23.520818,4.654901,-42.711380,0.000000,-0.000000,1.000000
-7.198407,-16.015338,-42.711380,0.000000,-0.000000,1.000000
2.443164,7.661365,-19.274072,0.321440,0.946930,0.000000
6.033209,-18.858235,42.711380,0.000000,0.000000,-1.000000
-4.447173,14.731959,-48.794910,0.000000,0.000000,-1.000000
-9.361365,-14.491243,-42.711380,-0.000000,0.000000,1.000000
9.427699,-8.504775,-42.711380,-0.000000,0.000000,1.000000
-7.416672,-3.138891,17.377820,-0.896873,-0.442288,-0.000000
-3.131933,1.211041,-36.788754,0.956940,-0.290284,0.000000
16.713818,-17.605596,43.880200,0.659346,-0.751840,0.000000
-7.268420,-17.105725,42.711380,0.000000,0.000000,-1.000000
7.275303,21.510138,48.794910,0.000000,-0.000000,1.000000
18.541221,-1.516252,-48.691944,-0.634393,0.773010,0.000000
7.854232,1.726339,15.283016,0.980785,0.195090,-0.000000
9.767071,-17.825000,-42.711380,0.000000,-0.000000,1.000000
7.086474,3.808466,16.041610,0.896873,0.442288,-0.000000
3.022792,7.464608,-7.601440,0.321440,0.946930,0.000000
0.571219,-7.684480,-48.794910,0.000000,-0.000000,-1.000000
-1.994417,-14.269285,-42.711380,0.000000,-0.000000,1.000000
-24.273532,0.538401,44.664504,-0.997859,0.065403,0.000000
13.124794,14.387645,-48.794910,0.000000,0.000000,-1.000000
-10.663352,-12.159141,48.794910,-0.000000,-0.000000,1.000000
-23.363133,-6.637391,44.470578,-0.946930,-0.321440,-0.000000
-0.170686,-15.679171,-47.878897,0.098016,-0.995185,-0.000000
-6.925440,16.463518,-48.794910,0.000000,0.000000,-1.000000
-6.615067,-4.571663,-7.620707,-0.831470,-0.555570,0.000000
-1.832976,-17.573576,45.417649,0.995185,0.098018,-0.000000
-0.803209,14.501692,-42.711380,-0.000000,-0.000000,1.000000
4.210856,-6.205664,48.794910,-0.000000,0.000000,1.000000
-14.607168,-19.413176,46.715881,-0.555570,-0.831470,0.000000
-13.492456,-2.403533,-42.711380,0.000000,-0.000000,1.000000
9.926241,22.150867,44.853450,0.442289,0.896873,-0.000000
13.283303,2.793213,-42.711380,0.000000,-0.000000,1.000000
8.424250,3.302585,-48.794910,0.000000,-0.000000,-1.000000
-7.512680,2.881177,-21.134408,-0.946930,0.321440,0.000000
-5.278954,22.577597,48.794910,0.000000,0.000000,1.000000
-7.072231,-3.837349,40.579195,-0.896873,-0.442288,0.000000
-6.409803,-4.878862,-9.047745,-0.831470,-0.555570,0.000000
1.389462,-5.620890,-48.794910,0.000000,-0.000000,-1.000000
-7.621182,-2.561540,18.995864,-0.946930,-0.321440,0.000000
-8.471396,7.026104,-42.711380,-0.000000,0.000000,1.000000
2.877420,1.720338,-40.125206,-0.881921,-0.471397,0.000000
-20.379092,11.114783,42.711380,0.000000,0.000000,-1.000000
2.572821,7.617353,28.034538,0.321440,0.946930,-0.000000
-6.915469,4.122079,-19.882947,-0.831470,0.555570,0.000000
8.014770,-0.649771,-27.949124,0.997859,-0.065403,0.000000
-5.121423,-6.202542,-22.559516,-0.659346,-0.751840,-0.000000
-16.070160,9.821163,48.794910,0.000000,0.000000,1.000000
-24.015011,2.227254,-48.794910,0.000000,0.000000,-1.000000
0.843338,-3.243474,31.807560,-0.290284,0.956940,0.000000
1.333864,3.570725,48.794910,-0.000000,0.000000,1.000000
-10.647542,-1.102217,48.794910,0.000000,0.000000,1.000000
6.337876,-3.701951,-48.794910,0.000000,-0.000000,-1.000000
2.348282,2.404735,46.220485,-0.634393,-0.773010,0.000000
-8.031625,-0.392613,-5.705842,-0.997859,-0.065403,0.000000
16.635032,1.612706,46.892388,0.471395,-0.881922,0.000000
1.628188,-2.926675,-24.717590,-0.471397,0.881921,0.000000
8.692892,22.665384,-45.420492,0.321440,0.946930,0.000000
6.506083,-4.734769,8.075551,0.831470,-0.555570,0.000000
-3.558039,-2.881444,-48.794910,-0.000000,-0.000000,-1.000000
12.916893,-20.542581,-48.697576,0.555570,-0.831470,0.000000
-12.182958,-13.096792,48.794910,0.000000,0.000000,1.000000
-19.761473,-11.035762,-48.794910,0.000000,0.000000,-1.000000
14.870043,-12.579675,-48.794910,0.000000,-0.000000,-1.000000
-22.220046,9.755262,48.794910,-0.000000,-0.000000,1.000000
0.389671,8.837509,42.711380,0.000000,-0.000000,-1.000000
15.613430,10.178464,42.711380,0.000000,0.000000,-1.000000
-7.527986,16.663250,-48.794910,0.000000,0.000000,-1.000000
6.673504,7.879744,48.794910,0.000000,-0.000000,1.000000
-19.864486,-10.426341,42.711380,0.000000,-0.000000,-1.000000
-11.012652,16.954986,42.711380,0.000000,0.000000,-1.000000
11.798935,6.173502,42.711380,0.000000,0.000000,-1.000000
-14.945325,15.045324,48.794910,0.000000,0.000000,1.000000
-14.274626,9.256525,-48.794910,0.000000,0.000000,-1.000000
-1.994903,-2.694745,36.010306,0.634393,0.773010,0.000000
-17.963352,16.305876,-43.784503,-0.751840,0.659346,0.000000
-17.402441,8.712337,-42.711380,-0.000000,-0.000000,1.000000
16.715030,5.315285,48.794910,0.000000,0.000000,1.000000
-15.954257,-13.419991,-42.711380,-0.000000,0.000000,1.000000
1.799423,-21.209295,-42.711380,0.000000,0.000000,1.000000
-6.486036,4.764772,38.630718,-0.831470,0.555570,0.000000
15.648464,-8.966043,-48.794910,0.000000,-0.000000,-1.000000
-19.926842,13.838412,-44.493624,-0.831470,0.555570,0.000000
-6.546107,7.883123,48.794910,0.000000,0.000000,1.000000
-8.033070,-0.370576,32.374177,-0.997859,-0.065403,0.000000
12.948290,-7.769113,48.794910,0.000000,-0.000000,1.000000
-0.063057,-3.488178,-48.794910,0.000000,-0.000000,-1.000000
-0.234795,-19.319216,-48.726875,0.098022,0.995184,-0.000000
3.356886,-0.080573,44.254224,-0.995185,0.098017,0.000000
-10.118994,12.886688,-48.794910,0.000000,0.000000,-1.000000
-19.148309,5.670704,42.711380,0.000000,0.000000,-1.000000
-6.994707,-1.249141,48.794910,0.000000,0.000000,1.000000
-3.017721,1.457852,10.377884,0.881921,-0.471397,0.000000
0.970309,3.204958,43.109563,-0.290284,-0.956940,0.000000
3.331046,0.342933,-37.336225,-0.995185,-0.098017,0.000000
7.625854,2.547777,41.500773,0.946930,0.321440,-0.000000
-10.842312,-16.421984,48.794910,-0.000000,-0.000000,1.000000
-17.437092,12.502079,-42.711380,-0.000000,-0.000000,1.000000
0.733635,3.276752,1.112455,-0.290284,-0.956940,0.000000
-6.358842,-3.117558,-48.794910,0.000000,0.000000,-1.000000
-2.796468,1.870953,-10.367559,0.773010,-0.634393,0.000000
-2.813012,-1.840836,22.143154,0.881921,0.471397,0.000000
-16.853623,-2.525243,48.794910,-0.000000,-0.000000,1.000000
-18.721337,15.441559,-46.697101,-0.751840,0.659346,0.000000
-6.032358,0.102435,48.794910,0.000000,0.000000,1.000000
-3.456037,24.044543,-46.700077,-0.195090,0.980785,0.000000
6.913023,-4.125740,10.739202,0.831470,-0.555570,0.000000
5.255840,21.739497,42.711380,0.000000,0.000000,-1.000000
-2.390822,14.911993,48.794910,0.000000,-0.000000,1.000000
-6.957301,-7.268934,-48.794910,0.000000,0.000000,-1.000000
8.055009,20.724243,-42.711380,0.000000,-0.000000,1.000000
7.973228,-1.128106,-38.857705,0.980785,-0.195090,0.000000
-5.270515,6.071792,-20.288004,-0.659346,0.751840,0.000000
3.336892,-0.283571,-3.481313,-0.995185,0.098017,0.000000
7.399846,-10.691189,-42.711380,-0.000000,0.000000,1.000000
-5.878633,-5.490771,-19.089315,-0.751840,-0.659346,0.000000
15.766696,0.586363,-44.057065,0.956940,-0.290287,0.000000
0.477554,8.026058,-36.526940,0.065403,0.997859,0.000000
21.573368,4.388983,48.794910,0.000000,-0.000000,1.000000
3.221770,-0.914887,42.388404,-0.956940,0.290284,0.000000
-9.310181,4.837139,48.794910,0.000000,0.000000,1.000000
-7.998847,-0.892715,19.470291,-0.997859,-0.065403,0.000000
-8.024500,-0.501332,5.196980,-0.997859,-0.065403,0.000000
-11.228019,21.508901,-42.991743,-0.442289,0.896873,0.000000
-16.208135,-10.707313,42.711380,0.000000,0.000000,-1.000000
-2.755035,7.555499,-25.594244,-0.321440,0.946930,0.000000
-1.581592,-24.205157,-43.776376,-0.065403,-0.997859,0.000000
-21.430068,11.387876,-42.842750,-0.896873,0.442289,0.000000
0.044118,-8.054467,28.469885,0.065403,-0.997859,0.000000
-7.918051,1.405499,13.953748,-0.980785,0.195090,0.000000
-1.532105,7.892867,-9.486048,-0.195090,0.980785,0.000000
-6.715351,22.126527,48.794910,0.000000,0.000000,1.000000
8.001100,-0.858334,19.246886,0.997859,-0.065403,0.000000
0.274671,9.604829,48.794910,-0.000000,-0.000000,1.000000
-19.759172,-5.886960,48.794910,-0.000000,-0.000000,1.000000
19.720139,-2.709957,42.711380,0.000000,0.000000,-1.000000
-4.050490,-9.458121,42.711380,0.000000,0.000000,-1.000000
15.293974,4.077667,-48.794910,0.000000,0.000000,-1.000000
23.627051,3.629701,-48.794910,0.000000,0.000000,-1.000000
4.399896,-6.729838,-32.865795,0.555570,-0.831470,0.000000
-23.400621,-6.526957,-46.259984,-0.946930,-0.321440,-0.000000
3.073412,1.353663,33.260033,-0.881921,-0.471397,0.000000
-7.694629,-3.314232,48.794910,0.000000,0.000000,1.000000
22.837568,8.185656,47.958697,0.946930,0.321440,-0.000000
9.337514,-9.759186,48.794910,0.000000,-0.000000,1.000000
-2.426338,2.321958,26.958276,0.773010,-0.634393,0.000000
-17.152814,-17.220607,-48.353602,-0.659346,-0.751840,-0.000000
0.203915,19.322258,-43.579053,-0.098022,-0.995184,0.000000
-12.253311,-18.294007,42.711380,0.000000,-0.000000,-1.000000
3.342600,0.225622,-16.089722,-0.995185,-0.098017,0.000000
-3.395629,-0.433924,-48.794910,-0.000000,-0.000000,-1.000000
19.514163,-14.456030,45.407533,0.831470,-0.555570,0.000000
18.535806,-1.520696,46.543249,-0.634393,0.773010,0.000000
-8.190064,-3.274344,42.711380,0.000000,0.000000,-1.000000
-2.783424,-24.126385,47.642644,-0.065403,-0.997859,0.000000
0.841284,-8.089005,-42.711380,-0.000000,-0.000000,1.000000
0.249354,-8.041015,-28.300559,0.065403,-0.997859,0.000000
4.207331,15.166241,42.711380,0.000000,-0.000000,-1.000000
-19.202671,12.316945,42.711380,0.000000,0.000000,-1.000000
7.373396,3.226646,31.348081,0.896873,0.442288,-0.000000
15.582405,1.756912,48.794910,0.000000,0.000000,1.000000
6.497642,4.747402,-35.044883,0.831470,0.555570,0.000000
5.813436,5.565114,-38.578018,0.751840,0.659346,0.000000
1.866986,-7.826256,-37.360063,0.195090,-0.980785,0.000000
-8.927902,-15.042538,-42.711380,-0.000000,0.000000,1.000000
21.299971,4.873108,48.794910,0.000000,-0.000000,1.000000
-24.304486,0.066130,-45.792180,-0.997859,0.065403,0.000000
-1.056071,-16.000216,-47.565268,0.634392,-0.773012,0.000000
-21.106350,10.571429,-48.794910,0.000000,0.000000,-1.000000
16.398171,-1.462654,48.166346,0.634393,0.773010,0.000000
-8.170579,-22.842686,42.822192,-0.321440,-0.946930,0.000000
-15.909066,-0.903652,42.860948,-0.881921,0.471397,0.000000
-22.865688,-2.606851,42.711380,0.000000,0.000000,-1.000000
23.625399,5.346865,-48.794910,0.000000,0.000000,-1.000000
7.879052,1.601561,19.138684,0.980785,0.195090,-0.000000
16.196732,-1.295527,47.704971,0.773012,0.634392,0.000000
1.454457,-3.019536,-2.968771,-0.471397,0.881921,0.000000
-23.622957,1.839325,48.794910,0.000000,0.000000,1.000000
2.963138,1.559970,29.850856,-0.881921,-0.471397,0.000000
7.990484,-1.020314,16.975621,0.997859,-0.065403,0.000000
-2.357649,7.690394,-24.336313,-0.321440,0.946930,0.000000
1.019546,3.190022,44.571051,-0.290284,-0.956940,0.000000
7.865341,1.670492,-34.361103,0.980785,0.195090,0.000000
18.905350,-3.703736,-42.711380,-0.000000,0.000000,1.000000
-18.930984,1.145634,-44.557217,0.773010,-0.634393,0.000000
6.553868,-4.663254,8.824584,0.831470,-0.555570,0.000000
-0.278100,3.337431,-32.184198,0.098017,-0.995185,-0.000000
-18.336070,-12.433400,-42.711380,0.000000,-0.000000,1.000000
-3.466390,-7.255167,0.278946,-0.442288,-0.896873,0.000000
-13.750982,-6.146928,-42.711380,0.000000,-0.000000,1.000000
-4.174670,6.880329,22.093024,-0.555570,0.831470,0.000000
21.725361,1.104719,-42.711380,0.000000,-0.000000,1.000000
22.695396,1.532584,-42.711380,0.000000,-0.000000,1.000000
3.331545,0.337860,-35.575936,-0.995185,-0.098017,0.000000
20.959789,8.709939,-48.794910,0.000000,0.000000,-1.000000
-1.541704,7.890958,39.367585,-0.195090,0.980785,0.000000
-1.761846,-24.193343,-48.683179,-0.065403,-0.997859,0.000000
2.243551,-2.490685,25.897563,-0.634393,0.773010,0.000000
-2.513668,-2.215545,-2.404998,0.773010,0.634393,0.000000
-2.585593,2.127906,3.566044,0.773010,-0.634393,0.000000
-0.477969,19.614141,48.794910,-0.000000,0.000000,1.000000
-1.982898,11.625034,-42.711380,0.000000,-0.000000,1.000000
18.492216,3.801462,42.711380,0.000000,0.000000,-1.000000
2.787647,-7.544429,-24.977573,0.321440,-0.946930,0.000000
-1.640369,-7.871332,13.329551,-0.195090,-0.980785,0.000000
-8.104224,-16.349945,-42.711380,0.000000,-0.000000,1.000000
-7.281746,-3.412495,32.071187,-0.896873,-0.442288,0.000000
23.211740,3.381605,42.711380,0.000000,0.000000,-1.000000
-9.636653,-2.403929,48.794910,0.000000,0.000000,1.000000
2.636473,7.595746,-12.617772,0.321440,0.946930,0.000000
-0.718554,19.194573,-48.077925,0.471395,-0.881922,0.000000
-3.382569,7.296504,19.793894,-0.442288,0.896873,0.000000
-7.996199,-0.933119,4.199420,-0.997859,-0.065403,0.000000
7.927857,6.122327,-48.794910,0.000000,-0.000000,-1.000000
9.991327,-7.539898,42.711380,0.000000,-0.000000,-1.000000
-0.922225,-3.219544,14.342286,0.290284,0.956940,0.000000
-2.897402,-7.507172,-23.065631,-0.321440,-0.946930,0.000000
-12.431968,-11.099161,42.711380,0.000000,-0.000000,-1.000000
-0.198798,19.552933,-42.711380,-0.000000,0.000000,1.000000
-6.379186,23.450782,-48.612530,-0.321440,0.946930,0.000000
0.976016,7.993387,-22.037665,0.065403,0.997859,0.000000
-7.873786,1.628034,22.184927,-0.980785,0.195090,0.000000
-4.505056,6.659573,37.667482,-0.555570,0.831470,0.000000
-6.203929,-6.375725,42.711380,0.000000,0.000000,-1.000000
-15.593228,-15.128217,-48.794910,-0.000000,-0.000000,-1.000000
11.613892,4.583947,42.711380,0.000000,0.000000,-1.000000
-3.296595,0.668222,-4.345950,0.956940,-0.290284,0.000000
-19.064706,3.653791,42.711380,0.000000,0.000000,-1.000000
12.825088,17.349490,48.794910,0.000000,-0.000000,1.000000
7.996514,0.928302,32.705767,0.997859,0.065403,-0.000000
15.097251,-14.000347,-42.711380,-0.000000,0.000000,1.000000
20.295065,13.287327,43.277575,0.831470,0.555570,0.000000
-18.475245,15.722173,47.829414,-0.751840,0.659346,0.000000
8.005798,-0.786664,31.496912,0.997859,-0.065403,0.000000
-2.460881,-2.279867,16.694027,0.773010,0.634393,0.000000
-4.969928,4.411424,-48.794910,-0.000000,-0.000000,-1.000000
7.079603,-3.822399,31.883567,0.896873,-0.442288,0.000000
-23.902823,4.168515,-47.150479,-0.980785,0.195090,0.000000
-15.449925,-8.984358,48.794910,0.000000,0.000000,1.000000
3.321068,0.444235,-3.917905,-0.995185,-0.098017,0.000000
0.862082,-11.194551,-48.794910,-0.000000,0.000000,-1.000000
-7.934399,1.323311,2.664573,-0.980785,0.195090,0.000000
-10.770510,-14.965168,48.794910,0.000000,0.000000,1.000000
-3.349215,-0.158462,-7.559447,0.995185,0.098017,-0.000000
-22.473755,-9.257412,47.110533,-0.946930,-0.321440,0.000000
13.551415,3.191487,48.794910,0.000000,-0.000000,1.000000
-3.085606,7.442949,11.464322,-0.442288,0.896873,0.000000
21.570670,-6.749121,-42.711380,-0.000000,0.000000,1.000000
-6.049146,16.979529,48.794910,0.000000,0.000000,1.000000
-0.263347,8.040098,11.617483,-0.065403,0.997859,0.000000
-21.448742,-0.170667,-48.794910,0.000000,0.000000,-1.000000
-15.902847,-2.832861,48.794910,-0.000000,-0.000000,1.000000
2.997071,1.496486,30.090881,-0.881921,-0.471397,0.000000
9.972929,22.127843,47.564985,0.442289,0.896873,-0.000000
3.434323,7.270981,32.034703,0.442288,0.896873,-0.000000
-2.852033,-7.522573,25.929748,-0.321440,-0.946930,0.000000
-7.463056,3.027364,-9.782617,-0.946930,0.321440,0.000000
-12.590010,-0.820415,48.794910,0.000000,0.000000,1.000000
-17.773397,13.472568,48.794910,0.000000,0.000000,1.000000
3.026317,-7.463411,22.197459,0.321440,-0.946930,0.000000
6.727719,-4.403067,13.677286,0.831470,-0.555570,0.000000
3.336560,7.443347,42.711380,0.000000,-0.000000,-1.000000
2.767362,1.906419,-19.362785,-0.773010,-0.634393,0.000000
15.852461,-14.994644,-42.711380,-0.000000,0.000000,1.000000
10.024109,-13.982032,-48.794910,0.000000,0.000000,-1.000000
1.296059,-7.939820,-0.590377,0.195090,-0.980785,0.000000
-2.780952,-3.384451,-48.794910,0.000000,0.000000,-1.000000
7.248734,3.774562,-42.711380,0.000000,-0.000000,1.000000
-2.126354,7.768908,37.374688,-0.321440,0.946930,0.000000
-3.217490,0.928997,-21.225187,0.956940,-0.290284,0.000000
-0.115703,-3.353426,-2.837503,0.098017,0.995185,0.000000
8.858879,-4.996860,-48.794910,0.000000,0.000000,-1.000000
19.315157,-14.753864,46.595656,0.831470,-0.555570,0.000000
2.423991,15.333469,42.711380,0.000000,-0.000000,-1.000000
17.585232,-9.381336,-42.711380,-0.000000,0.000000,1.000000
-0.396071,-8.031399,10.685108,-0.065403,-0.997859,0.000000
21.091972,-12.073467,-47.980353,0.896873,-0.442289,0.000000
7.814208,-1.927554,-1.032007,0.980785,-0.195090,0.000000
16.990783,-1.969911,-42.711380,-0.000000,-0.000000,1.000000
-7.620076,-2.564799,23.871427,-0.946930,-0.321440,0.000000
-5.775959,8.209990,42.711380,0.000000,-0.000000,-1.000000
7.731340,6.934853,-42.711380,-0.000000,0.000000,1.000000
-3.453751,-7.261400,16.251858,-0.442288,-0.896873,0.000000
12.548912,-13.406852,-42.711380,-0.000000,0.000000,1.000000
8.601530,-4.571949,-42.711380,-0.000000,-0.000000,1.000000
7.918291,-1.404294,24.134577,0.980785,-0.195090,0.000000
-10.073334,22.078329,43.305257,-0.442289,0.896873,0.000000
18.740489,10.256857,-48.794910,0.000000,0.000000,-1.000000
-14.063160,12.369374,48.794910,0.000000,0.000000,1.000000
-12.201933,-21.020302,46.852021,-0.555570,-0.831470,0.000000
7.788912,2.054724,0.970812,0.980785,0.195090,-0.000000
12.704686,2.092354,48.794910,0.000000,-0.000000,1.000000
2.815658,1.835886,48.625909,-0.881921,-0.471397,0.000000
4.482760,15.984546,42.711380,0.000000,-0.000000,-1.000000
7.273213,10.289170,42.711380,0.000000,0.000000,-1.000000
4.457099,-6.691616,-13.122660,0.555570,-0.831470,0.000000
7.315598,-3.343848,-33.822682,0.896873,-0.442288,0.000000
-14.977966,18.783462,42.711380,0.000000,0.000000,-1.000000
2.676900,-24.133367,44.502026,0.065403,-0.997859,0.000000
19.190730,0.725742,48.435600,-0.881922,-0.471395,0.000000
-7.989389,-1.037020,24.883298,-0.997859,-0.065403,0.000000
-2.590816,-2.121540,31.848177,0.773010,0.634393,0.000000
20.417355,-2.648053,42.711380,0.000000,0.000000,-1.000000
5.260307,6.080745,-40.601515,0.659346,0.751840,0.000000
-10.946950,-21.647509,-44.768076,-0.442289,-0.896873,0.000000
1.873916,2.794036,-24.550595,-0.634393,-0.773010,0.000000
24.221999,1.324637,-46.787857,0.997859,0.065403,0.000000
-9.661426,-8.720501,42.711380,0.000000,-0.000000,-1.000000
0.848875,9.902746,-42.711380,-0.000000,0.000000,1.000000
-1.065886,-3.175965,-17.067183,0.290284,0.956940,-0.000000
7.884468,1.574332,-14.443373,0.980785,0.195090,0.000000
3.294555,-0.674946,-25.601099,-0.956940,0.290284,0.000000
2.539632,-7.628619,-35.059783,0.321440,-0.946930,0.000000
4.432604,6.707984,-38.126405,0.555570,0.831470,0.000000
23.759064,4.891240,-44.628356,0.980785,0.195090,-0.000000
6.953993,-4.064424,-19.504338,0.831470,-0.555570,0.000000
23.461713,-4.868004,-48.794910,0.000000,-0.000000,-1.000000
-22.710676,5.698481,42.711380,0.000000,0.000000,-1.000000
10.508596,-1.183025,-42.711380,-0.000000,-0.000000,1.000000
6.267077,-9.196705,-48.794910,0.000000,0.000000,-1.000000
14.533976,-0.760317,-48.794910,0.000000,-0.000000,-1.000000
21.890003,-7.512676,48.794910,0.000000,0.000000,1.000000
-6.206453,-5.116964,0.781761,-0.751840,-0.659346,0.000000
-2.138063,2.577257,-8.061424,0.634393,-0.773010,0.000000
5.702257,5.691890,10.268445,0.751840,0.659346,-0.000000
-7.653334,2.466824,-39.183730,-0.946930,0.321440,0.000000
2.123599,-10.990708,48.794910,-0.000000,0.000000,1.000000
-1.344045,3.078552,37.719766,0.471397,-0.881921,0.000000
1.815038,17.755698,-43.187672,-0.995185,-0.098018,0.000000
-8.055599,-0.026855,33.491709,-0.997859,-0.065403,0.000000
-20.904807,-10.819799,42.711380,0.000000,-0.000000,-1.000000
0.524591,-19.256744,46.481648,-0.290284,0.956941,0.000000
-16.788902,-13.373202,-42.711380,-0.000000,0.000000,1.000000
4.458260,-23.845189,-45.452616,0.195090,-0.980785,0.000000
-10.126962,2.038323,42.711380,0.000000,-0.000000,-1.000000
6.101782,-5.236319,27.909117,0.751840,-0.659346,0.000000
-3.177382,24.099971,-43.654884,-0.195090,0.980785,0.000000
3.479273,7.248814,-9.713234,0.442288,0.896873,0.000000
-6.403035,-4.888991,20.909961,-0.831470,-0.555570,0.000000
-19.735391,-9.154276,42.711380,0.000000,-0.000000,-1.000000
1.132509,-20.114024,-42.711380,0.000000,0.000000,1.000000
7.170058,-3.638975,-22.336654,0.896873,-0.442288,0.000000
6.719940,9.721514,42.711380,0.000000,0.000000,-1.000000
-4.642786,16.293402,48.794910,0.000000,0.000000,1.000000
12.136573,-16.776023,-42.711380,-0.000000,0.000000,1.000000
2.882223,-1.711351,-8.963857,-0.881921,0.471397,0.000000
3.193777,-1.007167,31.617333,-0.956940,0.290284,0.000000
-2.575477,-20.888362,-42.711380,0.000000,0.000000,1.000000
-14.100232,-19.751899,-46.737814,-0.555570,-0.831470,0.000000
5.661150,-5.729215,35.180052,0.659346,-0.751840,0.000000
-24.120360,-2.875354,48.424810,-0.997859,-0.065403,0.000000
3.266698,0.766780,-8.970587,-0.956940,-0.290284,0.000000
-1.073193,-7.984151,-4.283477,-0.195090,-0.980785,0.000000
-3.281224,-7.346481,-35.526772,-0.442288,-0.896873,0.000000
-13.728886,6.668066,48.794910,0.000000,0.000000,1.000000
3.437200,-7.269563,13.103428,0.442288,-0.896873,0.000000
2.733766,-20.698051,-48.794910,0.000000,0.000000,-1.000000
7.227555,-3.522382,41.252662,0.896873,-0.442288,0.000000
-7.693216,23.004729,43.612508,-0.321440,0.946930,0.000000
5.902412,5.463656,16.255588,0.751840,0.659346,-0.000000
1.490752,-24.211111,-48.339706,0.065403,-0.997859,0.000000
1.677054,3.534759,48.794910,0.000000,-0.000000,1.000000
-0.973471,-7.993554,-29.525150,-0.065403,-0.997859,0.000000
-8.010918,0.708551,-9.421355,-0.997859,0.065403,0.000000
11.471367,18.443027,-42.711380,0.000000,-0.000000,1.000000
5.622558,8.702211,-42.711380,-0.000000,0.000000,1.000000
15.764181,13.587235,-42.711380,0.000000,-0.000000,1.000000
-2.897610,-1.682564,25.299134,0.881921,0.471397,0.000000
12.461203,12.613318,-42.711380,0.000000,-0.000000,1.000000
5.633305,-5.753634,-26.813481,0.659346,-0.751840,0.000000
6.812450,5.357296,-42.711380,-0.000000,0.000000,1.000000
-4.085508,8.283684,-48.794910,0.000000,0.000000,-1.000000
-3.760524,18.067878,-42.711380,0.000000,0.000000,1.000000
13.577316,-5.054119,-48.794910,0.000000,0.000000,-1.000000
22.681233,8.646201,46.869241,0.946930,0.321440,-0.000000
17.499149,1.839675,-42.953636,0.098017,-0.995185,0.000000
10.666811,6.357003,48.794910,0.000000,-0.000000,1.000000
2.195188,7.745542,27.416337,0.321440,0.946930,-0.000000
-3.001816,1.487608,-17.467025,0.881921,-0.471397,0.000000
21.195202,11.426194,48.794910,0.000000,-0.000000,1.000000
8.051029,0.096566,-29.296934,0.997859,0.065403,0.000000
6.709860,4.429796,-1.865580,0.831470,0.555570,0.000000
6.296046,-16.288032,-42.711380,0.000000,-0.000000,1.000000
-5.269107,23.683902,-47.091263,-0.195090,0.980785,0.000000
-3.919911,18.283656,48.794910,0.000000,0.000000,1.000000
-1.610370,-14.052592,-48.794910,0.000000,-0.000000,-1.000000
7.466692,3.016654,11.248998,0.946930,0.321440,-0.000000
6.753017,-4.365206,24.188882,0.831470,-0.555570,0.000000
-19.160374,11.955319,-48.794910,0.000000,0.000000,-1.000000
4.314380,4.942716,-48.794910,0.000000,0.000000,-1.000000
17.739569,16.561051,-42.863053,0.751840,0.659346,-0.000000
6.283905,5.028646,40.842276,0.751840,0.659346,-0.000000
22.846499,8.159345,47.453847,0.946930,0.321440,-0.000000
15.757604,-15.822266,48.794910,0.000000,0.000000,1.000000
19.844072,-6.081515,-42.711380,-0.000000,0.000000,1.000000
-7.531693,2.825168,25.128112,-0.946930,0.321440,0.000000
8.835237,-11.558592,-42.711380,-0.000000,0.000000,1.000000
-1.725844,7.854330,4.526640,-0.195090,0.980785,0.000000
-7.463562,3.025873,22.255179,-0.946930,0.321440,0.000000
3.890383,-7.046077,6.122062,0.442288,-0.896873,0.000000
10.377957,9.515817,42.711380,0.000000,0.000000,-1.000000
15.706122,-0.386680,46.492226,0.956940,0.290287,-0.000000
3.457504,16.206394,-42.711380,0.000000,-0.000000,1.000000
-6.537736,-4.687397,-31.837703,-0.831470,-0.555570,-0.000000
11.781383,-3.383188,48.794910,0.000000,0.000000,1.000000
16.802196,-8.788997,-42.711380,-0.000000,0.000000,1.000000
-2.261334,-2.476091,22.765645,0.634393,0.773010,-0.000000
20.986952,-3.595801,-48.794910,0.000000,-0.000000,-1.000000
0.171846,-3.347896,45.878729,-0.098017,0.995185,0.000000
7.685305,-2.372641,9.029982,0.946930,-0.321440,0.000000
6.531559,-4.893868,-42.711380,-0.000000,-0.000000,1.000000
-15.107321,5.476780,-42.711380,-0.000000,-0.000000,1.000000
-15.234330,-18.903072,-47.524239,-0.659346,-0.751840,0.000000
10.027183,-0.765809,48.794910,0.000000,-0.000000,1.000000
-4.965353,15.354490,48.794910,0.000000,0.000000,1.000000
3.455281,-16.299830,48.794910,0.000000,-0.000000,1.000000
21.411793,9.495086,42.711380,0.000000,0.000000,-1.000000
6.841076,-4.233416,-11.921669,0.831470,-0.555570,0.000000
-10.835462,-1.177528,48.794910,0.000000,0.000000,1.000000
-1.376234,24.218617,43.069268,-0.065403,0.997859,0.000000
-7.180550,10.408076,-48.794910,0.000000,0.000000,-1.000000
7.798363,22.969036,45.586540,0.321440,0.946930,0.000000
17.509389,1.839298,47.842736,-0.098018,-0.995185,0.000000
-12.600131,-14.634169,48.794910,-0.000000,-0.000000,1.000000
-6.523554,-4.708621,-2.446980,-0.831470,-0.555570,0.000000
20.792694,-5.234532,48.794910,0.000000,0.000000,1.000000
2.973752,1.540112,-35.954001,-0.881921,-0.471397,0.000000
9.351829,-0.648921,-48.794910,0.000000,0.000000,-1.000000
-7.659330,16.653117,42.711380,0.000000,0.000000,-1.000000
-1.337493,-8.348078,-42.711380,0.000000,-0.000000,1.000000
-4.128915,-3.415576,48.794910,0.000000,0.000000,1.000000
-19.291059,11.775741,42.711380,0.000000,0.000000,-1.000000
-20.472472,7.500596,-42.711380,-0.000000,-0.000000,1.000000
8.049137,-0.125436,-0.087810,0.997859,-0.065403,0.000000
15.031782,-19.080702,45.006800,0.659346,-0.751840,0.000000
-7.923112,1.380055,-38.138351,-0.980785,0.195090,0.000000
12.598907,20.755052,42.835398,0.555570,0.831470,0.000000
-5.460564,-5.905124,-27.757448,-0.659346,-0.751840,-0.000000
-17.630106,-16.685870,-47.667989,-0.751840,-0.659346,0.000000
7.527491,2.837545,-8.139706,0.946930,0.321440,-0.000000
-4.711663,-6.521522,7.886364,-0.555570,-0.831470,0.000000
3.096928,1.309667,25.129678,-0.881921,-0.471397,0.000000
-3.127091,20.165245,-42.711380,0.000000,0.000000,1.000000
0.642927,-20.627079,42.711380,0.000000,0.000000,-1.000000
1.954403,7.808867,0.673520,0.195090,0.980785,0.000000
-15.894364,13.353626,42.711380,0.000000,0.000000,-1.000000
-3.300666,-0.651387,-1.670910,0.995185,0.098017,0.000000
-10.199767,16.003952,-48.794910,0.000000,0.000000,-1.000000
-16.557733,17.511941,-48.794910,0.000000,0.000000,-1.000000
6.732375,4.396100,-27.135561,0.831470,0.555570,0.000000
1.045380,9.388117,-48.794910,0.000000,-0.000000,-1.000000
-8.798033,-15.497223,42.711380,0.000000,0.000000,-1.000000
18.302010,-1.648871,44.834685,-0.471397,0.881921,0.000000
6.552941,13.882159,-42.711380,0.000000,-0.000000,1.000000
4.130376,-6.909926,21.164530,0.555570,-0.831470,0.000000
12.161876,-1.961164,48.794910,0.000000,0.000000,1.000000
-1.994546,3.133595,-48.794910,0.000000,0.000000,-1.000000
-15.678618,-0.165069,-44.583159,-0.995185,0.098016,0.000000
11.898181,-11.732374,42.711380,0.000000,-0.000000,-1.000000
-9.949913,-2.513518,-48.794910,0.000000,0.000000,-1.000000
3.327405,-0.379901,-14.601980,-0.995185,0.098017,0.000000
-3.399079,-7.288362,31.290994,-0.442288,-0.896873,0.000000
5.225549,6.111226,-2.754886,0.659346,0.751840,-0.000000
-1.797450,17.119698,44.862625,0.956940,0.290285,-0.000000
1.874109,24.185985,-47.519313,0.065403,0.997859,0.000000
-7.541869,-2.795188,23.373334,-0.946930,-0.321440,0.000000
3.238179,-0.860793,-36.984533,-0.956940,0.290284,0.000000
1.495123,-24.210825,-46.358731,0.065403,-0.997859,0.000000
20.779269,-12.562664,45.083572,0.831470,-0.555570,0.000000
-0.989788,19.049596,-43.724901,0.471395,-0.881922,0.000000
24.229522,1.209857,-48.189974,0.997859,0.065403,0.000000
-2.726171,-1.956611,22.551533,0.773010,0.634393,-0.000000
1.129893,-7.972872,-0.339557,0.195090,-0.980785,0.000000
-15.539043,2.893592,-42.711380,-0.000000,-0.000000,1.000000
23.597273,-5.704620,44.098575,0.980785,-0.195090,0.000000
-7.316065,18.760254,-48.794910,0.000000,0.000000,-1.000000
4.488416,-6.670691,12.564654,0.555570,-0.831470,0.000000
13.676348,7.507917,42.711380,0.000000,0.000000,-1.000000
-3.305254,17.804011,42.711380,0.000000,0.000000,-1.000000
-6.451475,4.816495,14.528310,-0.831470,0.555570,0.000000
1.129117,3.156784,-34.798550,-0.290284,-0.956940,0.000000
-4.765337,15.248403,48.794910,0.000000,0.000000,1.000000
11.737532,-18.485745,-42.711380,-0.000000,0.000000,1.000000
13.642470,-19.459359,-48.794910,0.000000,-0.000000,-1.000000
-3.154357,3.031953,48.794910,0.000000,0.000000,1.000000
-0.601336,-7.700163,-48.794910,0.000000,-0.000000,-1.000000
-20.240031,11.690395,42.711380,0.000000,-0.000000,-1.000000
5.681394,-5.711461,27.968392,0.659346,-0.751840,0.000000
4.800033,-23.777206,-46.277445,0.195090,-0.980785,0.000000
0.921913,7.996933,-5.250257,0.065403,0.997859,0.000000
5.108613,6.213777,-27.995922,0.659346,0.751840,0.000000
7.856597,1.714450,-41.894815,0.980785,0.195090,0.000000
-19.374305,-11.150863,48.794910,-0.000000,-0.000000,1.000000
-4.750889,-21.023495,-48.794910,0.000000,0.000000,-1.000000
9.745137,2.570834,48.794910,-0.000000,0.000000,1.000000
-14.680837,-14.956638,42.711380,0.000000,0.000000,-1.000000
-21.463440,1.882864,-48.794910,0.000000,0.000000,-1.000000
13.059203,-9.732166,42.711380,0.000000,-0.000000,-1.000000
-3.022514,19.462388,-48.794910,0.000000,0.000000,-1.000000
4.270432,-6.816343,-41.880852,0.555570,-0.831470,0.000000
-3.139578,10.258702,-48.794910,0.000000,0.000000,-1.000000
3.231494,0.882831,-15.343171,-0.956940,-0.290284,0.000000
3.789299,-3.851907,-48.794910,0.000000,-0.000000,-1.000000
3.754052,7.113308,-27.218462,0.442288,0.896873,0.000000
-15.490778,-9.640691,48.794910,0.000000,0.000000,1.000000
4.836585,-23.769936,-45.496221,0.195090,-0.980785,0.000000
23.661114,5.383668,43.648312,0.980785,0.195090,0.000000
22.508031,-4.502913,-48.794910,0.000000,-0.000000,-1.000000
-22.876803,8.070071,-47.934734,-0.946930,0.321440,0.000000
-5.445747,-5.918118,-32.228142,-0.659346,-0.751840,-0.000000
-9.038338,8.652613,-48.794910,0.000000,0.000000,-1.000000
-3.145288,-1.167014,5.614892,0.956940,0.290284,0.000000
-7.088146,6.225151,-48.794910,0.000000,0.000000,-1.000000
-8.025802,-0.481461,-28.565310,-0.997859,-0.065403,0.000000
2.420481,21.392406,-42.711380,0.000000,-0.000000,1.000000
-4.655263,-6.559207,-30.398528,-0.555570,-0.831470,0.000000
-3.232914,5.224598,-48.794910,0.000000,0.000000,-1.000000
-11.083570,19.801860,-48.794910,0.000000,0.000000,-1.000000
-18.634282,-11.149684,-48.794910,0.000000,0.000000,-1.000000
-9.091195,-20.014601,-42.711380,0.000000,-0.000000,1.000000
14.723758,1.504217,-42.711380,0.000000,-0.000000,1.000000
5.961217,8.130162,42.711380,0.000000,0.000000,-1.000000
-17.267085,-1.816819,47.717080,-0.098017,0.995185,0.000000
18.527200,15.662930,47.353182,0.751840,0.659346,-0.000000
-13.781809,-14.539114,42.711380,0.000000,0.000000,-1.000000
12.413970,-7.402308,48.794910,0.000000,-0.000000,1.000000
-17.355547,3.898629,-42.711380,-0.000000,-0.000000,1.000000
17.727384,-16.248614,42.711380,0.000000,-0.000000,-1.000000
0.208457,3.344290,-18.692805,-0.098017,-0.995185,0.000000
22.266133,9.692505,-46.029948,0.896873,0.442289,0.000000
9.357957,-22.365590,48.794910,0.000000,0.000000,1.000000
1.864613,-7.826728,-33.443249,0.195090,-0.980785,0.000000
-0.092111,8.051321,9.183793,-0.065403,0.997859,0.000000
18.036521,-16.222442,-47.677879,0.751840,-0.659346,0.000000
-7.688659,9.252332,-48.794910,0.000000,0.000000,-1.000000
-19.584153,-14.351282,-43.977710,-0.831470,-0.555570,0.000000
-20.621526,-7.911121,-48.794910,0.000000,0.000000,-1.000000
-5.147728,2.622575,48.794910,0.000000,0.000000,1.000000
6.003633,-11.669709,42.711380,0.000000,0.000000,-1.000000
5.452528,5.526785,48.794910,0.000000,-0.000000,1.000000
-3.329661,0.356991,-40.892718,0.995185,-0.098017,0.000000
7.219626,3.538460,-25.398795,0.896873,0.442288,0.000000
-17.211585,-2.636094,-42.711380,0.000000,-0.000000,1.000000
-10.533828,-18.821005,48.794910,0.000000,0.000000,1.000000
11.106318,0.043011,-48.794910,0.000000,0.000000,-1.000000
-1.428246,7.913526,23.012076,-0.195090,0.980785,0.000000
-7.322633,3.329582,22.129449,-0.896873,0.442288,0.000000
-21.530897,-8.581580,-48.794910,0.000000,0.000000,-1.000000
-7.988856,-1.045147,10.521941,-0.997859,-0.065403,0.000000
-2.803019,-7.539211,-18.192644,-0.321440,-0.946930,0.000000
-9.469505,-13.427842,42.711380,0.000000,-0.000000,-1.000000
20.188728,13.446472,-48.193760,0.831470,0.555570,0.000000
4.288510,17.521080,48.794910,0.000000,-0.000000,1.000000
23.824394,4.562802,-48.428613,0.980785,0.195090,0.000000
0.435675,8.028803,25.960277,0.065403,0.997859,-0.000000
-20.293514,-8.542951,48.794910,-0.000000,-0.000000,1.000000
7.903373,-1.479288,-1.044228,0.980785,-0.195090,0.000000
-3.498143,17.886957,42.711380,0.000000,0.000000,-1.000000
-17.745440,-1.816048,-43.870171,0.098018,0.995185,0.000000
-0.884202,3.231078,-36.960237,0.290284,-0.956940,0.000000
1.221039,-3.128900,-6.692023,-0.290284,0.956940,0.000000
-13.647642,13.384194,42.711380,0.000000,0.000000,-1.000000
1.562496,-7.886822,23.762489,0.195090,-0.980785,0.000000
-3.508410,16.595401,42.711380,0.000000,0.000000,-1.000000
-23.745301,4.960431,42.856246,-0.980785,0.195090,0.000000
0.738841,-19.183729,-45.989440,-0.471395,0.881922,0.000000
12.064636,6.831949,42.711380,0.000000,0.000000,-1.000000
-17.472973,-11.679559,-42.711380,0.000000,-0.000000,1.000000
-17.684894,-9.783110,-42.711380,-0.000000,0.000000,1.000000
-2.311227,-7.706152,-10.515943,-0.321440,-0.946930,0.000000
-6.857911,-14.008428,48.794910,0.000000,0.000000,1.000000
0.506641,-24.275614,44.229844,0.065403,-0.997859,0.000000
1.423274,3.036203,22.087375,-0.471397,-0.881921,0.000000
4.037905,4.788396,-48.794910,0.000000,0.000000,-1.000000
2.929047,-1.623750,-41.355883,-0.881921,0.471397,0.000000
6.984515,-4.015218,28.688940,0.896873,-0.442288,0.000000
0.904687,-7.998062,13.822221,0.065403,-0.997859,0.000000
-4.128504,19.745952,-48.794910,0.000000,0.000000,-1.000000
18.860305,1.792740,-48.794910,0.000000,0.000000,-1.000000
-0.138558,3.351175,40.090311,0.098017,-0.995185,0.000000
-1.904242,-2.769149,20.460584,0.634393,0.773010,0.000000
-3.887385,7.047556,-19.262693,-0.442288,0.896873,0.000000
10.310040,12.855228,48.794910,0.000000,-0.000000,1.000000
-0.108163,-19.936399,42.711380,0.000000,-0.000000,-1.000000
7.277146,-23.054016,-42.711380,0.000000,-0.000000,1.000000
-15.658147,-8.694752,-42.711380,-0.000000,0.000000,1.000000
2.751960,1.925186,-27.534886,-0.773010,-0.634393,0.000000
-21.218244,10.450192,48.794910,-0.000000,-0.000000,1.000000
-14.568607,-0.138494,42.711380,0.000000,0.000000,-1.000000
-2.970277,1.546613,31.463549,0.881921,-0.471397,0.000000
3.295536,-7.339423,-0.861005,0.442288,-0.896873,0.000000
11.052210,20.897912,48.794910,0.000000,-0.000000,1.000000
20.928343,3.776804,-42.711380,0.000000,-0.000000,1.000000
9.081303,22.533536,47.289086,0.321440,0.946930,0.000000
18.750851,-14.898348,-48.794910,0.000000,-0.000000,-1.000000
17.812804,9.852575,48.794910,0.000000,-0.000000,1.000000
-22.632950,-8.788440,42.748189,-0.946930,-0.321440,-0.000000
1.744783,16.946080,-48.643975,-0.956940,0.290285,0.000000
-14.239904,-4.045695,-48.794910,0.000000,0.000000,-1.000000
10.475435,-6.070191,-42.711380,-0.000000,0.000000,1.000000
0.620620,-8.016681,28.895961,0.065403,-0.997859,0.000000
9.190631,-4.320906,-42.711380,-0.000000,-0.000000,1.000000
-16.287203,12.302086,-42.711380,-0.000000,0.000000,1.000000
-3.682230,10.534697,42.711380,0.000000,0.000000,-1.000000
-2.441737,24.076729,-42.711380,-0.000000,0.000000,1.000000
-3.166745,-1.096281,-37.313740,0.956940,0.290284,-0.000000
-15.798551,15.227659,-42.711380,-0.000000,-0.000000,1.000000
-7.296120,-3.383346,8.723961,-0.896873,-0.442288,-0.000000
12.368395,-8.777253,42.711380,0.000000,-0.000000,-1.000000
8.555216,-13.834593,-42.711380,-0.000000,-0.000000,1.000000
-10.072780,16.519919,48.794910,0.000000,0.000000,1.000000
2.938666,1.605754,29.133119,-0.881921,-0.471397,0.000000
3.197846,18.715744,-42.711380,0.000000,-0.000000,1.000000
7.068514,3.844887,15.721992,0.896873,0.442288,-0.000000
-0.879470,-3.232514,34.273867,0.290284,0.956940,0.000000
15.372807,9.277294,42.711380,0.000000,0.000000,-1.000000
-2.423267,-2.325700,14.248423,0.773010,0.634393,0.000000
-7.618366,-2.569835,-39.562314,-0.946930,-0.321440,-0.000000
-1.431806,3.031643,-25.849743,0.471397,-0.881921,0.000000
-1.711810,7.857122,24.646258,-0.195090,0.980785,0.000000
-15.394249,18.762827,-43.363365,-0.659346,0.751840,0.000000
15.335984,-7.690188,-42.711380,-0.000000,0.000000,1.000000
-0.555406,-11.526509,-42.711380,-0.000000,0.000000,1.000000
-6.801253,6.382430,-42.711380,-0.000000,0.000000,1.000000
4.872546,-18.604019,48.794910,0.000000,0.000000,1.000000
-1.199980,-3.135288,-40.440242,0.290284,0.956940,-0.000000
2.815000,-7.535144,14.625870,0.321440,-0.946930,0.000000
17.441633,13.878817,-48.794910,0.000000,0.000000,-1.000000
-17.684944,12.516797,-48.794910,0.000000,0.000000,-1.000000
-5.112846,10.836027,-42.711380,0.000000,-0.000000,1.000000
-10.191207,1.752178,-48.794910,0.000000,0.000000,-1.000000
-2.951904,1.580988,33.631956,0.881921,-0.471397,0.000000
7.095709,-3.789739,-22.051116,0.896873,-0.442288,0.000000
5.236598,6.101537,14.849066,0.659346,0.751840,-0.000000
22.118678,6.259635,-48.794910,0.000000,0.000000,-1.000000
-2.952997,14.899032,48.794910,0.000000,-0.000000,1.000000
-4.023369,-6.980496,-31.340400,-0.442288,-0.896873,0.000000
-3.319362,-0.461563,12.736622,0.995185,0.098017,0.000000
-7.300607,-5.226190,48.794910,0.000000,0.000000,1.000000
0.897144,-3.227152,19.713844,-0.290284,0.956940,0.000000
4.418157,6.717637,4.237197,0.555570,0.831470,-0.000000
9.107289,8.756184,48.794910,0.000000,-0.000000,1.000000
-10.252433,13.048160,-48.794910,0.000000,0.000000,-1.000000
3.101961,-1.300251,-28.552257,-0.881921,0.471397,0.000000
-2.927249,7.497040,-32.615276,-0.321440,0.946930,0.000000
4.467773,6.684484,-27.524860,0.555570,0.831470,0.000000
17.337650,-5.121381,-48.794910,0.000000,0.000000,-1.000000
-18.781193,15.373307,48.793810,-0.751840,0.659346,0.000000
22.057348,-8.648455,-48.794910,0.000000,-0.000000,-1.000000
0.833086,-24.254217,-46.904746,0.065403,-0.997859,0.000000
-0.985016,3.200496,-1.221845,0.290284,-0.956940,0.000000
8.558231,-18.325075,48.794910,0.000000,0.000000,1.000000
7.480224,-2.976789,-10.716719,0.946930,-0.321440,0.000000
-3.229909,-24.089523,47.440599,-0.195090,-0.980785,0.000000
-16.455672,4.572967,-48.794910,0.000000,0.000000,-1.000000
-3.200824,0.983936,-7.267982,0.956940,-0.290284,0.000000
-2.017903,-2.675870,-10.744472,0.634393,0.773010,0.000000
17.471987,-6.704889,48.794910,0.000000,0.000000,1.000000
0.462638,3.319256,-19.766766,-0.098017,-0.995185,0.000000
-11.531743,-3.004420,-42.711380,0.000000,-0.000000,1.000000
5.306713,-6.040048,14.400665,0.659346,-0.751840,0.000000
-6.899164,4.146482,17.953739,-0.831470,0.555570,0.000000
8.047848,-0.145100,11.206533,0.997859,-0.065403,0.000000
-8.587051,-16.171896,-42.711380,0.000000,-0.000000,1.000000
-7.285479,3.404925,-10.903091,-0.896873,0.442288,0.000000
1.789005,2.840716,-25.924124,-0.471397,-0.881921,0.000000
5.154430,-4.492453,48.794910,0.000000,-0.000000,1.000000
7.401951,3.168741,-4.089785,0.896873,0.442288,0.000000
7.825747,-1.869544,-14.922266,0.980785,-0.195090,0.000000
-3.610892,-7.183907,12.584628,-0.442288,-0.896873,0.000000
23.518229,-6.101999,-48.148282,0.980785,-0.195090,0.000000
-8.990106,21.116598,-48.794910,-0.000000,-0.000000,-1.000000
-23.631658,-5.531753,44.971040,-0.980785,-0.195090,0.000000
-5.610530,22.207116,-42.711380,0.000000,0.000000,1.000000
3.331742,-7.321568,-36.346456,0.442288,-0.896873,0.000000
-2.456798,20.268510,42.711380,0.000000,0.000000,-1.000000
18.129123,-7.791827,-42.711380,-0.000000,-0.000000,1.000000
6.313713,7.010303,-48.794910,0.000000,-0.000000,-1.000000
3.370579,7.302416,37.073395,0.442288,0.896873,-0.000000
-2.699885,7.574220,40.978473,-0.321440,0.946930,0.000000
8.046194,0.170337,12.877306,0.997859,0.065403,0.000000
-2.473934,2.263963,27.658616,0.773010,-0.634393,0.000000
19.697635,-6.865329,-42.711380,-0.000000,0.000000,1.000000
14.987548,19.119494,-43.562272,0.659346,0.751840,-0.000000
7.765221,2.137215,40.254793,0.946930,0.321440,-0.000000
10.111534,-2.423137,-42.711380,-0.000000,0.000000,1.000000
-3.199975,-0.986735,-39.246368,0.956940,0.290284,-0.000000
-10.880066,-12.401398,48.794910,-0.000000,-0.000000,1.000000
-6.335271,-16.381047,42.711380,0.000000,-0.000000,-1.000000
15.535657,-1.381691,-42.711380,0.000000,0.000000,1.000000
6.207417,-16.060820,42.711380,0.000000,0.000000,-1.000000
-22.411475,3.689540,-42.711380,-0.000000,-0.000000,1.000000
-8.020908,0.556135,-7.866951,-0.997859,0.065403,0.000000
22.961904,7.819372,43.995203,0.946930,0.321440,0.000000
-1.337638,16.124708,42.711380,0.000000,0.000000,-1.000000
4.653266,11.938241,-42.711380,-0.000000,0.000000,1.000000
3.104208,-1.296047,-9.001492,-0.881921,0.471397,0.000000
-0.211927,3.343949,-21.024277,0.098017,-0.995185,-0.000000
-0.258579,-8.040411,-10.096056,-0.065403,-0.997859,0.000000
7.795850,-2.019846,-2.480590,0.980785,-0.195090,0.000000
14.004678,-6.362421,-42.711380,-0.000000,-0.000000,1.000000
8.412527,-2.518014,42.711380,0.000000,0.000000,-1.000000
4.928721,16.445548,48.794910,-0.000000,0.000000,1.000000
23.829348,4.537895,45.481928,0.980785,0.195090,0.000000
-6.081202,5.259785,-1.469059,-0.751840,0.659346,0.000000
18.398071,7.094970,-48.794910,0.000000,-0.000000,-1.000000
-2.818335,1.830877,20.141401,0.881921,-0.471397,0.000000
8.381417,17.620807,-42.711380,0.000000,-0.000000,1.000000
-3.019046,-1.455373,-14.890679,0.881921,0.471397,-0.000000
-4.657683,6.557590,-37.473122,-0.555570,0.831470,0.000000
5.720434,21.577466,-42.711380,0.000000,-0.000000,1.000000
7.742850,2.203119,31.657427,0.946930,0.321440,0.000000
9.520199,-22.351105,-44.681404,0.442289,-0.896873,0.000000
1.693315,7.860801,39.251521,0.195090,0.980785,-0.000000
-0.247812,-3.340414,-7.045308,0.098017,0.995185,0.000000
-21.840961,10.554669,43.435218,-0.896873,0.442289,0.000000
6.977007,-23.247849,46.724973,0.321440,-0.946930,0.000000
-2.188544,16.720314,-42.711380,0.000000,0.000000,1.000000
-3.548873,7.214491,40.165266,-0.442288,0.896873,0.000000
24.197688,1.695552,45.355579,0.997859,0.065403,0.000000
-6.347189,-4.956485,17.593361,-0.751840,-0.659346,0.000000
19.518864,-6.476475,42.711380,0.000000,-0.000000,-1.000000
-1.697571,2.889589,-44.252024,0.471397,-0.881921,0.000000
0.206873,-19.321966,-44.397321,-0.098022,0.995184,0.000000
6.777626,-4.328376,21.699625,0.831470,-0.555570,0.000000
1.390315,21.068008,-42.711380,0.000000,-0.000000,1.000000
-5.101814,-6.219739,23.061867,-0.659346,-0.751840,0.000000
19.395401,-11.450566,-42.711380,-0.000000,0.000000,1.000000
-7.194452,-3.589510,-15.852505,-0.896873,-0.442288,-0.000000
-10.604401,-7.219034,48.794910,0.000000,0.000000,1.000000
-17.160538,1.806325,-46.488631,-0.098017,-0.995185,0.000000
7.992224,-0.993757,22.056125,0.997859,-0.065403,0.000000
3.300835,-0.649671,31.307062,-0.995185,0.098017,0.000000
-2.036987,-7.792440,13.217450,-0.195090,-0.980785,0.000000
-1.395337,3.051136,-21.786450,0.471397,-0.881921,0.000000
6.918894,22.441074,42.711380,0.000000,0.000000,-1.000000
-13.611841,6.079394,48.794910,0.000000,0.000000,1.000000
23.856350,-0.731344,42.711380,0.000000,0.000000,-1.000000
-3.327599,-0.377925,15.282885,0.995185,0.098017,0.000000
2.245578,3.508947,48.794910,-0.000000,0.000000,1.000000
1.926700,-21.204252,42.711380,0.000000,0.000000,-1.000000
0.445468,-15.723956,45.351142,-0.290287,-0.956940,0.000000
-0.287613,-8.038508,29.045416,-0.065403,-0.997859,0.000000
3.915210,7.033834,-1.700021,0.442288,0.896873,0.000000
18.584915,-5.495011,42.711380,0.000000,-0.000000,-1.000000
7.996478,-0.928856,-31.058550,0.997859,-0.065403,0.000000
4.494904,-6.666356,27.227463,0.555570,-0.831470,0.000000
16.234803,-9.395768,48.794910,0.000000,0.000000,1.000000
13.057257,-3.212299,-48.794910,0.000000,-0.000000,-1.000000
-1.073927,18.989832,-48.565349,0.634393,-0.773010,0.000000
8.027682,0.452779,-8.717682,0.997859,0.065403,0.000000
13.593419,-4.483043,48.794910,0.000000,-0.000000,1.000000
14.253753,9.175325,48.794910,0.000000,-0.000000,1.000000
14.360907,-19.037049,42.711380,0.000000,-0.000000,-1.000000
-12.452681,-2.241472,48.794910,0.000000,0.000000,1.000000
-22.342353,-9.537946,43.011364,-0.896873,-0.442289,0.000000
-18.809752,1.293355,47.497207,0.773010,-0.634393,0.000000
15.127564,13.256867,42.711380,0.000000,0.000000,-1.000000
0.839488,-8.002336,-6.366506,0.065403,-0.997859,0.000000
-20.163608,-13.484066,-44.913633,-0.831470,-0.555570,0.000000
1.386295,18.699574,-46.198593,-0.773010,-0.634393,0.000000
-0.427947,8.029310,-29.615342,-0.065403,0.997859,0.000000
10.447298,17.520672,-48.794910,0.000000,-0.000000,-1.000000
11.250523,0.597580,42.711380,0.000000,-0.000000,-1.000000
-23.577315,-5.804954,47.828274,-0.980785,-0.195090,0.000000
