x,y,z,nx,ny,nz
16.409488,15.821481,-2.365227,-0.000000,0.000000,-1.000000
-0.236029,-3.828169,2.365227,0.000000,-0.000000,1.000000
-25.528522,-7.965285,-2.365227,0.000000,0.000000,-1.000000
-4.626707,-26.899945,-2.365227,0.000000,0.000000,-1.000000
17.544199,7.329663,-2.365227,0.000000,0.000000,-1.000000
-8.345292,-28.077248,-2.048126,0.000000,-1.000000,0.000000
-22.767874,11.832440,-2.365227,0.000000,0.000000,-1.000000
-18.835006,24.007100,-2.365227,0.000000,-0.000000,-1.000000
7.601312,21.244394,2.365227,-0.000000,0.000000,1.000000
32.806660,-10.935511,2.365227,-0.000000,0.000000,1.000000
-2.609233,-28.077248,1.442134,0.000000,-1.000000,0.000000
-10.145412,2.987879,2.365227,0.000000,0.000000,1.000000
20.477207,4.103700,-2.365227,0.000000,-0.000000,-1.000000
33.286796,-12.212409,2.365227,-0.000000,0.000000,1.000000
-22.218748,11.968859,-2.365227,0.000000,0.000000,-1.000000
26.064604,23.060924,-2.365227,0.000000,-0.000000,-1.000000
-16.542264,-19.451747,2.365227,0.000000,0.000000,1.000000
25.311038,3.972769,-2.365227,0.000000,0.000000,-1.000000
34.419146,20.192515,2.365227,-0.000000,0.000000,1.000000
-17.922060,-28.077248,-2.275608,0.000000,-1.000000,0.000000
-25.973945,-22.041222,2.365227,0.000000,-0.000000,1.000000
-14.256880,13.945529,-2.365227,0.000000,-0.000000,-1.000000
-33.061065,-20.823473,2.365227,0.000000,-0.000000,1.000000
-29.921651,-7.884159,-2.365227,0.000000,0.000000,-1.000000
15.929161,-13.199704,-1.757198,-0.881921,0.471396,0.000000
20.624884,-5.333532,-2.365227,0.000000,0.000000,-1.000000
-2.278584,25.001443,2.365227,-0.000000,0.000000,1.000000
-5.661553,28.077248,0.175344,0.000000,1.000000,0.000000
8.859045,17.236813,-2.365227,0.000000,-0.000000,-1.000000
35.669653,0.340128,2.365227,-0.000000,0.000000,1.000000
-8.034687,-16.727822,2.365227,0.000000,0.000000,1.000000
-36.054206,9.951955,2.365227,0.000000,-0.000000,1.000000
34.373609,-9.136604,2.365227,-0.000000,0.000000,1.000000
28.376210,-22.449183,2.365227,-0.000000,-0.000000,1.000000
-19.198114,-9.926264,2.365227,0.000000,-0.000000,1.000000
21.395081,9.867234,-2.365227,0.000000,0.000000,-1.000000
4.068327,-20.215433,-2.365227,0.000000,0.000000,-1.000000
-3.090264,-8.779039,-1.584736,-0.956940,-0.290285,0.000000
-31.337292,6.359754,-2.365227,0.000000,0.000000,-1.000000
-3.187715,-11.679652,0.624696,-0.956940,0.290285,0.000000
13.679599,-5.609195,2.365227,-0.000000,0.000000,1.000000
-10.424388,28.077248,-2.274234,-0.000000,1.000000,0.000000
-3.382735,10.781394,2.365227,-0.000000,0.000000,1.000000
-5.465369,24.459749,2.365227,-0.000000,0.000000,1.000000
-20.226445,-24.104241,2.365227,0.000000,-0.000000,1.000000
-23.926804,-11.434832,2.365227,0.000000,-0.000000,1.000000
28.615668,10.198994,2.365227,-0.000000,0.000000,1.000000
-12.858644,25.198137,-2.365227,0.000000,-0.000000,-1.000000
23.890861,-3.014711,-2.365227,0.000000,0.000000,-1.000000
-1.956952,20.172626,-2.365227,0.000000,-0.000000,-1.000000
-1.918654,-4.811824,2.365227,0.000000,-0.000000,1.000000
33.432783,-4.345412,-2.365227,0.000000,0.000000,-1.000000
-1.855656,-8.758516,2.365227,0.000000,-0.000000,1.000000
-36.241808,14.553275,-2.365227,0.000000,0.000000,-1.000000
-19.199943,26.284977,2.365227,-0.000000,0.000000,1.000000
-2.609499,12.883400,2.365227,-0.000000,0.000000,1.000000
36.697122,10.495077,-2.365227,0.000000,0.000000,-1.000000
-5.829705,-15.932914,-2.365227,0.000000,0.000000,-1.000000
-3.126162,12.840878,-2.365227,0.000000,-0.000000,-1.000000
-29.345717,-4.181957,2.365227,0.000000,-0.000000,1.000000
34.403099,-0.578314,-2.365227,0.000000,0.000000,-1.000000
28.410674,4.534237,2.365227,-0.000000,0.000000,1.000000
20.908300,-24.620925,2.365227,0.000000,-0.000000,1.000000
33.285061,11.483022,-2.365227,0.000000,0.000000,-1.000000
11.253457,-4.516245,-2.365227,0.000000,-0.000000,-1.000000
-27.103715,24.474969,-2.365227,0.000000,-0.000000,-1.000000
32.669073,10.109126,-2.365227,0.000000,0.000000,-1.000000
24.067341,-4.204167,-2.365227,0.000000,0.000000,-1.000000
14.599291,6.953526,2.365227,-0.000000,0.000000,1.000000
23.395331,11.570304,2.365227,0.000000,-0.000000,1.000000
0.449274,14.005820,2.365227,-0.000000,0.000000,1.000000
17.008539,-9.306121,2.365227,0.000000,-0.000000,1.000000
-22.057653,24.960327,2.365227,-0.000000,0.000000,1.000000
-12.250262,1.241429,2.365227,0.000000,0.000000,1.000000
-4.688692,28.022823,2.365227,-0.000000,0.000000,1.000000
2.103210,-6.299725,-2.365227,0.000000,0.000000,-1.000000
-36.232125,8.650278,2.365227,0.000000,-0.000000,1.000000
-30.168451,8.585284,-2.365227,0.000000,0.000000,-1.000000
36.926701,-17.355710,-1.881129,1.000000,0.000000,-0.000000
-0.222753,13.332214,2.365227,-0.000000,0.000000,1.000000
-36.926701,11.735968,-0.640141,-1.000000,0.000000,0.000000
28.563681,9.607858,-2.365227,0.000000,0.000000,-1.000000
19.664831,22.852965,2.365227,-0.000000,0.000000,1.000000
27.558239,6.161848,-2.365227,0.000000,0.000000,-1.000000
-27.648233,28.077248,1.944968,0.000000,1.000000,0.000000
-35.757833,-6.920615,2.365227,0.000000,-0.000000,1.000000
15.054024,-19.785392,2.365227,0.000000,-0.000000,1.000000
10.158631,-17.557946,2.365227,0.000000,-0.000000,1.000000
32.402591,23.026732,-2.365227,0.000000,0.000000,-1.000000
-17.751092,18.980116,-2.365227,0.000000,-0.000000,-1.000000
-20.693996,-15.893626,2.365227,0.000000,0.000000,1.000000
27.561685,-14.756697,-2.365227,0.000000,0.000000,-1.000000
-3.443470,-17.033287,-2.365227,0.000000,0.000000,-1.000000
30.519153,-9.262368,2.365227,-0.000000,0.000000,1.000000
0.655137,28.077248,-1.689113,-0.000000,1.000000,0.000000
32.103407,1.745695,2.365227,-0.000000,0.000000,1.000000
36.926701,-3.750678,1.495828,1.000000,-0.000000,0.000000
32.416911,-8.323309,-2.365227,0.000000,0.000000,-1.000000
18.344385,4.559884,-2.365227,0.000000,-0.000000,-1.000000
-7.759288,-17.848227,2.365227,0.000000,-0.000000,1.000000
0.483929,-17.955789,2.365227,0.000000,-0.000000,1.000000
27.538778,-1.884781,-2.365227,0.000000,0.000000,-1.000000
25.359053,8.662821,-2.365227,0.000000,-0.000000,-1.000000
30.344312,17.516087,-2.365227,0.000000,0.000000,-1.000000
34.566351,-3.978450,-2.365227,0.000000,0.000000,-1.000000
-14.948815,2.479510,-2.365227,0.000000,0.000000,-1.000000
-18.297238,-12.097597,2.365227,0.000000,-0.000000,1.000000
-30.619248,23.713132,2.365227,-0.000000,0.000000,1.000000
24.255737,-4.924050,2.365227,-0.000000,0.000000,1.000000
22.794023,1.698066,2.365227,0.000000,-0.000000,1.000000
31.188913,27.325376,-2.365227,0.000000,-0.000000,-1.000000
-9.611679,-5.463289,0.534171,0.290284,-0.956940,0.000000
-32.683220,1.527724,-2.365227,0.000000,0.000000,-1.000000
-30.245587,18.753388,2.365227,0.000000,-0.000000,1.000000
-20.505821,28.077248,-1.614181,-0.000000,1.000000,0.000000
19.128600,-6.612103,2.365227,-0.000000,0.000000,1.000000
3.895982,-5.594459,0.262769,0.290284,0.956940,0.000000
-22.923531,28.077248,1.280540,0.000000,1.000000,0.000000
-27.121770,6.239732,2.365227,0.000000,-0.000000,1.000000
-20.753527,-19.961896,-2.365227,0.000000,0.000000,-1.000000
-3.724115,-3.453925,2.365227,0.000000,-0.000000,1.000000
30.940980,21.846974,-2.365227,0.000000,0.000000,-1.000000
-2.967655,-0.980739,1.663979,-0.098017,0.995185,0.000000
32.366613,-5.686986,-2.365227,0.000000,0.000000,-1.000000
35.352093,15.536951,2.365227,-0.000000,0.000000,1.000000
-2.733667,27.616556,-2.365227,0.000000,-0.000000,-1.000000
23.448214,10.406513,2.365227,0.000000,0.000000,1.000000
-32.698142,-4.593044,-2.365227,0.000000,0.000000,-1.000000
28.338994,13.139240,2.365227,0.000000,-0.000000,1.000000
-13.452149,-2.832452,-2.365227,0.000000,0.000000,-1.000000
12.965596,10.573778,-2.365227,0.000000,-0.000000,-1.000000
15.701594,-24.914696,-2.365227,0.000000,0.000000,-1.000000
16.836238,-24.086758,2.365227,0.000000,-0.000000,1.000000
19.612390,0.806028,2.365227,0.000000,-0.000000,1.000000
14.942633,-24.296304,2.365227,0.000000,-0.000000,1.000000
26.605697,-6.213001,2.365227,-0.000000,0.000000,1.000000
15.209850,23.875498,2.365227,-0.000000,0.000000,1.000000
-36.926701,-14.996755,-1.215603,-1.000000,0.000000,0.000000
18.915447,3.108504,-2.365227,0.000000,-0.000000,-1.000000
-19.649792,-25.472039,-2.365227,0.000000,0.000000,-1.000000
-17.093659,26.577223,2.365227,-0.000000,0.000000,1.000000
-31.186353,-3.627816,-2.365227,0.000000,0.000000,-1.000000
-25.262164,15.204384,-2.365227,0.000000,0.000000,-1.000000
25.502490,-9.247855,2.365227,-0.000000,0.000000,1.000000
-4.332174,8.774466,-0.627721,0.098017,-0.995185,0.000000
-0.327729,-16.175887,2.365227,0.000000,-0.000000,1.000000
3.654816,-28.077248,-0.176168,0.000000,-1.000000,0.000000
-6.490846,-23.234304,-2.365227,0.000000,0.000000,-1.000000
14.623360,10.105727,2.365227,-0.000000,0.000000,1.000000
21.405115,-8.807953,2.365227,-0.000000,0.000000,1.000000
0.045055,-26.467731,-2.365227,0.000000,0.000000,-1.000000
1.595314,-8.245905,-2.365227,-0.000000,-0.000000,-1.000000
36.386377,-21.320210,-2.365227,0.000000,0.000000,-1.000000
8.178165,26.713148,2.365227,-0.000000,0.000000,1.000000
-1.827867,-0.691025,2.017746,-0.290285,0.956940,0.000000
31.542389,21.016701,2.365227,0.000000,0.000000,1.000000
4.018159,-28.077248,2.197457,0.000000,-1.000000,0.000000
-3.771892,-24.248191,-2.365227,0.000000,0.000000,-1.000000
25.364206,-27.073938,-2.365227,0.000000,0.000000,-1.000000
22.832763,-9.311928,-2.365227,0.000000,0.000000,-1.000000
21.525873,-1.246551,-2.365227,0.000000,0.000000,-1.000000
-32.119582,24.091987,-2.365227,0.000000,-0.000000,-1.000000
-6.228414,-15.572590,2.365227,0.000000,0.000000,1.000000
-25.942902,-2.879245,-2.365227,0.000000,0.000000,-1.000000
-36.515057,-16.004519,2.365227,0.000000,-0.000000,1.000000
-15.135522,-0.330085,2.365227,0.000000,-0.000000,1.000000
-11.179355,-1.324512,-2.365227,0.000000,0.000000,-1.000000
19.798635,-17.036465,-2.365227,0.000000,0.000000,-1.000000
10.462955,-5.246523,-2.365227,0.000000,-0.000000,-1.000000
-20.977425,27.803568,-2.365227,0.000000,-0.000000,-1.000000
-33.777268,-10.927724,2.365227,0.000000,-0.000000,1.000000
5.078697,-9.704944,-2.365227,0.000000,-0.000000,-1.000000
13.027411,16.999337,-2.365227,0.000000,-0.000000,-1.000000
28.208665,23.148790,-2.365227,-0.000000,0.000000,-1.000000
-5.936562,11.195471,-2.365227,0.000000,-0.000000,-1.000000
-34.859195,-2.785831,2.365227,0.000000,-0.000000,1.000000
-34.396615,26.811213,2.365227,-0.000000,0.000000,1.000000
20.249914,-26.602422,-2.365227,0.000000,0.000000,-1.000000
30.915505,-7.212863,-2.365227,0.000000,0.000000,-1.000000
-27.390843,-18.268087,2.365227,0.000000,-0.000000,1.000000
10.034824,-15.782179,0.305139,0.290284,0.956940,0.000000
-25.794334,16.955815,2.365227,0.000000,0.000000,1.000000
-5.199522,18.828183,-2.365227,0.000000,-0.000000,-1.000000
20.612425,10.885749,2.365227,0.000000,-0.000000,1.000000
-34.733612,24.777743,2.365227,0.000000,-0.000000,1.000000
1.196216,-22.127297,-2.365227,0.000000,0.000000,-1.000000
16.508329,-8.763275,-2.365227,0.000000,-0.000000,-1.000000
-13.015130,-24.175871,2.365227,0.000000,-0.000000,1.000000
-30.248826,0.956653,-2.365227,0.000000,0.000000,-1.000000
16.844618,24.952819,2.365227,-0.000000,0.000000,1.000000
-27.545393,-22.724721,-2.365227,0.000000,0.000000,-1.000000
2.344795,23.202949,2.365227,-0.000000,0.000000,1.000000
-36.926701,-27.623804,2.295130,-1.000000,0.000000,0.000000
16.359996,-28.077248,2.217322,0.000000,-1.000000,0.000000
-36.436310,-23.466955,2.365227,0.000000,-0.000000,1.000000
16.060550,-13.882947,-2.365227,0.000000,0.000000,-1.000000
-16.106576,8.567386,2.365227,0.000000,0.000000,1.000000
-12.562842,-8.680732,0.870107,0.956940,-0.290284,0.000000
-20.611324,-28.077248,-1.177555,0.000000,-1.000000,0.000000
-15.789696,-14.796267,2.365227,0.000000,-0.000000,1.000000
-22.410140,21.113533,2.365227,-0.000000,0.000000,1.000000
-30.490116,17.002134,-2.365227,0.000000,0.000000,-1.000000
-20.063300,-3.671308,2.365227,0.000000,-0.000000,1.000000
8.172084,5.442144,-2.365227,0.000000,-0.000000,-1.000000
-19.352990,27.201977,2.365227,-0.000000,0.000000,1.000000
0.347286,28.077248,0.145013,0.000000,1.000000,0.000000
-21.436794,8.097864,-2.365227,0.000000,0.000000,-1.000000
-36.864260,15.946174,-2.365227,0.000000,0.000000,-1.000000
16.021169,-26.469406,2.365227,0.000000,-0.000000,1.000000
-1.164701,-10.392813,2.365227,0.000000,-0.000000,1.000000
18.042066,-28.077248,-0.937256,0.000000,-1.000000,0.000000
-5.368195,23.371024,2.365227,-0.000000,0.000000,1.000000
23.568357,-23.718709,-2.365227,0.000000,0.000000,-1.000000
-3.385052,-28.077248,-0.777713,0.000000,-1.000000,0.000000
17.059958,4.709362,-2.365227,0.000000,0.000000,-1.000000
35.594741,-2.958284,2.365227,-0.000000,0.000000,1.000000
7.347456,14.725744,2.365227,-0.000000,0.000000,1.000000
-36.032167,-18.377195,-2.365227,0.000000,0.000000,-1.000000
19.259182,-24.691858,-2.365227,0.000000,0.000000,-1.000000
21.899347,26.525898,2.365227,-0.000000,0.000000,1.000000
-26.348685,2.006957,-2.365227,0.000000,0.000000,-1.000000
23.043610,14.682276,-2.365227,0.000000,-0.000000,-1.000000
36.926701,23.187811,2.013031,1.000000,-0.000000,0.000000
-20.379358,-15.371299,2.365227,0.000000,0.000000,1.000000
20.084162,13.620237,2.365227,-0.000000,0.000000,1.000000
-24.558031,6.590850,2.365227,0.000000,-0.000000,1.000000
1.469456,-16.320051,2.365227,0.000000,-0.000000,1.000000
-1.433162,28.077248,1.628415,0.000000,1.000000,0.000000
-17.481335,1.531820,-2.365227,0.000000,0.000000,-1.000000
34.428371,8.244054,-2.365227,0.000000,0.000000,-1.000000
-14.527960,-28.077248,1.758608,0.000000,-1.000000,0.000000
-17.859826,28.077248,-0.340678,0.000000,1.000000,0.000000
19.945972,5.606413,-2.365227,0.000000,-0.000000,-1.000000
18.190799,-4.493151,-2.365227,0.000000,0.000000,-1.000000
18.286857,25.866988,2.365227,-0.000000,0.000000,1.000000
-33.447493,-2.557494,-2.365227,0.000000,0.000000,-1.000000
20.294081,14.194545,-2.365227,0.000000,0.000000,-1.000000
20.131449,27.552656,2.365227,-0.000000,0.000000,1.000000
-33.810547,4.149027,2.365227,0.000000,-0.000000,1.000000
24.237084,17.710138,2.365227,0.000000,-0.000000,1.000000
-34.007414,14.683276,2.365227,0.000000,-0.000000,1.000000
-16.802651,-23.287921,2.365227,0.000000,-0.000000,1.000000
-34.568129,12.875257,-2.365227,0.000000,0.000000,-1.000000
-25.255486,28.077248,-1.013794,0.000000,1.000000,0.000000
16.044567,-28.077248,-0.695311,0.000000,-1.000000,0.000000
35.992558,-27.427957,-2.365227,0.000000,0.000000,-1.000000
2.075323,17.407096,-2.365227,0.000000,-0.000000,-1.000000
-15.675821,7.107129,2.365227,0.000000,0.000000,1.000000
35.690661,-11.592504,-2.365227,0.000000,0.000000,-1.000000
-17.816582,21.074182,2.365227,-0.000000,0.000000,1.000000
15.814551,15.706626,2.365227,-0.000000,0.000000,1.000000
21.073418,-8.435200,2.365227,-0.000000,0.000000,1.000000
-19.482267,17.521212,2.365227,-0.000000,0.000000,1.000000
-33.161731,9.999204,-2.365227,0.000000,0.000000,-1.000000
-34.080478,26.990105,2.365227,-0.000000,0.000000,1.000000
5.404930,14.029855,-2.365227,0.000000,-0.000000,-1.000000
-5.945121,-28.012898,-2.365227,0.000000,0.000000,-1.000000
16.902843,7.614282,-2.365227,0.000000,0.000000,-1.000000
-27.761675,-21.532292,2.365227,0.000000,-0.000000,1.000000
24.649846,-16.899148,-2.365227,0.000000,0.000000,-1.000000
7.178284,-5.169837,1.770712,-0.471397,0.881921,0.000000
-26.169480,6.290965,-2.365227,0.000000,0.000000,-1.000000
-34.201596,28.077248,-1.355696,0.000000,1.000000,0.000000
1.157156,16.623333,2.365227,-0.000000,0.000000,1.000000
8.759385,27.895245,-2.365227,0.000000,-0.000000,-1.000000
4.472331,15.255672,2.365227,-0.000000,0.000000,1.000000
-18.834816,-12.465151,-2.365227,0.000000,0.000000,-1.000000
-23.001061,17.685217,2.365227,-0.000000,0.000000,1.000000
36.926701,12.872917,-1.174605,1.000000,0.000000,-0.000000
-26.043745,23.128582,-2.365227,0.000000,-0.000000,-1.000000
5.753317,-5.641891,-0.319991,-0.098017,0.995185,0.000000
1.589941,2.824286,-1.870698,0.634393,-0.773010,0.000000
-22.205017,10.359217,-2.365227,0.000000,0.000000,-1.000000
-1.009326,19.724126,2.365227,-0.000000,0.000000,1.000000
23.569842,-19.827726,2.365227,-0.000000,-0.000000,1.000000
12.001343,-4.677484,-2.365227,0.000000,-0.000000,-1.000000
2.177984,-6.459196,-2.365227,0.000000,0.000000,-1.000000
-20.260002,2.144840,-2.365227,0.000000,0.000000,-1.000000
-35.421409,-26.110515,2.365227,0.000000,-0.000000,1.000000
-16.380620,-4.023857,2.365227,0.000000,-0.000000,1.000000
-5.569061,-17.691821,2.365227,0.000000,-0.000000,1.000000
-3.177842,-16.808056,2.365227,0.000000,-0.000000,1.000000
34.816307,18.053905,-2.365227,0.000000,0.000000,-1.000000
9.635541,0.767423,1.001965,-0.956940,-0.290285,0.000000
32.265769,-0.678115,-2.365227,0.000000,0.000000,-1.000000
-26.573091,28.077248,-1.413873,0.000000,1.000000,0.000000
-27.930115,-14.044916,-2.365227,0.000000,0.000000,-1.000000
-19.196354,4.081564,-2.365227,0.000000,0.000000,-1.000000
-15.709011,27.259546,2.365227,-0.000000,0.000000,1.000000
-29.578893,19.019834,2.365227,0.000000,-0.000000,1.000000
15.208676,-3.385467,2.365227,-0.000000,0.000000,1.000000
-25.496626,-4.683962,2.365227,0.000000,-0.000000,1.000000
36.754873,14.705723,2.365227,-0.000000,0.000000,1.000000
29.697575,-17.014836,2.365227,-0.000000,0.000000,1.000000
29.913539,7.060618,-2.365227,0.000000,0.000000,-1.000000
-36.926701,-16.195863,-1.824440,-1.000000,0.000000,0.000000
-3.175234,-12.381156,-2.365227,0.000000,0.000000,-1.000000
25.819556,-26.255670,2.365227,0.000000,-0.000000,1.000000
-33.397532,-23.990327,2.365227,0.000000,-0.000000,1.000000
-5.256916,-0.761647,1.185686,0.290285,0.956940,0.000000
-0.947933,-0.234875,2.117650,-0.471397,0.881921,0.000000
28.528367,18.121538,2.365227,0.000000,-0.000000,1.000000
3.221980,-18.696619,2.365227,0.000000,-0.000000,1.000000
10.624655,-28.077248,-1.294291,0.000000,-1.000000,0.000000
-11.686161,1.782516,-2.365227,0.000000,0.000000,-1.000000
-18.085809,-18.688485,-2.365227,0.000000,0.000000,-1.000000
-36.926701,3.530088,-1.536755,-1.000000,0.000000,0.000000
28.737454,28.077248,-2.365202,-0.000000,1.000000,0.000000
-5.522959,8.472920,-0.575328,0.290286,-0.956940,0.000000
32.502690,24.751464,-2.365227,0.000000,-0.000000,-1.000000
35.286548,27.379634,-2.365227,0.000000,-0.000000,-1.000000
-25.163221,-2.540425,-2.365227,0.000000,0.000000,-1.000000
18.601837,0.504025,-2.365227,0.000000,-0.000000,-1.000000
13.424358,-23.115750,-2.365227,0.000000,0.000000,-1.000000
-15.463417,28.077248,-2.054858,-0.000000,1.000000,0.000000
-1.278183,-6.433406,2.365227,-0.000000,-0.000000,1.000000
5.496879,4.116901,0.328577,-0.098017,-0.995185,0.000000
-26.318578,9.774969,2.365227,0.000000,-0.000000,1.000000
-3.906677,-2.142212,2.365227,0.000000,-0.000000,1.000000
27.713349,-11.048418,-2.365227,0.000000,0.000000,-1.000000
-24.542942,-8.797531,2.365227,0.000000,-0.000000,1.000000
36.861033,-5.965244,2.365227,-0.000000,0.000000,1.000000
30.061684,-9.654854,2.365227,-0.000000,0.000000,1.000000
-0.448820,-4.442087,-2.365227,0.000000,0.000000,-1.000000
15.586479,-25.812267,2.365227,0.000000,-0.000000,1.000000
-36.926701,-9.983575,1.805637,-1.000000,0.000000,0.000000
26.717370,-28.077248,0.996295,0.000000,-1.000000,0.000000
-2.657467,-0.942681,-0.525084,-0.290285,0.956940,0.000000
-18.650257,12.000212,-2.365227,0.000000,0.000000,-1.000000
21.069608,-1.682390,-2.365227,0.000000,0.000000,-1.000000
9.689178,23.389064,-2.365227,0.000000,-0.000000,-1.000000
-29.476044,-27.744917,2.365227,0.000000,-0.000000,1.000000
-9.024874,14.219251,-2.365227,0.000000,-0.000000,-1.000000
10.648633,-21.222354,-2.365227,0.000000,0.000000,-1.000000
-31.677195,6.124882,-2.365227,0.000000,0.000000,-1.000000
-15.413788,-5.334411,-2.365227,0.000000,0.000000,-1.000000
-25.749771,12.640539,-2.365227,0.000000,0.000000,-1.000000
-21.704329,-23.991539,2.365227,0.000000,-0.000000,1.000000
14.120105,6.783803,2.365227,0.000000,-0.000000,1.000000
9.863942,-0.349645,2.067124,-0.995185,-0.098017,-0.000000
-4.209585,-6.124019,2.365227,-0.000000,0.000000,1.000000
-22.641326,-13.845444,2.365227,0.000000,-0.000000,1.000000
11.228447,18.517201,-2.365227,0.000000,-0.000000,-1.000000
27.121622,17.566917,-2.365227,0.000000,0.000000,-1.000000
16.125046,-12.728007,-1.214379,-0.956940,0.290285,0.000000
30.646453,-13.232639,-2.365227,0.000000,0.000000,-1.000000
-21.163459,-27.902849,2.365227,0.000000,-0.000000,1.000000
-6.680515,0.009842,0.002956,0.634393,0.773010,0.000000
-35.062795,-20.053653,2.365227,0.000000,-0.000000,1.000000
-10.212098,1.733298,-2.365227,0.000000,0.000000,-1.000000
36.926701,16.276641,-0.899090,1.000000,-0.000000,0.000000
-36.926701,22.793498,-1.210705,-1.000000,0.000000,0.000000
-11.541806,28.077248,2.110602,0.000000,1.000000,0.000000
-30.458315,-20.346101,-2.365227,0.000000,0.000000,-1.000000
-29.718942,28.077248,1.462008,0.000000,1.000000,0.000000
29.445115,-15.340267,-2.365227,0.000000,0.000000,-1.000000
-28.122695,-0.885998,2.365227,0.000000,-0.000000,1.000000
-17.738862,-7.492579,-2.365227,0.000000,0.000000,-1.000000
-0.242857,24.501538,-2.365227,0.000000,-0.000000,-1.000000
17.616592,7.639830,-2.365227,0.000000,0.000000,-1.000000
-28.831094,16.643947,2.365227,0.000000,-0.000000,1.000000
-22.316134,3.336397,2.365227,0.000000,-0.000000,1.000000
-27.054498,-3.532168,-2.365227,0.000000,0.000000,-1.000000
-31.415912,0.934209,-2.365227,0.000000,0.000000,-1.000000
-36.926701,-15.930806,0.382395,-1.000000,0.000000,0.000000
-16.533163,25.621043,-2.365227,0.000000,-0.000000,-1.000000
-5.749617,-4.963675,-2.365227,0.000000,0.000000,-1.000000
-15.287636,-0.523800,2.365227,0.000000,-0.000000,1.000000
-21.844732,9.303549,2.365227,0.000000,-0.000000,1.000000
-28.584703,9.188173,-2.365227,0.000000,0.000000,-1.000000
-32.656429,-5.571174,2.365227,0.000000,-0.000000,1.000000
36.687945,21.916183,2.365227,-0.000000,0.000000,1.000000
6.719412,-28.077248,-1.620883,0.000000,-1.000000,0.000000
22.878686,-4.771647,2.365227,-0.000000,0.000000,1.000000
-1.401834,-0.477490,2.218441,-0.471397,0.881921,0.000000
19.155422,16.305372,-2.365227,0.000000,0.000000,-1.000000
-26.674047,-8.461331,-2.365227,0.000000,0.000000,-1.000000
-21.599745,19.573778,2.365227,0.000000,0.000000,1.000000
17.478970,1.925545,2.365227,-0.000000,0.000000,1.000000
2.162436,3.294121,0.504023,0.634393,-0.773010,0.000000
4.060858,27.051687,2.365227,-0.000000,0.000000,1.000000
21.265477,16.516230,-2.365227,0.000000,-0.000000,-1.000000
10.080344,-0.858894,2.365227,0.000000,-0.000000,1.000000
-3.884309,24.680538,-2.365227,0.000000,-0.000000,-1.000000
-11.522345,-13.340552,0.544944,0.773011,0.634393,0.000000
18.744864,17.186306,2.365227,-0.000000,0.000000,1.000000
-17.397825,-18.180203,2.365227,0.000000,-0.000000,1.000000
-35.373862,-19.366434,-2.365227,0.000000,0.000000,-1.000000
-34.180905,-0.791522,2.365227,0.000000,-0.000000,1.000000
-19.074299,14.558264,-2.365227,0.000000,-0.000000,-1.000000
-13.705494,1.017328,-2.365227,0.000000,0.000000,-1.000000
34.315464,-7.345326,2.365227,-0.000000,0.000000,1.000000
31.478344,-20.375477,2.365227,-0.000000,0.000000,1.000000
-22.610115,-6.457175,2.365227,0.000000,-0.000000,1.000000
36.926701,-27.229523,2.165021,1.000000,0.000000,-0.000000
-35.237040,-9.595094,-2.365227,0.000000,0.000000,-1.000000
35.891155,-2.880795,2.365227,-0.000000,0.000000,1.000000
-35.190561,14.389815,2.365227,0.000000,-0.000000,1.000000
27.904069,-23.702655,2.365227,0.000000,-0.000000,1.000000
20.331868,2.355529,2.365227,0.000000,-0.000000,1.000000
-36.926701,-0.002154,-1.079204,-1.000000,0.000000,0.000000
36.614171,18.885051,-2.365227,0.000000,0.000000,-1.000000
23.072755,-21.982715,-2.365227,0.000000,0.000000,-1.000000
-23.190949,27.591066,2.365227,-0.000000,0.000000,1.000000
-36.883845,-2.638441,-2.365227,0.000000,0.000000,-1.000000
-13.134223,-4.419201,2.365227,0.000000,-0.000000,1.000000
-32.969322,13.563256,2.365227,0.000000,-0.000000,1.000000
36.926701,-16.058237,-2.036854,1.000000,0.000000,-0.000000
2.721148,22.349902,-2.365227,0.000000,-0.000000,-1.000000
-2.429411,-26.431848,-2.365227,0.000000,0.000000,-1.000000
-3.436463,20.016810,-2.365227,0.000000,-0.000000,-1.000000
13.060249,10.669767,-2.365227,0.000000,-0.000000,-1.000000
-23.666076,16.258466,2.365227,-0.000000,-0.000000,1.000000
-5.129897,24.010128,-2.365227,0.000000,-0.000000,-1.000000
6.371075,-8.874925,2.365227,0.000000,0.000000,1.000000
-15.662966,8.461699,-2.365227,0.000000,0.000000,-1.000000
17.693913,-27.716562,2.365227,0.000000,-0.000000,1.000000
20.757816,-11.000769,2.365227,-0.000000,0.000000,1.000000
22.895775,-17.396059,-2.365227,0.000000,0.000000,-1.000000
21.569012,-16.805113,-2.365227,0.000000,0.000000,-1.000000
-36.926701,3.851189,0.908252,-1.000000,0.000000,0.000000
-13.877305,-5.197370,-2.365227,0.000000,0.000000,-1.000000
-26.629569,16.903516,2.365227,0.000000,0.000000,1.000000
-10.124528,3.755039,-2.365227,0.000000,0.000000,-1.000000
-13.920672,8.132283,-2.365227,0.000000,0.000000,-1.000000
20.662128,9.939291,2.365227,0.000000,-0.000000,1.000000
23.360397,22.105192,-2.365227,0.000000,-0.000000,-1.000000
-33.011369,28.077248,-2.261562,-0.000000,1.000000,0.000000
0.966785,-25.819994,2.365227,0.000000,-0.000000,1.000000
-11.773180,-13.034909,-0.929341,0.773011,0.634393,-0.000000
28.722447,-23.420156,2.365227,-0.000000,-0.000000,1.000000
35.213252,-0.062105,2.365227,-0.000000,0.000000,1.000000
-16.289253,18.031038,-2.365227,0.000000,-0.000000,-1.000000
-36.926701,6.285786,-1.404116,-1.000000,0.000000,0.000000
-23.190808,-21.062094,-2.365227,0.000000,0.000000,-1.000000
2.162655,-13.847161,2.365227,0.000000,-0.000000,1.000000
3.589402,-7.635608,-2.365227,0.000000,0.000000,-1.000000
8.368065,28.077248,-0.520025,-0.000000,1.000000,0.000000
-15.441286,4.928352,2.365227,0.000000,0.000000,1.000000
8.871233,-16.745827,2.365227,0.000000,-0.000000,1.000000
-28.670729,-4.348682,2.365227,0.000000,-0.000000,1.000000
-13.363927,-4.469143,2.365227,0.000000,-0.000000,1.000000
-34.961292,21.467587,2.365227,0.000000,-0.000000,1.000000
-24.157602,-19.285074,2.365227,0.000000,-0.000000,1.000000
-28.139556,23.801833,2.365227,-0.000000,0.000000,1.000000
12.782810,0.436429,2.365227,0.000000,-0.000000,1.000000
9.138451,-3.398919,-1.723069,-0.881921,0.471397,0.000000
34.482768,-2.410503,-2.365227,0.000000,0.000000,-1.000000
-17.704447,-28.077248,1.215570,0.000000,-1.000000,0.000000
31.353409,14.167475,-2.365227,0.000000,0.000000,-1.000000
-2.441016,-10.215265,-2.365227,0.000000,0.000000,-1.000000
6.624985,-25.188754,-2.365227,0.000000,0.000000,-1.000000
-8.176260,1.908400,-1.815396,0.881921,0.471397,-0.000000
-10.567391,19.737252,2.365227,-0.000000,0.000000,1.000000
31.837430,-23.836046,2.365227,-0.000000,0.000000,1.000000
-36.926701,18.215720,-1.833894,-1.000000,0.000000,0.000000
36.926701,-11.784942,-0.702443,1.000000,0.000000,-0.000000
31.315166,-5.170851,-2.365227,0.000000,0.000000,-1.000000
3.120760,18.279730,2.365227,-0.000000,0.000000,1.000000
-5.580782,-15.922176,-2.365227,0.000000,0.000000,-1.000000
-35.015589,-8.335522,2.365227,0.000000,-0.000000,1.000000
-27.333251,26.541087,2.365227,-0.000000,0.000000,1.000000
25.274702,27.699813,-2.365227,0.000000,-0.000000,-1.000000
-35.902518,-11.075766,2.365227,0.000000,-0.000000,1.000000
35.221263,-27.527325,2.365227,0.000000,-0.000000,1.000000
-8.112648,28.077248,0.100793,0.000000,1.000000,0.000000
22.216695,2.755838,2.365227,0.000000,-0.000000,1.000000
-4.705021,-17.314806,-2.365227,0.000000,0.000000,-1.000000
-20.019612,-11.751717,2.365227,0.000000,-0.000000,1.000000
11.233794,1.784992,-2.365227,0.000000,0.000000,-1.000000
3.097444,-15.293705,2.365227,0.000000,-0.000000,1.000000
-35.525568,14.902943,2.365227,0.000000,-0.000000,1.000000
4.070986,-24.261241,-2.365227,0.000000,0.000000,-1.000000
9.581484,0.945625,-1.232008,-0.956940,-0.290285,0.000000
35.567911,-7.251812,2.365227,-0.000000,0.000000,1.000000
34.252996,4.915279,2.365227,-0.000000,0.000000,1.000000
21.865692,-28.077248,1.999755,0.000000,-1.000000,0.000000
-7.182950,19.028562,2.365227,-0.000000,0.000000,1.000000
-6.757780,24.032368,-2.365227,0.000000,-0.000000,-1.000000
36.926701,-21.186115,1.339889,1.000000,0.000000,-0.000000
-17.961159,-7.149364,-2.365227,0.000000,0.000000,-1.000000
-29.863680,-2.219039,-2.365227,0.000000,0.000000,-1.000000
-34.939443,-5.368957,-2.365227,0.000000,0.000000,-1.000000
-5.161149,-21.740991,2.365227,0.000000,-0.000000,1.000000
24.576204,-23.118691,2.365227,0.000000,-0.000000,1.000000
-35.055079,-23.236657,2.365227,0.000000,-0.000000,1.000000
-30.998603,-23.576615,-2.365227,0.000000,0.000000,-1.000000
0.231607,-12.439577,-2.365227,0.000000,-0.000000,-1.000000
-6.671514,-4.091105,2.365227,0.000000,0.000000,1.000000
14.084593,-0.441571,2.365227,0.000000,0.000000,1.000000
29.217370,-11.908536,-2.365227,0.000000,0.000000,-1.000000
-32.240117,-3.340877,2.365227,0.000000,-0.000000,1.000000
16.148815,15.157179,-2.365227,-0.000000,0.000000,-1.000000
20.008505,12.834429,2.365227,0.000000,-0.000000,1.000000
-32.139661,-16.684300,2.365227,0.000000,-0.000000,1.000000
23.035298,-27.549685,-2.365227,0.000000,0.000000,-1.000000
-35.953512,-20.102961,-2.365227,0.000000,0.000000,-1.000000
-24.783090,-17.399961,2.365227,0.000000,-0.000000,1.000000
35.869052,-10.521474,-2.365227,0.000000,0.000000,-1.000000
-36.926701,27.993984,-0.477259,-1.000000,0.000000,0.000000
5.734612,14.730779,-2.365227,0.000000,-0.000000,-1.000000
33.471278,-12.303253,-2.365227,0.000000,0.000000,-1.000000
-10.039827,-15.018212,2.365227,0.000000,-0.000000,1.000000
23.852807,-15.275400,-2.365227,0.000000,0.000000,-1.000000
14.465482,7.481723,-2.365227,0.000000,0.000000,-1.000000
17.386014,-7.889531,2.365227,-0.000000,0.000000,1.000000
34.398818,1.922975,-2.365227,0.000000,0.000000,-1.000000
2.091431,11.655584,2.365227,-0.000000,0.000000,1.000000
14.432974,-24.902325,2.365227,0.000000,-0.000000,1.000000
11.566163,-16.015605,0.865603,-0.098018,0.995185,0.000000
-23.814815,3.207358,2.365227,0.000000,-0.000000,1.000000
-15.193333,18.744884,-2.365227,0.000000,-0.000000,-1.000000
34.922476,-12.223052,-2.365227,0.000000,0.000000,-1.000000
-9.798941,5.341766,2.365227,-0.000000,0.000000,1.000000
5.104512,6.791253,2.365227,-0.000000,0.000000,1.000000
-15.625661,25.604891,2.365227,-0.000000,0.000000,1.000000
32.808935,27.600343,2.365227,-0.000000,0.000000,1.000000
-16.066383,19.566652,2.365227,-0.000000,0.000000,1.000000
-12.871943,-13.692115,-2.365227,0.000000,0.000000,-1.000000
33.006441,-28.077248,2.158793,0.000000,-1.000000,0.000000
-25.433711,-27.008461,-2.365227,0.000000,0.000000,-1.000000
-24.372591,0.364248,-2.365227,0.000000,0.000000,-1.000000
27.871988,17.691745,2.365227,0.000000,-0.000000,1.000000
-36.926701,-17.800488,1.699589,-1.000000,0.000000,0.000000
9.961788,-6.076456,2.365227,0.000000,0.000000,1.000000
35.425356,-9.450866,2.365227,-0.000000,0.000000,1.000000
-32.174159,26.403983,2.365227,-0.000000,0.000000,1.000000
0.954505,5.640253,0.314804,-0.956940,-0.290285,-0.000000
15.849936,-13.347922,0.195412,-0.881921,0.471396,0.000000
-3.719847,-17.218408,2.365227,0.000000,-0.000000,1.000000
-10.921004,25.531416,2.365227,-0.000000,0.000000,1.000000
-28.058193,-22.454879,2.365227,0.000000,-0.000000,1.000000
-9.751149,-25.679117,-2.365227,0.000000,0.000000,-1.000000
11.602621,-20.541155,2.365227,0.000000,-0.000000,1.000000
-10.727130,-21.501954,2.365227,0.000000,-0.000000,1.000000
13.536465,26.525455,2.365227,-0.000000,0.000000,1.000000
-35.883479,4.434510,2.365227,0.000000,-0.000000,1.000000
4.197436,-8.986480,-2.365227,0.000000,0.000000,-1.000000
-21.222969,20.725103,2.365227,-0.000000,0.000000,1.000000
-11.448943,18.862772,-2.365227,0.000000,-0.000000,-1.000000
27.383524,-13.662788,2.365227,-0.000000,0.000000,1.000000
19.165368,-28.077248,2.082950,0.000000,-1.000000,0.000000
36.926701,-11.342506,1.003109,1.000000,-0.000000,0.000000
10.909176,-21.995811,-2.365227,0.000000,0.000000,-1.000000
12.391609,-26.287862,2.365227,0.000000,-0.000000,1.000000
-14.282599,28.077248,-0.933414,-0.000000,1.000000,0.000000
5.302773,4.154481,2.365227,-0.000000,-0.000000,1.000000
-17.049349,7.184991,2.365227,0.000000,0.000000,1.000000
-27.276155,-17.631568,2.365227,0.000000,-0.000000,1.000000
24.925336,-5.541057,-2.365227,0.000000,0.000000,-1.000000
-33.774464,11.762359,2.365227,0.000000,-0.000000,1.000000
11.760262,21.755752,2.365227,-0.000000,0.000000,1.000000
-6.634197,9.333298,2.365227,-0.000000,0.000000,1.000000
-16.489437,18.959158,2.365227,-0.000000,0.000000,1.000000
-29.448873,5.906150,2.365227,0.000000,-0.000000,1.000000
-22.986794,9.270280,2.365227,0.000000,-0.000000,1.000000
-27.715141,2.875530,2.365227,0.000000,-0.000000,1.000000
3.147151,-25.971413,2.365227,0.000000,-0.000000,1.000000
-0.689035,-22.800684,2.365227,0.000000,-0.000000,1.000000
6.226212,-15.768828,-2.365227,0.000000,0.000000,-1.000000
23.162275,-20.159342,2.365227,-0.000000,-0.000000,1.000000
-21.841648,-10.378987,-2.365227,0.000000,0.000000,-1.000000
36.926701,-1.302196,-1.748571,1.000000,0.000000,-0.000000
-9.096750,-16.072104,-2.365227,0.000000,0.000000,-1.000000
-24.405698,3.411884,-2.365227,0.000000,0.000000,-1.000000
-28.558202,-5.638296,-2.365227,0.000000,0.000000,-1.000000
-17.285386,-9.501040,-2.365227,0.000000,0.000000,-1.000000
25.525183,-28.077248,-0.188945,0.000000,-1.000000,0.000000
20.529266,28.077248,2.345307,0.000000,1.000000,0.000000
26.676893,-4.890404,-2.365227,0.000000,0.000000,-1.000000
3.327112,21.122774,-2.365227,0.000000,-0.000000,-1.000000
-21.981644,23.939455,2.365227,-0.000000,0.000000,1.000000
3.752354,-9.682157,-2.365227,0.000000,0.000000,-1.000000
36.926701,3.224468,0.398875,1.000000,-0.000000,0.000000
30.383263,13.407968,2.365227,-0.000000,0.000000,1.000000
-16.944182,28.077248,-1.673173,-0.000000,1.000000,0.000000
-31.507246,23.468625,-2.365227,0.000000,-0.000000,-1.000000
16.440610,10.596686,-2.365227,0.000000,-0.000000,-1.000000
-21.761062,27.187930,2.365227,-0.000000,0.000000,1.000000
15.052459,6.745058,-2.365227,0.000000,-0.000000,-1.000000
19.933833,9.750750,2.365227,0.000000,-0.000000,1.000000
-26.827817,-18.060899,2.365227,0.000000,-0.000000,1.000000
3.648125,-11.034156,-2.365227,0.000000,-0.000000,-1.000000
2.533201,-23.756217,2.365227,0.000000,-0.000000,1.000000
16.719289,-8.065614,-2.365227,0.000000,-0.000000,-1.000000
-15.617793,-13.526281,2.365227,0.000000,-0.000000,1.000000
-36.223103,-2.673406,2.365227,0.000000,-0.000000,1.000000
-10.638690,10.850862,2.365227,-0.000000,0.000000,1.000000
-21.679155,-14.266082,2.365227,0.000000,-0.000000,1.000000
16.014679,-26.066915,-2.365227,0.000000,0.000000,-1.000000
-11.107584,-0.849594,-2.365227,0.000000,0.000000,-1.000000
26.235836,22.580358,-2.365227,0.000000,-0.000000,-1.000000
-16.496161,-8.055774,2.365227,0.000000,-0.000000,1.000000
7.764728,-7.852550,0.497498,0.773010,-0.634393,0.000000
10.661292,11.154349,2.365227,-0.000000,0.000000,1.000000
32.890883,28.077248,1.173806,-0.000000,1.000000,0.000000
-27.468244,9.380169,-2.365227,0.000000,0.000000,-1.000000
1.144447,2.777879,1.769268,-0.956940,0.290285,0.000000
35.027910,17.601892,-2.365227,0.000000,0.000000,-1.000000
-36.926701,-4.647924,-1.596973,-1.000000,0.000000,0.000000
23.333966,-28.077248,-1.866263,0.000000,-1.000000,0.000000
-13.097661,-3.529250,2.365227,0.000000,-0.000000,1.000000
-0.183499,7.926488,-2.365227,-0.000000,0.000000,-1.000000
-36.926701,26.355495,-1.792138,-1.000000,0.000000,0.000000
-26.773923,24.053813,2.365227,-0.000000,0.000000,1.000000
-27.043290,4.521700,-2.365227,0.000000,0.000000,-1.000000
0.873030,22.140516,2.365227,-0.000000,0.000000,1.000000
-15.150171,-16.918964,-2.365227,0.000000,0.000000,-1.000000
-36.926701,1.234352,-1.892105,-1.000000,0.000000,0.000000
-25.489730,-24.449263,-2.365227,0.000000,0.000000,-1.000000
6.306896,-28.077248,-2.113871,0.000000,-1.000000,0.000000
27.615217,-10.659899,-2.365227,0.000000,0.000000,-1.000000
33.082141,24.113208,2.365227,0.000000,-0.000000,1.000000
7.992018,24.494245,2.365227,-0.000000,0.000000,1.000000
12.272226,28.077248,1.057440,0.000000,1.000000,0.000000
-25.546883,-8.599595,-2.365227,0.000000,0.000000,-1.000000
10.272659,22.610292,-2.365227,0.000000,-0.000000,-1.000000
-8.596263,9.535069,-2.365227,0.000000,-0.000000,-1.000000
36.926701,-2.891207,1.791316,1.000000,-0.000000,0.000000
10.165101,-15.821698,0.599642,0.290284,0.956940,0.000000
21.470011,-14.983281,2.365227,-0.000000,0.000000,1.000000
-5.929160,12.588511,-2.365227,0.000000,-0.000000,-1.000000
36.926701,5.327839,0.679205,1.000000,-0.000000,0.000000
20.257167,27.308939,-2.365227,0.000000,-0.000000,-1.000000
19.125908,4.409393,2.365227,0.000000,0.000000,1.000000
33.222033,-20.849655,2.365227,-0.000000,0.000000,1.000000
29.213891,-20.128486,2.365227,-0.000000,0.000000,1.000000
17.461988,17.481362,2.365227,-0.000000,0.000000,1.000000
-25.050821,21.924876,2.365227,-0.000000,0.000000,1.000000
20.711094,-22.370678,-2.365227,0.000000,0.000000,-1.000000
3.686381,-26.274114,-2.365227,0.000000,0.000000,-1.000000
24.699071,-8.408280,-2.365227,0.000000,0.000000,-1.000000
35.177568,16.635332,2.365227,-0.000000,0.000000,1.000000
36.926701,-16.294739,1.608347,1.000000,-0.000000,0.000000
-14.251589,22.829601,-2.365227,0.000000,-0.000000,-1.000000
-35.494265,10.269355,2.365227,0.000000,-0.000000,1.000000
-16.899752,-19.050550,2.365227,0.000000,-0.000000,1.000000
12.793836,20.141080,2.365227,-0.000000,0.000000,1.000000
-18.409947,-7.689413,-2.365227,0.000000,0.000000,-1.000000
36.185678,28.077248,1.276641,-0.000000,1.000000,0.000000
-20.897714,-28.077248,-2.137300,0.000000,-1.000000,0.000000
-0.201863,17.702140,-2.365227,0.000000,-0.000000,-1.000000
-19.978461,-23.487711,2.365227,0.000000,-0.000000,1.000000
35.064696,4.804967,2.365227,-0.000000,0.000000,1.000000
32.846257,7.962665,2.365227,-0.000000,0.000000,1.000000
20.617490,-11.154556,2.365227,-0.000000,0.000000,1.000000
25.086442,-13.610545,-2.365227,0.000000,0.000000,-1.000000
26.852781,-19.718357,2.365227,-0.000000,0.000000,1.000000
16.887528,28.077248,-0.862467,-0.000000,1.000000,0.000000
-34.747446,-15.813083,2.365227,0.000000,-0.000000,1.000000
28.482945,-18.887181,-2.365227,0.000000,0.000000,-1.000000
32.202971,5.002370,-2.365227,0.000000,0.000000,-1.000000
6.785692,-21.509722,2.365227,0.000000,-0.000000,1.000000
11.677260,26.720292,2.365227,-0.000000,0.000000,1.000000
-15.354514,3.301934,-2.365227,0.000000,0.000000,-1.000000
3.616498,-16.311611,2.365227,0.000000,-0.000000,1.000000
35.364165,-4.487406,-2.365227,0.000000,0.000000,-1.000000
-16.407153,1.545536,2.365227,0.000000,-0.000000,1.000000
-29.169543,7.096907,2.365227,0.000000,-0.000000,1.000000
-1.366703,8.250689,-1.592726,-0.471397,-0.881921,0.000000
-5.262789,-23.093792,2.365227,0.000000,-0.000000,1.000000
-24.998346,-11.933929,2.365227,0.000000,-0.000000,1.000000
-36.926701,-18.193672,0.628116,-1.000000,0.000000,0.000000
36.926701,25.635205,-2.332708,1.000000,0.000000,-0.000000
-25.583104,-22.963236,-2.365227,0.000000,0.000000,-1.000000
25.734726,-7.398260,-2.365227,0.000000,0.000000,-1.000000
2.795415,12.362113,-2.365227,0.000000,-0.000000,-1.000000
15.238654,2.065053,2.365227,0.000000,-0.000000,1.000000
-24.007783,19.173677,-2.365227,0.000000,-0.000000,-1.000000
-15.335499,-21.663407,-2.365227,0.000000,0.000000,-1.000000
-1.881226,-14.461346,-2.365227,0.000000,0.000000,-1.000000
-11.204813,-15.683869,2.365227,0.000000,-0.000000,1.000000
-15.105885,-6.145734,-2.365227,0.000000,0.000000,-1.000000
21.358130,1.083750,-2.365227,0.000000,0.000000,-1.000000
-27.298265,4.500611,-2.365227,0.000000,0.000000,-1.000000
-29.239832,18.466885,2.365227,0.000000,-0.000000,1.000000
36.926701,13.313210,-1.392078,1.000000,0.000000,-0.000000
-21.463515,-14.566116,2.365227,0.000000,-0.000000,1.000000
-18.802370,-2.702526,-2.365227,0.000000,0.000000,-1.000000
-2.701108,-15.848594,2.365227,0.000000,-0.000000,1.000000
-17.147977,-0.704389,2.365227,0.000000,-0.000000,1.000000
3.114149,17.037533,-2.365227,0.000000,-0.000000,-1.000000
36.926701,-3.201419,2.031435,1.000000,-0.000000,0.000000
19.186909,22.653890,2.365227,-0.000000,0.000000,1.000000
-20.255828,-19.765095,2.365227,0.000000,-0.000000,1.000000
36.926701,-14.288209,-0.225194,1.000000,0.000000,-0.000000
-3.949103,18.065503,2.365227,-0.000000,0.000000,1.000000
20.153533,-15.184305,-2.365227,0.000000,0.000000,-1.000000
-17.142175,-23.440434,-2.365227,0.000000,0.000000,-1.000000
-31.246404,1.319859,2.365227,0.000000,-0.000000,1.000000
-35.364723,13.698162,-2.365227,0.000000,0.000000,-1.000000
-12.877365,-28.077248,1.800350,0.000000,-1.000000,0.000000
-12.401348,-1.911615,2.365227,0.000000,-0.000000,1.000000
27.918917,-18.228768,-2.365227,0.000000,0.000000,-1.000000
-22.883626,-24.751553,2.365227,0.000000,-0.000000,1.000000
29.542993,-3.935834,-2.365227,0.000000,0.000000,-1.000000
36.330738,27.146327,-2.365227,0.000000,0.000000,-1.000000
-6.393830,-24.895424,-2.365227,0.000000,0.000000,-1.000000
24.363196,0.097883,2.365227,-0.000000,0.000000,1.000000
-15.569530,9.723681,-2.365227,0.000000,0.000000,-1.000000
0.998398,-17.513624,-2.365227,0.000000,0.000000,-1.000000
-0.883371,-8.589765,-2.365227,0.000000,0.000000,-1.000000
1.733868,21.984593,2.365227,-0.000000,0.000000,1.000000
-22.023605,-12.707263,-2.365227,0.000000,0.000000,-1.000000
-10.211950,-4.715078,-2.365227,0.000000,0.000000,-1.000000
9.082288,2.869969,-2.365227,0.000000,0.000000,-1.000000
-34.420682,-14.911800,2.365227,0.000000,-0.000000,1.000000
36.926701,-4.751889,-1.807129,1.000000,0.000000,-0.000000
12.333113,3.723623,-2.365227,0.000000,0.000000,-1.000000
36.926701,4.819650,2.084702,1.000000,-0.000000,0.000000
-8.263918,16.399512,-2.365227,0.000000,-0.000000,-1.000000
-35.984932,20.733281,-2.365227,0.000000,0.000000,-1.000000
-4.099244,-14.378070,-2.365227,0.000000,-0.000000,-1.000000
20.229686,-12.924016,2.365227,-0.000000,0.000000,1.000000
30.257342,13.915776,2.365227,-0.000000,0.000000,1.000000
29.341719,11.390561,-2.365227,0.000000,0.000000,-1.000000
-11.498044,18.489691,2.365227,-0.000000,0.000000,1.000000
-36.312012,-19.663181,-2.365227,0.000000,0.000000,-1.000000
4.326763,12.413145,-2.365227,0.000000,-0.000000,-1.000000
-8.360666,7.943800,-2.365227,0.000000,-0.000000,-1.000000
-29.126367,-12.214315,-2.365227,0.000000,0.000000,-1.000000
-29.032068,16.234334,2.365227,0.000000,-0.000000,1.000000
33.582178,-9.510386,2.365227,-0.000000,0.000000,1.000000
-13.157459,-27.496589,2.365227,0.000000,-0.000000,1.000000
4.890638,4.162741,-0.543704,0.098017,-0.995185,0.000000
-25.465394,25.359994,2.365227,-0.000000,0.000000,1.000000
-36.926701,-13.488441,-2.343922,-1.000000,0.000000,0.000000
-15.785699,-9.683504,2.365227,0.000000,-0.000000,1.000000
22.705955,1.356965,2.365227,0.000000,-0.000000,1.000000
24.188339,-6.547849,2.365227,-0.000000,0.000000,1.000000
22.267777,26.704968,-2.365227,0.000000,-0.000000,-1.000000
-12.979483,23.330381,-2.365227,0.000000,-0.000000,-1.000000
19.126552,-28.077248,-1.561576,0.000000,-1.000000,0.000000
4.490155,4.123297,-0.038166,0.098017,-0.995185,0.000000
36.926701,-12.991008,-0.554453,1.000000,0.000000,-0.000000
-23.989308,-26.593847,-2.365227,0.000000,0.000000,-1.000000
-20.578459,-27.028908,-2.365227,0.000000,0.000000,-1.000000
-1.084644,22.652666,2.365227,-0.000000,0.000000,1.000000
28.537369,-7.617104,-2.365227,0.000000,0.000000,-1.000000
-9.335557,-5.294929,2.365227,0.000000,-0.000000,1.000000
4.066976,-8.714852,-2.365227,0.000000,0.000000,-1.000000
22.272827,27.333018,2.365227,-0.000000,0.000000,1.000000
-23.105932,18.810068,2.365227,-0.000000,0.000000,1.000000
-24.263208,27.982995,-2.365227,0.000000,-0.000000,-1.000000
31.220838,13.142026,-2.365227,0.000000,0.000000,-1.000000
21.328766,15.809806,2.365227,-0.000000,0.000000,1.000000
34.167974,6.221913,2.365227,-0.000000,0.000000,1.000000
-14.467096,-21.250386,-2.365227,0.000000,0.000000,-1.000000
-10.964931,28.077248,1.545178,0.000000,1.000000,0.000000
-2.591065,-6.419757,2.365227,-0.000000,-0.000000,1.000000
3.970899,-26.531120,-2.365227,0.000000,0.000000,-1.000000
-10.967380,24.658687,2.365227,-0.000000,0.000000,1.000000
23.831326,8.110274,2.365227,-0.000000,0.000000,1.000000
-6.654127,-0.011814,1.519485,0.634393,0.773010,0.000000
-6.296329,21.920276,-2.365227,0.000000,-0.000000,-1.000000
-22.845844,15.058455,2.365227,-0.000000,-0.000000,1.000000
0.238571,17.422593,2.365227,-0.000000,0.000000,1.000000
0.959632,-5.232606,-2.365227,0.000000,0.000000,-1.000000
-23.754895,-5.205011,2.365227,0.000000,-0.000000,1.000000
-30.971709,18.124091,-2.365227,0.000000,0.000000,-1.000000
-28.103665,-4.553386,-2.365227,0.000000,0.000000,-1.000000
9.126018,-25.204314,2.365227,0.000000,-0.000000,1.000000
-13.644420,-11.681830,-2.365227,0.000000,0.000000,-1.000000
-9.597376,18.770290,-2.365227,0.000000,-0.000000,-1.000000
17.138879,23.927954,2.365227,-0.000000,0.000000,1.000000
12.696535,-17.932171,-2.365227,0.000000,0.000000,-1.000000
33.514056,-11.931613,2.365227,-0.000000,0.000000,1.000000
-22.069940,2.966318,-2.365227,0.000000,0.000000,-1.000000
19.583330,11.593052,-2.365227,0.000000,-0.000000,-1.000000
-0.992364,13.297305,2.365227,-0.000000,0.000000,1.000000
36.926701,-7.485340,2.120986,1.000000,-0.000000,0.000000
15.431341,15.284512,-2.365227,-0.000000,0.000000,-1.000000
-26.302024,16.559839,-2.365227,0.000000,0.000000,-1.000000
21.519063,1.999921,-2.365227,0.000000,-0.000000,-1.000000
11.607412,5.971491,-2.365227,0.000000,-0.000000,-1.000000
-7.390439,27.503560,2.365227,-0.000000,0.000000,1.000000
32.691955,6.719846,2.365227,-0.000000,0.000000,1.000000
15.265882,4.279801,-2.365227,0.000000,0.000000,-1.000000
36.926701,-21.216902,-0.913554,1.000000,0.000000,-0.000000
1.039973,2.433474,-1.091588,-0.956940,0.290285,0.000000
-14.664547,-21.703528,2.365227,0.000000,-0.000000,1.000000
18.643838,-26.878125,-2.365227,0.000000,0.000000,-1.000000
28.454394,19.979546,-2.365227,0.000000,-0.000000,-1.000000
-9.864583,2.875918,2.365227,0.000000,0.000000,1.000000
23.698662,-28.077248,-0.416175,0.000000,-1.000000,0.000000
26.462881,-0.805945,-2.365227,0.000000,0.000000,-1.000000
25.236715,-24.237146,-2.365227,0.000000,0.000000,-1.000000
36.926701,4.759561,-1.226356,1.000000,0.000000,-0.000000
-34.831006,7.422131,2.365227,0.000000,-0.000000,1.000000
31.257789,-0.209432,-2.365227,0.000000,0.000000,-1.000000
32.971253,16.466608,2.365227,-0.000000,0.000000,1.000000
-4.875930,-21.536139,2.365227,0.000000,-0.000000,1.000000
-28.483886,-24.215818,2.365227,0.000000,-0.000000,1.000000
-14.435265,17.992562,-2.365227,0.000000,-0.000000,-1.000000
2.383920,-13.354252,-2.365227,0.000000,0.000000,-1.000000
13.356987,15.879084,2.365227,-0.000000,0.000000,1.000000
15.140422,-2.606775,2.365227,-0.000000,0.000000,1.000000
6.936482,4.894628,2.365227,-0.000000,0.000000,1.000000
-2.916954,-10.274728,0.703921,-0.995185,0.098017,0.000000
-30.615041,-21.309946,2.365227,0.000000,-0.000000,1.000000
-3.480170,9.845019,2.365227,-0.000000,0.000000,1.000000
-10.152012,-28.077248,-0.779596,0.000000,-1.000000,0.000000
2.816364,-23.362394,-2.365227,0.000000,0.000000,-1.000000
-21.021969,-27.145980,-2.365227,0.000000,0.000000,-1.000000
-10.319675,-16.252931,2.365227,0.000000,-0.000000,1.000000
-21.396592,-11.836752,-2.365227,0.000000,0.000000,-1.000000
13.440665,-28.074300,2.365227,0.000000,-0.000000,1.000000
36.926701,-1.353309,-1.320615,1.000000,0.000000,-0.000000
-20.726278,17.372964,-2.365227,0.000000,-0.000000,-1.000000
-27.280729,-10.180990,-2.365227,0.000000,0.000000,-1.000000
25.907274,-24.687122,-2.365227,0.000000,0.000000,-1.000000
16.549810,-22.329792,2.365227,0.000000,-0.000000,1.000000
27.113433,2.972568,-2.365227,0.000000,0.000000,-1.000000
35.004961,10.346228,2.365227,-0.000000,0.000000,1.000000
7.121620,22.437141,2.365227,-0.000000,0.000000,1.000000
36.926701,27.450980,0.234717,1.000000,-0.000000,0.000000
-4.145751,-21.042965,-2.365227,0.000000,0.000000,-1.000000
-29.016014,16.033463,2.365227,0.000000,-0.000000,1.000000
-12.222719,-23.899535,-2.365227,0.000000,0.000000,-1.000000
-30.434905,-27.953620,2.365227,0.000000,-0.000000,1.000000
36.926701,-15.775684,-1.347476,1.000000,0.000000,-0.000000
20.241748,12.728810,-2.365227,0.000000,0.000000,-1.000000
-19.736434,8.105787,2.365227,0.000000,-0.000000,1.000000
13.265939,26.804453,2.365227,-0.000000,0.000000,1.000000
-30.372694,21.448814,-2.365227,0.000000,0.000000,-1.000000
13.558766,-28.077248,-1.181001,0.000000,-1.000000,0.000000
-33.899680,27.832698,-2.365227,0.000000,-0.000000,-1.000000
