x,y,z,nx,ny,nz
0.357532,0.011284,0.140816,0.687430,0.000000,0.726251
0.008172,0.030908,0.007876,0.000000,1.000000,0.000000
0.030908,0.361807,0.396128,1.000000,0.000000,0.000000
0.253116,0.030908,0.079743,0.000000,1.000000,0.000000
0.385937,-0.030908,0.337451,0.000000,-1.000000,0.000000
0.095612,-0.005052,0.270107,-0.274471,0.000000,0.961595
0.224534,-0.028511,0.111101,-0.951991,0.000000,-0.306125
-0.030908,0.180720,0.325506,-1.000000,0.000000,0.000000
0.030908,0.857158,0.231189,1.000000,0.000000,0.000000
-0.030908,0.358709,0.052220,-1.000000,0.000000,0.000000
0.126370,0.030908,0.338334,0.000000,1.000000,0.000000
0.335527,-0.030908,0.226186,0.000000,-1.000000,0.000000
0.030908,0.402621,0.276779,1.000000,0.000000,0.000000
-0.030908,0.588150,0.208190,-1.000000,0.000000,0.000000
0.030908,0.529021,0.024773,1.000000,0.000000,0.000000
0.255190,-0.011458,0.375763,-0.612252,0.000000,0.790663
0.030908,0.495557,0.200419,1.000000,0.000000,0.000000
0.030908,0.079078,0.094801,1.000000,0.000000,0.000000
0.195824,0.030908,0.096052,0.000000,1.000000,0.000000
0.045384,-0.030908,0.293284,0.000000,-1.000000,0.000000
0.030908,0.660101,0.267458,1.000000,0.000000,0.000000
0.425959,0.030908,0.053430,0.000000,1.000000,0.000000
-0.030908,0.537635,0.366420,-1.000000,0.000000,0.000000
0.171501,0.030908,0.406397,0.000000,1.000000,0.000000
-0.030908,0.743067,0.078516,-1.000000,0.000000,0.000000
0.151347,0.030908,0.177782,0.000000,1.000000,0.000000
-0.030908,0.131322,0.152867,-1.000000,0.000000,0.000000
0.215347,-0.030908,0.343947,0.000000,-1.000000,0.000000
0.149016,0.030908,0.120285,0.000000,1.000000,0.000000
0.081740,-0.021120,0.165991,-0.662274,0.000000,-0.749261
0.111463,0.003285,0.159443,-0.840497,0.000000,0.541816
0.366983,0.030908,0.066412,0.000000,1.000000,0.000000
0.147405,0.030908,0.024776,0.000000,1.000000,0.000000
0.030908,0.693612,0.435477,1.000000,0.000000,0.000000
0.030908,0.785386,0.072810,1.000000,0.000000,0.000000
0.189585,-0.030908,0.429568,0.000000,-1.000000,0.000000
0.388150,0.030908,0.394544,0.000000,1.000000,0.000000
-0.030908,0.676061,0.348539,-1.000000,0.000000,0.000000
0.389081,-0.030908,0.197670,0.000000,-1.000000,0.000000
0.110405,-0.030908,0.313306,0.000000,-1.000000,0.000000
-0.030908,0.533866,0.371113,-1.000000,0.000000,0.000000
0.187243,-0.030908,0.083113,0.000000,-1.000000,0.000000
0.030908,0.838984,0.405916,1.000000,0.000000,0.000000
-0.030908,0.559277,0.345762,-1.000000,0.000000,0.000000
0.321810,0.011836,0.288402,0.683317,0.000000,-0.730122
0.178926,0.018050,0.113712,-0.589133,0.000000,-0.808036
0.030908,0.414320,0.381938,1.000000,0.000000,0.000000
-0.030908,0.662706,0.103835,-1.000000,0.000000,0.000000
0.389767,0.030908,0.056968,0.000000,1.000000,0.000000
0.328824,-0.030908,0.365404,0.000000,-1.000000,0.000000
-0.030908,0.706697,0.104320,-1.000000,0.000000,0.000000
0.302818,0.030908,0.059689,0.000000,1.000000,0.000000
-0.030908,0.778418,0.186879,-1.000000,0.000000,0.000000
0.030908,0.491021,0.261059,1.000000,0.000000,0.000000
0.122133,0.030908,0.158130,0.000000,1.000000,0.000000
-0.030908,0.107915,0.072180,-1.000000,0.000000,0.000000
0.372001,-0.030908,0.347450,0.000000,-1.000000,0.000000
0.396922,0.030908,0.142951,0.000000,1.000000,0.000000
0.391993,0.030908,0.290809,0.000000,1.000000,0.000000
0.172134,-0.016734,0.208072,0.984299,0.000000,0.176509
0.015630,-0.030908,0.146950,0.000000,-1.000000,0.000000
0.318426,-0.030908,0.435814,0.000000,-1.000000,0.000000
0.011155,-0.030908,0.151590,0.000000,-1.000000,0.000000
-0.030908,0.065566,0.186524,-1.000000,0.000000,0.000000
0.030908,0.719484,0.064630,1.000000,0.000000,0.000000
0.187868,-0.013944,0.186178,0.632699,0.000000,-0.774398
0.240753,-0.030908,0.372206,0.000000,-1.000000,0.000000
-0.030908,0.820102,0.209855,-1.000000,0.000000,0.000000
0.117725,-0.030908,0.352986,0.000000,-1.000000,0.000000
0.053839,0.030908,0.018696,0.000000,1.000000,0.000000
-0.030908,0.125619,0.326328,-1.000000,0.000000,0.000000
0.055523,-0.030908,0.346301,0.000000,-1.000000,0.000000
0.242295,-0.030908,0.051640,0.000000,-1.000000,0.000000
-0.030908,0.679216,0.382656,-1.000000,0.000000,0.000000
0.030908,0.113715,0.052548,1.000000,0.000000,0.000000
0.204951,-0.030908,0.262067,0.000000,-1.000000,0.000000
0.082220,0.019915,0.189413,-0.892069,0.000000,0.451900
0.030908,0.176107,0.033020,1.000000,0.000000,0.000000
0.187151,-0.024449,0.210865,-0.432702,0.000000,-0.901537
0.144805,0.005217,0.270046,-0.291774,0.000000,0.956487
0.078411,0.030908,0.058961,0.000000,1.000000,0.000000
-0.030908,0.845704,0.395928,-1.000000,0.000000,0.000000
0.030908,0.683974,0.080077,1.000000,0.000000,0.000000
0.321518,0.030908,0.012388,0.000000,1.000000,0.000000
0.030908,0.370204,0.034528,1.000000,0.000000,0.000000
-0.030908,0.065994,0.039545,-1.000000,0.000000,0.000000
0.030908,0.738888,0.157478,1.000000,0.000000,0.000000
0.030908,0.506846,0.262145,1.000000,0.000000,0.000000
0.030908,0.200838,0.004259,1.000000,0.000000,0.000000
0.030908,0.292276,0.388778,1.000000,0.000000,0.000000
0.144767,-0.012586,0.269662,0.778398,0.000000,-0.627771
0.109203,-0.030908,0.016879,0.000000,-1.000000,0.000000
0.155877,0.030908,0.161672,0.000000,1.000000,0.000000
0.030908,0.057177,0.400814,1.000000,0.000000,0.000000
0.083918,-0.030908,0.075097,0.000000,-1.000000,0.000000
-0.030908,0.757926,0.010711,-1.000000,0.000000,0.000000
0.030908,0.631382,0.426073,1.000000,0.000000,0.000000
-0.030908,0.485999,0.270223,-1.000000,0.000000,0.000000
0.340677,-0.030908,0.266659,0.000000,-1.000000,0.000000
0.224018,0.004410,0.084703,0.629378,0.000000,-0.777100
0.158638,0.030908,0.326945,0.000000,1.000000,0.000000
0.030908,0.043330,0.226049,1.000000,0.000000,0.000000
0.244385,0.030908,0.188930,0.000000,1.000000,0.000000
-0.030908,0.091532,0.157839,-1.000000,0.000000,0.000000
0.030908,0.129478,0.390508,1.000000,0.000000,0.000000
0.249616,0.030908,0.408476,0.000000,1.000000,0.000000
0.286861,0.030908,0.021777,0.000000,1.000000,0.000000
0.030908,0.301296,0.151767,1.000000,0.000000,0.000000
0.432782,-0.030908,0.270450,0.000000,-1.000000,0.000000
0.030908,0.067945,0.428772,1.000000,0.000000,0.000000
0.030908,0.673755,0.306244,1.000000,0.000000,0.000000
0.030908,0.066177,0.299135,1.000000,0.000000,0.000000
-0.030908,0.003610,0.041680,-1.000000,0.000000,0.000000
-0.030908,0.087652,0.050317,-1.000000,0.000000,0.000000
0.351615,0.030908,0.300795,0.000000,1.000000,0.000000
0.030908,0.506874,0.084809,1.000000,0.000000,0.000000
0.086768,0.026065,0.257541,-0.888589,0.000000,0.458703
0.417539,0.030908,0.279482,0.000000,1.000000,0.000000
0.030908,0.602991,0.100434,1.000000,0.000000,0.000000
0.200897,-0.030908,0.025012,0.000000,-1.000000,0.000000
-0.030908,0.086012,0.426855,-1.000000,0.000000,0.000000
-0.030908,0.302315,0.403736,-1.000000,0.000000,0.000000
0.358606,0.030908,0.167821,0.000000,1.000000,0.000000
0.195545,0.005009,0.322585,0.652097,0.000000,0.758135
-0.030908,0.113824,0.142521,-1.000000,0.000000,0.000000
-0.030908,0.214573,0.411522,-1.000000,0.000000,0.000000
-0.030908,0.185869,0.128190,-1.000000,0.000000,0.000000
0.187379,0.030908,0.337450,0.000000,1.000000,0.000000
-0.030908,0.284747,0.112711,-1.000000,0.000000,0.000000
0.370805,-0.030908,0.384967,0.000000,-1.000000,0.000000
0.179814,-0.030908,0.255594,0.000000,-1.000000,0.000000
-0.030908,0.102155,0.047924,-1.000000,0.000000,0.000000
0.309433,0.030908,0.196610,0.000000,1.000000,0.000000
0.030908,0.765733,0.082877,1.000000,0.000000,0.000000
0.319090,0.030908,0.116525,0.000000,1.000000,0.000000
0.432969,0.030908,0.169033,0.000000,1.000000,0.000000
0.426067,-0.030908,0.197218,0.000000,-1.000000,0.000000
0.177642,-0.018191,0.275554,-0.991813,0.000000,-0.127700
0.030908,0.169606,0.057249,1.000000,0.000000,0.000000
0.030908,0.131912,0.429101,1.000000,0.000000,0.000000
0.030908,0.236085,0.265637,1.000000,0.000000,0.000000
0.382354,0.001705,0.122752,0.999004,0.000000,-0.044613
0.186437,0.030908,0.124301,0.000000,1.000000,0.000000
-0.030908,0.562530,0.429767,-1.000000,0.000000,0.000000
0.191209,-0.018528,0.372781,-0.337984,0.000000,0.941152
-0.030908,0.076900,0.069836,-1.000000,0.000000,0.000000
-0.030908,0.186553,0.222723,-1.000000,0.000000,0.000000
-0.030908,0.893739,0.426815,-1.000000,0.000000,0.000000
-0.030908,0.712481,0.191832,-1.000000,0.000000,0.000000
0.185881,0.001937,0.123260,-0.073591,0.000000,-0.997289
0.030908,0.082259,0.186471,1.000000,0.000000,0.000000
0.219390,0.030908,0.086476,0.000000,1.000000,0.000000
0.359402,-0.030908,0.107794,0.000000,-1.000000,0.000000
0.295886,-0.030908,0.248732,0.000000,-1.000000,0.000000
0.252779,-0.030908,0.399145,0.000000,-1.000000,0.000000
0.436272,0.030908,0.113142,0.000000,1.000000,0.000000
0.030908,0.364180,0.125266,1.000000,0.000000,0.000000
0.366071,-0.030908,0.260136,0.000000,-1.000000,0.000000
0.100541,-0.030908,0.423312,0.000000,-1.000000,0.000000
0.059336,0.030908,0.284491,0.000000,1.000000,0.000000
0.281114,0.030908,0.247862,0.000000,1.000000,0.000000
0.030908,0.850738,0.048423,1.000000,0.000000,0.000000
0.363947,0.030348,0.257979,0.570714,0.000000,-0.821149
0.340412,-0.030908,0.033914,0.000000,-1.000000,0.000000
0.259109,0.009641,0.243039,0.457884,0.000000,-0.889012
0.240230,-0.030908,0.101480,0.000000,-1.000000,0.000000
0.030908,0.796229,0.242553,1.000000,0.000000,0.000000
0.336791,-0.030908,0.264026,0.000000,-1.000000,0.000000
0.435767,0.030908,0.142248,0.000000,1.000000,0.000000
0.030908,0.374280,0.214590,1.000000,0.000000,0.000000
0.379707,0.030908,0.358493,0.000000,1.000000,0.000000
-0.030908,0.613232,0.322899,-1.000000,0.000000,0.000000
0.103412,0.030908,0.284633,0.000000,1.000000,0.000000
0.030908,0.264150,0.258073,1.000000,0.000000,0.000000
0.128136,0.030908,0.246816,0.000000,1.000000,0.000000
0.198538,-0.030908,0.119067,0.000000,-1.000000,0.000000
0.012469,0.030908,0.413923,0.000000,1.000000,0.000000
0.030908,0.066441,0.381821,1.000000,0.000000,0.000000
0.085132,-0.029762,0.097903,-0.998058,0.000000,-0.062286
-0.030908,0.320871,0.316822,-1.000000,0.000000,0.000000
-0.030908,0.593144,0.350052,-1.000000,0.000000,0.000000
0.030908,0.002896,0.244309,1.000000,0.000000,0.000000
0.242809,-0.030908,0.249655,0.000000,-1.000000,0.000000
-0.030908,0.073505,0.210785,-1.000000,0.000000,0.000000
0.136084,0.030908,0.330012,0.000000,1.000000,0.000000
0.424118,-0.030908,0.022142,0.000000,-1.000000,0.000000
0.030908,0.016383,0.198920,1.000000,0.000000,0.000000
0.030908,0.231721,0.394372,1.000000,0.000000,0.000000
0.030908,0.814911,0.404523,1.000000,0.000000,0.000000
0.401019,0.030908,0.168046,0.000000,1.000000,0.000000
0.030908,0.454348,0.377135,1.000000,0.000000,0.000000
0.030908,0.883938,0.257852,1.000000,0.000000,0.000000
0.030908,0.475445,0.359333,1.000000,0.000000,0.000000
-0.030908,0.237380,0.437113,-1.000000,0.000000,0.000000
0.272806,0.030908,0.389713,0.000000,1.000000,0.000000
0.071463,-0.030908,0.208164,0.000000,-1.000000,0.000000
-0.030908,0.428178,0.113734,-1.000000,0.000000,0.000000
0.418108,-0.030908,0.085183,0.000000,-1.000000,0.000000
-0.030908,0.249007,0.308248,-1.000000,0.000000,0.000000
0.122961,0.030908,0.119437,0.000000,1.000000,0.000000
-0.030908,0.121706,0.108200,-1.000000,0.000000,0.000000
0.030908,0.414019,0.231212,1.000000,0.000000,0.000000
0.355305,0.006531,0.181444,0.999800,0.000000,0.019986
0.408721,-0.030908,0.335585,0.000000,-1.000000,0.000000
0.306929,0.030908,0.201430,0.000000,1.000000,0.000000
0.030908,0.837751,0.324886,1.000000,0.000000,0.000000
0.030908,0.156831,0.223289,1.000000,0.000000,0.000000
0.232651,0.030908,0.416403,0.000000,1.000000,0.000000
0.030908,0.658855,0.407876,1.000000,0.000000,0.000000
-0.030908,0.256971,0.228687,-1.000000,0.000000,0.000000
0.030908,0.260437,0.134380,1.000000,0.000000,0.000000
-0.030908,0.172323,0.191604,-1.000000,0.000000,0.000000
0.208474,-0.030908,0.282251,0.000000,-1.000000,0.000000
-0.030908,0.471468,0.091257,-1.000000,0.000000,0.000000
0.271269,-0.001610,0.285768,-0.676084,0.000000,0.736825
0.422603,0.030908,0.437132,0.000000,1.000000,0.000000
0.384769,0.030908,0.420008,0.000000,1.000000,0.000000
0.001135,-0.030908,0.233143,0.000000,-1.000000,0.000000
-0.030908,0.229518,0.006732,-1.000000,0.000000,0.000000
-0.030908,0.773452,0.210043,-1.000000,0.000000,0.000000
0.004360,0.030908,0.412863,0.000000,1.000000,0.000000
0.243879,-0.023083,0.247958,0.813989,0.000000,-0.580881
0.030908,0.876814,0.328258,1.000000,0.000000,0.000000
0.030908,0.280695,0.383860,1.000000,0.000000,0.000000
-0.030908,0.682773,0.389687,-1.000000,0.000000,0.000000
0.073852,-0.001559,0.306458,-0.941147,0.000000,-0.337998
0.135137,-0.030908,0.352373,0.000000,-1.000000,0.000000
0.030908,0.143871,0.278606,1.000000,0.000000,0.000000
-0.030908,0.161587,0.079494,-1.000000,0.000000,0.000000
0.063771,0.030908,0.213531,0.000000,1.000000,0.000000
-0.030908,0.569598,0.001288,-1.000000,0.000000,0.000000
0.202185,-0.030908,0.372371,0.000000,-1.000000,0.000000
0.096167,0.030908,0.078774,0.000000,1.000000,0.000000
-0.030908,0.587942,0.432717,-1.000000,0.000000,0.000000
0.079924,0.030908,0.308333,0.000000,1.000000,0.000000
0.017219,0.030908,0.356344,0.000000,1.000000,0.000000
0.385044,0.030908,0.322186,0.000000,1.000000,0.000000
-0.030908,0.514013,0.210525,-1.000000,0.000000,0.000000
-0.030908,0.053583,0.139325,-1.000000,0.000000,0.000000
0.254171,0.030908,0.053074,0.000000,1.000000,0.000000
0.063207,-0.030908,0.028855,0.000000,-1.000000,0.000000
0.267894,0.030908,0.014036,0.000000,1.000000,0.000000
0.260105,-0.030908,0.437577,0.000000,-1.000000,0.000000
0.114250,-0.030908,0.242611,0.000000,-1.000000,0.000000
0.030908,0.279676,0.161149,1.000000,0.000000,0.000000
0.118093,0.030908,0.165349,0.000000,1.000000,0.000000
0.418431,-0.030908,0.030948,0.000000,-1.000000,0.000000
0.317336,-0.030908,0.200083,0.000000,-1.000000,0.000000
0.030908,0.516511,0.230961,1.000000,0.000000,0.000000
0.030908,0.664026,0.215134,1.000000,0.000000,0.000000
-0.030908,0.205287,0.376897,-1.000000,0.000000,0.000000
-0.030908,0.679113,0.422179,-1.000000,0.000000,0.000000
0.030908,0.516111,0.307249,1.000000,0.000000,0.000000
0.293787,-0.030908,0.039678,0.000000,-1.000000,0.000000
0.190661,-0.030908,0.245424,0.000000,-1.000000,0.000000
-0.030908,0.145284,0.298423,-1.000000,0.000000,0.000000
0.030908,0.821948,0.230881,1.000000,0.000000,0.000000
0.087022,-0.030908,0.020381,0.000000,-1.000000,0.000000
0.030908,0.282638,0.079350,1.000000,0.000000,0.000000
0.273131,-0.030908,0.127317,0.000000,-1.000000,0.000000
0.030908,0.757302,0.288931,1.000000,0.000000,0.000000
0.109658,-0.030908,0.253675,0.000000,-1.000000,0.000000
-0.030908,0.187663,0.402918,-1.000000,0.000000,0.000000
0.412781,0.030908,0.108328,0.000000,1.000000,0.000000
0.426568,0.030908,0.364888,0.000000,1.000000,0.000000
0.202890,0.030908,0.074002,0.000000,1.000000,0.000000
0.360576,-0.030908,0.173664,0.000000,-1.000000,0.000000
0.030908,0.819037,0.365264,1.000000,0.000000,0.000000
0.030908,0.239063,0.323925,1.000000,0.000000,0.000000
0.394718,0.030908,0.018253,0.000000,1.000000,0.000000
0.030908,0.859334,0.328462,1.000000,0.000000,0.000000
0.125929,0.030908,0.270360,0.000000,1.000000,0.000000
0.393209,-0.027701,0.246852,0.996992,0.000000,0.077499
0.030908,0.645456,0.418422,1.000000,0.000000,0.000000
-0.030908,0.870247,0.106438,-1.000000,0.000000,0.000000
0.155627,0.030908,0.406093,0.000000,1.000000,0.000000
0.030908,0.081686,0.032106,1.000000,0.000000,0.000000
-0.030908,0.334439,0.021621,-1.000000,0.000000,0.000000
-0.030908,0.441119,0.127827,-1.000000,0.000000,0.000000
-0.030908,0.335446,0.066452,-1.000000,0.000000,0.000000
0.404215,0.030908,0.129243,0.000000,1.000000,0.000000
0.027269,-0.030908,0.110346,0.000000,-1.000000,0.000000
0.365107,0.010825,0.218182,0.969697,0.000000,-0.244309
0.223996,-0.020867,0.156114,-0.551228,0.000000,0.834355
0.030908,0.192283,0.436424,1.000000,0.000000,0.000000
0.281929,0.030908,0.030295,0.000000,1.000000,0.000000
0.173775,0.030908,0.204783,0.000000,1.000000,0.000000
0.197040,-0.004009,0.194061,0.357922,0.000000,-0.933752
0.310866,0.030908,0.425128,0.000000,1.000000,0.000000
0.030908,0.150647,0.020381,1.000000,0.000000,0.000000
-0.030908,0.884208,0.264096,-1.000000,0.000000,0.000000
0.154816,-0.030908,0.139760,0.000000,-1.000000,0.000000
-0.030908,0.259984,0.195184,-1.000000,0.000000,0.000000
0.139605,-0.030908,0.054572,0.000000,-1.000000,0.000000
0.011809,-0.030908,0.326483,0.000000,-1.000000,0.000000
0.030908,0.839330,0.351029,1.000000,0.000000,0.000000
0.388762,0.030908,0.092435,0.000000,1.000000,0.000000
0.030908,0.133894,0.104030,1.000000,0.000000,0.000000
-0.030908,0.333969,0.437742,-1.000000,0.000000,0.000000
0.030908,0.563398,0.152560,1.000000,0.000000,0.000000
0.045147,0.030908,0.378783,0.000000,1.000000,0.000000
0.097677,0.010469,0.333758,-0.783489,0.000000,0.621406
0.108911,-0.030908,0.253761,0.000000,-1.000000,0.000000
-0.030908,0.074816,0.113617,-1.000000,0.000000,0.000000
0.326575,-0.024310,0.049878,-0.155666,0.000000,-0.987810
0.251640,0.012251,0.340965,-0.881488,0.000000,0.472207
-0.030908,0.809474,0.228755,-1.000000,0.000000,0.000000
0.247423,-0.030908,0.374459,0.000000,-1.000000,0.000000
0.161732,0.030908,0.109972,0.000000,1.000000,0.000000
0.030908,0.152213,0.322988,1.000000,0.000000,0.000000
0.055607,-0.030908,0.116739,0.000000,-1.000000,0.000000
0.275174,0.014504,0.131353,0.968453,0.000000,-0.249195
-0.030908,0.231685,0.411868,-1.000000,0.000000,0.000000
0.371174,0.019570,0.182089,0.960997,0.000000,-0.276558
-0.030908,0.171802,0.159964,-1.000000,0.000000,0.000000
0.321842,0.030908,0.229482,0.000000,1.000000,0.000000
-0.030908,0.178663,0.096168,-1.000000,0.000000,0.000000
-0.030908,0.419078,0.030886,-1.000000,0.000000,0.000000
0.030908,0.753137,0.276730,1.000000,0.000000,0.000000
0.437053,0.030908,0.052609,0.000000,1.000000,0.000000
0.287443,0.002317,0.055558,-0.174756,0.000000,-0.984612
0.069963,-0.030908,0.154487,0.000000,-1.000000,0.000000
-0.030908,0.427642,0.168129,-1.000000,0.000000,0.000000
0.270522,0.030908,0.373202,0.000000,1.000000,0.000000
0.023715,0.030908,0.358963,0.000000,1.000000,0.000000
0.030908,0.057928,0.143758,1.000000,0.000000,0.000000
0.030908,0.585157,0.278728,1.000000,0.000000,0.000000
-0.030908,0.769977,0.196158,-1.000000,0.000000,0.000000
0.030908,0.076640,0.184394,1.000000,0.000000,0.000000
0.030908,0.760100,0.382481,1.000000,0.000000,0.000000
0.215712,-0.030908,0.400275,0.000000,-1.000000,0.000000
0.028468,-0.030908,0.289723,0.000000,-1.000000,0.000000
0.160665,-0.030908,0.087005,0.000000,-1.000000,0.000000
0.389433,-0.030908,0.349674,0.000000,-1.000000,0.000000
0.005057,0.030908,0.423532,0.000000,1.000000,0.000000
0.319992,0.030908,0.258782,0.000000,1.000000,0.000000
0.030908,0.631830,0.198957,1.000000,0.000000,0.000000
0.414839,-0.030908,0.386480,0.000000,-1.000000,0.000000
0.415320,0.030908,0.078948,0.000000,1.000000,0.000000
-0.030908,0.029078,0.137248,-1.000000,0.000000,0.000000
0.350055,-0.030908,0.051702,0.000000,-1.000000,0.000000
0.030908,0.074498,0.129124,1.000000,0.000000,0.000000
0.030908,0.020702,0.140994,1.000000,0.000000,0.000000
0.128081,0.030908,0.404079,0.000000,1.000000,0.000000
-0.030908,0.758501,0.423378,-1.000000,0.000000,0.000000
0.141273,0.030908,0.206999,0.000000,1.000000,0.000000
0.030908,0.015026,0.391596,1.000000,0.000000,0.000000
-0.030908,0.457287,0.393111,-1.000000,0.000000,0.000000
0.030908,0.470758,0.274530,1.000000,0.000000,0.000000
-0.030908,0.545060,0.216065,-1.000000,0.000000,0.000000
0.366802,-0.030908,0.259264,0.000000,-1.000000,0.000000
0.361494,-0.030908,0.060294,0.000000,-1.000000,0.000000
0.174689,0.030908,0.122596,0.000000,1.000000,0.000000
0.353825,-0.030908,0.328980,0.000000,-1.000000,0.000000
0.304070,-0.017192,0.106879,0.384848,0.000000,-0.922980
-0.030908,0.108796,0.434364,-1.000000,0.000000,0.000000
0.231120,-0.030908,0.051490,0.000000,-1.000000,0.000000
0.030908,0.524626,0.422997,1.000000,0.000000,0.000000
0.045797,-0.030908,0.184210,0.000000,-1.000000,0.000000
0.172377,0.030908,0.035403,0.000000,1.000000,0.000000
0.283867,0.030908,0.164628,0.000000,1.000000,0.000000
0.417390,-0.030908,0.400127,0.000000,-1.000000,0.000000
0.095527,0.030908,0.343076,0.000000,1.000000,0.000000
0.102592,-0.010272,0.274134,-0.166657,0.000000,-0.986015
0.007141,-0.030908,0.029197,0.000000,-1.000000,0.000000
0.234836,-0.030908,0.234539,0.000000,-1.000000,0.000000
0.030908,0.318151,0.148172,1.000000,0.000000,0.000000
0.289607,0.013298,0.178187,-0.068728,0.000000,0.997635
0.309550,-0.030908,0.029000,0.000000,-1.000000,0.000000
0.030908,0.457446,0.288974,1.000000,0.000000,0.000000
-0.030908,0.065441,0.408527,-1.000000,0.000000,0.000000
0.030908,0.695318,0.020350,1.000000,0.000000,0.000000
0.215581,-0.000011,0.316789,0.538604,0.000000,0.842559
0.125810,-0.004071,0.050707,-0.321412,0.000000,-0.946940
0.216296,-0.030908,0.375265,0.000000,-1.000000,0.000000
0.085775,0.030908,0.260443,0.000000,1.000000,0.000000
0.030908,0.374536,0.334273,1.000000,0.000000,0.000000
0.030908,0.510945,0.024925,1.000000,0.000000,0.000000
-0.030908,0.764719,0.151271,-1.000000,0.000000,0.000000
0.006574,-0.030908,0.351287,0.000000,-1.000000,0.000000
0.030908,0.784101,0.189704,1.000000,0.000000,0.000000
0.278085,0.030908,0.059899,0.000000,1.000000,0.000000
0.340427,0.025190,0.313367,0.059089,0.000000,0.998253
0.098536,0.025064,0.228182,-0.652491,0.000000,0.757796
0.053423,0.030908,0.227967,0.000000,1.000000,0.000000
0.113094,-0.010207,0.157256,-0.830433,0.000000,0.557119
0.052786,0.030908,0.043075,0.000000,1.000000,0.000000
0.332992,-0.030908,0.128337,0.000000,-1.000000,0.000000
0.407648,-0.030908,0.061865,0.000000,-1.000000,0.000000
-0.030908,0.255660,0.221924,-1.000000,0.000000,0.000000
0.276636,0.030908,0.094991,0.000000,1.000000,0.000000
0.103922,-0.030908,0.008475,0.000000,-1.000000,0.000000
0.150639,-0.030908,0.237586,0.000000,-1.000000,0.000000
0.005915,-0.030908,0.422964,0.000000,-1.000000,0.000000
0.290489,-0.030908,0.327135,0.000000,-1.000000,0.000000
0.030908,0.826261,0.001178,1.000000,0.000000,0.000000
0.211678,0.030908,0.151525,0.000000,1.000000,0.000000
0.030908,0.414719,0.040384,1.000000,0.000000,0.000000
0.265651,-0.019362,0.381524,0.313374,0.000000,0.949630
0.030908,0.400819,0.053824,1.000000,0.000000,0.000000
0.250443,-0.030908,0.323125,0.000000,-1.000000,0.000000
0.010797,-0.030908,0.193179,0.000000,-1.000000,0.000000
0.004101,0.030908,0.412635,0.000000,1.000000,0.000000
0.030908,0.339610,0.104300,1.000000,0.000000,0.000000
0.128815,-0.030908,0.100891,0.000000,-1.000000,0.000000
0.188341,0.030120,0.315178,-0.880033,0.000000,0.474912
0.197093,0.030908,0.256392,0.000000,1.000000,0.000000
0.030908,0.623661,0.094285,1.000000,0.000000,0.000000
-0.030908,0.090786,0.369257,-1.000000,0.000000,0.000000
0.030908,0.631081,0.071366,1.000000,0.000000,0.000000
0.175526,0.030908,0.362834,0.000000,1.000000,0.000000
0.271431,0.030908,0.085336,0.000000,1.000000,0.000000
0.147173,-0.030908,0.242871,0.000000,-1.000000,0.000000
-0.030908,0.640572,0.270116,-1.000000,0.000000,0.000000
0.111278,0.030908,0.374859,0.000000,1.000000,0.000000
0.030908,0.859159,0.057410,1.000000,0.000000,0.000000
0.371854,-0.030908,0.314455,0.000000,-1.000000,0.000000
0.110253,-0.030908,0.393200,0.000000,-1.000000,0.000000
-0.030908,0.132887,0.352317,-1.000000,0.000000,0.000000
0.030908,0.758173,0.382444,1.000000,0.000000,0.000000
0.310677,-0.030908,0.277630,0.000000,-1.000000,0.000000
0.030908,0.302245,0.089810,1.000000,0.000000,0.000000
0.030908,0.522362,0.216397,1.000000,0.000000,0.000000
0.191984,-0.030908,0.075356,0.000000,-1.000000,0.000000
0.300011,0.030908,0.306861,0.000000,1.000000,0.000000
0.344974,0.023924,0.077459,0.405869,0.000000,-0.913931
0.030908,0.401963,0.276689,1.000000,0.000000,0.000000
0.349594,-0.017790,0.326055,0.917462,0.000000,0.397824
0.137370,-0.030908,0.055222,0.000000,-1.000000,0.000000
-0.030908,0.661055,0.110615,-1.000000,0.000000,0.000000
0.030908,0.329093,0.258556,1.000000,0.000000,0.000000
0.030908,0.374750,0.330613,1.000000,0.000000,0.000000
-0.030908,0.839441,0.082370,-1.000000,0.000000,0.000000
0.358954,0.030908,0.111516,0.000000,1.000000,0.000000
-0.030908,0.594535,0.378346,-1.000000,0.000000,0.000000
0.277149,-0.006827,0.292635,-0.999994,0.000000,0.003438
0.030908,0.314575,0.387932,1.000000,0.000000,0.000000
0.030908,0.382686,0.307132,1.000000,0.000000,0.000000
0.340002,0.030908,0.365334,0.000000,1.000000,0.000000
-0.030908,0.750984,0.224591,-1.000000,0.000000,0.000000
0.435930,0.030908,0.011267,0.000000,1.000000,0.000000
0.172099,0.030908,0.364185,0.000000,1.000000,0.000000
0.023076,0.030908,0.295755,0.000000,1.000000,0.000000
0.030908,0.878675,0.141049,1.000000,0.000000,0.000000
0.281102,-0.000968,0.374483,0.635228,0.000000,0.772325
0.332584,0.030908,0.120337,0.000000,1.000000,0.000000
0.030908,0.678962,0.229612,1.000000,0.000000,0.000000
0.098371,0.030908,0.117064,0.000000,1.000000,0.000000
0.087873,0.030908,0.341241,0.000000,1.000000,0.000000
0.030908,0.617461,0.247536,1.000000,0.000000,0.000000
0.030908,0.348755,0.387329,1.000000,0.000000,0.000000
0.185208,0.030908,0.294672,0.000000,1.000000,0.000000
0.030908,0.786896,0.085206,1.000000,0.000000,0.000000
-0.030908,0.622691,0.294494,-1.000000,0.000000,0.000000
-0.030908,0.674986,0.294973,-1.000000,0.000000,0.000000
0.184270,-0.030908,0.028231,0.000000,-1.000000,0.000000
0.371805,-0.008276,0.115172,0.968281,0.000000,0.249862
0.204702,0.030908,0.396505,0.000000,1.000000,0.000000
-0.030908,0.511554,0.177967,-1.000000,0.000000,0.000000
0.103527,-0.008765,0.253139,-0.680754,0.000000,-0.732512
0.356000,0.030908,0.386544,0.000000,1.000000,0.000000
0.059116,-0.030908,0.103271,0.000000,-1.000000,0.000000
0.077276,0.030908,0.226059,0.000000,1.000000,0.000000
0.306840,0.030908,0.208414,0.000000,1.000000,0.000000
0.061993,0.030908,0.425397,0.000000,1.000000,0.000000
0.030908,0.118807,0.427942,1.000000,0.000000,0.000000
0.030908,0.198071,0.437284,1.000000,0.000000,0.000000
0.030908,0.186802,0.114166,1.000000,0.000000,0.000000
-0.030908,0.216094,0.260154,-1.000000,0.000000,0.000000
0.069815,-0.021628,0.185984,-0.917144,0.000000,0.398556
0.126170,-0.030908,0.378155,0.000000,-1.000000,0.000000
0.030908,0.340171,0.299215,1.000000,0.000000,0.000000
-0.030908,0.651883,0.306267,-1.000000,0.000000,0.000000
0.301511,0.030908,0.111412,0.000000,1.000000,0.000000
-0.030908,0.440642,0.261804,-1.000000,0.000000,0.000000
0.269240,-0.030908,0.225460,0.000000,-1.000000,0.000000
-0.030908,0.375440,0.293439,-1.000000,0.000000,0.000000
0.030908,0.706705,0.077805,1.000000,0.000000,0.000000
0.127577,0.030908,0.266134,0.000000,1.000000,0.000000
0.077283,0.030908,0.258666,0.000000,1.000000,0.000000
0.317289,-0.021790,0.189953,0.123013,0.000000,0.992405
0.265823,-0.030274,0.149284,-0.487460,0.000000,-0.873145
-0.030908,0.881560,0.352190,-1.000000,0.000000,0.000000
0.352812,-0.030908,0.401397,0.000000,-1.000000,0.000000
-0.030908,0.021672,0.293679,-1.000000,0.000000,0.000000
0.030908,0.448446,0.168051,1.000000,0.000000,0.000000
0.405788,-0.030908,0.327452,0.000000,-1.000000,0.000000
-0.030908,0.062624,0.171590,-1.000000,0.000000,0.000000
0.214088,0.030908,0.107034,0.000000,1.000000,0.000000
0.293525,0.030908,0.021884,0.000000,1.000000,0.000000
0.227304,-0.013490,0.287596,0.998359,0.000000,0.057261
0.111209,-0.020136,0.299997,-0.298823,0.000000,0.954309
0.049473,0.030908,0.133645,0.000000,1.000000,0.000000
0.393409,-0.030908,0.301749,0.000000,-1.000000,0.000000
0.039509,-0.030908,0.271906,0.000000,-1.000000,0.000000
-0.030908,0.022113,0.336328,-1.000000,0.000000,0.000000
0.158625,-0.030908,0.318396,0.000000,-1.000000,0.000000
0.220690,0.030908,0.024310,0.000000,1.000000,0.000000
0.030908,0.828801,0.128717,1.000000,0.000000,0.000000
0.030908,0.456770,0.261598,1.000000,0.000000,0.000000
0.030908,0.321851,0.030354,1.000000,0.000000,0.000000
0.125039,0.030908,0.387568,0.000000,1.000000,0.000000
0.065894,-0.028871,0.264480,-0.892366,0.000000,0.451313
0.030908,0.820292,0.154349,1.000000,0.000000,0.000000
-0.030908,0.657165,0.181671,-1.000000,0.000000,0.000000
0.030908,0.769844,0.423899,1.000000,0.000000,0.000000
0.030908,0.454374,0.181326,1.000000,0.000000,0.000000
0.184877,-0.030908,0.172735,0.000000,-1.000000,0.000000
-0.030908,0.004586,0.012616,-1.000000,0.000000,0.000000
0.384510,0.030908,0.232448,0.000000,1.000000,0.000000
0.431364,0.030908,0.216008,0.000000,1.000000,0.000000
0.030908,0.278706,0.155303,1.000000,0.000000,0.000000
0.090125,0.030908,0.344716,0.000000,1.000000,0.000000
-0.030908,0.697591,0.058154,-1.000000,0.000000,0.000000
0.152262,-0.030908,0.097665,0.000000,-1.000000,0.000000
-0.030908,0.511342,0.149424,-1.000000,0.000000,0.000000
0.204544,-0.030908,0.418305,0.000000,-1.000000,0.000000
0.030908,0.445441,0.327524,1.000000,0.000000,0.000000
-0.030908,0.394924,0.099422,-1.000000,0.000000,0.000000
0.300710,-0.030908,0.383676,0.000000,-1.000000,0.000000
0.056047,-0.030908,0.056709,0.000000,-1.000000,0.000000
0.292760,-0.030908,0.308704,0.000000,-1.000000,0.000000
0.281843,0.030908,0.410416,0.000000,1.000000,0.000000
0.383399,0.030908,0.131463,0.000000,1.000000,0.000000
-0.030908,0.812173,0.013888,-1.000000,0.000000,0.000000
-0.030908,0.419309,0.339074,-1.000000,0.000000,0.000000
0.182792,-0.008678,0.321223,0.528379,0.000000,0.849009
0.030908,0.421709,0.267268,1.000000,0.000000,0.000000
-0.030908,0.008618,0.273635,-1.000000,0.000000,0.000000
0.230382,-0.019041,0.297025,-0.379276,0.000000,-0.925284
-0.030908,0.281690,0.182982,-1.000000,0.000000,0.000000
0.030908,0.210264,0.027912,1.000000,0.000000,0.000000
0.207363,-0.028509,0.243005,0.884246,0.000000,-0.467021
0.401881,-0.030908,0.112157,0.000000,-1.000000,0.000000
0.030908,0.857436,0.185848,1.000000,0.000000,0.000000
0.030908,0.896178,0.416949,1.000000,0.000000,0.000000
0.347531,-0.030908,0.388090,0.000000,-1.000000,0.000000
0.030908,0.633401,0.130816,1.000000,0.000000,0.000000
0.030908,0.224603,0.049020,1.000000,0.000000,0.000000
0.331015,-0.030908,0.094828,0.000000,-1.000000,0.000000
0.168240,0.030908,0.190938,0.000000,1.000000,0.000000
0.030908,0.451760,0.331917,1.000000,0.000000,0.000000
0.141416,-0.030908,0.200956,0.000000,-1.000000,0.000000
-0.030908,0.743394,0.297524,-1.000000,0.000000,0.000000
0.276982,0.030908,0.429570,0.000000,1.000000,0.000000
0.030908,0.879985,0.350632,1.000000,0.000000,0.000000
0.345507,-0.030908,0.311119,0.000000,-1.000000,0.000000
0.030908,0.174480,0.285424,1.000000,0.000000,0.000000
0.273935,0.030908,0.089425,0.000000,1.000000,0.000000
-0.030908,0.834763,0.195625,-1.000000,0.000000,0.000000
0.213077,0.030908,0.127163,0.000000,1.000000,0.000000
0.030908,0.660480,0.029961,1.000000,0.000000,0.000000
0.255517,-0.030908,0.159025,0.000000,-1.000000,0.000000
0.030908,0.185142,0.214427,1.000000,0.000000,0.000000
0.383154,-0.030908,0.036429,0.000000,-1.000000,0.000000
0.030908,0.198557,0.403942,1.000000,0.000000,0.000000
0.030908,0.821221,0.152634,1.000000,0.000000,0.000000
0.030908,0.577422,0.273761,1.000000,0.000000,0.000000
0.002721,-0.030908,0.269136,0.000000,-1.000000,0.000000
0.153948,-0.030908,0.174086,0.000000,-1.000000,0.000000
0.407682,-0.030908,0.169869,0.000000,-1.000000,0.000000
0.030908,0.327558,0.384393,1.000000,0.000000,0.000000
0.030908,0.766561,0.139281,1.000000,0.000000,0.000000
0.164105,0.013718,0.246720,-0.756906,0.000000,-0.653524
0.255628,-0.030908,0.393052,0.000000,-1.000000,0.000000
-0.030908,0.213702,0.079412,-1.000000,0.000000,0.000000
0.318967,-0.003959,0.151692,-0.316947,0.000000,-0.948443
0.030908,0.279153,0.257987,1.000000,0.000000,0.000000
0.169542,-0.019929,0.263528,-0.316025,0.000000,-0.948751
0.239266,-0.002214,0.174711,-0.328504,0.000000,-0.944502
0.030908,0.826671,0.121610,1.000000,0.000000,0.000000
0.030908,0.236835,0.304491,1.000000,0.000000,0.000000
0.372295,0.030908,0.415354,0.000000,1.000000,0.000000
0.227381,0.020357,0.220841,0.806615,0.000000,-0.591078
0.030908,0.579343,0.355781,1.000000,0.000000,0.000000
0.316099,0.012940,0.319150,0.471336,0.000000,0.881954
0.030908,0.362009,0.216159,1.000000,0.000000,0.000000
0.030908,0.765294,0.059934,1.000000,0.000000,0.000000
0.030908,0.620073,0.275031,1.000000,0.000000,0.000000
0.030908,0.612624,0.273513,1.000000,0.000000,0.000000
0.030908,0.802927,0.386067,1.000000,0.000000,0.000000
-0.030908,0.720573,0.167845,-1.000000,0.000000,0.000000
0.302375,0.000035,0.098229,0.150479,0.000000,-0.988613
0.178890,-0.030908,0.408503,0.000000,-1.000000,0.000000
0.217725,-0.003128,0.368327,0.691971,0.000000,0.721925
-0.030908,0.007565,0.269399,-1.000000,0.000000,0.000000
-0.030908,0.685655,0.356941,-1.000000,0.000000,0.000000
0.301378,0.030908,0.124895,0.000000,1.000000,0.000000
0.030908,0.236391,0.131592,1.000000,0.000000,0.000000
0.244496,-0.030686,0.259631,-0.873009,0.000000,0.487704
0.030908,0.159183,0.253621,1.000000,0.000000,0.000000
0.107970,-0.030908,0.289496,0.000000,-1.000000,0.000000
0.165139,-0.011499,0.182304,0.463344,0.000000,-0.886179
0.026069,-0.030908,0.217582,0.000000,-1.000000,0.000000
0.030908,0.816009,0.353407,1.000000,0.000000,0.000000
0.076389,0.027823,0.220577,-0.958425,0.000000,0.285346
0.355314,0.030549,0.158324,0.963708,0.000000,-0.266960
-0.030908,0.709079,0.155382,-1.000000,0.000000,0.000000
0.030908,0.816113,0.330159,1.000000,0.000000,0.000000
0.226806,-0.030908,0.334712,0.000000,-1.000000,0.000000
-0.030908,0.126482,0.054404,-1.000000,0.000000,0.000000
0.030908,0.566075,0.010723,1.000000,0.000000,0.000000
0.030908,0.513242,0.073891,1.000000,0.000000,0.000000
0.030908,0.444730,0.022806,1.000000,0.000000,0.000000
0.030908,0.849089,0.012536,1.000000,0.000000,0.000000
0.246366,0.030908,0.153562,0.000000,1.000000,0.000000
0.234941,0.030908,0.406204,0.000000,1.000000,0.000000
0.364428,0.030908,0.103078,0.000000,1.000000,0.000000
0.005219,0.030908,0.369257,0.000000,1.000000,0.000000
0.336321,-0.030908,0.205635,0.000000,-1.000000,0.000000
0.030908,0.651265,0.345148,1.000000,0.000000,0.000000
0.115312,-0.030908,0.258305,0.000000,-1.000000,0.000000
-0.030908,0.592755,0.364368,-1.000000,0.000000,0.000000
-0.030908,0.748572,0.212600,-1.000000,0.000000,0.000000
0.030908,0.634173,0.007706,1.000000,0.000000,0.000000
0.090000,0.008683,0.177817,-0.976082,0.000000,0.217402
0.030908,0.040343,0.401232,1.000000,0.000000,0.000000
0.030908,0.837553,0.159138,1.000000,0.000000,0.000000
0.003077,0.030908,0.418918,0.000000,1.000000,0.000000
-0.030908,0.387782,0.322819,-1.000000,0.000000,0.000000
0.305525,0.026231,0.222898,-0.231866,0.000000,0.972748
0.144908,0.010957,0.142457,-0.999977,0.000000,0.006821
0.375786,0.030908,0.035903,0.000000,1.000000,0.000000
-0.030908,0.666295,0.024173,-1.000000,0.000000,0.000000
0.140169,-0.014414,0.191162,-0.809413,0.000000,0.587240
0.228210,0.003565,0.200978,-0.713118,0.000000,0.701044
0.240803,0.030908,0.006554,0.000000,1.000000,0.000000
0.310311,-0.030908,0.124132,0.000000,-1.000000,0.000000
0.030908,0.319939,0.260251,1.000000,0.000000,0.000000
0.410964,0.030908,0.163617,0.000000,1.000000,0.000000
0.114566,0.025189,0.138192,-0.778101,0.000000,0.628139
0.030908,0.849624,0.078519,1.000000,0.000000,0.000000
0.030908,0.467824,0.239008,1.000000,0.000000,0.000000
-0.030908,0.794224,0.276882,-1.000000,0.000000,0.000000
0.181327,0.030908,0.082702,0.000000,1.000000,0.000000
-0.030908,0.187338,0.396803,-1.000000,0.000000,0.000000
-0.030908,0.041097,0.407552,-1.000000,0.000000,0.000000
0.030908,0.196432,0.169853,1.000000,0.000000,0.000000
0.235236,-0.030908,0.305932,0.000000,-1.000000,0.000000
0.374202,-0.030908,0.262093,0.000000,-1.000000,0.000000
-0.030908,0.382082,0.052812,-1.000000,0.000000,0.000000
-0.030908,0.502459,0.032305,-1.000000,0.000000,0.000000
0.247920,0.030908,0.182174,0.000000,1.000000,0.000000
0.423386,-0.030908,0.137784,0.000000,-1.000000,0.000000
0.142587,0.030908,0.181763,0.000000,1.000000,0.000000
-0.030908,0.732775,0.320126,-1.000000,0.000000,0.000000
0.054617,0.030908,0.268302,0.000000,1.000000,0.000000
0.197514,-0.030908,0.060268,0.000000,-1.000000,0.000000
0.194705,0.030908,0.095762,0.000000,1.000000,0.000000
-0.030908,0.088962,0.369909,-1.000000,0.000000,0.000000
0.009589,0.030908,0.179747,0.000000,1.000000,0.000000
0.286839,-0.030908,0.176634,0.000000,-1.000000,0.000000
0.249137,-0.030908,0.300438,0.000000,-1.000000,0.000000
0.030908,0.435027,0.179437,1.000000,0.000000,0.000000
0.000851,0.030908,0.042354,0.000000,1.000000,0.000000
0.181478,0.023196,0.158336,-0.002448,0.000000,-0.999997
0.030908,0.654531,0.309107,1.000000,0.000000,0.000000
0.030908,0.272323,0.119380,1.000000,0.000000,0.000000
0.030908,0.493784,0.179784,1.000000,0.000000,0.000000
0.211993,-0.030908,0.305655,0.000000,-1.000000,0.000000
0.290185,-0.030908,0.143149,0.000000,-1.000000,0.000000
0.030908,0.589403,0.288144,1.000000,0.000000,0.000000
0.216667,-0.013826,0.182279,0.830634,0.000000,0.556818
-0.030908,0.200764,0.237046,-1.000000,0.000000,0.000000
-0.030908,0.335823,0.088399,-1.000000,0.000000,0.000000
-0.030908,0.463139,0.218036,-1.000000,0.000000,0.000000
0.341027,-0.030908,0.190483,0.000000,-1.000000,0.000000
-0.030908,0.432547,0.354638,-1.000000,0.000000,0.000000
0.312221,0.030908,0.007386,0.000000,1.000000,0.000000
0.338448,-0.030908,0.374317,0.000000,-1.000000,0.000000
0.262904,-0.030908,0.265395,0.000000,-1.000000,0.000000
0.030908,0.653147,0.088291,1.000000,0.000000,0.000000
0.044427,-0.030908,0.306134,0.000000,-1.000000,0.000000
0.030908,0.127895,0.395780,1.000000,0.000000,0.000000
0.030908,0.214503,0.214106,1.000000,0.000000,0.000000
-0.030908,0.773265,0.400949,-1.000000,0.000000,0.000000
0.206028,-0.030908,0.162201,0.000000,-1.000000,0.000000
0.247623,-0.030908,0.093152,0.000000,-1.000000,0.000000
-0.030908,0.300262,0.011603,-1.000000,0.000000,0.000000
-0.030908,0.146217,0.078974,-1.000000,0.000000,0.000000
0.170397,0.030908,0.436206,0.000000,1.000000,0.000000
-0.030908,0.854618,0.167170,-1.000000,0.000000,0.000000
-0.030908,0.097430,0.376527,-1.000000,0.000000,0.000000
0.020012,0.030908,0.045996,0.000000,1.000000,0.000000
0.018210,0.030908,0.334812,0.000000,1.000000,0.000000
0.030908,0.085964,0.149507,1.000000,0.000000,0.000000
0.336133,-0.030908,0.158022,0.000000,-1.000000,0.000000
0.269365,-0.030908,0.255167,0.000000,-1.000000,0.000000
0.030908,0.339184,0.145453,1.000000,0.000000,0.000000
0.108145,0.030908,0.136027,0.000000,1.000000,0.000000
0.030908,0.798417,0.216942,1.000000,0.000000,0.000000
-0.030908,0.625914,0.007872,-1.000000,0.000000,0.000000
0.387558,0.030908,0.277871,0.000000,1.000000,0.000000
0.178802,0.030908,0.197013,0.000000,1.000000,0.000000
0.279980,0.030908,0.365182,0.000000,1.000000,0.000000
0.351381,0.030908,0.098840,0.000000,1.000000,0.000000
-0.030908,0.748789,0.379997,-1.000000,0.000000,0.000000
0.198639,-0.030908,0.260528,0.000000,-1.000000,0.000000
0.030908,0.755882,0.434296,1.000000,0.000000,0.000000
0.194162,-0.030908,0.106169,0.000000,-1.000000,0.000000
0.100397,0.030908,0.329502,0.000000,1.000000,0.000000
-0.030908,0.253925,0.388197,-1.000000,0.000000,0.000000
-0.030908,0.684334,0.349185,-1.000000,0.000000,0.000000
0.232382,-0.030908,0.307212,0.000000,-1.000000,0.000000
-0.030908,0.010512,0.243491,-1.000000,0.000000,0.000000
0.245818,-0.030908,0.435506,0.000000,-1.000000,0.000000
0.378176,0.030908,0.085366,0.000000,1.000000,0.000000
0.093360,0.030908,0.416335,0.000000,1.000000,0.000000
0.001965,0.030908,0.415884,0.000000,1.000000,0.000000
0.030908,0.188659,0.121534,1.000000,0.000000,0.000000
0.231547,-0.030908,0.005940,0.000000,-1.000000,0.000000
0.030908,0.498611,0.399709,1.000000,0.000000,0.000000
0.355257,0.030908,0.011497,0.000000,1.000000,0.000000
0.157612,0.030908,0.272955,0.000000,1.000000,0.000000
-0.030908,0.197995,0.225150,-1.000000,0.000000,0.000000
0.195087,-0.014675,0.273474,0.817969,0.000000,-0.575262
0.031675,0.030908,0.018771,0.000000,1.000000,0.000000
-0.030908,0.105637,0.080895,-1.000000,0.000000,0.000000
0.145029,-0.030908,0.410717,0.000000,-1.000000,0.000000
0.049132,0.022551,0.237197,-0.989975,0.000000,0.141242
0.094107,0.030908,0.150595,0.000000,1.000000,0.000000
0.057350,-0.030908,0.022389,0.000000,-1.000000,0.000000
0.288164,0.030908,0.354994,0.000000,1.000000,0.000000
0.376924,-0.030908,0.425578,0.000000,-1.000000,0.000000
0.310754,-0.030908,0.239049,0.000000,-1.000000,0.000000
0.145598,0.030908,0.028154,0.000000,1.000000,0.000000
0.119293,-0.030908,0.277638,0.000000,-1.000000,0.000000
-0.030908,0.412235,0.181230,-1.000000,0.000000,0.000000
-0.030908,0.308621,0.128943,-1.000000,0.000000,0.000000
-0.030908,0.849693,0.006478,-1.000000,0.000000,0.000000
0.030908,0.203450,0.141648,1.000000,0.000000,0.000000
-0.030908,0.537416,0.010092,-1.000000,0.000000,0.000000
0.094559,-0.013819,0.198492,-0.334774,0.000000,-0.942298
0.218190,0.030908,0.003171,0.000000,1.000000,0.000000
-0.030908,0.511660,0.035397,-1.000000,0.000000,0.000000
-0.030908,0.354410,0.408610,-1.000000,0.000000,0.000000
-0.030908,0.024651,0.162940,-1.000000,0.000000,0.000000
-0.030908,0.239722,0.083010,-1.000000,0.000000,0.000000
0.011398,0.030908,0.323672,0.000000,1.000000,0.000000
0.030908,0.738914,0.123974,1.000000,0.000000,0.000000
0.030908,0.163644,0.213486,1.000000,0.000000,0.000000
0.250529,-0.030908,0.309603,0.000000,-1.000000,0.000000
-0.030908,0.085151,0.087439,-1.000000,0.000000,0.000000
0.067205,0.013827,0.128150,-0.832142,0.000000,0.554562
-0.030908,0.859807,0.400988,-1.000000,0.000000,0.000000
0.030908,0.627187,0.204510,1.000000,0.000000,0.000000
0.030908,0.731738,0.146300,1.000000,0.000000,0.000000
-0.030908,0.134086,0.044850,-1.000000,0.000000,0.000000
0.351030,0.030908,0.143177,0.000000,1.000000,0.000000
0.429125,-0.030908,0.129368,0.000000,-1.000000,0.000000
0.030908,0.112046,0.101947,1.000000,0.000000,0.000000
-0.030908,0.050284,0.052858,-1.000000,0.000000,0.000000
-0.030908,0.272082,0.354043,-1.000000,0.000000,0.000000
0.019157,-0.030908,0.426950,0.000000,-1.000000,0.000000
0.318200,-0.030908,0.039587,0.000000,-1.000000,0.000000
0.052644,-0.030908,0.240344,0.000000,-1.000000,0.000000
0.287979,-0.030908,0.298390,0.000000,-1.000000,0.000000
0.383942,0.030908,0.391731,0.000000,1.000000,0.000000
-0.030908,0.744424,0.146832,-1.000000,0.000000,0.000000
-0.030908,0.567115,0.025699,-1.000000,0.000000,0.000000
0.400925,0.030908,0.396339,0.000000,1.000000,0.000000
0.020202,0.030908,0.011522,0.000000,1.000000,0.000000
0.406447,-0.030908,0.047610,0.000000,-1.000000,0.000000
0.030908,0.007684,0.024679,1.000000,0.000000,0.000000
0.342894,-0.022032,0.205472,0.611940,0.000000,0.790904
0.328233,-0.019087,0.151013,0.775466,0.000000,0.631389
0.030908,0.612589,0.238989,1.000000,0.000000,0.000000
0.347873,-0.005334,0.177146,0.673353,0.000000,0.739321
0.266651,0.030908,0.254161,0.000000,1.000000,0.000000
0.258441,0.014558,0.366871,-0.091738,0.000000,0.995783
-0.030908,0.498916,0.120718,-1.000000,0.000000,0.000000
0.140382,0.030908,0.134576,0.000000,1.000000,0.000000
-0.030908,0.226514,0.297816,-1.000000,0.000000,0.000000
0.161428,0.030908,0.311652,0.000000,1.000000,0.000000
-0.030908,0.804355,0.034765,-1.000000,0.000000,0.000000
0.230022,-0.025344,0.190605,0.953099,0.000000,-0.302660
-0.030908,0.327995,0.372786,-1.000000,0.000000,0.000000
-0.030908,0.775079,0.291528,-1.000000,0.000000,0.000000
0.217932,-0.021543,0.246103,0.009480,0.000000,0.999955
0.133675,-0.030908,0.322694,0.000000,-1.000000,0.000000
0.203220,0.030908,0.150712,0.000000,1.000000,0.000000
-0.030908,0.008058,0.232364,-1.000000,0.000000,0.000000
0.364814,-0.005525,0.101612,0.749632,0.000000,-0.661854
-0.030908,0.159497,0.000253,-1.000000,0.000000,0.000000
0.287810,0.030908,0.408881,0.000000,1.000000,0.000000
0.069865,0.030908,0.406237,0.000000,1.000000,0.000000
0.000935,0.030908,0.307322,0.000000,1.000000,0.000000
0.315068,-0.021966,0.149774,-0.431576,0.000000,0.902077
0.329040,0.030908,0.411556,0.000000,1.000000,0.000000
-0.030908,0.559819,0.127721,-1.000000,0.000000,0.000000
-0.030908,0.867972,0.179428,-1.000000,0.000000,0.000000
0.104657,-0.015322,0.135804,-0.663177,0.000000,-0.748462
0.030908,0.056286,0.110971,1.000000,0.000000,0.000000
0.295165,-0.023348,0.360777,-0.429623,0.000000,0.903008
0.256022,0.030908,0.277396,0.000000,1.000000,0.000000
0.294251,-0.011885,0.253839,0.620319,0.000000,-0.784350
-0.030908,0.229712,0.090418,-1.000000,0.000000,0.000000
0.030908,0.269681,0.193942,1.000000,0.000000,0.000000
0.030908,0.230082,0.051655,1.000000,0.000000,0.000000
0.030908,0.190982,0.113686,1.000000,0.000000,0.000000
0.030908,0.164778,0.364788,1.000000,0.000000,0.000000
0.039101,-0.030908,0.343251,0.000000,-1.000000,0.000000
0.234620,-0.030908,0.243296,0.000000,-1.000000,0.000000
0.036404,0.030908,0.261067,0.000000,1.000000,0.000000
0.156476,0.030908,0.265012,0.000000,1.000000,0.000000
0.199187,-0.002670,0.316375,-0.825028,0.000000,0.565092
0.030908,0.714087,0.211377,1.000000,0.000000,0.000000
0.286445,-0.027790,0.160574,0.416566,0.000000,0.909105
0.345089,-0.030908,0.200642,0.000000,-1.000000,0.000000
-0.030908,0.072343,0.112616,-1.000000,0.000000,0.000000
-0.030908,0.003585,0.201870,-1.000000,0.000000,0.000000
-0.030908,0.878486,0.192716,-1.000000,0.000000,0.000000
0.251661,0.023841,0.175855,0.843149,0.000000,-0.537679
0.157203,-0.030908,0.404546,0.000000,-1.000000,0.000000
0.067495,0.030908,0.429329,0.000000,1.000000,0.000000
0.342297,-0.030908,0.121067,0.000000,-1.000000,0.000000
0.154195,-0.009771,0.281375,0.971455,0.000000,-0.237222
0.168825,-0.030908,0.165398,0.000000,-1.000000,0.000000
0.286705,-0.012237,0.156618,0.937559,0.000000,-0.347827
-0.030908,0.281393,0.176304,-1.000000,0.000000,0.000000
0.175318,-0.030908,0.239712,0.000000,-1.000000,0.000000
-0.030908,0.606816,0.268600,-1.000000,0.000000,0.000000
-0.030908,0.806296,0.398712,-1.000000,0.000000,0.000000
0.215604,0.030908,0.323463,0.000000,1.000000,0.000000
0.030908,0.685808,0.152063,1.000000,0.000000,0.000000
0.256031,-0.030908,0.317589,0.000000,-1.000000,0.000000
0.340063,0.030908,0.436330,0.000000,1.000000,0.000000
-0.030908,0.065444,0.276606,-1.000000,0.000000,0.000000
-0.030908,0.628751,0.188242,-1.000000,0.000000,0.000000
0.241384,0.030908,0.004617,0.000000,1.000000,0.000000
0.124977,-0.022919,0.328373,-0.999152,0.000000,-0.041166
0.054757,0.030908,0.425250,0.000000,1.000000,0.000000
0.266652,-0.006606,0.205672,-0.597474,0.000000,0.801888
0.030908,0.661265,0.017965,1.000000,0.000000,0.000000
0.030908,0.262094,0.303278,1.000000,0.000000,0.000000
0.067064,-0.030908,0.429446,0.000000,-1.000000,0.000000
0.110428,0.030908,0.084165,0.000000,1.000000,0.000000
0.088490,-0.030908,0.217394,0.000000,-1.000000,0.000000
0.190243,0.030908,0.279515,0.000000,1.000000,0.000000
-0.030908,0.120829,0.041837,-1.000000,0.000000,0.000000
0.030908,0.635422,0.174091,1.000000,0.000000,0.000000
-0.030908,0.677654,0.362010,-1.000000,0.000000,0.000000
0.220644,0.008152,0.149734,-0.698042,0.000000,0.716057
0.338326,-0.023939,0.254192,0.836671,0.000000,-0.547706
0.030908,0.771675,0.098344,1.000000,0.000000,0.000000
0.034854,0.030908,0.315268,0.000000,1.000000,0.000000
0.291463,0.030908,0.396081,0.000000,1.000000,0.000000
0.132110,0.030908,0.177060,0.000000,1.000000,0.000000
-0.030908,0.673559,0.035989,-1.000000,0.000000,0.000000
0.099158,-0.000370,0.235507,-0.829673,0.000000,0.558250
0.208654,0.030908,0.044547,0.000000,1.000000,0.000000
0.367663,-0.030908,0.373833,0.000000,-1.000000,0.000000
0.030908,0.081192,0.383482,1.000000,0.000000,0.000000
0.309768,-0.030908,0.308085,0.000000,-1.000000,0.000000
0.030908,0.818824,0.319158,1.000000,0.000000,0.000000
0.096375,-0.030908,0.333705,0.000000,-1.000000,0.000000
0.122934,-0.023743,0.200237,0.019514,0.000000,0.999810
0.312362,0.030908,0.046268,0.000000,1.000000,0.000000
0.029083,-0.030908,0.092515,0.000000,-1.000000,0.000000
0.374500,0.030908,0.117893,0.000000,1.000000,0.000000
0.030908,0.014791,0.138731,1.000000,0.000000,0.000000
0.414925,-0.030908,0.185356,0.000000,-1.000000,0.000000
0.169652,0.030908,0.236908,0.000000,1.000000,0.000000
-0.030908,0.205586,0.282935,-1.000000,0.000000,0.000000
-0.030908,0.307183,0.140597,-1.000000,0.000000,0.000000
0.343328,-0.030908,0.212779,0.000000,-1.000000,0.000000
0.407825,-0.030908,0.060572,0.000000,-1.000000,0.000000
0.097882,-0.030908,0.113890,0.000000,-1.000000,0.000000
0.315590,-0.030908,0.159896,0.000000,-1.000000,0.000000
0.030908,0.890109,0.070448,1.000000,0.000000,0.000000
0.419898,-0.030908,0.435147,0.000000,-1.000000,0.000000
