x,y,z,nx,ny,nz
-0.167617,-0.033166,-0.249108,0.000000,-1.000000,0.000000
-0.400397,0.033166,0.339126,0.000000,1.000000,0.000000
0.047859,0.007714,-0.231463,0.601860,0.000000,-0.798602
-0.346698,-0.023321,0.256853,-0.858567,0.000000,0.512702
-0.118859,-0.033166,-0.190736,0.000000,-1.000000,0.000000
-0.397084,0.013463,-0.366206,0.000000,0.000000,-1.000000
0.358136,-0.033166,0.255770,0.000000,-1.000000,0.000000
-0.304342,0.033166,0.089888,0.000000,1.000000,0.000000
-0.082479,0.033166,-0.071377,0.000000,1.000000,0.000000
-0.319351,-0.015345,0.366206,0.000000,0.000000,1.000000
0.316220,-0.033166,0.133608,0.000000,-1.000000,0.000000
-0.312591,-0.033166,0.159547,0.000000,-1.000000,0.000000
0.055699,-0.017675,0.031086,0.976377,0.000000,-0.216075
0.045616,-0.006453,0.016643,-0.143215,0.000000,0.989692
0.470198,-0.033166,-0.230777,0.000000,-1.000000,0.000000
-0.248893,-0.033166,0.353914,0.000000,-1.000000,0.000000
-0.469221,-0.033166,-0.004475,0.000000,-1.000000,0.000000
0.505811,-0.021466,0.185486,1.000000,0.000000,0.000000
0.349498,-0.033166,0.135192,0.000000,-1.000000,0.000000
-0.211727,-0.033166,-0.155157,0.000000,-1.000000,0.000000
0.273780,-0.033166,0.080659,0.000000,-1.000000,0.000000
0.092790,0.023851,-0.038556,0.955287,0.000000,-0.295681
0.029938,0.021107,0.011124,-0.508290,0.000000,0.861186
-0.498673,0.033166,-0.208681,0.000000,1.000000,0.000000
-0.340172,-0.012625,0.366206,0.000000,0.000000,1.000000
0.152681,0.033166,-0.003427,0.000000,1.000000,0.000000
0.026379,0.033166,0.124812,0.000000,1.000000,0.000000
0.505811,-0.021466,0.185486,1.000000,0.000000,0.000000
-0.231363,-0.033166,0.202176,0.000000,-1.000000,0.000000
0.219933,-0.033166,0.070921,0.000000,-1.000000,0.000000
0.400832,0.033166,0.175451,0.000000,1.000000,0.000000
-0.414428,-0.033166,0.115661,0.000000,-1.000000,0.000000
-0.263640,0.033166,-0.084880,0.000000,1.000000,0.000000
0.466361,-0.033166,-0.262180,0.000000,-1.000000,0.000000
0.505811,-0.000540,0.110946,1.000000,0.000000,0.000000
-0.505811,-0.029152,0.272304,-1.000000,0.000000,0.000000
0.238734,-0.033166,0.314898,0.000000,-1.000000,0.000000
-0.201969,-0.033166,-0.137422,0.000000,-1.000000,0.000000
0.207555,0.012674,0.366206,0.000000,0.000000,1.000000
-0.230179,-0.033166,0.119450,0.000000,-1.000000,0.000000
0.295056,-0.033166,-0.197993,0.000000,-1.000000,0.000000
-0.294074,0.033166,-0.198041,0.000000,1.000000,0.000000
-0.129899,0.033166,-0.169762,0.000000,1.000000,0.000000
-0.104374,0.033166,-0.235821,0.000000,1.000000,0.000000
0.286075,-0.033166,-0.085113,0.000000,-1.000000,0.000000
0.336264,-0.023073,0.366206,0.000000,0.000000,1.000000
-0.372758,-0.033166,0.161160,0.000000,-1.000000,0.000000
-0.391655,-0.033166,0.049585,0.000000,-1.000000,0.000000
-0.505811,-0.017161,-0.150080,-1.000000,0.000000,0.000000
-0.310704,-0.033166,0.347705,0.000000,-1.000000,0.000000
0.505811,-0.013831,0.310606,1.000000,0.000000,0.000000
0.240767,0.033166,0.137395,0.000000,1.000000,0.000000
0.219902,0.008610,-0.366206,0.000000,0.000000,-1.000000
0.103019,-0.033166,0.187423,0.000000,-1.000000,0.000000
0.008364,-0.033166,0.189732,0.000000,-1.000000,0.000000
0.392333,-0.033166,-0.006347,0.000000,-1.000000,0.000000
0.036181,0.030293,-0.065875,-0.362912,0.000000,-0.931823
0.320452,-0.033166,-0.352235,0.000000,-1.000000,0.000000
-0.287184,-0.001228,0.198346,0.527287,0.000000,-0.849687
-0.077828,-0.033166,-0.047869,0.000000,-1.000000,0.000000
-0.005161,-0.033166,0.361910,0.000000,-1.000000,0.000000
-0.504152,0.033166,-0.023282,0.000000,1.000000,0.000000
0.214006,-0.007215,0.244702,-0.114249,0.000000,0.993452
-0.269223,0.010479,0.366206,0.000000,0.000000,1.000000
0.385318,0.033166,0.210686,0.000000,1.000000,0.000000
-0.505811,-0.011409,0.149439,-1.000000,0.000000,0.000000
0.256088,-0.006802,0.180540,0.865668,0.000000,-0.500618
-0.482830,-0.033166,0.221108,0.000000,-1.000000,0.000000
0.475741,0.033166,-0.207873,0.000000,1.000000,0.000000
-0.333491,0.010899,0.270672,-0.551012,0.000000,0.834497
0.252870,0.011536,0.175750,0.790732,0.000000,-0.612163
-0.086163,0.033166,0.166826,0.000000,1.000000,0.000000
-0.505811,0.009151,0.359273,-1.000000,0.000000,0.000000
-0.189760,-0.033166,0.201094,0.000000,-1.000000,0.000000
0.326305,0.002897,-0.366206,0.000000,0.000000,-1.000000
0.485740,0.033166,0.112841,0.000000,1.000000,0.000000
-0.191503,-0.033166,0.092537,0.000000,-1.000000,0.000000
-0.433449,-0.033166,0.049425,0.000000,-1.000000,0.000000
-0.007373,-0.005276,-0.188809,0.723288,0.000000,-0.690546
-0.043341,-0.033166,-0.087854,0.000000,-1.000000,0.000000
0.505811,-0.019081,-0.045812,1.000000,0.000000,0.000000
-0.330131,-0.012319,0.272677,-0.472773,0.000000,0.881184
0.054930,0.017513,0.052612,0.958473,0.000000,0.285183
0.234685,0.033166,0.050713,0.000000,1.000000,0.000000
0.318621,-0.033166,0.331639,0.000000,-1.000000,0.000000
0.019297,0.033166,0.258911,0.000000,1.000000,0.000000
0.058023,-0.004811,-0.068344,0.145700,0.000000,-0.989329
0.181934,-0.023414,0.180204,-0.861088,0.000000,-0.508456
-0.463336,0.009373,-0.366206,0.000000,0.000000,-1.000000
0.505811,0.018902,-0.061439,1.000000,0.000000,0.000000
-0.271308,0.004172,0.215850,0.896966,0.000000,-0.442099
0.016452,-0.015209,0.083226,0.062473,0.000000,0.998047
0.138922,-0.033166,-0.012576,0.000000,-1.000000,0.000000
-0.141484,0.033166,-0.103716,0.000000,1.000000,0.000000
0.236453,0.012653,0.241238,0.408434,0.000000,0.912788
-0.346698,-0.023321,0.256853,-0.858567,0.000000,0.512702
-0.453260,0.033166,0.047952,0.000000,1.000000,0.000000
0.048557,-0.008679,-0.068683,-0.074719,0.000000,-0.997205
-0.082479,0.033166,-0.071377,0.000000,1.000000,0.000000
-0.001586,-0.019983,-0.137099,0.858048,0.000000,0.513569
-0.442283,0.033166,0.310617,0.000000,1.000000,0.000000
0.078443,0.003358,0.007794,0.621207,0.000000,0.783646
-0.057513,-0.028471,-0.197627,-0.444278,0.000000,-0.895889
-0.253655,0.033166,0.261245,0.000000,1.000000,0.000000
-0.005161,-0.033166,0.361910,0.000000,-1.000000,0.000000
0.277853,-0.033166,0.018723,0.000000,-1.000000,0.000000
0.314553,0.033166,0.321368,0.000000,1.000000,0.000000
-0.373848,-0.033166,0.333465,0.000000,-1.000000,0.000000
-0.128063,0.033166,-0.135865,0.000000,1.000000,0.000000
0.307649,-0.033166,-0.222675,0.000000,-1.000000,0.000000
-0.059390,0.000536,-0.121670,-0.487981,0.000000,0.872855
0.104248,0.033166,0.025431,0.000000,1.000000,0.000000
-0.059601,-0.033166,0.086470,0.000000,-1.000000,0.000000
-0.466242,0.033166,-0.011460,0.000000,1.000000,0.000000
-0.100913,-0.033166,-0.199009,0.000000,-1.000000,0.000000
-0.490644,0.033166,0.077441,0.000000,1.000000,0.000000
0.056590,0.010092,0.043623,0.997119,0.000000,0.075851
0.200609,-0.009100,0.240887,-0.426214,0.000000,0.904622
-0.419937,0.033166,0.264024,0.000000,1.000000,0.000000
-0.104374,0.033166,-0.235821,0.000000,1.000000,0.000000
0.020948,0.014454,0.004049,-0.717623,0.000000,0.696432
-0.141484,0.033166,-0.103716,0.000000,1.000000,0.000000
-0.189760,-0.033166,0.201094,0.000000,-1.000000,0.000000
0.441593,-0.001551,0.366206,0.000000,0.000000,1.000000
0.054930,0.017513,0.052612,0.958473,0.000000,0.285183
0.231733,0.033166,0.142065,0.000000,1.000000,0.000000
-0.083728,-0.033166,0.046640,0.000000,-1.000000,0.000000
-0.351981,-0.007174,0.226629,-0.981573,0.000000,-0.191089
-0.299018,-0.033166,-0.034300,0.000000,-1.000000,0.000000
-0.322146,-0.027131,0.193696,-0.286839,0.000000,-0.957979
-0.013627,-0.013502,-0.221126,-0.829914,0.000000,-0.557891
-0.504565,0.033166,-0.201976,0.000000,1.000000,0.000000
0.223032,-0.033166,0.356947,0.000000,-1.000000,0.000000
-0.407344,0.030719,-0.366206,0.000000,0.000000,-1.000000
-0.147743,0.033166,0.300497,0.000000,1.000000,0.000000
0.075909,-0.010192,-0.061374,0.562196,0.000000,-0.827004
-0.083606,0.033166,0.063695,0.000000,1.000000,0.000000
0.354340,-0.033166,0.042403,0.000000,-1.000000,0.000000
0.403315,-0.002225,-0.366206,0.000000,0.000000,-1.000000
-0.010975,-0.033166,0.245457,0.000000,-1.000000,0.000000
-0.323246,-0.033166,0.133382,0.000000,-1.000000,0.000000
0.115394,0.033166,0.030334,0.000000,1.000000,0.000000
0.446908,-0.033166,0.027858,0.000000,-1.000000,0.000000
-0.457810,0.033166,0.042166,0.000000,1.000000,0.000000
-0.192231,0.033166,0.175743,0.000000,1.000000,0.000000
0.097028,-0.033166,-0.138690,0.000000,-1.000000,0.000000
-0.371963,0.033166,0.189606,0.000000,1.000000,0.000000
-0.371266,-0.033166,-0.192105,0.000000,-1.000000,0.000000
-0.110364,-0.033166,0.219098,0.000000,-1.000000,0.000000
0.225825,-0.007847,0.244423,0.160968,0.000000,0.986960
0.505811,0.014022,-0.081363,1.000000,0.000000,0.000000
0.130065,-0.033166,0.192154,0.000000,-1.000000,0.000000
0.009439,0.000130,-0.018603,-0.985623,0.000000,0.168957
0.009765,-0.023178,-0.016908,-0.978038,0.000000,0.208426
-0.395448,0.033166,-0.184268,0.000000,1.000000,0.000000
0.281372,-0.033166,-0.251738,0.000000,-1.000000,0.000000
-0.270947,0.033166,-0.294518,0.000000,1.000000,0.000000
0.064026,-0.019300,-0.188273,0.978315,0.000000,0.207122
0.285955,0.003070,0.366206,0.000000,0.000000,1.000000
-0.031425,0.033166,-0.302522,0.000000,1.000000,0.000000
0.155495,-0.033166,0.278643,0.000000,-1.000000,0.000000
-0.072686,-0.033166,0.291058,0.000000,-1.000000,0.000000
-0.315673,0.033166,0.149522,0.000000,1.000000,0.000000
0.505811,-0.016661,0.330603,1.000000,0.000000,0.000000
-0.068999,-0.005019,-0.189320,-0.711736,0.000000,-0.702447
0.019297,0.033166,0.258911,0.000000,1.000000,0.000000
-0.404703,0.033166,0.281751,0.000000,1.000000,0.000000
0.085362,-0.028265,0.000891,0.782305,0.000000,0.622896
0.035999,0.014860,-0.237770,0.325687,0.000000,-0.945478
-0.323826,0.012990,0.275434,-0.325949,0.000000,0.945387
-0.093488,-0.033166,-0.020042,0.000000,-1.000000,0.000000
-0.207115,-0.033166,0.128819,0.000000,-1.000000,0.000000
-0.282040,0.032177,0.267577,0.647080,0.000000,0.762422
0.277853,-0.033166,0.018723,0.000000,-1.000000,0.000000
-0.349977,-0.015426,0.250075,-0.934919,0.000000,0.354862
-0.155370,0.033166,-0.129265,0.000000,1.000000,0.000000
-0.490669,-0.033166,-0.267966,0.000000,-1.000000,0.000000
-0.186283,-0.033166,0.239305,0.000000,-1.000000,0.000000
0.504567,-0.033166,-0.348711,0.000000,-1.000000,0.000000
-0.066436,0.033166,0.133020,0.000000,1.000000,0.000000
-0.505811,0.020857,0.214486,-1.000000,0.000000,0.000000
0.240034,-0.004479,0.239430,0.491822,0.000000,0.870696
0.296683,-0.033166,0.315804,0.000000,-1.000000,0.000000
0.009399,0.026426,-0.032875,-0.986562,0.000000,-0.163387
0.036181,0.030293,-0.065875,-0.362912,0.000000,-0.931823
0.002988,0.022335,-0.170487,0.964549,0.000000,-0.263903
-0.431770,-0.033166,-0.329607,0.000000,-1.000000,0.000000
0.258995,0.003313,0.186625,0.933366,0.000000,-0.358925
0.084961,0.033166,-0.087451,0.000000,1.000000,0.000000
-0.072104,-0.008305,-0.132498,-0.784036,0.000000,0.620715
-0.366877,-0.033166,-0.144695,0.000000,-1.000000,0.000000
0.192397,-0.033166,-0.125917,0.000000,-1.000000,0.000000
0.350988,0.033166,0.287646,0.000000,1.000000,0.000000
0.219902,0.008610,-0.366206,0.000000,0.000000,-1.000000
0.505811,0.017264,0.254759,1.000000,0.000000,0.000000
-0.095291,-0.033166,0.011212,0.000000,-1.000000,0.000000
0.450753,0.033166,-0.002464,0.000000,1.000000,0.000000
0.254474,0.019146,0.226114,0.828084,0.000000,0.560604
0.434473,0.033166,0.190677,0.000000,1.000000,0.000000
-0.504565,0.033166,-0.201976,0.000000,1.000000,0.000000
-0.059055,0.033166,-0.046973,0.000000,1.000000,0.000000
-0.031405,-0.028693,-0.116789,0.163677,0.000000,0.986514
0.038679,-0.023383,-0.236746,0.388089,0.000000,-0.921622
-0.264592,-0.033166,0.015975,0.000000,-1.000000,0.000000
0.450753,0.033166,-0.002464,0.000000,1.000000,0.000000
-0.267500,0.015610,0.227585,0.985644,0.000000,-0.168838
-0.505811,0.005912,-0.005402,-1.000000,0.000000,0.000000
0.354876,-0.033166,-0.350823,0.000000,-1.000000,0.000000
0.058582,0.006642,-0.174654,0.851558,0.000000,0.524260
-0.035247,-0.033166,0.087114,0.000000,-1.000000,0.000000
-0.007373,-0.005276,-0.188809,0.723288,0.000000,-0.690546
0.203200,-0.033166,-0.152963,0.000000,-1.000000,0.000000
0.087666,-0.008906,-0.049426,0.835959,0.000000,-0.548792
-0.390490,-0.033166,0.177349,0.000000,-1.000000,0.000000
-0.110364,-0.033166,0.219098,0.000000,-1.000000,0.000000
-0.233848,-0.033166,-0.214779,0.000000,-1.000000,0.000000
-0.228261,-0.033166,0.278585,0.000000,-1.000000,0.000000
0.326649,0.009221,-0.366206,0.000000,0.000000,-1.000000
0.278595,-0.033166,-0.226279,0.000000,-1.000000,0.000000
-0.228261,-0.033166,0.278585,0.000000,-1.000000,0.000000
0.450323,-0.033166,-0.317680,0.000000,-1.000000,0.000000
0.493482,0.033166,0.326864,0.000000,1.000000,0.000000
-0.233848,-0.033166,-0.214779,0.000000,-1.000000,0.000000
0.167691,-0.033166,-0.257858,0.000000,-1.000000,0.000000
0.346280,0.033166,0.106068,0.000000,1.000000,0.000000
0.206547,-0.033166,0.306380,0.000000,-1.000000,0.000000
-0.471419,0.033166,-0.068001,0.000000,1.000000,0.000000
0.468765,-0.033166,-0.305866,0.000000,-1.000000,0.000000
-0.412645,0.033166,-0.159100,0.000000,1.000000,0.000000
0.427188,0.033166,-0.078323,0.000000,1.000000,0.000000
-0.201557,0.033166,-0.073853,0.000000,1.000000,0.000000
0.004068,-0.017984,-0.001469,-0.225888,0.000000,-0.974153
-0.340172,-0.012625,0.366206,0.000000,0.000000,1.000000
-0.028216,-0.027602,0.031339,-0.977660,0.000000,-0.210191
-0.021131,0.013678,0.015341,-0.812677,0.000000,-0.582714
0.193839,0.033166,-0.026794,0.000000,1.000000,0.000000
-0.018557,0.029280,0.068636,-0.752746,0.000000,0.658311
0.505811,0.018902,-0.061439,1.000000,0.000000,0.000000
-0.447788,-0.015939,-0.366206,0.000000,0.000000,-1.000000
-0.493163,-0.033166,-0.273787,0.000000,-1.000000,0.000000
0.285955,0.003070,0.366206,0.000000,0.000000,1.000000
-0.011022,-0.006433,0.075431,-0.577297,0.000000,0.816534
0.193839,0.033166,-0.026794,0.000000,1.000000,0.000000
0.257929,0.013843,0.184095,0.908524,0.000000,-0.417832
0.016146,0.033166,-0.286192,0.000000,1.000000,0.000000
0.318621,-0.033166,0.331639,0.000000,-1.000000,0.000000
0.134256,-0.033166,0.067197,0.000000,-1.000000,0.000000
-0.279168,-0.015899,0.204766,0.713943,0.000000,-0.700204
0.000776,0.025008,-0.141638,0.913035,0.000000,0.407881
0.314945,-0.033166,-0.227063,0.000000,-1.000000,0.000000
-0.304572,-0.030062,0.277457,0.122388,0.000000,0.992482
-0.093488,-0.033166,-0.020042,0.000000,-1.000000,0.000000
0.029616,0.019912,-0.154902,0.177053,0.000000,0.984201
0.240767,0.033166,0.137395,0.000000,1.000000,0.000000
-0.505811,-0.026018,0.232404,-1.000000,0.000000,0.000000
-0.289574,0.033166,-0.320577,0.000000,1.000000,0.000000
0.505811,0.024398,-0.277013,1.000000,0.000000,0.000000
-0.006461,-0.011607,-0.130485,0.744534,0.000000,0.667585
0.130065,-0.033166,0.192154,0.000000,-1.000000,0.000000
-0.490644,0.033166,0.077441,0.000000,1.000000,0.000000
0.223032,-0.033166,0.356947,0.000000,-1.000000,0.000000
-0.262684,0.033166,0.363687,0.000000,1.000000,0.000000
0.147426,0.029536,0.366206,0.000000,0.000000,1.000000
-0.272828,-0.018494,0.256635,0.861582,0.000000,0.507619
-0.087409,0.033166,0.239479,0.000000,1.000000,0.000000
-0.059766,-0.033166,0.136676,0.000000,-1.000000,0.000000
0.083703,-0.033166,-0.107064,0.000000,-1.000000,0.000000
0.202298,-0.003184,0.241639,-0.386895,0.000000,0.922124
-0.323402,-0.033166,-0.268934,0.000000,-1.000000,0.000000
-0.224077,-0.033166,-0.105878,0.000000,-1.000000,0.000000
0.067451,-0.020648,0.014119,0.365246,0.000000,0.930911
-0.505811,-0.019406,-0.154956,-1.000000,0.000000,0.000000
0.087481,-0.033166,-0.323244,0.000000,-1.000000,0.000000
0.176522,-0.004062,0.195170,-0.987124,0.000000,-0.159958
-0.356509,0.033166,-0.109043,0.000000,1.000000,0.000000
-0.327574,-0.012893,0.273942,-0.413224,0.000000,0.910629
-0.425340,0.033166,0.153092,0.000000,1.000000,0.000000
0.162165,0.033166,0.006341,0.000000,1.000000,0.000000
0.143085,-0.033166,-0.047630,0.000000,-1.000000,0.000000
-0.470897,0.033166,0.166746,0.000000,1.000000,0.000000
-0.480888,-0.033166,0.074746,0.000000,-1.000000,0.000000
0.268599,0.033166,-0.270519,0.000000,1.000000,0.000000
-0.274931,0.033166,-0.365138,0.000000,1.000000,0.000000
0.360575,0.033166,0.079339,0.000000,1.000000,0.000000
-0.246931,0.033166,-0.036036,0.000000,1.000000,0.000000
0.385462,-0.033166,-0.294980,0.000000,-1.000000,0.000000
0.375243,0.033166,-0.225740,0.000000,1.000000,0.000000
0.239645,-0.033166,0.123534,0.000000,-1.000000,0.000000
0.056632,-0.009871,0.043001,0.998115,0.000000,0.061368
-0.123725,0.033166,-0.044765,0.000000,1.000000,0.000000
-0.352890,0.033166,-0.283342,0.000000,1.000000,0.000000
-0.136349,0.033166,-0.152030,0.000000,1.000000,0.000000
0.026851,0.030526,-0.000538,0.304634,0.000000,-0.952470
0.067195,-0.016784,-0.065935,0.359282,0.000000,-0.933229
-0.469838,0.033166,0.189660,0.000000,1.000000,0.000000
0.257508,0.033166,0.254033,0.000000,1.000000,0.000000
-0.326939,0.033166,-0.199740,0.000000,1.000000,0.000000
0.236453,0.012653,0.241238,0.408434,0.000000,0.912788
0.505811,-0.001535,-0.131701,1.000000,0.000000,0.000000
0.030726,0.021967,0.011578,-0.489948,0.000000,0.871752
0.505811,0.006396,0.200618,1.000000,0.000000,0.000000
-0.174109,0.033166,-0.135591,0.000000,1.000000,0.000000
0.217222,0.033166,0.148961,0.000000,1.000000,0.000000
-0.212467,0.033166,-0.218995,0.000000,1.000000,0.000000
-0.307521,0.025777,0.191953,0.053713,0.000000,-0.998556
0.074464,-0.000979,0.366206,0.000000,0.000000,1.000000
0.505811,0.007600,0.044842,1.000000,0.000000,0.000000
0.103019,-0.033166,0.187423,0.000000,-1.000000,0.000000
0.119152,-0.033166,-0.362450,0.000000,-1.000000,0.000000
0.221253,0.033166,-0.236778,0.000000,1.000000,0.000000
-0.278103,-0.033166,0.098350,0.000000,-1.000000,0.000000
-0.435710,-0.033166,0.062319,0.000000,-1.000000,0.000000
-0.007109,-0.025898,-0.228729,-0.678124,0.000000,-0.734948
0.326305,0.002897,-0.366206,0.000000,0.000000,-1.000000
-0.064567,-0.033166,0.261028,0.000000,-1.000000,0.000000
0.505811,-0.023810,0.337208,1.000000,0.000000,0.000000
0.236094,-0.033166,-0.045905,0.000000,-1.000000,0.000000
-0.402484,0.033166,-0.356688,0.000000,1.000000,0.000000
-0.359416,-0.033166,0.063139,0.000000,-1.000000,0.000000
-0.464763,0.033166,-0.260580,0.000000,1.000000,0.000000
-0.319351,-0.015345,0.366206,0.000000,0.000000,1.000000
-0.195683,0.033166,-0.333263,0.000000,1.000000,0.000000
-0.297250,-0.033166,-0.361838,0.000000,-1.000000,0.000000
-0.017857,0.006599,-0.181212,-0.928417,0.000000,0.371539
-0.330506,0.033166,0.042028,0.000000,1.000000,0.000000
0.157728,-0.033166,-0.231530,0.000000,-1.000000,0.000000
0.203200,-0.033166,-0.152963,0.000000,-1.000000,0.000000
-0.261454,-0.033166,0.199635,0.000000,-1.000000,0.000000
-0.273503,-0.033166,-0.211013,0.000000,-1.000000,0.000000
0.108714,-0.033166,0.255878,0.000000,-1.000000,0.000000
-0.346402,-0.033166,0.361788,0.000000,-1.000000,0.000000
-0.326571,-0.033166,-0.348266,0.000000,-1.000000,0.000000
0.505811,0.022105,0.147337,1.000000,0.000000,0.000000
0.411585,-0.033166,0.327956,0.000000,-1.000000,0.000000
-0.068217,-0.002334,-0.128216,-0.693539,0.000000,0.720419
0.478451,0.033166,0.102524,0.000000,1.000000,0.000000
0.505811,-0.013831,0.310606,1.000000,0.000000,0.000000
0.380843,0.033166,0.078388,0.000000,1.000000,0.000000
0.296683,-0.033166,0.315804,0.000000,-1.000000,0.000000
-0.288324,-0.006068,0.272007,0.500749,0.000000,0.865593
0.401754,0.033166,0.009677,0.000000,1.000000,0.000000
0.275133,0.033166,0.010322,0.000000,1.000000,0.000000
0.492647,0.033166,0.297489,0.000000,1.000000,0.000000
-0.174586,0.033166,-0.213829,0.000000,1.000000,0.000000
0.256434,0.033166,-0.264572,0.000000,1.000000,0.000000
-0.146817,0.033166,-0.339837,0.000000,1.000000,0.000000
-0.429678,0.033166,0.190594,0.000000,1.000000,0.000000
0.344450,0.033166,-0.035337,0.000000,1.000000,0.000000
0.104315,0.033166,-0.112218,0.000000,1.000000,0.000000
0.027201,0.000204,-0.000424,0.312787,0.000000,-0.949823
0.391109,0.033166,0.043457,0.000000,1.000000,0.000000
0.221253,0.033166,-0.236778,0.000000,1.000000,0.000000
0.354876,-0.033166,-0.350823,0.000000,-1.000000,0.000000
0.428681,-0.033166,-0.100521,0.000000,-1.000000,0.000000
-0.001176,-0.015433,0.080625,-0.348006,0.000000,0.937492
-0.076414,-0.003236,-0.139111,-0.884408,0.000000,0.466715
0.229456,-0.033166,-0.178450,0.000000,-1.000000,0.000000
0.369140,0.033166,0.289371,0.000000,1.000000,0.000000
0.395719,-0.033166,-0.145639,0.000000,-1.000000,0.000000
0.279495,0.033166,0.090113,0.000000,1.000000,0.000000
0.034210,0.033166,0.336911,0.000000,1.000000,0.000000
-0.082900,-0.033166,-0.346575,0.000000,-1.000000,0.000000
0.505811,0.012275,-0.361773,1.000000,0.000000,0.000000
-0.311985,-0.008497,0.277725,-0.050235,0.000000,0.998737
-0.359416,-0.033166,0.063139,0.000000,-1.000000,0.000000
-0.072104,-0.008305,-0.132498,-0.784036,0.000000,0.620715
-0.219410,-0.033166,0.020460,0.000000,-1.000000,0.000000
0.138925,0.033166,0.033442,0.000000,1.000000,0.000000
-0.393739,0.033166,0.328440,0.000000,1.000000,0.000000
0.287490,0.033166,-0.083410,0.000000,1.000000,0.000000
0.397383,-0.033166,0.203368,0.000000,-1.000000,0.000000
0.018536,0.029005,-0.239971,-0.080959,0.000000,-0.996717
0.062679,0.016988,-0.067393,0.254106,0.000000,-0.967176
-0.190522,-0.033166,0.205276,0.000000,-1.000000,0.000000
0.484276,-0.033166,-0.011543,0.000000,-1.000000,0.000000
0.327938,-0.033166,-0.224515,0.000000,-1.000000,0.000000
0.071795,0.028687,-0.366206,0.000000,0.000000,-1.000000
0.360671,-0.033166,-0.154392,0.000000,-1.000000,0.000000
-0.029793,0.033166,-0.326493,0.000000,1.000000,0.000000
0.504362,-0.033166,-0.313500,0.000000,-1.000000,0.000000
-0.282029,0.033166,0.046899,0.000000,1.000000,0.000000
-0.402484,0.033166,-0.356688,0.000000,1.000000,0.000000
0.375826,0.033166,-0.214168,0.000000,1.000000,0.000000
-0.055575,-0.033166,0.312545,0.000000,-1.000000,0.000000
-0.062186,0.013734,-0.123377,-0.553102,0.000000,0.833113
-0.176583,0.033166,-0.365789,0.000000,1.000000,0.000000
0.030178,0.019047,0.000680,0.382096,0.000000,-0.924123
0.023836,0.024418,0.006762,-0.650380,0.000000,0.759609
-0.086163,0.033166,0.166826,0.000000,1.000000,0.000000
0.348077,-0.033166,0.354602,0.000000,-1.000000,0.000000
0.361709,0.033166,0.001293,0.000000,1.000000,0.000000
-0.009461,0.011770,-0.190852,0.674658,0.000000,-0.738131
-0.002580,-0.025657,-0.232372,-0.572672,0.000000,-0.819784
0.234685,0.033166,0.050713,0.000000,1.000000,0.000000
0.478451,0.033166,0.102524,0.000000,1.000000,0.000000
0.035762,-0.020010,0.366206,0.000000,0.000000,1.000000
-0.211959,-0.033166,0.173948,0.000000,-1.000000,0.000000
0.104255,-0.033166,-0.361621,0.000000,-1.000000,0.000000
0.358872,0.033166,-0.081188,0.000000,1.000000,0.000000
0.169797,-0.033166,0.266314,0.000000,-1.000000,0.000000
-0.340997,-0.010576,0.264377,-0.725801,0.000000,0.687905
0.124199,0.033166,0.131388,0.000000,1.000000,0.000000
0.485154,0.033166,0.107742,0.000000,1.000000,0.000000
-0.391655,-0.033166,0.049585,0.000000,-1.000000,0.000000
0.505811,0.006795,0.178525,1.000000,0.000000,0.000000
0.505811,0.021217,-0.002524,1.000000,0.000000,0.000000
-0.245224,0.033166,0.004770,0.000000,1.000000,0.000000
-0.240319,-0.033166,0.214391,0.000000,-1.000000,0.000000
0.073711,0.021830,-0.062772,0.511011,0.000000,-0.859574
-0.503197,0.033166,0.234386,0.000000,1.000000,0.000000
0.079635,-0.000062,0.006815,0.648947,0.000000,0.760834
0.058385,-0.030291,-0.174337,0.846969,0.000000,0.531642
0.210869,0.033166,0.023483,0.000000,1.000000,0.000000
-0.113027,0.033166,0.281899,0.000000,1.000000,0.000000
0.319666,0.033166,0.160731,0.000000,1.000000,0.000000
0.216507,-0.009185,0.244916,-0.056022,0.000000,0.998430
0.464022,-0.033166,0.355160,0.000000,-1.000000,0.000000
-0.026345,-0.003683,0.025033,-0.934093,0.000000,-0.357030
0.028529,-0.024137,-0.061973,-0.541106,0.000000,-0.840954
-0.439876,-0.033166,0.065876,0.000000,-1.000000,0.000000
-0.019443,0.020496,-0.208374,-0.965352,0.000000,-0.260952
0.477397,-0.033166,0.051121,0.000000,-1.000000,0.000000
-0.212060,-0.033166,0.240398,0.000000,-1.000000,0.000000
0.178092,0.018652,0.188702,-0.950557,0.000000,-0.310551
0.055558,-0.016781,-0.068635,0.088307,0.000000,-0.996093
-0.167617,-0.033166,-0.249108,0.000000,-1.000000,0.000000
0.181136,-0.033166,-0.117886,0.000000,-1.000000,0.000000
-0.008350,0.025771,0.077175,-0.515057,0.000000,0.857156
0.026028,0.031671,-0.000792,0.285467,0.000000,-0.958388
-0.172025,0.033166,0.108544,0.000000,1.000000,0.000000
-0.269476,0.000790,0.249530,0.939633,0.000000,0.342183
0.364089,0.033166,0.078221,0.000000,1.000000,0.000000
0.505811,0.006960,-0.155593,1.000000,0.000000,0.000000
0.102101,-0.033166,0.085669,0.000000,-1.000000,0.000000
0.311075,-0.033166,0.092048,0.000000,-1.000000,0.000000
-0.475701,0.033166,-0.198957,0.000000,1.000000,0.000000
-0.303713,0.003800,0.277342,0.142397,0.000000,0.989810
0.001683,0.019721,-0.366206,0.000000,0.000000,-1.000000
0.493482,0.033166,0.326864,0.000000,1.000000,0.000000
-0.466242,0.033166,-0.011460,0.000000,1.000000,0.000000
0.203200,-0.033166,-0.152963,0.000000,-1.000000,0.000000
-0.482576,-0.033166,0.112874,0.000000,-1.000000,0.000000
-0.050476,-0.033166,0.287095,0.000000,-1.000000,0.000000
-0.224077,-0.033166,-0.105878,0.000000,-1.000000,0.000000
-0.004813,-0.033166,0.258843,0.000000,-1.000000,0.000000
-0.422323,-0.033166,-0.334389,0.000000,-1.000000,0.000000
-0.406924,-0.033166,-0.135492,0.000000,-1.000000,0.000000
-0.045815,-0.033166,0.188070,0.000000,-1.000000,0.000000
-0.058522,-0.025713,-0.197110,-0.467763,0.000000,-0.883854
-0.505811,-0.028295,-0.073120,-1.000000,0.000000,0.000000
0.072824,0.033166,-0.311814,0.000000,1.000000,0.000000
-0.307418,0.025275,0.191959,0.056107,0.000000,-0.998425
0.052348,0.033166,0.101334,0.000000,1.000000,0.000000
0.234596,0.033166,-0.249550,0.000000,1.000000,0.000000
0.239361,0.033166,-0.305919,0.000000,1.000000,0.000000
0.256096,-0.033166,-0.132167,0.000000,-1.000000,0.000000
0.113160,-0.033166,-0.014880,0.000000,-1.000000,0.000000
-0.297250,-0.033166,-0.361838,0.000000,-1.000000,0.000000
0.008860,0.024475,-0.027671,-0.999109,0.000000,-0.042200
0.489826,-0.033166,0.241385,0.000000,-1.000000,0.000000
-0.173380,0.033166,0.123814,0.000000,1.000000,0.000000
0.461750,0.033166,-0.283142,0.000000,1.000000,0.000000
-0.378509,-0.033166,-0.360553,0.000000,-1.000000,0.000000
-0.505811,-0.024679,-0.016594,-1.000000,0.000000,0.000000
0.002135,0.000616,-0.000973,-0.270906,0.000000,-0.962606
-0.363616,0.033166,-0.092296,0.000000,1.000000,0.000000
0.022455,0.000131,-0.366206,0.000000,0.000000,-1.000000
-0.493916,0.033166,0.355337,0.000000,1.000000,0.000000
-0.315167,-0.033166,-0.114621,0.000000,-1.000000,0.000000
-0.404703,0.033166,0.281751,0.000000,1.000000,0.000000
0.289196,-0.033166,0.286402,0.000000,-1.000000,0.000000
0.207675,0.026883,0.160591,-0.261681,0.000000,-0.965154
0.420853,-0.033166,-0.154125,0.000000,-1.000000,0.000000
-0.505811,0.020857,0.214486,-1.000000,0.000000,0.000000
0.205767,0.033166,-0.179586,0.000000,1.000000,0.000000
0.114503,0.033166,-0.323803,0.000000,1.000000,0.000000
-0.425340,0.033166,0.153092,0.000000,1.000000,0.000000
-0.370774,-0.033166,0.275324,0.000000,-1.000000,0.000000
-0.437104,-0.033166,-0.255472,0.000000,-1.000000,0.000000
-0.307418,0.025275,0.191959,0.056107,0.000000,-0.998425
0.375153,-0.033166,-0.346501,0.000000,-1.000000,0.000000
0.477004,-0.033166,0.031297,0.000000,-1.000000,0.000000
-0.090703,0.033166,-0.072584,0.000000,1.000000,0.000000
0.489549,-0.033166,-0.090701,0.000000,-1.000000,0.000000
0.026379,0.033166,0.124812,0.000000,1.000000,0.000000
0.505811,0.017958,-0.331291,1.000000,0.000000,0.000000
-0.048550,0.033166,0.277075,0.000000,1.000000,0.000000
-0.359416,-0.033166,0.063139,0.000000,-1.000000,0.000000
-0.006728,-0.015875,-0.188119,0.738301,0.000000,-0.674471
-0.128063,0.033166,-0.135865,0.000000,1.000000,0.000000
-0.505811,-0.024679,-0.016594,-1.000000,0.000000,0.000000
0.198670,0.033166,0.002626,0.000000,1.000000,0.000000
0.046582,-0.001829,0.016772,-0.120728,0.000000,0.992686
-0.123419,-0.009934,0.366206,0.000000,0.000000,1.000000
-0.383285,0.033166,-0.123777,0.000000,1.000000,0.000000
0.505811,-0.008809,-0.185250,1.000000,0.000000,0.000000
-0.195572,0.033166,-0.094351,0.000000,1.000000,0.000000
-0.133655,-0.033166,-0.285445,0.000000,-1.000000,0.000000
0.087666,-0.008906,-0.049426,0.835959,0.000000,-0.548792
-0.340172,-0.012625,0.366206,0.000000,0.000000,1.000000
0.023411,0.033166,0.136787,0.000000,1.000000,0.000000
-0.104374,0.033166,-0.235821,0.000000,1.000000,0.000000
0.178092,0.018652,0.188702,-0.950557,0.000000,-0.310551
0.072686,0.028075,0.011645,0.487151,0.000000,0.873318
0.475741,0.033166,-0.207873,0.000000,1.000000,0.000000
-0.207115,-0.033166,0.128819,0.000000,-1.000000,0.000000
0.004161,-0.002401,-0.153685,0.991859,0.000000,0.127343
-0.117958,-0.033166,-0.051463,0.000000,-1.000000,0.000000
-0.343196,-0.033166,-0.265255,0.000000,-1.000000,0.000000
-0.008547,0.001846,-0.189992,0.695952,0.000000,-0.718088
0.035999,0.014860,-0.237770,0.325687,0.000000,-0.945478
0.424574,-0.033166,-0.192444,0.000000,-1.000000,0.000000
-0.076689,0.024418,-0.139641,-0.890813,0.000000,0.454371
0.016187,0.001700,-0.002511,0.056302,0.000000,-0.998414
0.031650,-0.033166,-0.081888,0.000000,-1.000000,0.000000
-0.273503,-0.033166,-0.211013,0.000000,-1.000000,0.000000
-0.064567,-0.033166,0.261028,0.000000,-1.000000,0.000000
-0.018412,-0.004500,-0.211660,-0.941337,0.000000,-0.337467
0.187625,-0.023973,0.172623,-0.728562,0.000000,-0.684980
0.495284,0.033166,0.095154,0.000000,1.000000,0.000000
-0.143542,-0.033166,0.237072,0.000000,-1.000000,0.000000
0.260799,0.006701,0.192567,0.975375,0.000000,-0.220552
0.084961,0.033166,-0.087451,0.000000,1.000000,0.000000
-0.472153,0.033166,0.119418,0.000000,1.000000,0.000000
0.054930,0.017513,0.052612,0.958473,0.000000,0.285183
-0.005150,0.023459,0.001813,-0.440545,0.000000,-0.897731
0.360779,0.033166,-0.015980,0.000000,1.000000,0.000000
-0.413929,0.033166,0.141202,0.000000,1.000000,0.000000
-0.013627,-0.013502,-0.221126,-0.829914,0.000000,-0.557891
0.274603,-0.033166,-0.164683,0.000000,-1.000000,0.000000
0.089705,0.028436,-0.005738,0.883446,0.000000,0.468534
0.505811,0.006795,0.178525,1.000000,0.000000,0.000000
0.314945,-0.033166,-0.227063,0.000000,-1.000000,0.000000
0.023051,0.013657,-0.240099,0.024175,0.000000,-0.999708
0.038114,-0.033166,0.160552,0.000000,-1.000000,0.000000
-0.397084,0.013463,-0.366206,0.000000,0.000000,-1.000000
-0.472153,0.033166,0.119418,0.000000,1.000000,0.000000
-0.368673,-0.033166,0.198903,0.000000,-1.000000,0.000000
0.145435,-0.033166,-0.045888,0.000000,-1.000000,0.000000
0.049213,0.002032,-0.230399,0.633383,0.000000,-0.773838
0.361709,0.033166,0.001293,0.000000,1.000000,0.000000
-0.028436,0.013868,0.366206,0.000000,0.000000,1.000000
0.319666,0.033166,0.160731,0.000000,1.000000,0.000000
0.433552,-0.033166,-0.320042,0.000000,-1.000000,0.000000
0.460071,-0.033166,-0.257445,0.000000,-1.000000,0.000000
-0.132118,-0.033166,-0.029065,0.000000,-1.000000,0.000000
0.051456,-0.008156,-0.165906,0.685622,0.000000,0.727958
0.050444,-0.020111,-0.068782,-0.030779,0.000000,-0.999526
-0.418417,0.033166,0.277152,0.000000,1.000000,0.000000
-0.318693,0.033166,-0.354677,0.000000,1.000000,0.000000
0.066085,-0.033166,-0.146995,0.000000,-1.000000,0.000000
-0.505811,-0.022117,-0.285246,-1.000000,0.000000,0.000000
-0.404628,0.033166,-0.140785,0.000000,1.000000,0.000000
0.478822,-0.033166,0.312541,0.000000,-1.000000,0.000000
-0.457077,-0.033166,-0.292298,0.000000,-1.000000,0.000000
-0.253384,0.033166,-0.219371,0.000000,1.000000,0.000000
-0.290699,0.018853,0.273284,0.445449,0.000000,0.895307
0.205909,-0.033166,-0.130006,0.000000,-1.000000,0.000000
0.077589,-0.033166,0.125879,0.000000,-1.000000,0.000000
-0.272217,0.033166,0.155888,0.000000,1.000000,0.000000
-0.076551,-0.033166,0.279419,0.000000,-1.000000,0.000000
0.167734,-0.033166,-0.317239,0.000000,-1.000000,0.000000
-0.200221,-0.033166,-0.321082,0.000000,-1.000000,0.000000
0.013843,0.012231,-0.046009,-0.883078,0.000000,-0.469227
-0.076414,-0.003236,-0.139111,-0.884408,0.000000,0.466715
-0.073080,-0.017074,-0.184528,-0.806775,0.000000,-0.590858
0.255171,0.033166,-0.341449,0.000000,1.000000,0.000000
-0.010975,-0.033166,0.245457,0.000000,-1.000000,0.000000
0.143012,-0.033166,0.131593,0.000000,-1.000000,0.000000
0.078817,-0.033166,0.309766,0.000000,-1.000000,0.000000
-0.505811,0.022327,0.097607,-1.000000,0.000000,0.000000
0.176632,0.033166,0.261643,0.000000,1.000000,0.000000
0.505811,0.015730,-0.254263,1.000000,0.000000,0.000000
-0.237309,0.033166,0.279879,0.000000,1.000000,0.000000
-0.371963,0.033166,0.189606,0.000000,1.000000,0.000000
-0.412771,0.033166,-0.078930,0.000000,1.000000,0.000000
-0.392784,-0.033166,0.029101,0.000000,-1.000000,0.000000
0.008091,0.033166,0.232870,0.000000,1.000000,0.000000
-0.025122,0.008531,0.058577,-0.905631,0.000000,0.424067
0.081171,0.032007,-0.057156,0.684726,0.000000,-0.728800
0.004392,0.008242,-0.155972,0.997250,0.000000,0.074108
-0.491882,-0.033166,-0.110030,0.000000,-1.000000,0.000000
-0.082488,-0.020528,0.366206,0.000000,0.000000,1.000000
0.348077,-0.033166,0.354602,0.000000,-1.000000,0.000000
0.477352,0.033166,-0.248390,0.000000,1.000000,0.000000
-0.020206,0.022843,-0.205025,-0.983117,0.000000,-0.182980
0.267420,-0.033166,0.243984,0.000000,-1.000000,0.000000
0.228539,-0.026732,0.160187,0.224152,0.000000,-0.974554
0.067451,-0.020648,0.014119,0.365246,0.000000,0.930911
-0.304688,-0.013126,0.277471,0.119686,0.000000,0.992812
0.363769,0.033166,-0.248339,0.000000,1.000000,0.000000
0.503346,-0.033166,0.248321,0.000000,-1.000000,0.000000
-0.505811,-0.028295,-0.073120,-1.000000,0.000000,0.000000
-0.481230,0.033166,0.234222,0.000000,1.000000,0.000000
-0.269145,-0.033166,-0.026946,0.000000,-1.000000,0.000000
-0.287184,-0.001228,0.198346,0.527287,0.000000,-0.849687
0.320452,-0.033166,-0.352235,0.000000,-1.000000,0.000000
0.240283,-0.021224,0.164789,0.497618,0.000000,-0.867396
-0.254613,-0.033166,0.075599,0.000000,-1.000000,0.000000
0.083154,-0.033166,-0.234608,0.000000,-1.000000,0.000000
-0.173497,0.033166,-0.019536,0.000000,1.000000,0.000000
-0.062186,0.013734,-0.123377,-0.553102,0.000000,0.833113
0.190911,-0.033166,-0.048273,0.000000,-1.000000,0.000000
-0.332289,-0.016374,0.198233,-0.523030,0.000000,-0.852314
0.407481,0.033166,-0.066884,0.000000,1.000000,0.000000
0.038094,-0.000144,-0.366206,0.000000,0.000000,-1.000000
-0.199702,0.033166,0.101805,0.000000,1.000000,0.000000
0.179597,0.033108,0.219315,-0.915510,0.000000,0.402295
0.058793,-0.019219,-0.219335,0.856472,0.000000,-0.516193
0.382038,-0.033166,0.136189,0.000000,-1.000000,0.000000
0.386666,0.033166,-0.010978,0.000000,1.000000,0.000000
-0.019443,0.020496,-0.208374,-0.965352,0.000000,-0.260952
-0.240319,-0.033166,0.214391,0.000000,-1.000000,0.000000
0.093665,0.003461,-0.035276,0.975657,0.000000,-0.219300
-0.421051,-0.033166,0.022728,0.000000,-1.000000,0.000000
-0.186283,-0.033166,0.239305,0.000000,-1.000000,0.000000
0.180021,0.032020,0.220249,-0.905638,0.000000,0.424052
-0.026586,0.017590,0.055052,-0.939705,0.000000,0.341985
0.363822,-0.033166,-0.058838,0.000000,-1.000000,0.000000
-0.505811,-0.022117,-0.285246,-1.000000,0.000000,0.000000
0.445077,-0.033166,-0.089200,0.000000,-1.000000,0.000000
-0.055575,-0.033166,0.312545,0.000000,-1.000000,0.000000
-0.352507,-0.029440,0.239599,-0.993829,0.000000,0.110927
0.076736,0.004586,-0.060797,0.581443,0.000000,-0.813587
-0.059856,0.023653,0.366206,0.000000,0.000000,1.000000
-0.217914,0.033166,-0.224191,0.000000,1.000000,0.000000
-0.291136,0.033166,-0.165504,0.000000,1.000000,0.000000
-0.445703,0.033166,-0.068021,0.000000,1.000000,0.000000
-0.367663,0.033166,-0.110530,0.000000,1.000000,0.000000
-0.286529,0.033166,-0.250048,0.000000,1.000000,0.000000
-0.026229,0.033166,0.146411,0.000000,1.000000,0.000000
0.009744,0.001874,-0.034707,-0.978541,0.000000,-0.206053
0.460071,-0.033166,-0.257445,0.000000,-1.000000,0.000000
-0.505811,0.004692,0.074365,-1.000000,0.000000,0.000000
0.142938,-0.033166,-0.002621,0.000000,-1.000000,0.000000
0.118680,0.033166,-0.150366,0.000000,1.000000,0.000000
-0.404703,0.033166,0.281751,0.000000,1.000000,0.000000
0.008937,0.030773,-0.022722,-0.997329,0.000000,0.073046
-0.352710,0.030525,-0.366206,0.000000,0.000000,-1.000000
-0.440823,0.007407,0.366206,0.000000,0.000000,1.000000
-0.133971,0.033166,0.147852,0.000000,1.000000,0.000000
-0.419750,0.033166,0.336898,0.000000,1.000000,0.000000
-0.505811,0.004692,0.074365,-1.000000,0.000000,0.000000
-0.161915,-0.033166,0.088467,0.000000,-1.000000,0.000000
0.178627,-0.022175,0.216914,-0.938092,0.000000,0.346385
-0.330416,-0.033166,0.064998,0.000000,-1.000000,0.000000
0.008937,0.030773,-0.022722,-0.997329,0.000000,0.073046
0.373711,-0.033166,0.031498,0.000000,-1.000000,0.000000
0.221253,0.033166,-0.236778,0.000000,1.000000,0.000000
0.121519,0.033166,-0.290389,0.000000,1.000000,0.000000
-0.457923,0.033166,-0.281294,0.000000,1.000000,0.000000
0.233768,-0.018750,0.242332,0.345920,0.000000,0.938264
0.505811,-0.020727,-0.253338,1.000000,0.000000,0.000000
-0.018412,-0.004500,-0.211660,-0.941337,0.000000,-0.337467
-0.096876,0.033166,0.332561,0.000000,1.000000,0.000000
-0.349417,0.033166,-0.210403,0.000000,1.000000,0.000000
-0.259574,-0.033166,-0.247894,0.000000,-1.000000,0.000000
-0.419937,0.033166,0.264024,0.000000,1.000000,0.000000
0.090049,-0.000103,-0.045317,0.891451,0.000000,-0.453117
0.417024,-0.033166,0.328269,0.000000,-1.000000,0.000000
0.333503,0.033166,-0.114739,0.000000,1.000000,0.000000
-0.440056,0.033166,0.014258,0.000000,1.000000,0.000000
-0.412645,0.033166,-0.159100,0.000000,1.000000,0.000000
0.016564,-0.004148,-0.001262,-0.819721,0.000000,0.572763
0.039708,-0.016743,0.015358,-0.280788,0.000000,0.959770
0.426661,-0.033166,-0.023370,0.000000,-1.000000,0.000000
-0.007620,0.029873,-0.129242,0.717524,0.000000,0.696534
0.056590,0.010092,0.043623,0.997119,0.000000,0.075851
-0.010288,-0.005172,-0.225467,-0.752154,0.000000,-0.658987
0.143085,-0.033166,-0.047630,0.000000,-1.000000,0.000000
0.212248,0.033166,0.284129,0.000000,1.000000,0.000000
0.227816,0.033166,-0.272090,0.000000,1.000000,0.000000
-0.326080,-0.008623,0.195085,-0.378443,0.000000,-0.925625
0.158480,-0.033166,0.189851,0.000000,-1.000000,0.000000
0.064318,0.013383,-0.204546,0.985130,0.000000,-0.171811
0.400832,0.033166,0.175451,0.000000,1.000000,0.000000
-0.181505,-0.033166,0.364689,0.000000,-1.000000,0.000000
-0.505811,-0.025423,0.018742,-1.000000,0.000000,0.000000
0.505811,-0.002886,0.233346,1.000000,0.000000,0.000000
0.351164,-0.033166,0.258752,0.000000,-1.000000,0.000000
0.252885,-0.003568,0.175770,0.791086,0.000000,-0.611705
-0.173380,0.033166,0.123814,0.000000,1.000000,0.000000
0.001123,-0.000271,-0.142438,0.921135,0.000000,0.389244
-0.276418,0.033166,-0.213813,0.000000,1.000000,0.000000
0.485154,0.033166,0.107742,0.000000,1.000000,0.000000
-0.271308,0.004172,0.215850,0.896966,0.000000,-0.442099
-0.258051,0.033166,0.007809,0.000000,1.000000,0.000000
-0.269476,0.000790,0.249530,0.939633,0.000000,0.342183
0.481815,0.033166,-0.294595,0.000000,1.000000,0.000000
-0.448000,-0.033166,-0.312571,0.000000,-1.000000,0.000000
0.210869,0.033166,0.023483,0.000000,1.000000,0.000000
-0.076551,-0.033166,0.279419,0.000000,-1.000000,0.000000
0.097417,0.033166,-0.346827,0.000000,1.000000,0.000000
0.133267,-0.033166,0.080757,0.000000,-1.000000,0.000000
-0.232812,0.033166,0.252749,0.000000,1.000000,0.000000
0.232354,-0.020353,0.242825,0.313000,0.000000,0.949753
0.180161,-0.006796,0.183531,-0.902369,0.000000,-0.430964
0.068739,-0.027331,-0.065306,0.395233,0.000000,-0.918581
0.091645,0.006100,-0.041791,0.928629,0.000000,-0.371009
-0.215275,0.033166,0.135989,0.000000,1.000000,0.000000
0.275133,0.033166,0.010322,0.000000,1.000000,0.000000
0.327938,-0.033166,-0.224515,0.000000,-1.000000,0.000000
-0.021554,0.007218,0.015943,-0.822545,0.000000,-0.568700
-0.373848,-0.033166,0.333465,0.000000,-1.000000,0.000000
-0.391655,-0.033166,0.049585,0.000000,-1.000000,0.000000
-0.341464,-0.033166,0.015023,0.000000,-1.000000,0.000000
-0.442283,0.033166,0.310617,0.000000,1.000000,0.000000
-0.465678,-0.033166,-0.114937,0.000000,-1.000000,0.000000
0.032308,-0.033166,0.132152,0.000000,-1.000000,0.000000
-0.037537,-0.033166,-0.066363,0.000000,-1.000000,0.000000
-0.253655,0.033166,0.261245,0.000000,1.000000,0.000000
-0.125538,-0.033166,0.246281,0.000000,-1.000000,0.000000
0.377106,-0.033166,0.348564,0.000000,-1.000000,0.000000
0.040755,0.033166,-0.113976,0.000000,1.000000,0.000000
-0.035247,-0.033166,0.087114,0.000000,-1.000000,0.000000
0.409283,0.033166,0.284561,0.000000,1.000000,0.000000
-0.289574,0.033166,-0.320577,0.000000,1.000000,0.000000
-0.465678,-0.033166,-0.114937,0.000000,-1.000000,0.000000
-0.096230,0.033166,-0.066526,0.000000,1.000000,0.000000
0.138011,0.033166,0.035609,0.000000,1.000000,0.000000
0.051810,-0.033166,-0.326886,0.000000,-1.000000,0.000000
0.278385,0.033166,0.165225,0.000000,1.000000,0.000000
0.016146,0.033166,-0.286192,0.000000,1.000000,0.000000
-0.286324,0.033166,0.079289,0.000000,1.000000,0.000000
0.261520,-0.009416,0.207408,0.992154,0.000000,0.125022
0.216308,-0.033166,-0.326393,0.000000,-1.000000,0.000000
0.207192,0.033166,-0.189025,0.000000,1.000000,0.000000
0.348861,-0.008490,-0.366206,0.000000,0.000000,-1.000000
0.060281,-0.033166,0.341666,0.000000,-1.000000,0.000000
0.075261,0.033166,-0.331256,0.000000,1.000000,0.000000
-0.241762,0.033166,0.207850,0.000000,1.000000,0.000000
-0.230179,-0.033166,0.119450,0.000000,-1.000000,0.000000
-0.205848,-0.012179,-0.366206,0.000000,0.000000,-1.000000
-0.385448,0.033166,0.282837,0.000000,1.000000,0.000000
0.031338,0.033166,0.141553,0.000000,1.000000,0.000000
0.462573,-0.033166,0.017422,0.000000,-1.000000,0.000000
0.043953,-0.005294,0.009818,0.702869,0.000000,-0.711320
-0.334937,0.033166,-0.209825,0.000000,1.000000,0.000000
-0.279305,0.031727,0.265044,0.710758,0.000000,0.703437
0.385462,-0.033166,-0.294980,0.000000,-1.000000,0.000000
-0.173700,-0.033166,0.223197,0.000000,-1.000000,0.000000
0.172879,0.033166,-0.139872,0.000000,1.000000,0.000000
0.022455,0.000131,-0.366206,0.000000,0.000000,-1.000000
0.056590,0.010092,0.043623,0.997119,0.000000,0.075851
0.452754,-0.033166,-0.302597,0.000000,-1.000000,0.000000
-0.269847,0.004600,0.219159,0.930989,0.000000,-0.365048
-0.019390,0.033166,0.125456,0.000000,1.000000,0.000000
0.178627,-0.022175,0.216914,-0.938092,0.000000,0.346385
-0.457810,0.033166,0.042166,0.000000,1.000000,0.000000
-0.211959,-0.033166,0.173948,0.000000,-1.000000,0.000000
-0.176583,0.033166,-0.365789,0.000000,1.000000,0.000000
0.244152,-0.015406,0.236783,0.587722,0.000000,0.809063
-0.217532,0.033166,-0.230383,0.000000,1.000000,0.000000
-0.121400,-0.033166,-0.215371,0.000000,-1.000000,0.000000
0.310579,0.033166,-0.129926,0.000000,1.000000,0.000000
-0.267086,0.018456,0.230673,0.995291,0.000000,-0.096935
-0.219194,0.012850,-0.366206,0.000000,0.000000,-1.000000
0.505811,-0.030166,0.295738,1.000000,0.000000,0.000000
-0.212872,-0.033166,-0.265525,0.000000,-1.000000,0.000000
0.001520,0.033166,0.093476,0.000000,1.000000,0.000000
0.194243,0.033166,0.284377,0.000000,1.000000,0.000000
0.133267,-0.033166,0.080757,0.000000,-1.000000,0.000000
0.505811,-0.001535,-0.131701,1.000000,0.000000,0.000000
0.465624,0.033166,0.148611,0.000000,1.000000,0.000000
-0.020485,-0.010796,-0.190995,-0.989618,0.000000,0.143726
0.505811,0.007600,0.044842,1.000000,0.000000,0.000000
0.063643,-0.009042,-0.207711,0.969390,0.000000,-0.245526
0.142040,-0.033166,0.047852,0.000000,-1.000000,0.000000
-0.262684,0.033166,0.363687,0.000000,1.000000,0.000000
0.026548,0.002805,0.081364,0.297574,0.000000,0.954699
0.021638,-0.014283,-0.056460,-0.701576,0.000000,-0.712595
-0.505811,0.000038,0.076165,-1.000000,0.000000,0.000000
-0.136665,-0.033166,0.256252,0.000000,-1.000000,0.000000
0.256096,-0.033166,-0.132167,0.000000,-1.000000,0.000000
0.217222,0.033166,0.148961,0.000000,1.000000,0.000000
0.464022,-0.033166,0.355160,0.000000,-1.000000,0.000000
-0.029362,-0.001579,-0.201129,0.211258,0.000000,-0.977430
0.491630,-0.033166,0.306844,0.000000,-1.000000,0.000000
-0.036944,-0.025525,-0.202072,0.034699,0.000000,-0.999398
0.088066,0.010091,-0.048805,0.845275,0.000000,-0.534331
-0.077127,-0.032961,-0.140525,-0.901010,0.000000,0.433797
0.000776,0.025008,-0.141638,0.913035,0.000000,0.407881
-0.223728,0.033166,-0.148646,0.000000,1.000000,0.000000
0.192397,-0.033166,-0.125917,0.000000,-1.000000,0.000000
0.374458,-0.033166,0.027702,0.000000,-1.000000,0.000000
0.031338,0.033166,0.141553,0.000000,1.000000,0.000000
-0.021291,0.009941,0.366206,0.000000,0.000000,1.000000
-0.339510,-0.033166,0.011978,0.000000,-1.000000,0.000000
-0.062186,0.013734,-0.123377,-0.553102,0.000000,0.833113
-0.195572,0.033166,-0.094351,0.000000,1.000000,0.000000
0.259958,0.019161,0.189410,0.955784,0.000000,-0.294068
-0.031425,0.033166,-0.302522,0.000000,1.000000,0.000000
0.498847,0.033166,0.130040,0.000000,1.000000,0.000000
-0.029012,0.030403,0.044110,-0.996191,0.000000,0.087194
-0.420707,0.033166,-0.016870,0.000000,1.000000,0.000000
-0.430996,-0.033166,0.172938,0.000000,-1.000000,0.000000
0.505811,0.024398,-0.277013,1.000000,0.000000,0.000000
0.143384,0.033166,0.242527,0.000000,1.000000,0.000000
0.009445,-0.031639,-0.002360,-0.100685,0.000000,-0.994918
-0.053940,0.023920,-0.199201,-0.361079,0.000000,-0.932535
0.211096,-0.033166,-0.026463,0.000000,-1.000000,0.000000
-0.223532,-0.033166,-0.046773,0.000000,-1.000000,0.000000
-0.292185,-0.010171,0.273988,0.410833,0.000000,0.911711
0.003582,0.014401,-0.150272,0.978378,0.000000,0.206824
0.122726,-0.033166,0.343114,0.000000,-1.000000,0.000000
0.447958,-0.033166,-0.217481,0.000000,-1.000000,0.000000
0.297502,-0.033166,-0.247133,0.000000,-1.000000,0.000000
0.400832,0.033166,0.175451,0.000000,1.000000,0.000000
0.094118,-0.028857,-0.018753,0.986218,0.000000,0.165450
0.051709,-0.002791,-0.228189,0.691513,0.000000,-0.722364
0.143384,0.033166,0.242527,0.000000,1.000000,0.000000
0.236309,0.011292,0.162776,0.405080,0.000000,-0.914281
0.000252,0.004109,0.081127,-0.314769,0.000000,0.949168
0.505811,0.006960,-0.155593,1.000000,0.000000,0.000000
0.310579,0.033166,-0.129926,0.000000,1.000000,0.000000
0.064373,-0.033166,0.347094,0.000000,-1.000000,0.000000
-0.083606,0.033166,0.063695,0.000000,1.000000,0.000000
0.100212,-0.033166,0.121812,0.000000,-1.000000,0.000000
0.097417,0.033166,-0.346827,0.000000,1.000000,0.000000
-0.316686,0.025164,0.192442,-0.159686,0.000000,-0.987168
-0.269952,0.017674,-0.366206,0.000000,0.000000,-1.000000
0.281985,-0.033166,-0.031999,0.000000,-1.000000,0.000000
0.092901,-0.016399,-0.038193,0.957864,0.000000,-0.287222
-0.406924,-0.033166,-0.135492,0.000000,-1.000000,0.000000
-0.230367,0.033166,-0.076115,0.000000,1.000000,0.000000
0.001123,-0.000271,-0.142438,0.921135,0.000000,0.389244
-0.480888,-0.033166,0.074746,0.000000,-1.000000,0.000000
-0.372758,-0.033166,0.161160,0.000000,-1.000000,0.000000
0.407481,0.033166,-0.066884,0.000000,1.000000,0.000000
-0.054546,-0.033166,-0.056542,0.000000,-1.000000,0.000000
0.072686,0.028075,0.011645,0.487151,0.000000,0.873318
0.067137,-0.033166,0.168487,0.000000,-1.000000,0.000000
-0.076540,-0.026680,-0.178956,-0.887347,0.000000,-0.461102
-0.125038,-0.033166,-0.194613,0.000000,-1.000000,0.000000
-0.505811,0.024823,-0.040893,-1.000000,0.000000,0.000000
-0.387512,0.033166,0.346464,0.000000,1.000000,0.000000
-0.174601,0.033166,0.200095,0.000000,1.000000,0.000000
-0.016630,-0.019498,-0.178435,-0.899844,0.000000,0.436211
0.109678,0.033166,0.313648,0.000000,1.000000,0.000000
0.037952,-0.033166,0.351629,0.000000,-1.000000,0.000000
0.205080,-0.033166,-0.094293,0.000000,-1.000000,0.000000
-0.240239,0.021801,-0.366206,0.000000,0.000000,-1.000000
-0.407344,0.030719,-0.366206,0.000000,0.000000,-1.000000
0.281985,-0.033166,-0.031999,0.000000,-1.000000,0.000000
-0.008547,0.001846,-0.189992,0.695952,0.000000,-0.718088
-0.081376,0.009840,-0.159565,-0.999954,0.000000,-0.009574
0.156950,-0.033166,0.304284,0.000000,-1.000000,0.000000
0.505811,0.017958,-0.331291,1.000000,0.000000,0.000000
0.402007,-0.033166,0.228223,0.000000,-1.000000,0.000000
-0.272828,-0.018494,0.256635,0.861582,0.000000,0.507619
0.395719,-0.033166,-0.145639,0.000000,-1.000000,0.000000
-0.498673,0.033166,-0.208681,0.000000,1.000000,0.000000
-0.420707,0.033166,-0.016870,0.000000,1.000000,0.000000
-0.418417,0.033166,0.277152,0.000000,1.000000,0.000000
-0.343536,0.033166,-0.281450,0.000000,1.000000,0.000000
