x,y,z,nx,ny,nz
18.239840,-20.459848,-3.504424,0.000000,0.000000,-1.000000
-62.149736,7.240036,3.504424,0.000000,-0.000000,1.000000
-37.800491,-12.308396,-3.504424,0.000000,0.000000,-1.000000
28.708181,-8.233747,3.504424,0.000000,0.000000,1.000000
29.650521,-3.464354,-3.504424,0.000000,0.000000,-1.000000
-18.453720,-18.329919,3.504424,0.000000,-0.000000,1.000000
-54.555845,2.896409,-3.504424,0.000000,0.000000,-1.000000
-10.340567,19.284987,3.504424,0.000000,-0.000000,1.000000
22.590142,-8.039582,-3.504424,-0.000000,-0.000000,-1.000000
-64.706848,-9.902801,-1.593441,-1.000000,0.000000,0.000000
-57.119252,-20.536291,-2.770207,0.000000,-1.000000,0.000000
-64.616541,12.011410,-3.504424,0.000000,0.000000,-1.000000
-53.420225,3.178501,3.504424,0.000000,-0.000000,1.000000
-60.096744,-13.286077,3.504424,0.000000,-0.000000,1.000000
50.610242,19.026590,3.504424,0.000000,-0.000000,1.000000
29.945036,-17.881714,3.504424,0.000000,-0.000000,1.000000
0.040910,0.143546,-3.504424,0.000000,0.000000,-1.000000
-30.818416,-10.327688,-3.504424,0.000000,0.000000,-1.000000
-9.011466,-15.083787,3.504424,0.000000,-0.000000,1.000000
37.127517,-13.299973,-3.504424,-0.000000,-0.000000,-1.000000
49.528134,-4.593364,-3.504424,0.000000,0.000000,-1.000000
-40.412156,14.394885,-3.504424,0.000000,0.000000,-1.000000
53.409376,18.378321,-3.504424,0.000000,-0.000000,-1.000000
-11.782677,-10.451468,3.504424,0.000000,0.000000,1.000000
-8.337084,17.921890,3.504424,0.000000,-0.000000,1.000000
-25.365586,3.093917,-3.504424,0.000000,-0.000000,-1.000000
59.424596,5.453790,3.504424,0.000000,-0.000000,1.000000
-21.433971,-20.536291,2.521175,0.000000,-1.000000,0.000000
46.001789,15.677719,-3.504424,0.000000,-0.000000,-1.000000
14.712277,-7.447911,-3.504424,-0.000000,-0.000000,-1.000000
40.652308,20.521858,3.504424,0.000000,-0.000000,1.000000
-36.518420,9.377151,3.504424,0.000000,-0.000000,1.000000
13.281220,-0.613918,-3.504424,0.000000,0.000000,-1.000000
-0.490062,11.219567,3.504424,0.000000,-0.000000,1.000000
9.131722,-12.421650,2.375059,-0.881922,0.471396,0.000000
-16.050304,19.232658,3.504424,0.000000,-0.000000,1.000000
53.535641,-20.211215,3.504424,0.000000,-0.000000,1.000000
-41.195186,-18.324633,3.504424,0.000000,-0.000000,1.000000
6.274725,6.008002,3.504424,0.000000,-0.000000,1.000000
-37.117903,-10.724550,-3.504424,0.000000,0.000000,-1.000000
27.919534,-14.728102,3.504424,0.000000,0.000000,1.000000
-43.624411,0.357676,3.504424,0.000000,-0.000000,1.000000
-29.934355,-2.367656,3.504424,0.000000,-0.000000,1.000000
-50.878360,5.958130,-3.504424,0.000000,0.000000,-1.000000
-26.165445,10.999972,-3.504424,0.000000,0.000000,-1.000000
-64.585610,9.671887,-3.504424,0.000000,0.000000,-1.000000
12.465429,-20.270032,3.504424,0.000000,-0.000000,1.000000
-22.047986,-14.351272,3.504424,0.000000,-0.000000,1.000000
43.287343,11.205623,-3.504424,0.000000,-0.000000,-1.000000
38.463236,9.234209,-3.504424,0.000000,-0.000000,-1.000000
18.627640,8.037546,3.504424,0.000000,-0.000000,1.000000
14.545910,20.536291,1.839421,0.000000,1.000000,0.000000
-64.706848,-12.275226,2.159128,-1.000000,0.000000,0.000000
11.045079,18.841863,-3.504424,0.000000,-0.000000,-1.000000
-21.977296,6.289013,-3.504424,-0.000000,-0.000000,-1.000000
40.638229,18.676050,-3.504424,0.000000,-0.000000,-1.000000
-8.233154,1.529749,3.504424,0.000000,-0.000000,1.000000
49.217643,11.378467,-3.504424,0.000000,-0.000000,-1.000000
53.780177,17.120371,-3.504424,0.000000,-0.000000,-1.000000
0.479467,-1.312252,3.504424,0.000000,0.000000,1.000000
-31.849480,3.532281,-3.504424,0.000000,0.000000,-1.000000
48.632075,-16.198339,3.504424,0.000000,0.000000,1.000000
16.180426,19.504686,-3.504424,0.000000,-0.000000,-1.000000
-45.254261,-4.605479,3.504424,0.000000,-0.000000,1.000000
-22.527724,-20.536291,-1.532867,0.000000,-1.000000,0.000000
-46.780883,6.162045,-3.504424,0.000000,0.000000,-1.000000
61.655366,0.303523,-3.504424,0.000000,0.000000,-1.000000
34.941574,-13.673407,-3.504424,0.000000,0.000000,-1.000000
64.706848,-5.772120,-3.452019,1.000000,0.000000,-0.000000
11.685918,5.011270,3.504424,0.000000,-0.000000,1.000000
-10.711438,20.536291,2.072695,0.000000,1.000000,0.000000
-42.715486,2.314088,3.504424,0.000000,-0.000000,1.000000
-10.848517,4.331767,3.504424,0.000000,-0.000000,1.000000
-20.153093,-15.550244,-3.504424,0.000000,0.000000,-1.000000
-36.015191,-16.804376,3.504424,0.000000,-0.000000,1.000000
-24.175242,2.771892,3.504424,0.000000,-0.000000,1.000000
-13.070588,13.877034,3.504424,0.000000,-0.000000,1.000000
22.513154,20.536291,0.474865,-0.000000,1.000000,0.000000
45.799589,-20.536291,0.119531,0.000000,-1.000000,0.000000
-43.888869,-9.236856,-3.504424,0.000000,0.000000,-1.000000
59.378192,7.105982,3.504424,0.000000,-0.000000,1.000000
44.592139,10.117207,3.504424,0.000000,0.000000,1.000000
-7.782653,-3.893143,-3.504424,0.000000,-0.000000,-1.000000
-10.193421,-4.006729,-3.504424,0.000000,-0.000000,-1.000000
4.676084,9.382163,3.504424,0.000000,-0.000000,1.000000
15.834416,-1.938518,3.504424,0.000000,0.000000,1.000000
38.483023,-20.523805,3.504424,0.000000,-0.000000,1.000000
44.230749,-20.380001,-3.504424,0.000000,0.000000,-1.000000
-58.009660,-10.663899,3.504424,0.000000,-0.000000,1.000000
-47.422327,20.525155,-3.504424,0.000000,-0.000000,-1.000000
57.183482,3.150517,-3.504424,0.000000,0.000000,-1.000000
-23.364118,-19.488772,-3.504424,0.000000,0.000000,-1.000000
-45.483766,1.557361,3.504424,0.000000,-0.000000,1.000000
-61.762885,-10.458929,3.504424,0.000000,-0.000000,1.000000
22.057427,-12.431089,-3.504424,0.000000,0.000000,-1.000000
-8.233679,-2.052338,-3.504424,0.000000,-0.000000,-1.000000
-22.784169,8.542359,3.504424,0.000000,-0.000000,1.000000
-12.600097,-3.056305,-3.504424,0.000000,-0.000000,-1.000000
-19.899785,-20.536291,3.294439,0.000000,-1.000000,0.000000
-15.250723,-5.273698,3.504424,0.000000,0.000000,1.000000
-28.670432,1.025570,-3.504424,0.000000,0.000000,-1.000000
58.962265,12.404950,-3.504424,0.000000,0.000000,-1.000000
-42.631101,-20.499171,-3.504424,0.000000,0.000000,-1.000000
39.387156,0.286876,-3.504424,0.000000,-0.000000,-1.000000
30.318738,-20.536291,-2.772353,0.000000,-1.000000,0.000000
-39.857128,5.358765,-3.504424,0.000000,0.000000,-1.000000
-19.919110,-5.649063,3.504424,0.000000,-0.000000,1.000000
38.255885,2.259990,3.504424,0.000000,0.000000,1.000000
23.674447,-8.465072,3.504424,0.000000,0.000000,1.000000
-2.273515,19.375746,-3.504424,0.000000,-0.000000,-1.000000
16.190080,-11.213944,-3.504424,0.000000,0.000000,-1.000000
32.092437,20.224682,-3.504424,0.000000,-0.000000,-1.000000
26.270495,-1.167513,3.504424,0.000000,0.000000,1.000000
-27.055279,16.785300,-3.504424,0.000000,-0.000000,-1.000000
-42.734832,-19.787999,-3.504424,0.000000,0.000000,-1.000000
-12.732966,3.047815,3.504424,0.000000,-0.000000,1.000000
-58.390225,16.676652,-3.504424,0.000000,0.000000,-1.000000
-52.160422,11.804010,3.504424,0.000000,-0.000000,1.000000
58.566014,14.121867,-3.504424,0.000000,-0.000000,-1.000000
-29.582184,-2.452617,3.504424,0.000000,-0.000000,1.000000
25.992752,20.536291,0.942481,-0.000000,1.000000,0.000000
-34.541192,7.953212,3.504424,0.000000,-0.000000,1.000000
-25.418691,-0.698145,-3.504424,0.000000,0.000000,-1.000000
-64.706848,-6.568899,3.477267,-1.000000,0.000000,0.000000
24.998304,-16.511620,3.504424,0.000000,-0.000000,1.000000
-52.550649,-13.969217,3.504424,0.000000,-0.000000,1.000000
53.073508,8.835801,-3.504424,0.000000,-0.000000,-1.000000
-63.432367,20.536291,-2.897875,0.000000,1.000000,0.000000
-29.950810,-19.445498,-3.504424,0.000000,0.000000,-1.000000
-37.998395,-7.525683,-3.504424,0.000000,0.000000,-1.000000
40.244939,-4.632686,3.504424,0.000000,0.000000,1.000000
-31.098929,-4.565491,-3.504424,0.000000,0.000000,-1.000000
-63.006009,-6.768221,3.504424,0.000000,-0.000000,1.000000
60.309097,-4.949345,3.504424,0.000000,-0.000000,1.000000
-44.009884,-0.123377,-3.504424,0.000000,0.000000,-1.000000
-30.953032,13.108518,3.504424,0.000000,-0.000000,1.000000
56.811668,20.536291,0.511538,-0.000000,1.000000,0.000000
-12.671620,-20.536291,-2.726566,0.000000,-1.000000,0.000000
-18.337761,-6.835631,-3.504424,0.000000,0.000000,-1.000000
-22.165211,20.536291,0.803299,0.000000,1.000000,0.000000
40.304037,1.556473,3.504424,0.000000,0.000000,1.000000
7.310190,-7.285827,-0.884687,-0.290285,-0.956940,0.000000
18.814219,13.965257,3.504424,0.000000,-0.000000,1.000000
-1.307861,-3.650580,-3.504424,-0.000000,-0.000000,-1.000000
-33.226272,-1.034963,-3.504424,0.000000,0.000000,-1.000000
40.235987,18.955192,3.504424,0.000000,-0.000000,1.000000
20.185922,3.938856,-3.504424,0.000000,-0.000000,-1.000000
23.992539,-20.536291,1.954152,0.000000,-1.000000,0.000000
-45.367154,17.518083,-3.504424,0.000000,-0.000000,-1.000000
11.683050,-5.249102,-3.504424,-0.000000,-0.000000,-1.000000
-63.726035,-7.029685,-3.504424,0.000000,0.000000,-1.000000
-42.634535,14.317425,-3.504424,0.000000,0.000000,-1.000000
-0.739672,15.399229,3.504424,0.000000,-0.000000,1.000000
2.323073,-12.766333,3.504424,0.000000,-0.000000,1.000000
-64.181936,1.527212,3.504424,0.000000,-0.000000,1.000000
-17.614246,15.054961,-3.504424,0.000000,-0.000000,-1.000000
-45.027888,-4.322487,3.504424,0.000000,-0.000000,1.000000
-14.056565,20.536291,1.931779,0.000000,1.000000,0.000000
-60.084738,18.910232,-3.504424,-0.000000,-0.000000,-1.000000
-28.143468,-11.467359,-3.504424,0.000000,0.000000,-1.000000
48.003625,8.383197,-3.504424,0.000000,-0.000000,-1.000000
36.041133,-3.211934,-3.504424,0.000000,0.000000,-1.000000
-64.706848,2.347985,-1.095647,-1.000000,0.000000,0.000000
64.706848,-1.459956,3.432908,1.000000,-0.000000,0.000000
-9.752765,-20.536291,0.709732,0.000000,-1.000000,0.000000
22.155236,20.536291,-3.219693,-0.000000,1.000000,0.000000
64.706848,6.191440,1.682324,1.000000,-0.000000,0.000000
-33.659295,4.507976,3.504424,0.000000,-0.000000,1.000000
36.291068,-20.330829,3.504424,0.000000,-0.000000,1.000000
57.151642,-14.501452,3.504424,0.000000,0.000000,1.000000
-4.678986,-17.218342,-3.504424,0.000000,0.000000,-1.000000
-9.684586,-17.545977,-3.504424,0.000000,0.000000,-1.000000
16.016195,4.569218,-3.504424,0.000000,0.000000,-1.000000
36.936389,-17.820072,3.504424,0.000000,-0.000000,1.000000
34.212904,-17.384375,3.504424,0.000000,-0.000000,1.000000
9.061248,20.536291,1.594146,0.000000,1.000000,0.000000
-36.577861,-5.036302,-3.504424,0.000000,0.000000,-1.000000
36.875481,7.798088,3.504424,0.000000,0.000000,1.000000
34.578231,-18.488333,-3.504424,0.000000,0.000000,-1.000000
12.503357,-1.427832,-3.504424,0.000000,0.000000,-1.000000
19.363714,20.249561,3.504424,0.000000,-0.000000,1.000000
14.431282,-9.371783,-3.504424,0.000000,0.000000,-1.000000
15.479690,-16.031916,-3.504424,0.000000,0.000000,-1.000000
30.851530,11.645821,3.504424,0.000000,-0.000000,1.000000
-46.564078,-12.525346,3.504424,0.000000,-0.000000,1.000000
52.051847,16.347565,3.504424,0.000000,0.000000,1.000000
-2.239458,16.796123,3.504424,0.000000,-0.000000,1.000000
-24.117269,20.490792,-3.504424,0.000000,-0.000000,-1.000000
37.852266,-17.242786,3.504424,0.000000,0.000000,1.000000
52.971740,7.299103,-2.566330,-0.290286,-0.956940,0.000000
-44.487647,20.536291,-0.337331,0.000000,1.000000,0.000000
-2.884017,-19.430266,3.504424,0.000000,-0.000000,1.000000
18.115877,-15.821945,-3.504424,0.000000,0.000000,-1.000000
-29.938709,-20.536291,-2.362363,0.000000,-1.000000,0.000000
37.998237,-18.536691,3.504424,0.000000,-0.000000,1.000000
33.155607,-17.523243,-3.504424,0.000000,0.000000,-1.000000
10.884650,-11.198206,-3.504424,0.000000,0.000000,-1.000000
11.638983,13.493924,3.504424,0.000000,-0.000000,1.000000
-43.855707,-7.932849,-3.504424,0.000000,0.000000,-1.000000
27.824689,16.186868,3.504424,0.000000,-0.000000,1.000000
-4.111676,-10.903889,-3.504424,0.000000,0.000000,-1.000000
-24.466627,11.003641,-3.504424,0.000000,0.000000,-1.000000
1.535764,20.536291,0.759266,0.000000,1.000000,0.000000
-43.437045,17.115969,-3.504424,0.000000,-0.000000,-1.000000
1.899164,-2.094130,3.504424,0.000000,0.000000,1.000000
29.901588,9.895164,3.504424,0.000000,-0.000000,1.000000
-54.801756,-7.738153,3.504424,0.000000,-0.000000,1.000000
0.118536,20.536291,0.259132,0.000000,1.000000,0.000000
36.249798,-20.536291,-1.214394,0.000000,-1.000000,0.000000
-17.157569,-11.001525,-3.504424,0.000000,0.000000,-1.000000
14.400412,-8.431131,3.504424,0.000000,0.000000,1.000000
63.339197,-20.536291,-0.207449,0.000000,-1.000000,0.000000
-39.567018,19.917005,-3.504424,0.000000,-0.000000,-1.000000
11.129616,-20.536291,-0.291542,0.000000,-1.000000,0.000000
25.360305,3.840762,-3.504424,0.000000,-0.000000,-1.000000
-34.171633,-13.777615,-3.504424,0.000000,0.000000,-1.000000
51.926807,-10.675693,-3.504424,0.000000,0.000000,-1.000000
31.721618,9.758339,-3.504424,0.000000,-0.000000,-1.000000
-39.569907,20.091190,3.504424,0.000000,-0.000000,1.000000
53.273668,-20.536291,-2.265092,0.000000,-1.000000,0.000000
20.873655,-7.607660,3.504424,0.000000,0.000000,1.000000
-1.442670,14.434130,-3.504424,0.000000,-0.000000,-1.000000
-41.361153,17.027745,-3.504424,0.000000,-0.000000,-1.000000
-35.280906,-20.536291,-3.124110,0.000000,-1.000000,0.000000
-20.125030,4.524817,3.504424,0.000000,-0.000000,1.000000
-40.661630,-17.082301,3.504424,0.000000,-0.000000,1.000000
-48.384897,17.752337,-3.504424,0.000000,-0.000000,-1.000000
34.312259,10.329596,3.504424,0.000000,0.000000,1.000000
-37.774978,17.692197,-3.504424,0.000000,-0.000000,-1.000000
45.273243,-3.451338,-1.051909,0.634393,0.773011,-0.000000
21.620860,-4.679125,3.504424,0.000000,0.000000,1.000000
-56.992088,7.620597,-3.504424,0.000000,0.000000,-1.000000
64.706848,6.712041,-0.515559,1.000000,-0.000000,0.000000
36.382922,15.476617,3.504424,0.000000,-0.000000,1.000000
31.719628,-17.078591,-3.504424,0.000000,0.000000,-1.000000
-19.235113,-11.827722,-3.504424,0.000000,0.000000,-1.000000
-43.095164,-6.471382,-3.504424,0.000000,0.000000,-1.000000
-6.424121,-12.586670,-3.504424,0.000000,0.000000,-1.000000
-40.638197,4.681919,3.504424,0.000000,-0.000000,1.000000
3.907823,4.289089,-3.504424,0.000000,0.000000,-1.000000
-40.427094,4.592661,-3.504424,0.000000,0.000000,-1.000000
-19.166979,-17.846813,3.504424,0.000000,-0.000000,1.000000
9.173915,-9.006051,1.533798,-0.881922,-0.471396,-0.000000
43.926180,13.605634,-3.504424,0.000000,-0.000000,-1.000000
56.635430,-17.615896,3.504424,0.000000,0.000000,1.000000
-1.546066,20.473020,-3.504424,0.000000,-0.000000,-1.000000
15.912542,18.356752,-3.504424,0.000000,-0.000000,-1.000000
9.617072,0.259232,3.504424,0.000000,0.000000,1.000000
42.688580,5.643081,3.504424,0.000000,0.000000,1.000000
-52.522334,-20.536291,-2.014659,0.000000,-1.000000,0.000000
-45.563779,19.353739,-3.504424,0.000000,-0.000000,-1.000000
36.028447,-20.536291,2.528416,0.000000,-1.000000,0.000000
47.806671,-15.228458,-3.504424,-0.000000,-0.000000,-1.000000
55.156606,5.152316,-1.478244,-0.956941,-0.290284,0.000000
62.604553,14.270980,-3.504424,0.000000,0.000000,-1.000000
-27.025718,-9.091281,3.504424,0.000000,0.000000,1.000000
-30.357382,14.321847,3.504424,0.000000,-0.000000,1.000000
-3.847607,-3.192727,3.504424,0.000000,0.000000,1.000000
-32.409704,-4.528397,3.504424,0.000000,-0.000000,1.000000
-56.818841,14.885285,3.504424,0.000000,-0.000000,1.000000
37.869064,-5.332650,-3.504424,0.000000,0.000000,-1.000000
-60.420622,4.024221,-3.504424,0.000000,0.000000,-1.000000
-64.331289,-19.522746,3.504424,0.000000,-0.000000,1.000000
44.195394,-10.740481,3.504424,0.000000,0.000000,1.000000
-24.603880,20.536291,2.272026,0.000000,1.000000,0.000000
52.856355,-17.477615,3.504424,0.000000,0.000000,1.000000
-16.852241,-8.903206,-3.504424,0.000000,0.000000,-1.000000
-56.759137,13.050701,-3.504424,0.000000,0.000000,-1.000000
-60.064978,7.651626,-3.504424,0.000000,0.000000,-1.000000
-12.148287,20.536291,1.992791,0.000000,1.000000,0.000000
-28.961956,15.949655,-3.504424,0.000000,-0.000000,-1.000000
44.335712,0.086196,0.452234,0.956941,-0.290284,0.000000
30.022337,-8.458324,-3.504424,0.000000,0.000000,-1.000000
5.311062,20.536291,-2.412033,-0.000000,1.000000,0.000000
3.621724,15.982590,-3.504424,0.000000,-0.000000,-1.000000
-32.699440,5.179669,-3.504424,0.000000,0.000000,-1.000000
-27.885036,4.348004,3.504424,0.000000,-0.000000,1.000000
-15.194687,-9.800294,-3.504424,0.000000,0.000000,-1.000000
26.657406,-15.904511,3.504424,0.000000,0.000000,1.000000
-4.547816,9.054684,3.504424,0.000000,-0.000000,1.000000
-63.717667,-18.880180,3.504424,0.000000,-0.000000,1.000000
-23.097560,15.886287,3.504424,0.000000,-0.000000,1.000000
51.157653,10.854427,3.504424,0.000000,0.000000,1.000000
53.697347,-3.237508,-3.504424,0.000000,0.000000,-1.000000
45.535903,12.282364,-3.504424,0.000000,-0.000000,-1.000000
-50.347142,17.118191,-3.504424,0.000000,0.000000,-1.000000
-1.785152,-16.786154,3.504424,0.000000,-0.000000,1.000000
-3.474844,-16.357020,-3.504424,0.000000,0.000000,-1.000000
-58.421880,15.473506,-3.504424,0.000000,0.000000,-1.000000
-8.286982,14.881838,3.504424,0.000000,-0.000000,1.000000
-37.036813,-3.041044,-3.504424,0.000000,0.000000,-1.000000
-4.364636,2.635124,3.504424,0.000000,-0.000000,1.000000
2.659902,-14.352411,3.504424,0.000000,-0.000000,1.000000
-6.308186,-0.575069,-3.504424,-0.000000,-0.000000,-1.000000
0.643778,3.229185,3.504424,0.000000,-0.000000,1.000000
60.648782,-6.645223,-3.504424,0.000000,0.000000,-1.000000
-13.232112,19.247902,3.504424,0.000000,-0.000000,1.000000
64.706848,-0.032809,-3.408875,1.000000,0.000000,-0.000000
6.288548,7.143570,-3.504424,0.000000,-0.000000,-1.000000
45.889013,2.331882,3.504424,0.000000,0.000000,1.000000
3.951986,19.292388,3.504424,0.000000,-0.000000,1.000000
-9.281303,15.335466,-3.504424,0.000000,-0.000000,-1.000000
-20.546172,15.370487,-3.504424,0.000000,-0.000000,-1.000000
-38.928986,5.067781,3.504424,0.000000,-0.000000,1.000000
-20.641987,20.536291,-3.260606,-0.000000,1.000000,0.000000
59.641850,5.723106,3.504424,0.000000,-0.000000,1.000000
36.314140,20.536291,-0.742188,-0.000000,1.000000,0.000000
-19.215873,0.851423,3.504424,0.000000,-0.000000,1.000000
18.058468,9.659837,-3.504424,0.000000,-0.000000,-1.000000
-17.596403,6.055582,-3.504424,0.000000,0.000000,-1.000000
-1.629976,1.955033,3.504424,0.000000,-0.000000,1.000000
17.113832,-19.498791,-3.504424,0.000000,0.000000,-1.000000
15.340890,-14.195194,-3.504424,0.000000,0.000000,-1.000000
-21.766156,13.161952,-3.504424,0.000000,-0.000000,-1.000000
-1.003187,-16.904882,3.504424,0.000000,-0.000000,1.000000
53.471254,-1.754445,-3.504424,0.000000,0.000000,-1.000000
-47.613882,-19.806458,-3.504424,0.000000,0.000000,-1.000000
54.237378,-17.796410,3.504424,0.000000,0.000000,1.000000
29.395594,-8.736963,-3.504424,0.000000,0.000000,-1.000000
-60.176207,10.515772,3.504424,0.000000,-0.000000,1.000000
-6.679902,20.536291,0.633695,0.000000,1.000000,0.000000
56.003550,8.813674,3.504424,0.000000,-0.000000,1.000000
44.849136,2.900936,3.504424,0.000000,0.000000,1.000000
-23.875242,-10.399002,-3.504424,0.000000,0.000000,-1.000000
36.932018,17.303305,-3.504424,0.000000,-0.000000,-1.000000
-13.221283,-13.190109,-3.504424,0.000000,0.000000,-1.000000
57.862066,-3.094016,3.504424,0.000000,0.000000,1.000000
-20.837261,20.536291,0.662745,0.000000,1.000000,0.000000
-34.936094,19.856526,-3.504424,0.000000,-0.000000,-1.000000
-14.877112,-1.337169,3.504424,0.000000,-0.000000,1.000000
50.682584,7.351209,-3.192669,0.290286,-0.956940,0.000000
64.706848,-18.795809,-1.943059,1.000000,0.000000,-0.000000
16.958242,12.609292,3.504424,0.000000,-0.000000,1.000000
-7.295560,-20.536291,-1.154827,0.000000,-1.000000,0.000000
-0.872154,20.536291,0.646699,0.000000,1.000000,0.000000
52.793434,19.690757,-3.504424,0.000000,-0.000000,-1.000000
-48.597417,-20.536291,-0.928827,0.000000,-1.000000,0.000000
59.146112,17.303453,3.504424,0.000000,0.000000,1.000000
-4.284001,9.990455,-3.504424,0.000000,-0.000000,-1.000000
-54.381545,2.528814,3.504424,0.000000,-0.000000,1.000000
14.040997,10.617248,-3.504424,0.000000,-0.000000,-1.000000
44.576759,0.733991,2.212377,0.881920,-0.471398,0.000000
-46.184933,20.536291,0.174210,0.000000,1.000000,0.000000
11.929528,7.391832,3.504424,0.000000,-0.000000,1.000000
27.581628,-18.546524,-3.504424,0.000000,0.000000,-1.000000
46.022071,-20.536291,-3.003468,0.000000,-1.000000,0.000000
35.279359,6.873799,3.504424,0.000000,0.000000,1.000000
-0.063523,6.864517,3.504424,0.000000,-0.000000,1.000000
-24.605751,6.925841,-3.504424,-0.000000,-0.000000,-1.000000
41.383852,18.131425,-3.504424,0.000000,-0.000000,-1.000000
50.455554,17.999666,-3.504424,0.000000,-0.000000,-1.000000
-64.706848,-6.742206,2.257724,-1.000000,0.000000,0.000000
-55.577078,19.521711,3.504424,0.000000,-0.000000,1.000000
37.393115,16.246242,-3.504424,0.000000,-0.000000,-1.000000
22.040278,11.531620,3.504424,0.000000,-0.000000,1.000000
14.460147,13.513135,3.504424,0.000000,-0.000000,1.000000
33.024717,18.008728,3.504424,0.000000,-0.000000,1.000000
0.802167,-20.536291,2.466800,0.000000,-1.000000,0.000000
60.918802,-9.553286,3.504424,0.000000,-0.000000,1.000000
20.673683,15.175508,-3.504424,0.000000,-0.000000,-1.000000
42.210796,19.284420,-3.504424,0.000000,-0.000000,-1.000000
45.536298,-20.536291,-1.396405,0.000000,-1.000000,0.000000
36.913187,-19.348275,3.504424,0.000000,-0.000000,1.000000
5.718941,10.013386,3.504424,0.000000,-0.000000,1.000000
-60.777208,-3.111102,3.504424,0.000000,-0.000000,1.000000
-57.470056,8.662513,3.504424,0.000000,-0.000000,1.000000
61.472010,-18.930570,-3.504424,0.000000,0.000000,-1.000000
33.168231,19.706301,3.504424,0.000000,-0.000000,1.000000
-51.964100,0.460270,3.504424,0.000000,-0.000000,1.000000
-64.706848,20.362311,2.092564,-1.000000,0.000000,0.000000
39.795310,-11.439669,3.504424,0.000000,0.000000,1.000000
28.449900,17.130469,-3.504424,0.000000,-0.000000,-1.000000
-58.971502,-4.233431,-3.504424,0.000000,0.000000,-1.000000
41.954356,-16.915543,3.504424,0.000000,0.000000,1.000000
-61.935068,-6.769264,3.504424,0.000000,-0.000000,1.000000
13.657330,7.585087,-3.504424,0.000000,-0.000000,-1.000000
-63.378366,10.285156,3.504424,0.000000,-0.000000,1.000000
-27.008854,15.127863,-3.504424,0.000000,-0.000000,-1.000000
-12.786782,10.785707,3.504424,0.000000,-0.000000,1.000000
31.321394,-12.500134,3.504424,0.000000,0.000000,1.000000
58.925627,8.876040,3.504424,0.000000,-0.000000,1.000000
-28.330806,-18.972667,-3.504424,0.000000,0.000000,-1.000000
9.783389,-16.187059,-3.504424,0.000000,0.000000,-1.000000
-16.693231,-17.187010,3.504424,0.000000,-0.000000,1.000000
47.137713,-20.324127,-3.504424,0.000000,0.000000,-1.000000
-60.201239,19.996024,-3.504424,0.000000,-0.000000,-1.000000
-7.471244,-19.437323,-3.504424,0.000000,0.000000,-1.000000
-15.214482,-15.217590,-3.504424,0.000000,0.000000,-1.000000
-3.325981,-0.853781,-3.504424,-0.000000,-0.000000,-1.000000
28.913788,-20.536291,0.062590,0.000000,-1.000000,0.000000
36.897087,-8.445001,-3.504424,0.000000,0.000000,-1.000000
37.698104,-14.614794,3.504424,0.000000,0.000000,1.000000
-38.074461,-1.946560,3.504424,0.000000,-0.000000,1.000000
-64.706848,-9.928734,0.801074,-1.000000,0.000000,0.000000
32.572661,11.240613,-3.504424,0.000000,-0.000000,-1.000000
-60.963886,-2.415132,3.504424,0.000000,-0.000000,1.000000
27.288117,14.383949,3.504424,0.000000,-0.000000,1.000000
10.175664,17.288004,3.504424,0.000000,-0.000000,1.000000
-57.085607,15.050871,-3.504424,0.000000,0.000000,-1.000000
-13.146772,-3.192118,-3.504424,0.000000,-0.000000,-1.000000
-2.614101,-3.871576,-3.504424,0.000000,-0.000000,-1.000000
-8.412990,-8.603306,3.504424,0.000000,0.000000,1.000000
23.738398,-0.887211,-3.504424,0.000000,0.000000,-1.000000
-7.265956,-20.536291,-1.741807,0.000000,-1.000000,0.000000
19.955831,-9.226510,-3.504424,-0.000000,-0.000000,-1.000000
-41.176295,-13.404970,3.504424,0.000000,0.000000,1.000000
59.833257,-20.536291,0.942049,0.000000,-1.000000,0.000000
17.173956,-18.294415,-3.504424,0.000000,0.000000,-1.000000
-4.243247,-19.808504,-3.504424,0.000000,0.000000,-1.000000
59.094074,15.173488,-3.504424,0.000000,-0.000000,-1.000000
25.234879,-14.837455,-3.504424,0.000000,0.000000,-1.000000
-37.495484,18.587061,-3.504424,0.000000,-0.000000,-1.000000
37.046382,-20.536291,1.389197,0.000000,-1.000000,0.000000
61.690187,-20.536291,-2.459810,0.000000,-1.000000,0.000000
38.625821,5.088842,3.504424,0.000000,0.000000,1.000000
-17.622049,-15.203596,3.504424,0.000000,-0.000000,1.000000
22.021100,-10.425083,-3.504424,-0.000000,-0.000000,-1.000000
6.012165,1.618151,-3.504424,0.000000,0.000000,-1.000000
44.402768,14.099720,-3.504424,0.000000,-0.000000,-1.000000
-2.971855,-4.116207,-3.504424,0.000000,-0.000000,-1.000000
-26.632702,10.706984,3.504424,0.000000,-0.000000,1.000000
50.674446,19.457170,3.504424,0.000000,-0.000000,1.000000
0.505676,1.084080,-3.504424,0.000000,0.000000,-1.000000
40.563473,-18.365307,-3.504424,0.000000,0.000000,-1.000000
-30.511532,-4.535438,3.504424,0.000000,-0.000000,1.000000
11.023949,0.310505,3.504424,0.000000,0.000000,1.000000
22.521136,6.354544,3.504424,0.000000,0.000000,1.000000
-27.438767,1.214508,3.504424,0.000000,-0.000000,1.000000
-0.002946,-17.355158,3.504424,0.000000,-0.000000,1.000000
35.423800,0.191689,3.504424,0.000000,0.000000,1.000000
-51.671585,9.108011,-3.504424,0.000000,0.000000,-1.000000
17.801705,13.373182,3.504424,0.000000,-0.000000,1.000000
-59.118879,20.536291,-0.411663,0.000000,1.000000,0.000000
23.371730,5.211845,3.504424,0.000000,0.000000,1.000000
60.794440,-8.293076,-3.504424,0.000000,0.000000,-1.000000
35.705900,-10.176763,-3.504424,0.000000,0.000000,-1.000000
-50.835257,14.277581,3.504424,0.000000,-0.000000,1.000000
47.602722,2.775268,-2.507705,0.098017,-0.995185,0.000000
-8.920494,20.536291,-2.691415,-0.000000,1.000000,0.000000
-37.154345,8.734394,3.504424,0.000000,-0.000000,1.000000
8.986189,-8.654840,-2.798612,-0.881922,-0.471396,-0.000000
21.320971,12.159843,3.504424,0.000000,-0.000000,1.000000
19.192737,2.484309,3.504424,0.000000,0.000000,1.000000
-37.401858,11.159306,-3.504424,-0.000000,-0.000000,-1.000000
44.551683,-13.465585,3.504424,0.000000,0.000000,1.000000
-61.813897,-18.170874,-3.504424,0.000000,0.000000,-1.000000
30.836541,-4.548585,-3.504424,0.000000,0.000000,-1.000000
-28.923083,-17.015642,3.504424,0.000000,-0.000000,1.000000
29.515580,15.299214,-3.504424,0.000000,-0.000000,-1.000000
-16.845073,-18.354656,-3.504424,0.000000,0.000000,-1.000000
6.488941,14.894352,-3.504424,0.000000,-0.000000,-1.000000
-15.902835,19.802546,-3.504424,0.000000,-0.000000,-1.000000
9.248703,-9.145971,2.591167,-0.881922,-0.471396,-0.000000
-47.665419,7.641871,3.504424,0.000000,-0.000000,1.000000
-36.210259,-11.945166,3.504424,0.000000,0.000000,1.000000
60.452538,-16.263730,-3.504424,0.000000,0.000000,-1.000000
-27.659431,15.003674,3.504424,0.000000,-0.000000,1.000000
-11.009737,12.846596,3.504424,0.000000,-0.000000,1.000000
-57.271204,5.921974,3.504424,0.000000,-0.000000,1.000000
-0.781126,-8.948969,3.504424,0.000000,0.000000,1.000000
-7.669720,7.913529,3.504424,0.000000,-0.000000,1.000000
-7.589682,2.640597,3.504424,0.000000,-0.000000,1.000000
-0.131870,12.344946,-3.504424,0.000000,-0.000000,-1.000000
34.055108,20.536291,0.445267,-0.000000,1.000000,0.000000
-43.708647,1.988607,3.504424,0.000000,-0.000000,1.000000
58.674255,13.112276,3.504424,0.000000,-0.000000,1.000000
64.521744,20.536291,0.100935,-0.000000,1.000000,0.000000
21.510727,2.510036,3.504424,0.000000,0.000000,1.000000
48.843789,15.079990,-3.504424,0.000000,-0.000000,-1.000000
-36.952170,3.046128,3.504424,0.000000,-0.000000,1.000000
-20.720747,-17.188854,3.504424,0.000000,-0.000000,1.000000
-19.153930,-9.052527,-3.504424,0.000000,0.000000,-1.000000
59.363151,-7.635793,-3.504424,0.000000,0.000000,-1.000000
57.711381,-11.287865,-3.504424,0.000000,0.000000,-1.000000
-11.443542,-20.536291,2.538139,0.000000,-1.000000,0.000000
-34.653263,9.851639,-3.504424,-0.000000,-0.000000,-1.000000
-29.424517,-20.536291,-2.124822,0.000000,-1.000000,0.000000
61.068333,-9.689348,-3.504424,0.000000,0.000000,-1.000000
1.323642,-15.115089,-3.504424,0.000000,0.000000,-1.000000
50.521473,-5.336462,3.504424,0.000000,0.000000,1.000000
-38.513846,-2.518130,3.504424,0.000000,-0.000000,1.000000
21.563136,-10.269260,3.504424,0.000000,0.000000,1.000000
64.706848,4.106656,-2.069356,1.000000,0.000000,-0.000000
16.614179,-1.959175,3.504424,0.000000,0.000000,1.000000
41.699142,-6.757398,3.504424,0.000000,0.000000,1.000000
22.936383,-16.936422,-3.504424,0.000000,0.000000,-1.000000
-63.545683,16.080672,-3.504424,0.000000,0.000000,-1.000000
-14.003019,-11.140160,-3.504424,0.000000,0.000000,-1.000000
64.706848,4.494829,-2.702507,1.000000,0.000000,-0.000000
18.881971,-7.152712,-3.504424,-0.000000,-0.000000,-1.000000
-26.642166,-4.200588,-3.504424,0.000000,0.000000,-1.000000
64.706848,11.548266,-1.268555,1.000000,-0.000000,0.000000
-28.133954,-15.202437,3.504424,0.000000,-0.000000,1.000000
-15.962897,20.536291,-1.172827,-0.000000,1.000000,0.000000
-51.680679,-16.311913,3.504424,0.000000,-0.000000,1.000000
-36.002226,-8.522475,3.504424,0.000000,-0.000000,1.000000
-2.613931,3.406363,3.504424,0.000000,-0.000000,1.000000
-20.576563,-3.462876,-3.504424,0.000000,0.000000,-1.000000
45.106667,-12.419905,3.504424,0.000000,0.000000,1.000000
32.289944,7.696559,3.504424,0.000000,0.000000,1.000000
20.069911,-20.536291,1.649304,0.000000,-1.000000,0.000000
-57.374387,18.524241,3.504424,0.000000,-0.000000,1.000000
63.743394,-8.020467,3.504424,0.000000,-0.000000,1.000000
-64.706848,0.396942,0.404349,-1.000000,0.000000,0.000000
27.257739,8.942823,-3.504424,0.000000,-0.000000,-1.000000
-43.651782,4.340418,3.504424,0.000000,-0.000000,1.000000
29.069918,2.392360,3.504424,0.000000,0.000000,1.000000
-3.941932,20.536291,1.781945,0.000000,1.000000,0.000000
49.945427,-8.638671,3.504424,0.000000,0.000000,1.000000
-54.484281,7.282462,3.504424,0.000000,-0.000000,1.000000
-38.549117,-8.530263,3.504424,0.000000,-0.000000,1.000000
54.005579,-4.504742,-3.504424,0.000000,0.000000,-1.000000
-42.655907,15.878738,3.504424,0.000000,-0.000000,1.000000
-47.687256,12.820401,-3.504424,0.000000,-0.000000,-1.000000
36.413080,8.231624,-3.504424,0.000000,-0.000000,-1.000000
17.533946,-2.096747,-3.504424,0.000000,0.000000,-1.000000
-0.130966,-6.832140,-3.504424,0.000000,-0.000000,-1.000000
39.659787,-12.367247,-3.504424,0.000000,0.000000,-1.000000
50.519702,-9.389890,-3.504424,0.000000,0.000000,-1.000000
-27.573013,-14.044653,3.504424,0.000000,0.000000,1.000000
14.422580,-10.681743,-3.504424,0.000000,0.000000,-1.000000
6.369633,-20.536291,3.295386,0.000000,-1.000000,0.000000
-30.530909,15.863405,3.504424,0.000000,-0.000000,1.000000
-56.335486,-10.383887,3.504424,0.000000,-0.000000,1.000000
-25.620950,-2.017583,-3.504424,0.000000,0.000000,-1.000000
-44.484147,-18.754030,3.504424,0.000000,-0.000000,1.000000
-36.462081,20.536291,3.096790,0.000000,1.000000,0.000000
-30.735641,-16.116901,3.504424,0.000000,-0.000000,1.000000
45.876901,-4.155244,-3.504424,0.000000,0.000000,-1.000000
-18.877997,-16.713510,-3.504424,0.000000,0.000000,-1.000000
28.630233,9.215274,-3.504424,0.000000,-0.000000,-1.000000
43.254508,-11.236273,3.504424,0.000000,0.000000,1.000000
-19.506202,-10.501992,-3.504424,0.000000,0.000000,-1.000000
-64.706848,-13.890024,-0.668558,-1.000000,0.000000,0.000000
8.454054,-3.993659,3.504424,0.000000,0.000000,1.000000
30.763943,-10.871269,-3.504424,-0.000000,-0.000000,-1.000000
-40.006088,-19.776519,-3.504424,0.000000,0.000000,-1.000000
6.747097,-1.107593,3.504424,0.000000,0.000000,1.000000
-28.413172,-3.717960,3.504424,0.000000,-0.000000,1.000000
-27.304435,-0.694232,3.504424,0.000000,-0.000000,1.000000
30.292851,15.038468,-3.504424,0.000000,-0.000000,-1.000000
38.964120,11.975917,3.504424,0.000000,0.000000,1.000000
38.203965,19.446382,-3.504424,0.000000,-0.000000,-1.000000
15.260225,15.007649,3.504424,0.000000,-0.000000,1.000000
-9.007190,-20.536291,0.714888,0.000000,-1.000000,0.000000
0.441837,-16.958132,-3.504424,0.000000,0.000000,-1.000000
-43.099107,10.787748,-3.504424,0.000000,-0.000000,-1.000000
-43.721200,-3.011076,3.504424,0.000000,-0.000000,1.000000
-48.379529,-17.425042,3.504424,0.000000,0.000000,1.000000
-38.427756,-12.765657,-3.504424,0.000000,0.000000,-1.000000
1.564412,1.303430,3.504424,0.000000,-0.000000,1.000000
-18.916786,-4.848884,3.504424,0.000000,-0.000000,1.000000
33.439905,20.536291,2.907824,0.000000,1.000000,0.000000
52.644055,-8.115074,3.504424,0.000000,0.000000,1.000000
-25.660025,-12.933421,3.504424,0.000000,0.000000,1.000000
-1.022061,10.341410,3.504424,0.000000,-0.000000,1.000000
-2.947359,8.425097,-3.504424,0.000000,-0.000000,-1.000000
27.298309,-0.970718,-3.504424,0.000000,0.000000,-1.000000
40.072924,-3.145083,3.504424,0.000000,0.000000,1.000000
-64.595434,13.294277,-3.504424,0.000000,0.000000,-1.000000
14.638198,11.686641,3.504424,0.000000,-0.000000,1.000000
53.938595,-8.923936,-3.504424,0.000000,0.000000,-1.000000
53.883789,-0.879200,3.504424,0.000000,0.000000,1.000000
56.577199,1.307533,-3.504424,0.000000,0.000000,-1.000000
4.750155,13.699264,3.504424,0.000000,-0.000000,1.000000
16.920047,18.181136,-3.504424,0.000000,-0.000000,-1.000000
42.297789,-7.542585,3.504424,0.000000,0.000000,1.000000
-24.929604,9.382733,3.504424,0.000000,-0.000000,1.000000
26.117426,-4.563181,3.504424,0.000000,0.000000,1.000000
16.778041,-5.044919,3.504424,0.000000,0.000000,1.000000
-2.153365,9.220590,-3.504424,0.000000,-0.000000,-1.000000
-64.706848,-12.766172,-3.019698,-1.000000,0.000000,0.000000
8.530030,-14.825576,-3.504424,0.000000,0.000000,-1.000000
62.241716,12.711908,-3.504424,0.000000,0.000000,-1.000000
25.064121,14.877613,-3.504424,0.000000,-0.000000,-1.000000
-55.742659,-1.480547,3.504424,0.000000,-0.000000,1.000000
49.448447,-13.661717,3.504424,0.000000,0.000000,1.000000
7.615649,20.536291,-0.708731,-0.000000,1.000000,0.000000
-64.706848,5.785509,-2.484886,-1.000000,0.000000,0.000000
-59.037838,-3.693945,-3.504424,0.000000,0.000000,-1.000000
-35.572092,10.296599,3.504424,0.000000,-0.000000,1.000000
51.859341,-17.458963,-3.504424,-0.000000,-0.000000,-1.000000
12.478241,-10.230176,-3.504424,0.000000,0.000000,-1.000000
-60.304074,16.568431,3.504424,0.000000,-0.000000,1.000000
-43.351756,3.865893,3.504424,0.000000,-0.000000,1.000000
-51.788383,-3.749277,-3.504424,0.000000,0.000000,-1.000000
39.855775,15.812258,-3.504424,0.000000,-0.000000,-1.000000
-42.157813,0.686929,3.504424,0.000000,-0.000000,1.000000
-55.948923,10.538651,-3.504424,0.000000,0.000000,-1.000000
8.828939,20.536291,1.317294,0.000000,1.000000,0.000000
-64.706848,-0.944342,2.334662,-1.000000,0.000000,0.000000
8.769421,1.550900,-3.504424,0.000000,0.000000,-1.000000
57.701151,-20.536291,-1.923003,0.000000,-1.000000,0.000000
46.039698,10.641426,-3.504424,0.000000,-0.000000,-1.000000
-48.733962,-1.685277,-3.504424,0.000000,0.000000,-1.000000
48.768945,11.001431,3.504424,0.000000,0.000000,1.000000
-33.090065,-13.021656,-3.504424,0.000000,0.000000,-1.000000
63.337901,20.169840,3.504424,0.000000,-0.000000,1.000000
14.689014,-20.536291,-3.231620,0.000000,-1.000000,0.000000
-34.494275,-5.241106,3.504424,0.000000,-0.000000,1.000000
46.390913,-13.392394,3.504424,0.000000,0.000000,1.000000
-27.375948,14.252746,-3.504424,0.000000,-0.000000,-1.000000
-1.571137,6.836227,3.504424,0.000000,-0.000000,1.000000
-12.985244,14.125063,3.504424,0.000000,-0.000000,1.000000
-36.780913,5.447311,3.504424,0.000000,-0.000000,1.000000
3.373665,-1.874060,3.504424,0.000000,0.000000,1.000000
1.769717,-20.536291,1.001781,0.000000,-1.000000,0.000000
63.945940,8.729072,3.504424,0.000000,-0.000000,1.000000
61.782512,20.536291,0.355624,-0.000000,1.000000,0.000000
-33.145111,20.536291,0.174989,0.000000,1.000000,0.000000
45.845383,20.536291,-1.228479,-0.000000,1.000000,0.000000
-33.833137,-20.536291,-2.862637,0.000000,-1.000000,0.000000
26.522962,-5.486723,-3.504424,0.000000,0.000000,-1.000000
2.282602,-10.722354,-2.550500,0.995185,0.098017,-0.000000
57.503852,12.667325,3.504424,-0.000000,0.000000,1.000000
46.208388,20.536291,1.579766,-0.000000,1.000000,0.000000
14.588231,-18.402200,-3.504424,0.000000,0.000000,-1.000000
39.539554,-9.074038,-3.504424,0.000000,0.000000,-1.000000
54.891221,5.698588,-1.209358,-0.881920,-0.471398,0.000000
62.138839,20.536291,3.247691,-0.000000,1.000000,0.000000
-19.301529,20.536291,0.401408,0.000000,1.000000,0.000000
20.141009,17.317250,-3.504424,0.000000,-0.000000,-1.000000
8.057194,9.150514,3.504424,0.000000,-0.000000,1.000000
-50.397827,-5.029709,3.504424,0.000000,-0.000000,1.000000
22.920179,-17.123857,3.504424,0.000000,-0.000000,1.000000
12.333435,-0.394714,-3.504424,0.000000,0.000000,-1.000000
23.786224,8.832045,-3.504424,0.000000,-0.000000,-1.000000
-4.303186,-17.409398,-3.504424,0.000000,0.000000,-1.000000
-13.374209,15.754447,-3.504424,0.000000,-0.000000,-1.000000
1.894488,-12.395761,-3.504424,0.000000,0.000000,-1.000000
11.511818,9.119895,3.504424,0.000000,-0.000000,1.000000
16.095450,13.045023,3.504424,0.000000,-0.000000,1.000000
-16.963472,1.340605,-3.504424,0.000000,-0.000000,-1.000000
50.751898,-6.444884,3.504424,0.000000,0.000000,1.000000
62.990762,7.140370,-3.504424,0.000000,0.000000,-1.000000
54.767948,-13.454639,3.504424,0.000000,0.000000,1.000000
-64.706848,-14.792667,-1.839679,-1.000000,0.000000,0.000000
43.750824,-0.326177,3.504424,0.000000,-0.000000,1.000000
4.180664,-6.855661,3.504424,0.000000,0.000000,1.000000
19.540821,-14.028865,-3.504424,0.000000,0.000000,-1.000000
-64.706848,5.948305,-2.974270,-1.000000,0.000000,0.000000
-8.653280,13.516318,-3.504424,0.000000,-0.000000,-1.000000
52.853013,-16.962499,-3.504424,-0.000000,-0.000000,-1.000000
-46.384974,-13.845111,-3.504424,0.000000,0.000000,-1.000000
37.480732,-20.536291,0.615168,0.000000,-1.000000,0.000000
28.825432,-2.731387,-3.504424,0.000000,0.000000,-1.000000
59.621958,-13.261003,3.504424,0.000000,0.000000,1.000000
-42.061205,17.529639,3.504424,0.000000,-0.000000,1.000000
58.725674,20.536291,-2.246285,-0.000000,1.000000,0.000000
4.379877,5.462297,3.504424,0.000000,-0.000000,1.000000
-14.510068,20.536291,1.570397,0.000000,1.000000,0.000000
38.721481,-20.536291,-1.824682,0.000000,-1.000000,0.000000
-5.121256,-11.684454,-3.504424,0.000000,0.000000,-1.000000
-27.149551,-3.818674,3.504424,0.000000,-0.000000,1.000000
50.535222,-3.331887,1.755130,-0.773013,0.634391,0.000000
-5.981500,5.000844,3.504424,0.000000,-0.000000,1.000000
12.410880,15.927292,-3.504424,0.000000,-0.000000,-1.000000
-43.312774,6.255658,-3.504424,0.000000,0.000000,-1.000000
6.252168,4.140177,3.504424,0.000000,-0.000000,1.000000
45.379159,5.563557,3.504424,0.000000,0.000000,1.000000
12.179036,2.871370,3.504424,0.000000,0.000000,1.000000
48.092714,8.898283,-3.504424,0.000000,-0.000000,-1.000000
53.111074,14.230648,-3.504424,0.000000,-0.000000,-1.000000
61.018667,7.389878,-3.504424,0.000000,0.000000,-1.000000
-15.156222,20.536291,2.402997,0.000000,1.000000,0.000000
35.297832,-16.079284,-3.504424,0.000000,0.000000,-1.000000
-62.494232,-20.536291,-1.741414,0.000000,-1.000000,0.000000
15.106409,-20.536291,0.421698,0.000000,-1.000000,0.000000
53.702098,11.573188,-3.504424,0.000000,-0.000000,-1.000000
-20.078567,13.953014,3.504424,0.000000,-0.000000,1.000000
-64.706848,-4.503033,-1.014752,-1.000000,0.000000,0.000000
-62.041588,-0.197724,3.504424,0.000000,-0.000000,1.000000
-57.420029,19.013735,3.504424,0.000000,-0.000000,1.000000
-6.734493,19.311554,-3.504424,0.000000,-0.000000,-1.000000
-44.200390,-19.468504,3.504424,0.000000,-0.000000,1.000000
57.909779,20.536291,-1.177467,-0.000000,1.000000,0.000000
-9.035703,-19.095759,3.504424,0.000000,-0.000000,1.000000
-26.183630,-0.622147,-3.504424,0.000000,0.000000,-1.000000
28.292827,18.674151,3.504424,0.000000,-0.000000,1.000000
-25.276773,17.081999,3.504424,0.000000,-0.000000,1.000000
36.946830,-5.215718,-3.504424,0.000000,0.000000,-1.000000
44.699534,20.247639,-3.504424,0.000000,-0.000000,-1.000000
20.130380,14.437631,-3.504424,0.000000,-0.000000,-1.000000
-60.240539,-14.793132,-3.504424,0.000000,0.000000,-1.000000
-51.281524,20.536291,1.027034,0.000000,1.000000,0.000000
-42.927373,13.466541,-3.504424,-0.000000,-0.000000,-1.000000
-48.524134,20.536291,0.041429,0.000000,1.000000,0.000000
-25.571205,-9.441362,-3.504424,0.000000,0.000000,-1.000000
-61.489779,19.310347,3.504424,0.000000,-0.000000,1.000000
-43.216212,-0.611402,-3.504424,0.000000,0.000000,-1.000000
-53.521525,-17.836323,3.504424,0.000000,0.000000,1.000000
48.514038,7.375388,3.504424,0.000000,0.000000,1.000000
-64.706848,-19.437282,-2.256591,-1.000000,0.000000,0.000000
-12.155714,15.522925,-3.504424,0.000000,-0.000000,-1.000000
-39.608974,-2.876563,-3.504424,0.000000,0.000000,-1.000000
-1.770343,-10.940229,-3.504424,0.000000,0.000000,-1.000000
60.821018,20.034021,3.504424,0.000000,-0.000000,1.000000
-36.245989,5.115913,3.504424,0.000000,-0.000000,1.000000
-56.352091,3.049144,3.504424,0.000000,-0.000000,1.000000
-40.591218,-20.536291,-0.139732,0.000000,-1.000000,0.000000
-45.451680,-10.617675,-3.504424,0.000000,0.000000,-1.000000
62.088661,12.088482,-3.504424,0.000000,0.000000,-1.000000
34.824048,-14.658246,-3.504424,0.000000,0.000000,-1.000000
-13.433854,-10.676417,3.504424,0.000000,0.000000,1.000000
11.381538,1.182229,-3.504424,0.000000,0.000000,-1.000000
-47.508271,-20.302069,3.504424,0.000000,-0.000000,1.000000
-41.771036,18.842746,3.504424,0.000000,-0.000000,1.000000
-63.922742,16.213355,3.504424,0.000000,-0.000000,1.000000
48.753005,-19.241115,3.504424,0.000000,-0.000000,1.000000
-49.045473,-18.501158,-3.504424,0.000000,0.000000,-1.000000
0.167558,16.843738,-3.504424,0.000000,-0.000000,-1.000000
-11.040954,14.861325,3.504424,0.000000,-0.000000,1.000000
-16.124340,20.536291,-3.135211,-0.000000,1.000000,0.000000
-50.998278,0.557710,-3.504424,0.000000,0.000000,-1.000000
51.361948,20.536291,1.185592,-0.000000,1.000000,0.000000
45.498893,-15.379695,3.504424,0.000000,0.000000,1.000000
14.731284,-18.200815,3.504424,0.000000,-0.000000,1.000000
35.835071,-3.945286,3.504424,0.000000,0.000000,1.000000
14.135408,20.536291,-2.778667,-0.000000,1.000000,0.000000
-17.106221,-10.067155,-3.504424,0.000000,0.000000,-1.000000
-29.639368,-15.250082,3.504424,0.000000,0.000000,1.000000
-31.108908,-15.587490,3.504424,0.000000,0.000000,1.000000
-62.145457,6.110891,-3.504424,0.000000,0.000000,-1.000000
-16.607636,-20.536291,3.081313,0.000000,-1.000000,0.000000
-44.496050,-20.536291,1.631205,0.000000,-1.000000,0.000000
22.294865,-7.051550,3.504424,0.000000,0.000000,1.000000
2.450190,-16.404300,3.504424,0.000000,-0.000000,1.000000
-51.533068,16.571314,3.504424,0.000000,-0.000000,1.000000
9.336123,-12.012301,3.492452,-0.956940,0.290285,0.000000
-15.508685,18.171478,3.504424,0.000000,-0.000000,1.000000
-12.835113,-7.759717,-3.504424,0.000000,0.000000,-1.000000
-63.562322,18.364440,-3.504424,0.000000,0.000000,-1.000000
19.073823,0.724023,-3.504424,0.000000,0.000000,-1.000000
-12.982875,-20.536291,2.844400,0.000000,-1.000000,0.000000
-34.264006,5.392673,3.504424,0.000000,-0.000000,1.000000
9.508590,6.188686,-3.504424,0.000000,-0.000000,-1.000000
42.780895,7.920768,3.504424,0.000000,0.000000,1.000000
14.223653,0.075760,-3.504424,0.000000,0.000000,-1.000000
-45.890659,-20.536291,-1.959434,0.000000,-1.000000,0.000000
25.244149,-2.180841,3.504424,0.000000,0.000000,1.000000
64.706848,-11.584615,-3.042428,1.000000,0.000000,-0.000000
-52.672391,18.974266,-3.504424,0.000000,-0.000000,-1.000000
7.887199,-1.372276,3.504424,0.000000,0.000000,1.000000
-50.842049,3.222840,-3.504424,0.000000,0.000000,-1.000000
-36.464216,-20.536291,1.181427,0.000000,-1.000000,0.000000
58.889832,-1.312224,3.504424,0.000000,-0.000000,1.000000
24.941609,-13.109588,-3.504424,0.000000,0.000000,-1.000000
9.582696,-10.541879,0.714774,-0.995185,-0.098016,0.000000
-7.952459,13.707344,-3.504424,0.000000,-0.000000,-1.000000
49.013708,-5.337580,-3.504424,0.000000,0.000000,-1.000000
44.133722,-10.810556,-3.504424,0.000000,0.000000,-1.000000
47.806396,-4.513127,3.025218,0.098017,0.995185,0.000000
-4.768128,-8.969900,3.504424,0.000000,0.000000,1.000000
33.075686,-4.541557,-3.504424,0.000000,0.000000,-1.000000
51.484585,-0.569187,-0.792406,-0.995185,-0.098016,0.000000
-50.233499,-19.696469,-3.504424,0.000000,0.000000,-1.000000
36.404648,19.769144,3.504424,0.000000,-0.000000,1.000000
16.822657,4.636319,-3.504424,0.000000,-0.000000,-1.000000
58.475805,0.871734,3.504424,0.000000,-0.000000,1.000000
29.512567,20.536291,-1.835067,-0.000000,1.000000,0.000000
-53.560427,7.718487,3.504424,0.000000,-0.000000,1.000000
2.192061,-11.977992,-3.504424,0.000000,0.000000,-1.000000
52.613384,20.536291,-2.570385,-0.000000,1.000000,0.000000
54.485780,13.472323,3.504424,0.000000,0.000000,1.000000
31.486818,8.824292,-3.504424,0.000000,-0.000000,-1.000000
-60.852869,-20.536291,1.535334,0.000000,-1.000000,0.000000
35.107338,-17.906797,-3.504424,0.000000,0.000000,-1.000000
-0.481364,18.624696,3.504424,0.000000,-0.000000,1.000000
-64.706848,1.843700,-1.344510,-1.000000,0.000000,0.000000
24.748648,1.887668,3.504424,0.000000,0.000000,1.000000
33.570846,-12.696297,-3.504424,-0.000000,-0.000000,-1.000000
57.632874,8.645129,-3.504424,0.000000,0.000000,-1.000000
58.678301,5.483377,-3.504424,0.000000,0.000000,-1.000000
-2.962486,6.268323,3.504424,0.000000,-0.000000,1.000000
-64.217718,20.001599,3.504424,0.000000,-0.000000,1.000000
37.790688,14.369854,-3.504424,0.000000,-0.000000,-1.000000
-39.802592,-9.958513,3.504424,0.000000,-0.000000,1.000000
39.991362,11.409046,3.504424,0.000000,0.000000,1.000000
-11.741486,9.714051,3.504424,0.000000,-0.000000,1.000000
62.883980,15.758287,3.504424,0.000000,-0.000000,1.000000
7.486624,-7.373930,1.770026,-0.471397,-0.881921,-0.000000
63.392578,-19.162944,3.504424,0.000000,0.000000,1.000000
-30.296969,-11.419015,-3.504424,0.000000,0.000000,-1.000000
37.700088,-0.461987,3.504424,0.000000,0.000000,1.000000
-35.342536,20.536291,-2.562535,-0.000000,1.000000,0.000000
-34.301806,-4.151943,3.504424,0.000000,-0.000000,1.000000
30.165142,9.313805,-3.504424,0.000000,-0.000000,-1.000000
-50.379465,-18.715591,3.504424,0.000000,-0.000000,1.000000
-14.724617,-11.057091,-3.504424,0.000000,0.000000,-1.000000
-2.335384,12.681605,-3.504424,0.000000,-0.000000,-1.000000
-60.116725,-3.803539,3.504424,0.000000,-0.000000,1.000000
30.235206,8.385234,-3.504424,0.000000,-0.000000,-1.000000
13.047341,20.536291,0.602945,-0.000000,1.000000,0.000000
10.484314,14.669189,3.504424,0.000000,-0.000000,1.000000
-42.083093,17.063532,-3.504424,0.000000,-0.000000,-1.000000
-10.568651,-11.501982,-3.504424,0.000000,0.000000,-1.000000
54.356517,-20.536291,-2.482061,0.000000,-1.000000,0.000000
23.013344,11.875411,-3.504424,0.000000,-0.000000,-1.000000
11.756283,-11.316225,3.504424,0.000000,0.000000,1.000000
10.680319,1.323866,3.504424,0.000000,0.000000,1.000000
-61.553883,-13.737881,3.504424,0.000000,-0.000000,1.000000
-43.765088,-1.557545,-3.504424,0.000000,0.000000,-1.000000
3.518397,-4.008455,-3.504424,-0.000000,-0.000000,-1.000000
-38.289261,10.043966,-3.504424,0.000000,-0.000000,-1.000000
32.842988,-19.811376,3.504424,0.000000,-0.000000,1.000000
17.840494,-14.541652,3.504424,0.000000,0.000000,1.000000
-13.975976,14.322465,3.504424,0.000000,-0.000000,1.000000
-58.567325,4.424226,3.504424,0.000000,-0.000000,1.000000
43.935520,20.536291,0.836036,-0.000000,1.000000,0.000000
61.980428,-11.399862,3.504424,0.000000,-0.000000,1.000000
22.397689,12.058133,3.504424,0.000000,-0.000000,1.000000
55.748960,-20.536291,-0.325357,0.000000,-1.000000,0.000000
27.595422,1.909877,3.504424,0.000000,0.000000,1.000000
-11.979077,11.220855,-3.504424,0.000000,-0.000000,-1.000000
55.662286,20.536291,-0.358209,-0.000000,1.000000,0.000000
19.537036,-4.437480,3.504424,0.000000,0.000000,1.000000
52.523816,15.069381,-3.504424,0.000000,-0.000000,-1.000000
32.962249,0.050411,3.504424,0.000000,0.000000,1.000000
20.643146,-20.536291,1.715218,0.000000,-1.000000,0.000000
-32.258017,-14.979699,-3.504424,0.000000,0.000000,-1.000000
-52.531924,9.497084,-3.504424,0.000000,0.000000,-1.000000
31.513342,-20.536291,0.191098,0.000000,-1.000000,0.000000
16.781093,19.108208,3.504424,0.000000,-0.000000,1.000000
-16.114834,20.536291,3.312777,0.000000,1.000000,0.000000
45.837870,15.903231,-3.504424,0.000000,-0.000000,-1.000000
-3.035322,-5.276574,3.504424,0.000000,0.000000,1.000000
-64.706848,-10.182634,0.591142,-1.000000,0.000000,0.000000
