x,y,z,nx,ny,nz
11.630398,-7.711744,1.398221,0.000000,-0.000000,1.000000
5.352331,10.986839,1.398221,0.000000,0.000000,1.000000
9.802417,-1.733348,-1.228358,-0.989177,0.146730,0.000000
-12.362490,-0.373411,-1.398221,-0.000000,-0.000000,-1.000000
-14.261046,10.663460,-1.398221,-0.000000,-0.000000,-1.000000
-5.523358,-8.290597,0.266325,0.514103,0.857729,0.000000
-13.986765,11.646791,-0.593258,-0.740951,0.671559,0.000000
-10.056901,-12.702421,-1.398221,0.000000,-0.000000,-1.000000
-12.873784,-12.874684,0.435359,-0.671559,-0.740951,0.000000
16.180171,7.352337,1.398221,0.000000,0.000000,1.000000
9.218796,12.613198,1.398221,0.000000,0.000000,1.000000
7.937542,-6.262606,1.398221,-0.000000,-0.000000,1.000000
-12.368513,13.164606,1.398221,0.000000,0.000000,1.000000
-13.135063,0.580132,1.398221,0.000000,0.000000,1.000000
12.214535,6.150735,1.398221,0.000000,-0.000000,1.000000
-7.786851,6.584080,-1.398221,-0.000000,0.000000,-1.000000
-12.055845,-9.473635,1.398221,-0.000000,0.000000,1.000000
-0.240508,14.831069,1.398221,0.000000,0.000000,1.000000
-16.699879,2.438902,1.398221,-0.000000,0.000000,1.000000
-1.148141,18.129610,1.398221,0.000000,0.000000,1.000000
-12.059744,1.333374,-1.398221,-0.000000,-0.000000,-1.000000
6.614346,-16.947385,0.439460,0.336890,-0.941544,0.000000
-2.841129,14.363474,-1.398221,-0.000000,0.000000,-1.000000
-14.226807,10.907642,1.398221,0.000000,0.000000,1.000000
-16.183802,8.314795,-0.276249,-0.903989,0.427555,0.000000
13.954136,-1.841554,1.398221,0.000000,-0.000000,1.000000
-3.962691,14.172745,-1.398221,-0.000000,-0.000000,-1.000000
-10.122803,6.839913,-1.398221,-0.000000,-0.000000,-1.000000
-10.616432,-14.766812,-0.673112,-0.595699,-0.803208,0.000000
-6.364803,-9.027164,-1.398221,0.000000,-0.000000,-1.000000
-2.659265,-14.151100,1.398221,-0.000000,-0.000000,1.000000
-6.421448,-9.675615,1.398221,-0.000000,0.000000,1.000000
9.929281,8.860433,-1.398221,0.000000,0.000000,-1.000000
-0.932673,14.671633,-1.398221,-0.000000,0.000000,-1.000000
2.031374,16.833177,1.398221,0.000000,0.000000,1.000000
1.581674,-13.333848,1.398221,0.000000,-0.000000,1.000000
-15.081590,0.060509,-1.398221,-0.000000,-0.000000,-1.000000
-8.147172,-9.080418,1.398221,-0.000000,0.000000,1.000000
-12.704191,-1.449896,1.398221,-0.000000,0.000000,1.000000
10.259999,-12.326053,-1.398221,0.000000,0.000000,-1.000000
9.967741,-7.116628,-1.398221,0.000000,0.000000,-1.000000
-11.921313,9.858483,1.398221,0.000000,0.000000,1.000000
10.377681,2.179260,-1.398221,0.000000,0.000000,-1.000000
-6.041019,-9.015625,-1.398221,0.000000,-0.000000,-1.000000
-15.763230,9.072978,-0.020161,-0.857729,0.514103,0.000000
18.186555,-0.415090,-1.343935,0.998795,-0.049068,0.000000
3.862293,17.037272,-1.398221,-0.000000,0.000000,-1.000000
-11.989842,6.042232,-1.398221,-0.000000,0.000000,-1.000000
13.896877,11.745967,1.302527,0.740951,0.671559,-0.000000
9.557576,11.008542,1.398221,0.000000,-0.000000,1.000000
-13.720496,11.940574,-0.081377,-0.740951,0.671559,0.000000
-17.436841,5.229790,1.262106,-0.970031,0.242980,0.000000
-10.300985,-11.844358,1.398221,-0.000000,0.000000,1.000000
12.327896,-8.763532,1.398221,0.000000,-0.000000,1.000000
-8.785453,11.939498,-1.398221,-0.000000,-0.000000,-1.000000
-7.747511,15.136064,-1.398221,-0.000000,-0.000000,-1.000000
-8.950136,10.823077,-1.398221,-0.000000,0.000000,-1.000000
4.543721,12.333438,1.398221,0.000000,0.000000,1.000000
-15.554404,-4.757892,-1.398221,0.000000,-0.000000,-1.000000
2.553226,9.860628,1.398221,0.000000,-0.000000,1.000000
-2.961885,10.823828,1.398221,0.000000,0.000000,1.000000
11.290524,5.359935,1.398221,0.000000,-0.000000,1.000000
-0.043077,-15.420324,-1.398221,0.000000,-0.000000,-1.000000
-10.292948,-14.518047,1.398221,-0.000000,0.000000,1.000000
-8.723214,13.518628,1.398221,0.000000,0.000000,1.000000
17.141596,-5.090066,-1.398221,0.000000,0.000000,-1.000000
-12.308906,-13.386659,0.215880,-0.671559,-0.740951,0.000000
-17.397547,0.231406,-1.398221,-0.000000,-0.000000,-1.000000
-5.459465,12.438873,-1.398221,-0.000000,0.000000,-1.000000
-7.685169,-16.481592,1.281464,-0.427555,-0.903989,0.000000
-10.484707,-14.864506,-0.787134,-0.595699,-0.803208,0.000000
-11.897791,4.276717,-1.398221,-0.000000,0.000000,-1.000000
0.197497,-16.260881,-1.398221,0.000000,-0.000000,-1.000000
-16.890287,-2.090413,-1.398221,0.000000,-0.000000,-1.000000
-1.397825,-15.078985,1.398221,-0.000000,-0.000000,1.000000
8.918100,-14.577082,-1.398221,0.000000,0.000000,-1.000000
-9.765060,14.990445,1.398221,0.000000,0.000000,1.000000
-5.219836,14.847763,-1.398221,-0.000000,-0.000000,-1.000000
-12.010342,9.811066,-1.398221,-0.000000,0.000000,-1.000000
14.768258,-10.614484,0.347489,0.803208,-0.595699,0.000000
-10.275848,6.893453,-1.398221,-0.000000,-0.000000,-1.000000
-14.416733,-8.165077,1.398221,-0.000000,0.000000,1.000000
9.595690,-13.966571,-1.398221,0.000000,0.000000,-1.000000
-4.936410,12.296676,1.398221,0.000000,0.000000,1.000000
4.740602,8.759763,-0.128720,-0.514103,-0.857729,-0.000000
-0.260188,14.737108,-1.398221,-0.000000,0.000000,-1.000000
-15.121011,10.138850,-0.541650,-0.803208,0.595699,0.000000
-5.135567,15.488831,-1.398221,-0.000000,-0.000000,-1.000000
1.084481,14.120762,-1.398221,0.000000,0.000000,-1.000000
7.177356,-6.898256,-1.242193,-0.740951,0.671559,0.000000
-9.676847,-15.401285,0.079420,-0.514103,-0.857729,0.000000
-16.892180,6.768635,-0.435496,-0.941544,0.336890,0.000000
15.229936,9.962725,0.330270,0.857729,0.514103,-0.000000
-8.665486,-12.253023,-1.398221,0.000000,-0.000000,-1.000000
7.585484,16.528740,-0.590181,0.427555,0.903989,0.000000
-11.850312,-12.006392,-1.398221,0.000000,-0.000000,-1.000000
-4.624066,12.559295,-1.398221,-0.000000,-0.000000,-1.000000
-6.205794,-17.093568,1.241144,-0.336890,-0.941544,0.000000
15.494239,8.367925,-1.398221,-0.000000,0.000000,-1.000000
15.771248,9.059601,1.312232,0.857729,0.514103,-0.000000
-0.055880,13.473014,-1.398221,-0.000000,0.000000,-1.000000
17.774656,-3.881157,0.714807,0.970031,-0.242980,0.000000
-8.637528,4.944538,0.719946,0.857729,-0.514103,0.000000
-11.961702,13.701347,0.758484,-0.671559,0.740951,0.000000
11.607565,-0.404975,-1.398221,0.000000,0.000000,-1.000000
-17.789769,-1.900423,-1.398221,0.000000,-0.000000,-1.000000
0.538994,-17.476547,-1.398221,0.000000,0.000000,-1.000000
-1.253812,9.873549,0.389785,0.146730,-0.989177,0.000000
4.209888,9.016364,-1.001158,-0.427555,-0.903989,-0.000000
-8.378989,5.375884,-1.043030,0.857729,-0.514103,0.000000
11.374517,14.204578,0.564588,0.595699,0.803208,0.000000
8.200308,7.185320,1.398221,0.000000,-0.000000,1.000000
-2.740001,15.547851,-1.398221,-0.000000,0.000000,-1.000000
0.016411,9.961850,-0.214968,-0.049068,-0.998795,-0.000000
15.554836,-6.116144,1.398221,0.000000,-0.000000,1.000000
-11.116348,9.447276,1.398221,0.000000,0.000000,1.000000
2.498973,9.653573,1.398221,0.000000,-0.000000,1.000000
-9.104908,-4.022678,0.118835,0.903989,0.427555,0.000000
16.118254,-8.453384,1.153377,0.903989,-0.427555,0.000000
-17.958926,2.865586,-0.003742,-0.989177,0.146730,0.000000
16.215047,3.391389,-1.398221,0.000000,0.000000,-1.000000
-15.907410,-2.332974,-1.398221,0.000000,-0.000000,-1.000000
14.384376,1.189045,-1.398221,0.000000,0.000000,-1.000000
7.055407,10.692018,1.398221,0.000000,0.000000,1.000000
17.759841,-3.940301,0.810519,0.970031,-0.242980,0.000000
17.444301,-5.200010,-0.942105,0.970031,-0.242980,0.000000
-13.871669,11.773780,-0.990539,-0.740951,0.671559,0.000000
-6.206037,-7.785937,-1.267473,0.595699,0.803208,0.000000
-17.633882,-3.851166,-1.398221,0.000000,-0.000000,-1.000000
14.391441,-6.960802,-1.398221,0.000000,0.000000,-1.000000
-15.351527,9.759863,-0.636193,-0.857729,0.514103,0.000000
-3.772500,-9.305567,-1.398221,0.000000,-0.000000,-1.000000
-8.776762,-7.957251,-1.398221,0.000000,-0.000000,-1.000000
5.686571,-8.171200,0.008868,-0.595699,0.803208,0.000000
-17.570315,-4.696933,0.373885,-0.970031,-0.242980,0.000000
-11.634303,12.042537,-1.398221,-0.000000,-0.000000,-1.000000
-9.109425,4.013126,0.190054,0.903989,-0.427555,0.000000
-13.689918,1.024307,-1.398221,-0.000000,0.000000,-1.000000
9.954736,-7.788487,-1.398221,0.000000,0.000000,-1.000000
15.072342,7.296954,-1.398221,-0.000000,0.000000,-1.000000
-13.092821,1.828046,-1.398221,-0.000000,-0.000000,-1.000000
-17.455108,-0.404116,-1.398221,0.000000,-0.000000,-1.000000
-1.349736,-18.140639,-1.028348,-0.049068,-0.998795,0.000000
15.716140,-8.370924,1.398221,0.000000,-0.000000,1.000000
8.779265,-4.744703,1.398221,-0.000000,-0.000000,1.000000
14.258168,-11.302260,-0.449821,0.803208,-0.595699,0.000000
-10.815926,9.718063,-1.398221,-0.000000,-0.000000,-1.000000
9.257871,-4.340626,1.398221,-0.000000,-0.000000,1.000000
-4.625470,15.118799,-1.398221,-0.000000,0.000000,-1.000000
9.599738,-13.931349,-1.398221,0.000000,0.000000,-1.000000
-16.192443,-2.172214,1.398221,-0.000000,0.000000,1.000000
-14.986169,-3.784007,1.398221,-0.000000,0.000000,1.000000
8.752875,8.406300,1.398221,0.000000,-0.000000,1.000000
-8.498717,13.542287,-1.398221,-0.000000,-0.000000,-1.000000
13.361156,0.934674,1.398221,0.000000,-0.000000,1.000000
-14.529472,0.229919,-1.398221,-0.000000,-0.000000,-1.000000
17.924956,3.094593,0.710386,0.989177,0.146730,-0.000000
1.430365,-10.159485,1.398221,-0.000000,-0.000000,1.000000
0.946682,-10.011930,1.398221,-0.000000,-0.000000,1.000000
-13.758067,5.425479,-1.398221,-0.000000,0.000000,-1.000000
-8.316340,-15.101249,-1.398221,0.000000,-0.000000,-1.000000
13.424709,1.583389,1.398221,0.000000,0.000000,1.000000
2.901676,-17.953572,-0.237286,0.146730,-0.989177,0.000000
-9.630516,2.505363,0.349697,0.970031,-0.242980,0.000000
-9.365862,5.140058,-1.398221,-0.000000,-0.000000,-1.000000
-1.059618,11.828250,1.398221,0.000000,0.000000,1.000000
3.433425,9.580429,1.398221,0.000000,-0.000000,1.000000
-13.207908,5.849630,-1.398221,-0.000000,-0.000000,-1.000000
-12.645644,-1.736966,-1.398221,-0.000000,-0.000000,-1.000000
-17.686715,-2.866297,-1.398221,0.000000,-0.000000,-1.000000
16.645724,4.181767,-1.398221,-0.000000,0.000000,-1.000000
-8.892233,-12.506210,1.398221,-0.000000,0.000000,1.000000
-7.557505,15.130992,-1.398221,-0.000000,-0.000000,-1.000000
14.524266,-3.489208,1.398221,0.000000,-0.000000,1.000000
-9.532860,-12.252550,-1.398221,0.000000,-0.000000,-1.000000
1.915045,12.666071,-1.398221,0.000000,0.000000,-1.000000
-3.938474,-13.689161,1.398221,-0.000000,0.000000,1.000000
-1.105039,14.693928,-1.398221,-0.000000,0.000000,-1.000000
4.619895,-9.696652,-1.398221,0.000000,0.000000,-1.000000
8.113622,7.135212,1.398221,0.000000,-0.000000,1.000000
-5.631194,16.587170,-1.398221,-0.000000,-0.000000,-1.000000
11.519762,14.096857,0.840402,0.595699,0.803208,0.000000
-7.422464,-6.627820,0.349279,0.740951,0.671559,0.000000
13.884017,11.760156,-1.033423,0.740951,0.671559,0.000000
6.472452,-12.254281,1.398221,-0.000000,-0.000000,1.000000
11.358992,3.448593,1.398221,0.000000,0.000000,1.000000
-9.898091,9.381265,1.398221,0.000000,0.000000,1.000000
-7.458583,-11.169622,1.398221,-0.000000,0.000000,1.000000
9.729450,2.110399,-0.902157,-0.970031,-0.242980,0.000000
-2.675454,9.587911,0.359133,0.242980,-0.970031,0.000000
9.938350,-0.494759,0.422531,-0.998795,0.049068,0.000000
1.716909,-18.122601,-1.163607,0.049068,-0.998795,0.000000
-3.997349,16.606462,1.398221,0.000000,0.000000,1.000000
2.616652,17.995852,0.038688,0.146730,0.989177,-0.000000
-16.843773,1.957337,-1.398221,-0.000000,-0.000000,-1.000000
-0.383908,-10.312998,1.398221,-0.000000,0.000000,1.000000
-17.748481,3.985653,0.770243,-0.970031,0.242980,0.000000
-14.640049,-10.787353,0.907293,-0.803208,-0.595699,0.000000
-6.859225,-16.859766,0.711515,-0.336890,-0.941544,0.000000
6.316416,-7.704075,0.001898,-0.595699,0.803208,0.000000
16.885469,6.787390,-0.697593,0.941544,0.336890,-0.000000
0.067188,9.972233,-1.398221,0.000000,0.000000,-1.000000
-3.116508,16.162899,1.398221,0.000000,0.000000,1.000000
0.249467,17.889983,-1.398221,-0.000000,0.000000,-1.000000
-0.236754,-17.505168,-1.398221,0.000000,-0.000000,-1.000000
-16.967549,3.592966,-1.398221,-0.000000,-0.000000,-1.000000
6.998479,-16.806373,0.180087,0.427555,-0.903989,0.000000
7.846947,-9.321836,1.398221,0.000000,-0.000000,1.000000
8.847455,15.898403,1.054533,0.514103,0.857729,-0.000000
-2.734244,-9.573185,-1.096273,0.242980,0.970031,0.000000
-15.395282,-8.575445,1.398221,-0.000000,0.000000,1.000000
-8.563720,6.432081,1.398221,0.000000,0.000000,1.000000
0.404438,-9.942787,-0.858263,-0.049068,0.998795,0.000000
1.669490,-9.811889,0.346803,-0.146730,0.989177,0.000000
-4.836939,16.950894,1.398221,0.000000,0.000000,1.000000
-17.761396,-0.101800,-1.398221,0.000000,-0.000000,-1.000000
-11.624771,-14.006723,0.601477,-0.671559,-0.740951,0.000000
0.638766,-10.861238,-1.398221,0.000000,-0.000000,-1.000000
13.584088,7.290718,-1.398221,0.000000,0.000000,-1.000000
1.030768,11.110172,1.398221,0.000000,0.000000,1.000000
-11.087832,8.066474,1.398221,0.000000,0.000000,1.000000
-13.532985,1.796499,-1.398221,-0.000000,-0.000000,-1.000000
11.092970,14.413388,0.027459,0.595699,0.803208,0.000000
11.647197,-13.986397,-0.729583,0.671559,-0.740951,0.000000
5.647625,-12.340296,1.398221,0.000000,-0.000000,1.000000
8.429203,11.137487,1.398221,0.000000,0.000000,1.000000
-7.541118,-12.436103,1.398221,-0.000000,0.000000,1.000000
9.224296,10.402248,1.398221,0.000000,0.000000,1.000000
10.740441,1.232548,1.398221,0.000000,0.000000,1.000000
-9.626060,8.166379,1.398221,0.000000,0.000000,1.000000
-2.248928,12.762820,-1.398221,-0.000000,0.000000,-1.000000
-11.837286,-10.884908,1.398221,-0.000000,0.000000,1.000000
8.546361,-13.376282,1.398221,0.000000,-0.000000,1.000000
1.511909,-18.132672,-1.162805,0.049068,-0.998795,0.000000
16.591787,-7.452182,-1.028347,0.903989,-0.427555,0.000000
-15.779610,9.045649,0.367226,-0.857729,0.514103,0.000000
-9.643875,-2.452034,0.136117,0.970031,0.242980,0.000000
-8.093773,-13.380833,-1.398221,0.000000,-0.000000,-1.000000
10.136153,-14.580161,1.398221,0.000000,-0.000000,1.000000
3.546293,-16.078132,-1.398221,0.000000,0.000000,-1.000000
-18.051569,2.241036,-1.349918,-0.989177,0.146730,0.000000
-8.264526,12.975499,1.398221,0.000000,0.000000,1.000000
-9.210698,14.348019,1.398221,0.000000,0.000000,1.000000
-9.947891,-0.300539,-0.373146,0.998795,0.049068,0.000000
10.956553,0.330844,1.398221,0.000000,-0.000000,1.000000
-14.195207,2.993037,1.398221,0.000000,0.000000,1.000000
-8.394108,-14.583548,-1.398221,0.000000,-0.000000,-1.000000
-6.892914,-7.182197,-1.333569,0.671559,0.740951,0.000000
8.885078,-9.348100,-1.398221,0.000000,0.000000,-1.000000
-13.767326,10.154259,-1.398221,-0.000000,-0.000000,-1.000000
17.175185,5.977690,-0.653503,0.941544,0.336890,0.000000
17.958023,2.871670,1.011177,0.989177,0.146730,-0.000000
8.142656,-6.186801,1.398221,-0.000000,-0.000000,1.000000
18.073398,1.407188,1.398221,0.000000,0.000000,1.000000
11.902909,3.003953,1.398221,0.000000,-0.000000,1.000000
-12.749162,-8.057896,1.398221,-0.000000,0.000000,1.000000
14.964382,0.981393,1.398221,0.000000,0.000000,1.000000
-1.223614,-18.146835,0.634008,-0.049068,-0.998795,0.000000
-17.667973,4.307062,-0.991530,-0.970031,0.242980,0.000000
9.922243,15.197685,1.398221,0.000000,0.000000,1.000000
16.432133,-4.506201,1.398221,0.000000,-0.000000,1.000000
-10.833488,4.682829,-1.398221,-0.000000,-0.000000,-1.000000
11.120165,-5.338987,-1.398221,0.000000,0.000000,-1.000000
5.339958,16.800035,1.398221,0.000000,0.000000,1.000000
0.269868,-16.840683,-1.398221,0.000000,0.000000,-1.000000
4.326172,9.354380,-1.398221,0.000000,0.000000,-1.000000
-2.415588,9.653004,-1.226118,0.242980,-0.970031,0.000000
-3.212143,-10.105380,-1.398221,0.000000,-0.000000,-1.000000
9.810678,-12.844488,1.398221,0.000000,-0.000000,1.000000
-1.918322,-16.529220,1.398221,-0.000000,-0.000000,1.000000
14.527062,-10.939698,-0.714547,0.803208,-0.595699,0.000000
-3.576176,14.667870,1.398221,0.000000,0.000000,1.000000
11.413969,-14.175319,0.096203,0.595699,-0.803208,0.000000
-1.714314,11.390457,-1.398221,-0.000000,0.000000,-1.000000
-8.512870,-12.318509,1.398221,-0.000000,0.000000,1.000000
8.767494,-9.626708,1.398221,-0.000000,-0.000000,1.000000
13.927777,6.668406,-1.398221,-0.000000,0.000000,-1.000000
1.427590,18.136814,0.473550,0.049068,0.998795,0.000000
-13.901326,-7.115856,-1.398221,0.000000,-0.000000,-1.000000
7.746023,-6.259855,0.164141,-0.803208,0.595699,0.000000
8.029959,-16.318519,-1.324851,0.427555,-0.903989,0.000000
0.805320,9.923093,1.263625,-0.049068,-0.998795,0.000000
-10.322030,14.020681,-1.398221,-0.000000,-0.000000,-1.000000
-0.225138,13.588784,-1.398221,-0.000000,0.000000,-1.000000
10.240878,10.354533,-1.398221,0.000000,0.000000,-1.000000
-10.458507,-12.626856,-1.398221,0.000000,-0.000000,-1.000000
9.874199,2.434196,-1.398221,0.000000,0.000000,-1.000000
16.610070,-3.307344,-1.398221,0.000000,0.000000,-1.000000
-12.073056,-8.703041,-1.398221,0.000000,-0.000000,-1.000000
10.694011,-14.114138,-1.398221,0.000000,0.000000,-1.000000
-10.120911,14.714473,-1.398221,-0.000000,-0.000000,-1.000000
13.693508,9.448637,1.398221,0.000000,0.000000,1.000000
0.346032,11.233176,-1.398221,0.000000,0.000000,-1.000000
-8.194869,8.978149,-1.398221,-0.000000,0.000000,-1.000000
13.945889,8.453606,-1.398221,-0.000000,0.000000,-1.000000
10.409176,-5.869469,-1.398221,0.000000,0.000000,-1.000000
16.706061,-7.210570,-0.440495,0.903989,-0.427555,0.000000
-10.514445,-10.366078,1.398221,-0.000000,0.000000,1.000000
-13.553694,0.372281,1.398221,0.000000,0.000000,1.000000
17.943216,-2.971495,0.071721,0.989177,-0.146730,0.000000
-14.275073,7.543245,1.398221,0.000000,0.000000,1.000000
4.613006,-8.825703,-0.645703,-0.427555,0.903989,0.000000
6.023961,10.728351,1.398221,0.000000,-0.000000,1.000000
-8.086265,9.333672,1.398221,0.000000,0.000000,1.000000
-17.427440,4.929631,1.398221,0.000000,0.000000,1.000000
-16.903196,-6.737846,1.167752,-0.941544,-0.336890,0.000000
0.966361,18.159473,0.407038,0.049068,0.998795,-0.000000
-12.558173,7.263274,-1.398221,-0.000000,-0.000000,-1.000000
1.228067,-13.360814,1.398221,-0.000000,-0.000000,1.000000
9.948483,-4.173249,1.398221,-0.000000,-0.000000,1.000000
-15.180591,-6.628241,1.398221,-0.000000,0.000000,1.000000
9.540387,-2.865179,-0.825720,-0.970031,0.242980,0.000000
-8.159400,-8.904753,-1.398221,0.000000,-0.000000,-1.000000
-7.664515,6.360759,0.255819,0.740951,-0.671559,0.000000
6.723038,-7.519369,1.398221,-0.000000,-0.000000,1.000000
15.425792,-9.635959,-1.185184,0.857729,-0.514103,0.000000
17.740123,-3.805579,-1.398221,0.000000,0.000000,-1.000000
14.623598,1.987810,1.398221,0.000000,0.000000,1.000000
-2.298282,16.207123,-1.398221,-0.000000,0.000000,-1.000000
13.530337,6.791697,1.398221,0.000000,0.000000,1.000000
-5.733988,17.262382,0.850166,-0.336890,0.941544,0.000000
6.220665,16.192751,1.398221,0.000000,0.000000,1.000000
-8.767421,-9.892715,-1.398221,0.000000,-0.000000,-1.000000
-3.107554,15.332387,1.398221,0.000000,0.000000,1.000000
6.485084,13.833491,-1.398221,-0.000000,0.000000,-1.000000
-13.271305,12.436180,-1.026410,-0.740951,0.671559,0.000000
-3.369143,-17.364970,-1.398221,0.000000,-0.000000,-1.000000
-1.967860,12.556002,-1.398221,-0.000000,0.000000,-1.000000
-15.381448,-8.980954,-1.398221,0.000000,-0.000000,-1.000000
12.772178,5.013838,-1.398221,-0.000000,0.000000,-1.000000
-14.203057,-6.995441,-1.398221,0.000000,-0.000000,-1.000000
5.840210,11.582541,-1.398221,0.000000,0.000000,-1.000000
-11.108360,-12.577512,1.398221,-0.000000,0.000000,1.000000
-3.275224,12.290316,1.398221,0.000000,0.000000,1.000000
1.916151,15.900453,1.398221,0.000000,0.000000,1.000000
7.648029,6.378948,-0.885891,-0.740951,-0.671559,0.000000
8.667906,-4.893855,-0.568555,-0.857729,0.514103,0.000000
-11.153454,8.951745,1.398221,0.000000,0.000000,1.000000
-7.141979,-13.685169,1.398221,-0.000000,0.000000,1.000000
-0.252426,10.478224,-1.398221,-0.000000,0.000000,-1.000000
-4.460899,8.897645,-0.412011,0.427555,-0.903989,0.000000
-16.512259,5.303924,-1.398221,-0.000000,-0.000000,-1.000000
-5.522040,8.291387,0.108341,0.514103,-0.857729,0.000000
1.704966,17.392919,-1.398221,0.000000,0.000000,-1.000000
-15.197242,9.082021,-1.398221,-0.000000,-0.000000,-1.000000
-10.299548,2.948658,-1.398221,-0.000000,0.000000,-1.000000
-8.759355,-8.460379,1.398221,-0.000000,0.000000,1.000000
-17.311671,-5.596236,-0.537593,-0.941544,-0.336890,0.000000
12.698226,-13.033800,1.267981,0.671559,-0.740951,0.000000
4.120722,14.714831,-1.398221,0.000000,0.000000,-1.000000
2.778857,11.906250,1.398221,0.000000,-0.000000,1.000000
1.499294,15.871655,-1.398221,0.000000,0.000000,-1.000000
-1.686645,-16.780169,-1.398221,0.000000,-0.000000,-1.000000
-10.347373,6.758686,-1.398221,-0.000000,0.000000,-1.000000
0.835000,16.216399,1.398221,0.000000,0.000000,1.000000
-11.497032,11.319721,1.398221,0.000000,0.000000,1.000000
-9.336846,-8.238945,1.398221,-0.000000,0.000000,1.000000
14.964061,-10.350473,-0.737168,0.803208,-0.595699,0.000000
-9.913169,-12.699299,-1.398221,0.000000,-0.000000,-1.000000
7.328004,-14.533541,-1.398221,0.000000,0.000000,-1.000000
7.646212,11.371722,1.398221,0.000000,-0.000000,1.000000
-2.945816,-17.947025,1.261030,-0.146730,-0.989177,0.000000
-18.204282,-0.054252,0.926084,-0.998795,-0.049068,0.000000
17.735343,2.857009,-1.398221,0.000000,0.000000,-1.000000
-2.500157,-13.903864,1.398221,-0.000000,-0.000000,1.000000
-8.613372,13.442296,-1.398221,-0.000000,-0.000000,-1.000000
6.210173,13.992277,1.398221,0.000000,0.000000,1.000000
-16.802393,5.829546,1.398221,0.000000,0.000000,1.000000
-13.723352,5.563371,1.398221,0.000000,0.000000,1.000000
-8.736559,-13.736795,-1.398221,0.000000,-0.000000,-1.000000
-10.362094,5.931784,1.398221,0.000000,0.000000,1.000000
-1.778249,9.795756,-0.439487,0.146730,-0.989177,0.000000
-0.623235,-13.913492,1.398221,-0.000000,-0.000000,1.000000
-16.715885,-2.996342,1.398221,-0.000000,0.000000,1.000000
4.848173,8.914774,-1.398221,0.000000,0.000000,-1.000000
17.539202,-4.821143,0.971936,0.970031,-0.242980,0.000000
-10.418322,14.913741,1.314198,-0.595699,0.803208,0.000000
2.934460,-17.948709,-1.006960,0.146730,-0.989177,0.000000
-17.733845,-4.044082,0.291206,-0.970031,-0.242980,0.000000
14.398082,9.189134,1.398221,0.000000,0.000000,1.000000
-1.443830,-13.083652,1.398221,-0.000000,0.000000,1.000000
12.094212,13.004920,1.398221,0.000000,0.000000,1.000000
-0.536258,-13.700475,-1.398221,0.000000,-0.000000,-1.000000
-6.427143,7.604348,-1.296951,0.671559,-0.740951,0.000000
7.028670,-14.714046,1.398221,0.000000,-0.000000,1.000000
-17.634031,3.463721,-1.398221,-0.000000,-0.000000,-1.000000
15.217687,-8.669709,1.398221,0.000000,-0.000000,1.000000
13.331300,-12.369985,0.889029,0.740951,-0.671559,0.000000
-17.920393,-0.368323,1.398221,-0.000000,0.000000,1.000000
13.316361,11.936194,-1.398221,-0.000000,0.000000,-1.000000
11.246537,-11.866240,-1.398221,0.000000,0.000000,-1.000000
11.529204,2.336970,1.398221,0.000000,0.000000,1.000000
-7.734666,10.639389,-1.398221,-0.000000,0.000000,-1.000000
-15.721700,-1.101617,-1.398221,0.000000,-0.000000,-1.000000
-14.477073,10.067594,-1.398221,-0.000000,-0.000000,-1.000000
8.258151,11.084804,1.398221,0.000000,0.000000,1.000000
-9.798101,11.609436,1.398221,0.000000,0.000000,1.000000
-10.604565,11.037616,1.398221,0.000000,0.000000,1.000000
-4.977702,-16.179489,-1.398221,0.000000,-0.000000,-1.000000
16.591120,5.974977,1.398221,0.000000,0.000000,1.000000
7.570740,-9.044719,1.398221,0.000000,-0.000000,1.000000
8.575887,16.060314,-0.047070,0.427555,0.903989,0.000000
-5.147412,13.587386,-1.398221,-0.000000,-0.000000,-1.000000
3.702512,-14.488463,-1.398221,0.000000,0.000000,-1.000000
11.352144,14.221172,-0.474772,0.595699,0.803208,0.000000
-4.730601,16.466125,1.398221,0.000000,0.000000,1.000000
-8.987578,-4.270751,-0.622197,0.903989,0.427555,0.000000
2.387937,-15.206381,-1.398221,0.000000,0.000000,-1.000000
0.601027,9.933129,-0.749979,-0.049068,-0.998795,-0.000000
-5.681185,-17.281276,-0.031550,-0.336890,-0.941544,0.000000
-2.186614,14.964807,1.398221,0.000000,0.000000,1.000000
-1.658784,12.347261,-1.398221,-0.000000,0.000000,-1.000000
-12.077924,-9.372266,1.398221,-0.000000,0.000000,1.000000
8.477680,7.992910,-1.398221,-0.000000,0.000000,-1.000000
0.192096,-13.842492,1.398221,0.000000,-0.000000,1.000000
18.198245,0.177143,0.416182,0.998795,0.049068,0.000000
8.982262,-15.015091,1.398221,0.000000,-0.000000,1.000000
17.151851,-6.042902,0.846736,0.941544,-0.336890,0.000000
-7.850334,-6.119208,-0.674944,0.803208,0.595699,0.000000
-10.236687,-11.153605,1.398221,-0.000000,0.000000,1.000000
10.714928,14.693763,0.182503,0.595699,0.803208,-0.000000
7.110697,-11.262545,1.398221,-0.000000,-0.000000,1.000000
-5.125846,8.528856,-0.560819,0.514103,-0.857729,0.000000
7.905519,-14.420024,-1.398221,0.000000,0.000000,-1.000000
3.304711,-9.385999,-0.254149,-0.336890,0.941544,0.000000
7.145161,-16.736997,-0.038370,0.427555,-0.903989,0.000000
15.627321,8.607455,-1.398221,-0.000000,0.000000,-1.000000
5.457321,17.361376,0.498772,0.336890,0.941544,-0.000000
-5.771994,17.248784,1.178008,-0.336890,0.941544,0.000000
13.897210,3.107312,-1.398221,0.000000,0.000000,-1.000000
-15.751857,-9.091953,-1.309517,-0.857729,-0.514103,0.000000
-9.771630,-5.906483,-1.398221,0.000000,-0.000000,-1.000000
-14.434682,8.270919,1.398221,0.000000,0.000000,1.000000
-7.882447,15.390467,-1.398221,-0.000000,-0.000000,-1.000000
7.483590,-6.713871,-1.398221,0.000000,0.000000,-1.000000
13.668368,-0.329319,1.398221,0.000000,-0.000000,1.000000
-2.821547,-9.551317,1.323598,0.242980,0.970031,0.000000
-16.439839,0.176688,-1.398221,-0.000000,-0.000000,-1.000000
-11.077269,-9.827427,1.398221,-0.000000,0.000000,1.000000
7.965046,10.318169,-1.398221,0.000000,0.000000,-1.000000
-16.735947,-5.722123,-1.398221,0.000000,-0.000000,-1.000000
0.414519,16.366758,1.398221,0.000000,0.000000,1.000000
6.029761,-7.916673,0.070321,-0.595699,0.803208,0.000000
-5.906823,9.234329,1.398221,0.000000,0.000000,1.000000
-11.123061,-10.422746,1.398221,-0.000000,0.000000,1.000000
0.555955,9.935344,0.016604,-0.049068,-0.998795,0.000000
-0.001116,14.534614,-1.398221,-0.000000,0.000000,-1.000000
-7.000801,-9.349196,1.398221,-0.000000,0.000000,1.000000
-12.860175,3.828415,1.398221,0.000000,0.000000,1.000000
12.573888,4.741269,-1.398221,-0.000000,0.000000,-1.000000
-13.277148,-12.429733,0.609244,-0.740951,-0.671559,0.000000
-3.333830,-15.937423,-1.398221,0.000000,-0.000000,-1.000000
3.603476,-12.652025,-1.398221,0.000000,0.000000,-1.000000
10.645490,-8.415123,1.398221,0.000000,-0.000000,1.000000
-8.643397,6.722743,-1.398221,-0.000000,0.000000,-1.000000
12.243674,2.050514,-1.398221,0.000000,0.000000,-1.000000
4.438441,16.045996,1.398221,0.000000,0.000000,1.000000
15.259616,-9.913206,-1.281297,0.857729,-0.514103,0.000000
3.317145,-9.500852,-1.398221,0.000000,0.000000,-1.000000
-14.204240,-3.272372,-1.398221,0.000000,-0.000000,-1.000000
-6.086153,11.653075,-1.398221,-0.000000,-0.000000,-1.000000
-5.311877,8.417354,0.247820,0.514103,-0.857729,0.000000
-17.008438,4.954220,1.398221,0.000000,0.000000,1.000000
-2.685063,14.894150,1.398221,0.000000,0.000000,1.000000
9.701421,14.749623,1.398221,0.000000,0.000000,1.000000
3.962848,15.682429,1.398221,0.000000,0.000000,1.000000
10.856130,14.589040,0.200613,0.595699,0.803208,-0.000000
4.400608,-12.937010,1.398221,0.000000,-0.000000,1.000000
-9.776377,-1.908893,-0.744562,0.989177,0.146730,0.000000
-6.755267,11.245472,-1.398221,-0.000000,-0.000000,-1.000000
9.504611,-2.973213,-0.256172,-0.941544,0.336890,0.000000
-7.464868,-6.581035,-1.130828,0.740951,0.671559,0.000000
1.437807,16.613794,1.398221,0.000000,0.000000,1.000000
-10.027159,4.414300,-1.398221,-0.000000,0.000000,-1.000000
0.008542,12.863283,-1.398221,-0.000000,0.000000,-1.000000
-7.174827,-6.901046,-0.284848,0.740951,0.671559,0.000000
-14.149791,-8.996301,1.398221,-0.000000,0.000000,1.000000
-9.553758,2.811802,0.253369,0.970031,-0.242980,0.000000
0.518338,11.176064,-1.398221,0.000000,0.000000,-1.000000
-2.777564,17.079545,1.398221,0.000000,0.000000,1.000000
11.285813,5.517344,-1.398221,-0.000000,0.000000,-1.000000
7.227680,-6.886395,1.398221,-0.000000,-0.000000,1.000000
-16.880346,-4.849883,-1.398221,0.000000,-0.000000,-1.000000
0.052911,-16.987820,-1.398221,0.000000,-0.000000,-1.000000
0.910894,17.245146,1.398221,0.000000,0.000000,1.000000
-2.840851,17.003738,-1.398221,-0.000000,0.000000,-1.000000
2.093085,11.594932,-1.398221,0.000000,0.000000,-1.000000
12.933180,-9.454375,-1.398221,0.000000,0.000000,-1.000000
-8.601385,13.848705,-1.398221,-0.000000,-0.000000,-1.000000
-14.649062,7.295166,-1.398221,-0.000000,-0.000000,-1.000000
-9.679979,-12.850791,-1.398221,0.000000,-0.000000,-1.000000
10.730844,-2.390463,-1.398221,0.000000,0.000000,-1.000000
-13.277396,2.584213,1.398221,-0.000000,0.000000,1.000000
-15.079593,10.194697,0.305973,-0.803208,0.595699,0.000000
-1.513586,14.205101,1.398221,0.000000,0.000000,1.000000
0.127363,-9.956399,-0.717014,-0.049068,0.998795,0.000000
-7.169251,12.583523,-1.398221,-0.000000,0.000000,-1.000000
16.652342,7.324148,0.311228,0.903989,0.427555,0.000000
-4.306306,-11.678099,-1.398221,0.000000,-0.000000,-1.000000
-9.342393,-11.700118,-1.398221,0.000000,-0.000000,-1.000000
2.852704,17.657057,1.398221,0.000000,0.000000,1.000000
-3.289426,9.391468,-0.878553,0.336890,-0.941544,0.000000
11.829708,3.912913,-1.398221,0.000000,0.000000,-1.000000
12.088666,2.198567,-1.398221,0.000000,0.000000,-1.000000
-11.693107,9.965957,-1.398221,-0.000000,-0.000000,-1.000000
8.676797,-8.320501,-1.398221,0.000000,0.000000,-1.000000
0.574406,-11.489687,-1.398221,0.000000,-0.000000,-1.000000
16.171536,-8.340728,0.618335,0.903989,-0.427555,0.000000
-8.646182,-15.624425,-1.398221,0.000000,-0.000000,-1.000000
9.566381,-9.680686,1.398221,-0.000000,-0.000000,1.000000
4.751975,-17.059215,-1.398221,0.000000,0.000000,-1.000000
16.488499,1.753782,-1.398221,0.000000,0.000000,-1.000000
5.322593,9.918267,1.398221,0.000000,-0.000000,1.000000
-11.148997,-4.315115,-1.398221,0.000000,-0.000000,-1.000000
-15.803843,3.838407,-1.398221,-0.000000,-0.000000,-1.000000
-6.076665,-14.283969,1.398221,-0.000000,0.000000,1.000000
8.896782,-4.472594,1.398221,-0.000000,-0.000000,1.000000
11.607125,-4.757542,-1.398221,0.000000,0.000000,-1.000000
15.278980,6.564507,1.398221,0.000000,0.000000,1.000000
5.813354,-8.077171,-1.076107,-0.595699,0.803208,0.000000
18.150961,1.139621,1.016102,0.998795,0.049068,-0.000000
16.298416,7.823955,-1.398221,-0.000000,0.000000,-1.000000
-14.285699,-3.924755,-1.398221,0.000000,-0.000000,-1.000000
17.388315,-5.382031,0.578682,0.941544,-0.336890,0.000000
13.778200,-4.447721,1.398221,-0.000000,-0.000000,1.000000
-10.682881,11.662786,-1.398221,-0.000000,-0.000000,-1.000000
-3.940194,-9.143919,-1.208927,0.427555,0.903989,0.000000
-9.324871,8.072234,1.398221,0.000000,0.000000,1.000000
6.473755,-12.742996,-1.398221,0.000000,0.000000,-1.000000
14.356904,9.208430,1.398221,0.000000,0.000000,1.000000
-6.609660,-16.949062,-1.215687,-0.336890,-0.941544,0.000000
9.998789,5.903504,1.398221,0.000000,-0.000000,1.000000
14.432370,-1.598876,-1.398221,0.000000,0.000000,-1.000000
-11.126336,10.949447,1.398221,0.000000,0.000000,1.000000
11.054652,12.487519,1.398221,0.000000,0.000000,1.000000
17.972195,2.776134,0.591708,0.989177,0.146730,-0.000000
9.026460,-13.014955,1.398221,0.000000,-0.000000,1.000000
6.900232,-11.652818,1.398221,0.000000,-0.000000,1.000000
11.434864,2.098517,-1.398221,0.000000,0.000000,-1.000000
-5.203404,-8.482370,-1.260562,0.514103,0.857729,0.000000
16.317024,-6.126441,1.398221,0.000000,-0.000000,1.000000
16.147123,-8.392345,-0.206242,0.903989,-0.427555,0.000000
9.434034,-15.546821,-0.872967,0.514103,-0.857729,0.000000
8.004886,13.832523,1.398221,0.000000,0.000000,1.000000
9.349590,7.695627,1.398221,0.000000,0.000000,1.000000
1.057419,-13.632326,1.398221,-0.000000,-0.000000,1.000000
9.715454,2.226559,1.398221,0.000000,-0.000000,1.000000
10.900631,9.668601,1.398221,0.000000,0.000000,1.000000
-8.192031,16.241864,-0.725357,-0.427555,0.903989,0.000000
-4.295309,12.197234,-1.398221,-0.000000,0.000000,-1.000000
-6.417222,-10.133172,1.398221,-0.000000,0.000000,1.000000
7.447814,15.656338,1.398221,0.000000,0.000000,1.000000
-10.900977,-2.398752,-1.398221,0.000000,-0.000000,-1.000000
14.860814,-10.489686,-0.508733,0.803208,-0.595699,0.000000
5.370863,-8.584962,1.398221,-0.000000,-0.000000,1.000000
-12.172262,-12.604099,1.398221,-0.000000,0.000000,1.000000
15.787777,-2.081535,-1.398221,0.000000,0.000000,-1.000000
12.299619,-0.381802,-1.398221,0.000000,0.000000,-1.000000
-0.198555,-9.952902,-1.170811,0.049068,0.998795,0.000000
15.008237,10.290908,0.610367,0.803208,0.595699,0.000000
16.410507,-3.895986,1.398221,0.000000,-0.000000,1.000000
-17.404854,5.335808,-0.183986,-0.941544,0.336890,0.000000
11.706364,11.080177,1.398221,0.000000,0.000000,1.000000
3.670645,-9.255066,1.159129,-0.336890,0.941544,0.000000
7.545773,-15.836687,-1.398221,0.000000,0.000000,-1.000000
-8.568939,-15.006533,1.398221,-0.000000,0.000000,1.000000
-11.397961,13.542634,-1.398221,-0.000000,-0.000000,-1.000000
-4.955557,17.138578,-1.398221,-0.000000,-0.000000,-1.000000
-0.649530,16.189879,-1.398221,-0.000000,0.000000,-1.000000
4.147266,9.045982,0.098207,-0.427555,-0.903989,-0.000000
-6.404217,-13.673874,-1.398221,0.000000,-0.000000,-1.000000
-15.548794,7.224025,-1.398221,-0.000000,-0.000000,-1.000000
1.372940,-10.311509,-1.398221,0.000000,-0.000000,-1.000000
3.169186,17.291452,-1.398221,-0.000000,0.000000,-1.000000
-11.123582,-14.390684,0.323228,-0.595699,-0.803208,0.000000
-10.107062,-13.198696,-1.398221,0.000000,-0.000000,-1.000000
8.230256,-12.214393,-1.398221,0.000000,0.000000,-1.000000
-12.868831,-7.627395,-1.398221,0.000000,-0.000000,-1.000000
1.475862,14.350976,1.398221,0.000000,0.000000,1.000000
-16.588516,2.370852,1.398221,-0.000000,0.000000,1.000000
8.611687,-15.858719,-1.398221,0.000000,0.000000,-1.000000
15.598242,-1.639333,-1.398221,0.000000,0.000000,-1.000000
-12.489919,-12.683018,1.398221,-0.000000,0.000000,1.000000
2.106531,-14.428810,1.398221,0.000000,-0.000000,1.000000
7.060156,7.027566,1.366706,-0.740951,-0.671559,0.000000
6.630189,-15.766781,1.398221,0.000000,-0.000000,1.000000
3.967129,-12.992152,1.398221,0.000000,-0.000000,1.000000
-17.095875,-4.519741,1.398221,-0.000000,0.000000,1.000000
-4.374735,-8.938397,0.955014,0.427555,0.903989,0.000000
5.325871,14.018950,-1.398221,-0.000000,0.000000,-1.000000
1.794630,10.271054,1.398221,0.000000,0.000000,1.000000
13.478034,-12.208090,1.053200,0.740951,-0.671559,0.000000
-1.551237,10.634971,-1.398221,-0.000000,0.000000,-1.000000
11.733536,8.163444,-1.398221,0.000000,0.000000,-1.000000
-8.293596,-7.408905,-1.398221,0.000000,-0.000000,-1.000000
-14.326375,-3.505685,1.398221,-0.000000,0.000000,1.000000
12.068679,-11.927374,1.398221,0.000000,-0.000000,1.000000
17.924924,-3.094809,0.197179,0.989177,-0.146730,0.000000
-6.642766,7.631755,1.398221,0.000000,0.000000,1.000000
9.348749,3.408818,0.503116,-0.941544,-0.336890,0.000000
-13.849845,-10.913158,-1.398221,0.000000,-0.000000,-1.000000
-3.831505,9.195326,-0.761613,0.427555,-0.903989,0.000000
3.905990,-15.731082,1.398221,0.000000,-0.000000,1.000000
-9.038845,-14.751659,-1.398221,0.000000,-0.000000,-1.000000
9.624962,-8.936005,-1.398221,0.000000,0.000000,-1.000000
-10.372047,9.194378,1.398221,0.000000,0.000000,1.000000
-13.491122,-12.193649,-0.555427,-0.740951,-0.671559,0.000000
-4.679109,-17.574779,0.693360,-0.242980,-0.970031,0.000000
11.181958,10.594457,-1.398221,-0.000000,0.000000,-1.000000
5.635143,-8.209341,-0.064864,-0.595699,0.803208,0.000000
10.803461,-6.740781,-1.398221,0.000000,0.000000,-1.000000
-4.174341,-13.971158,-1.398221,0.000000,-0.000000,-1.000000
-13.113707,-12.610062,0.943342,-0.740951,-0.671559,0.000000
-5.294133,17.391503,1.398221,0.000000,0.000000,1.000000
-16.647051,-7.070477,1.398221,-0.000000,0.000000,1.000000
-16.599239,7.436426,-0.711996,-0.903989,0.427555,0.000000
-1.746587,14.625913,-1.398221,-0.000000,0.000000,-1.000000
-3.956305,9.920982,-1.398221,-0.000000,-0.000000,-1.000000
12.618601,1.838918,1.398221,0.000000,0.000000,1.000000
-8.396651,-8.805129,1.398221,-0.000000,0.000000,1.000000
-8.349878,12.517443,1.398221,0.000000,0.000000,1.000000
-9.033487,13.111546,1.398221,0.000000,0.000000,1.000000
-18.201883,-0.103085,-0.643362,-0.998795,-0.049068,0.000000
-11.834962,8.229039,1.398221,0.000000,0.000000,1.000000
-6.308280,-16.843039,1.398221,-0.000000,0.000000,1.000000
14.349069,-0.946788,1.398221,0.000000,-0.000000,1.000000
13.576305,-12.099664,-0.870941,0.740951,-0.671559,0.000000
-15.963945,-7.111794,1.398221,-0.000000,0.000000,1.000000
13.223839,5.473500,1.398221,0.000000,-0.000000,1.000000
-2.512697,-18.011272,-0.048697,-0.146730,-0.989177,0.000000
-3.265812,15.029503,-1.398221,-0.000000,0.000000,-1.000000
13.771878,11.478701,1.398221,0.000000,0.000000,1.000000
-17.365158,2.119771,-1.398221,-0.000000,-0.000000,-1.000000
-14.211456,11.365244,0.071156,-0.803208,0.595699,0.000000
-12.461700,7.036620,1.398221,0.000000,0.000000,1.000000
-5.204902,-17.443075,1.057119,-0.242980,-0.970031,0.000000
-15.343705,9.035813,1.398221,0.000000,0.000000,1.000000
-10.751197,12.148279,1.398221,0.000000,0.000000,1.000000
15.185746,5.736429,-1.398221,-0.000000,0.000000,-1.000000
17.423588,1.581206,1.398221,0.000000,0.000000,1.000000
-11.985530,-13.264393,1.398221,-0.000000,0.000000,1.000000
13.483135,11.387847,1.398221,0.000000,0.000000,1.000000
4.634511,11.330775,-1.398221,0.000000,0.000000,-1.000000
-6.386395,-7.641280,1.231091,0.671559,0.740951,0.000000
-13.889078,-9.631462,1.398221,-0.000000,0.000000,1.000000
7.746139,-9.194105,1.398221,0.000000,-0.000000,1.000000
5.270847,-11.893373,1.398221,0.000000,-0.000000,1.000000
-4.086222,13.340634,1.398221,0.000000,0.000000,1.000000
-4.652786,-14.186729,1.398221,-0.000000,0.000000,1.000000
-8.019855,-12.602406,1.398221,-0.000000,0.000000,1.000000
17.060201,5.383747,1.398221,0.000000,0.000000,1.000000
-9.222589,3.761412,-1.317389,0.941544,-0.336890,0.000000
-17.375314,2.590076,-1.398221,-0.000000,-0.000000,-1.000000
13.418464,-12.273815,-0.044777,0.740951,-0.671559,0.000000
5.299372,15.417121,-1.398221,-0.000000,0.000000,-1.000000
-7.219879,-12.669049,1.398221,-0.000000,0.000000,1.000000
-8.805395,-12.891318,-1.398221,0.000000,-0.000000,-1.000000
7.503218,-9.825794,1.398221,-0.000000,-0.000000,1.000000
15.476421,-2.155369,-1.398221,0.000000,0.000000,-1.000000
14.206128,3.094934,-1.398221,0.000000,0.000000,-1.000000
-0.785609,14.503836,-1.398221,-0.000000,0.000000,-1.000000
-10.035392,9.710521,1.398221,0.000000,0.000000,1.000000
8.895924,7.683022,-1.398221,0.000000,0.000000,-1.000000
9.502214,-13.229815,1.398221,0.000000,-0.000000,1.000000
-10.972878,3.788444,-1.398221,-0.000000,0.000000,-1.000000
-1.088997,14.555381,1.398221,0.000000,0.000000,1.000000
3.075710,-17.927757,1.302428,0.146730,-0.989177,0.000000
-11.694361,-13.943650,1.104998,-0.671559,-0.740951,0.000000
-2.184547,-11.265546,1.398221,-0.000000,-0.000000,1.000000
9.058194,13.733920,-1.398221,0.000000,0.000000,-1.000000
10.847203,-9.739337,-1.398221,0.000000,0.000000,-1.000000
3.608630,-16.998995,1.398221,0.000000,-0.000000,1.000000
14.769296,-10.613083,0.264731,0.803208,-0.595699,0.000000
6.149524,-8.125937,-1.398221,0.000000,0.000000,-1.000000
14.366289,0.735184,1.398221,0.000000,0.000000,1.000000
4.298112,-17.670214,-0.858326,0.242980,-0.970031,0.000000
11.540441,14.081520,0.910965,0.595699,0.803208,0.000000
-14.240869,6.967086,1.398221,0.000000,0.000000,1.000000
-8.862688,10.342364,-1.398221,-0.000000,0.000000,-1.000000
-12.797326,10.724149,-1.398221,-0.000000,-0.000000,-1.000000
-7.370836,8.377404,-1.398221,-0.000000,0.000000,-1.000000
8.889167,4.478823,-0.786325,-0.903989,-0.427555,-0.000000
-14.999807,-10.302275,0.180784,-0.803208,-0.595699,0.000000
-1.507096,9.835978,-0.745137,0.146730,-0.989177,0.000000
-16.951160,-3.332146,1.398221,-0.000000,0.000000,1.000000
1.969674,-11.707029,-1.398221,0.000000,0.000000,-1.000000
-7.608542,6.422515,0.779307,0.740951,-0.671559,0.000000
8.665057,10.202775,-1.398221,-0.000000,0.000000,-1.000000
-5.194203,-15.911162,1.398221,-0.000000,0.000000,1.000000
9.855563,3.263696,-1.398221,0.000000,0.000000,-1.000000
-11.228783,-10.435649,-1.398221,0.000000,-0.000000,-1.000000
-3.031948,10.615136,1.398221,0.000000,0.000000,1.000000
-12.348357,-13.350903,0.097350,-0.671559,-0.740951,0.000000
-16.346874,7.970006,0.756841,-0.903989,0.427555,0.000000
-8.731071,11.862452,-1.398221,-0.000000,-0.000000,-1.000000
10.594043,8.010501,1.398221,0.000000,-0.000000,1.000000
-3.858096,-17.780433,0.565288,-0.242980,-0.970031,0.000000
-12.998259,-7.890137,-1.398221,0.000000,-0.000000,-1.000000
1.532293,-9.832241,1.327411,-0.146730,0.989177,0.000000
9.721978,13.364741,-1.398221,-0.000000,0.000000,-1.000000
-13.161273,12.557581,0.752302,-0.740951,0.671559,0.000000
-5.962129,-9.187902,1.398221,-0.000000,0.000000,1.000000
5.794771,-10.737223,1.398221,0.000000,-0.000000,1.000000
17.068978,6.274517,-1.239529,0.941544,0.336890,0.000000
5.296060,-12.630302,-1.398221,0.000000,0.000000,-1.000000
-3.901736,-9.276083,-1.398221,0.000000,-0.000000,-1.000000
16.777818,5.419363,1.398221,0.000000,0.000000,1.000000
1.720904,12.186612,1.398221,0.000000,0.000000,1.000000
-5.119808,-15.682535,-1.398221,0.000000,-0.000000,-1.000000
8.629283,-5.485442,-1.398221,0.000000,0.000000,-1.000000
-5.862550,10.595605,1.398221,0.000000,0.000000,1.000000
1.087509,-17.975132,1.398221,0.000000,-0.000000,1.000000
-7.366611,8.600476,-1.398221,-0.000000,0.000000,-1.000000
7.094150,-16.761123,-1.372940,0.427555,-0.903989,0.000000
-0.376886,11.660096,-1.398221,-0.000000,0.000000,-1.000000
5.735397,-9.186930,-1.398221,0.000000,0.000000,-1.000000
-3.159904,-9.437812,-0.460265,0.336890,0.941544,0.000000
-6.301136,-11.372216,1.398221,-0.000000,0.000000,1.000000
7.506968,11.372700,1.398221,0.000000,0.000000,1.000000
15.871074,1.887606,-1.398221,0.000000,0.000000,-1.000000
-2.653232,-16.773719,1.398221,-0.000000,-0.000000,1.000000
9.321780,6.110086,1.398221,0.000000,-0.000000,1.000000
-0.417640,14.363963,-1.398221,-0.000000,0.000000,-1.000000
14.597561,5.972524,1.398221,0.000000,-0.000000,1.000000
-4.082807,16.246665,1.398221,0.000000,0.000000,1.000000
-15.244997,-8.957861,1.398221,-0.000000,0.000000,1.000000
-4.082400,13.281216,-1.398221,-0.000000,0.000000,-1.000000
17.895277,1.146552,1.398221,0.000000,0.000000,1.000000
9.824750,-7.225623,1.398221,-0.000000,-0.000000,1.000000
-14.666415,-6.633007,-1.398221,0.000000,-0.000000,-1.000000
-15.298155,5.811557,1.398221,0.000000,0.000000,1.000000
1.815525,-15.283255,-1.398221,0.000000,-0.000000,-1.000000
-14.722186,-10.676604,1.146050,-0.803208,-0.595699,0.000000
-17.908509,-2.935629,1.398221,-0.000000,0.000000,1.000000
-13.772353,-2.008372,-1.398221,0.000000,-0.000000,-1.000000
17.841588,2.668520,-1.398221,0.000000,0.000000,-1.000000
-4.343729,14.728544,-1.398221,-0.000000,-0.000000,-1.000000
-7.439499,16.597786,0.471455,-0.427555,0.903989,0.000000
-3.892471,10.765857,1.398221,0.000000,0.000000,1.000000
16.790792,-7.031421,0.964596,0.903989,-0.427555,0.000000
3.306010,-9.385535,-0.225914,-0.336890,0.941544,0.000000
-8.967901,13.271955,1.398221,0.000000,0.000000,1.000000
-8.005451,14.708271,1.398221,0.000000,0.000000,1.000000
10.501271,-3.784407,-1.398221,0.000000,0.000000,-1.000000
-6.716352,-15.849596,1.398221,-0.000000,0.000000,1.000000
-11.494929,12.490545,-1.398221,-0.000000,-0.000000,-1.000000
11.427038,7.361841,-1.398221,-0.000000,0.000000,-1.000000
-12.453078,0.079491,1.398221,0.000000,0.000000,1.000000
-6.469525,15.569044,1.398221,0.000000,0.000000,1.000000
-7.395193,-16.618741,-0.090709,-0.427555,-0.903989,0.000000
13.877169,-9.342490,-1.398221,0.000000,0.000000,-1.000000
13.416361,12.276135,0.057586,0.740951,0.671559,-0.000000
1.219593,18.147032,-0.389041,0.049068,0.998795,0.000000
-5.287418,-11.867155,-1.398221,0.000000,-0.000000,-1.000000
-9.936544,-0.531522,-0.129161,0.998795,0.049068,0.000000
13.178697,-11.441316,1.398221,0.000000,-0.000000,1.000000
5.156327,17.455243,0.157423,0.242980,0.970031,0.000000
1.322232,-14.513865,1.398221,-0.000000,-0.000000,1.000000
4.085339,9.075271,-0.783456,-0.427555,-0.903989,-0.000000
11.051464,8.768916,-1.398221,-0.000000,0.000000,-1.000000
-0.138439,-10.808120,-1.398221,0.000000,-0.000000,-1.000000
-12.679250,-5.333538,-1.398221,0.000000,-0.000000,-1.000000
-6.193103,-7.795530,0.888690,0.595699,0.803208,0.000000
-18.068605,1.673137,-1.398221,-0.000000,-0.000000,-1.000000
8.238216,-14.412645,1.398221,0.000000,-0.000000,1.000000
6.978901,-16.503012,1.398221,0.000000,-0.000000,1.000000
5.438707,10.852831,1.398221,0.000000,0.000000,1.000000
10.918293,5.104561,-1.398221,0.000000,0.000000,-1.000000
3.357239,9.782237,1.398221,0.000000,-0.000000,1.000000
0.423700,16.611929,-1.398221,-0.000000,0.000000,-1.000000
10.731785,-5.350464,1.398221,0.000000,-0.000000,1.000000
-2.870592,15.661705,1.398221,0.000000,0.000000,1.000000
-11.340022,1.009293,-1.398221,-0.000000,0.000000,-1.000000
14.435064,-7.920333,-1.398221,0.000000,0.000000,-1.000000
11.283546,2.383610,-1.398221,0.000000,0.000000,-1.000000
-13.142852,12.577906,1.019057,-0.740951,0.671559,0.000000
-9.137683,6.065146,-1.398221,-0.000000,0.000000,-1.000000
-13.955880,11.680868,-1.012447,-0.740951,0.671559,0.000000
7.928072,9.615940,-1.398221,-0.000000,0.000000,-1.000000
-15.458712,6.844698,-1.398221,-0.000000,-0.000000,-1.000000
0.956556,16.775872,-1.398221,-0.000000,0.000000,-1.000000
-12.052922,1.000730,-1.398221,-0.000000,0.000000,-1.000000
-1.358669,-9.857995,-0.983067,0.146730,0.989177,0.000000
10.394236,-4.700579,1.398221,-0.000000,-0.000000,1.000000
9.690941,14.894408,1.398221,0.000000,0.000000,1.000000
-15.779376,9.046040,-0.585528,-0.857729,0.514103,0.000000
13.250817,-5.360113,-1.398221,0.000000,0.000000,-1.000000
-9.755854,5.521823,-1.398221,-0.000000,-0.000000,-1.000000
-4.457587,15.012374,-1.398221,-0.000000,-0.000000,-1.000000
5.203584,-14.159214,1.398221,0.000000,-0.000000,1.000000
15.804713,-2.035496,1.398221,0.000000,-0.000000,1.000000
-6.458556,16.564435,-1.398221,-0.000000,-0.000000,-1.000000
7.228544,-15.392858,-1.398221,0.000000,0.000000,-1.000000
3.394152,-9.483020,1.398221,-0.000000,-0.000000,1.000000
3.725331,16.120884,-1.398221,-0.000000,0.000000,-1.000000
14.556990,2.316645,-1.398221,0.000000,0.000000,-1.000000
12.405701,9.938798,-1.398221,-0.000000,0.000000,-1.000000
15.768736,9.063792,-1.162741,0.857729,0.514103,0.000000
5.033895,17.297469,-1.398221,-0.000000,0.000000,-1.000000
-11.476502,-3.948715,-1.398221,0.000000,-0.000000,-1.000000
11.965249,-8.262512,1.398221,-0.000000,-0.000000,1.000000
17.586068,4.634041,1.162176,0.970031,0.242980,-0.000000
15.525496,9.469613,0.485108,0.857729,0.514103,-0.000000
13.534842,11.112805,-1.398221,0.000000,0.000000,-1.000000
-18.176395,-0.621914,0.833023,-0.998795,-0.049068,0.000000
5.868629,16.225637,1.398221,0.000000,0.000000,1.000000
12.673070,-1.113123,1.398221,0.000000,-0.000000,1.000000
-1.385031,11.437176,1.398221,0.000000,0.000000,1.000000
-2.806329,12.753508,-1.398221,-0.000000,0.000000,-1.000000
-7.241126,16.691609,1.345148,-0.427555,0.903989,0.000000
-6.014697,-12.850082,1.398221,-0.000000,0.000000,1.000000
6.985476,-13.107304,1.398221,-0.000000,-0.000000,1.000000
-5.915325,8.001544,0.813910,0.595699,-0.803208,0.000000
-9.923463,0.797788,0.403148,0.998795,-0.049068,0.000000
0.989412,-11.876889,-1.398221,0.000000,0.000000,-1.000000
5.932503,17.191353,-0.868317,0.336890,0.941544,0.000000
9.948956,0.278859,1.381829,-0.998795,-0.049068,0.000000
-14.088289,-1.687179,-1.398221,-0.000000,-0.000000,-1.000000
-12.894673,-11.070713,1.398221,-0.000000,0.000000,1.000000
-2.620537,12.892589,-1.398221,-0.000000,0.000000,-1.000000
-5.677101,8.803786,-1.398221,-0.000000,0.000000,-1.000000
10.425696,9.146188,1.398221,0.000000,0.000000,1.000000
-16.828902,-2.955348,1.398221,-0.000000,0.000000,1.000000
13.388935,10.192429,1.398221,0.000000,0.000000,1.000000
8.446297,-15.340913,1.398221,0.000000,-0.000000,1.000000
12.057188,1.021763,1.398221,0.000000,-0.000000,1.000000
7.652322,16.497128,-1.311878,0.427555,0.903989,0.000000
13.822280,-1.078769,-1.398221,0.000000,0.000000,-1.000000
3.091827,-17.925366,0.633320,0.146730,-0.989177,0.000000
5.020501,-11.776396,-1.398221,0.000000,0.000000,-1.000000
3.490098,-13.250760,-1.398221,0.000000,0.000000,-1.000000
12.679102,4.328698,1.398221,0.000000,0.000000,1.000000
