x,y,z,nx,ny,nz
0.012885,0.034743,-0.476527,0.000000,1.000000,0.000000
0.455174,-0.033004,-0.328907,0.810535,0.000000,-0.585690
0.235603,-0.016949,0.074027,0.954016,0.000000,0.299755
-0.498309,-0.034743,0.085860,0.000000,-1.000000,0.000000
0.260739,-0.015661,-0.254730,-0.627990,0.000000,0.778221
-0.230977,0.244866,-0.087401,-0.935281,0.000000,-0.353907
-0.258997,-0.005142,-0.315497,0.671550,0.000000,-0.740959
0.369681,0.034743,-0.157958,0.000000,1.000000,0.000000
-0.543897,-0.002611,0.139781,-0.968527,0.000000,0.248910
-0.164191,-0.034743,-0.206639,0.000000,-1.000000,0.000000
0.249080,0.030752,0.270132,-0.919468,0.000000,-0.393165
-0.304869,0.027724,-0.250665,-0.475260,0.000000,0.879845
-0.001938,0.235143,0.246952,-0.007848,0.000000,0.999969
0.269060,0.034743,0.212827,0.000000,1.000000,0.000000
-0.216419,-0.025278,-0.118961,-0.876335,0.000000,-0.481702
-0.179201,0.034743,0.222707,0.000000,1.000000,0.000000
0.528084,0.034743,-0.015336,0.000000,1.000000,0.000000
0.098005,0.000199,0.226680,0.396848,0.000000,0.917884
0.238375,0.152619,-0.064546,0.965241,0.000000,-0.261363
-0.290878,0.034743,0.207925,0.000000,1.000000,0.000000
-0.223672,0.266358,0.104689,-0.905704,0.000000,0.423911
0.049909,0.083545,-0.241864,0.202094,0.000000,-0.979366
0.254309,0.032677,0.310447,-0.788756,0.000000,0.614706
-0.377937,-0.027560,-0.030113,0.658209,0.000000,-0.752835
0.558766,0.008013,-0.056065,0.995004,0.000000,-0.099836
0.268144,0.008338,-0.249996,-0.442881,0.000000,0.896581
-0.044735,-0.034743,0.477223,0.000000,-1.000000,0.000000
-0.239112,0.178685,-0.061763,-0.968222,0.000000,-0.250092
0.247422,-0.007123,0.296932,-0.960919,0.000000,0.276831
0.457695,0.004395,-0.325388,0.815026,0.000000,-0.579425
-0.314269,-0.004969,-0.257701,-0.710253,0.000000,0.703946
0.207594,0.084493,-0.133767,0.840600,0.000000,-0.541656
-0.201397,0.103588,0.142927,-0.815508,0.000000,0.578746
-0.046913,-0.034743,0.357681,0.000000,-1.000000,0.000000
0.488236,0.034743,0.068425,0.000000,1.000000,0.000000
0.006901,0.021502,-0.364865,0.172536,0.000000,0.985003
-0.246910,0.251447,0.004928,-0.999801,0.000000,0.019954
0.287941,0.029518,-0.245913,0.052046,0.000000,0.998645
-0.011271,0.034743,0.287588,0.000000,1.000000,0.000000
0.217542,0.057809,0.116895,0.880881,0.000000,0.473338
-0.055383,0.034743,0.358662,0.000000,1.000000,0.000000
-0.335184,-0.034743,0.098636,0.000000,-1.000000,0.000000
0.059699,0.034743,0.349956,0.000000,1.000000,0.000000
0.431468,0.034743,0.165132,0.000000,1.000000,0.000000
0.147649,0.096644,-0.197962,0.597867,0.000000,-0.801596
0.343561,-0.034743,-0.055500,0.000000,-1.000000,0.000000
0.232437,-0.034743,-0.198644,0.000000,-1.000000,0.000000
0.246955,0.090586,0.001520,0.999981,0.000000,0.006156
-0.271883,-0.014883,0.248380,0.349409,0.000000,-0.936970
-0.253561,-0.034743,0.193005,0.000000,-1.000000,0.000000
0.133918,0.034743,-0.266870,0.000000,1.000000,0.000000
-0.461541,-0.034743,-0.129615,0.000000,-1.000000,0.000000
-0.230585,0.074379,-0.088429,-0.933695,0.000000,-0.358069
-0.431065,0.034743,0.255357,0.000000,1.000000,0.000000
0.211219,-0.027496,0.127967,0.855277,0.000000,0.518171
0.118398,0.029172,0.216728,0.479423,0.000000,0.877584
0.311605,0.026638,-0.316471,0.643661,0.000000,-0.765311
-0.264348,0.034743,-0.177224,0.000000,1.000000,0.000000
-0.475764,-0.034743,0.237393,0.000000,-1.000000,0.000000
-0.168902,0.123618,-0.180170,-0.683925,0.000000,-0.729552
-0.539787,0.020028,-0.154895,-0.961208,0.000000,-0.275823
-0.067765,-0.034743,-0.393227,0.000000,-1.000000,0.000000
0.392785,-0.021529,0.038317,-0.287023,0.000000,0.957924
0.030122,-0.034743,0.560090,0.000000,-1.000000,0.000000
-0.031572,-0.016036,-0.428825,-0.789307,0.000000,-0.613999
-0.034399,0.031271,0.383853,-0.859982,0.000000,-0.510324
-0.260088,-0.021913,-0.316451,0.644261,0.000000,-0.764806
-0.301971,-0.034743,0.373790,0.000000,-1.000000,0.000000
0.216495,0.034743,-0.184857,0.000000,1.000000,0.000000
0.296347,-0.034743,0.019381,0.000000,-1.000000,0.000000
0.364349,-0.009135,-0.002579,-0.997920,0.000000,-0.064464
0.492184,-0.034743,-0.114256,0.000000,-1.000000,0.000000
0.149121,0.034743,0.396299,0.000000,1.000000,0.000000
0.178880,0.020749,-0.170267,0.724330,0.000000,-0.689454
-0.491009,-0.003873,-0.272530,-0.874349,0.000000,-0.485298
0.174037,0.106671,0.175214,0.704720,0.000000,0.709486
0.239443,0.023446,-0.507966,0.426380,0.000000,-0.904544
-0.162203,0.034743,-0.520979,0.000000,1.000000,0.000000
-0.024584,0.034743,-0.553260,0.000000,1.000000,0.000000
-0.325098,-0.034743,-0.013690,0.000000,-1.000000,0.000000
-0.449144,-0.034743,0.318306,0.000000,-1.000000,0.000000
0.415149,0.034743,0.288311,0.000000,1.000000,0.000000
0.027411,0.139573,-0.245434,0.110994,0.000000,-0.993821
-0.225117,0.054222,-0.101545,-0.911554,0.000000,-0.411180
-0.427096,-0.034743,-0.057829,0.000000,-1.000000,0.000000
-0.102485,0.034743,0.364960,0.000000,1.000000,0.000000
-0.026859,0.251252,-0.245495,-0.108759,0.000000,-0.994068
-0.272790,0.004082,-0.323664,0.326714,0.000000,-0.945123
-0.476064,0.034743,0.120288,0.000000,1.000000,0.000000
-0.260728,-0.023483,-0.316979,0.628261,0.000000,-0.778002
-0.397963,-0.034743,0.311432,0.000000,-1.000000,0.000000
0.074362,0.188401,-0.235498,0.301108,0.000000,-0.953590
-0.284687,0.034743,0.311480,0.000000,1.000000,0.000000
0.250412,0.034743,0.248486,0.000000,1.000000,0.000000
0.463482,-0.020105,-0.317091,0.825331,0.000000,-0.564650
0.108113,0.034743,-0.499641,0.000000,1.000000,0.000000
0.448435,-0.034743,-0.180377,0.000000,-1.000000,0.000000
0.359764,-0.034743,0.129185,0.000000,-1.000000,0.000000
0.141542,0.034743,0.515669,0.000000,1.000000,0.000000
-0.077745,0.034743,-0.374555,0.000000,1.000000,0.000000
-0.014713,0.033679,0.441461,-0.367826,0.000000,0.929894
-0.051063,-0.034743,0.541786,0.000000,-1.000000,0.000000
0.183824,0.143385,0.164917,0.744350,0.000000,0.667790
0.241539,0.018036,0.506973,0.430112,0.000000,0.902775
-0.204042,0.140864,-0.139126,-0.826214,0.000000,-0.563356
-0.016583,-0.034743,0.328444,0.000000,-1.000000,0.000000
0.375168,0.034743,0.093243,0.000000,1.000000,0.000000
-0.069563,0.034743,-0.450851,0.000000,1.000000,0.000000
0.113313,0.194049,0.219429,0.458833,0.000000,0.888523
0.105841,0.087091,0.223130,0.428575,0.000000,0.903506
-0.033618,-0.030944,-0.382589,-0.840438,0.000000,0.541907
-0.049783,0.066955,-0.241890,-0.201585,0.000000,-0.979471
0.023284,0.033836,-0.436790,0.582097,0.000000,-0.813119
-0.010739,-0.023097,-0.561469,-0.019123,0.000000,-0.999817
0.403241,-0.009476,0.039987,-0.025602,0.000000,0.999672
-0.098669,0.034743,-0.278470,0.000000,1.000000,0.000000
0.422143,-0.001489,-0.370348,0.751718,0.000000,-0.659485
-0.010843,-0.007548,0.365763,-0.271069,0.000000,-0.962560
-0.355885,-0.034743,-0.201777,0.000000,-1.000000,0.000000
0.275289,0.034743,0.232456,0.000000,1.000000,0.000000
0.183965,0.034743,-0.312714,0.000000,1.000000,0.000000
0.235944,0.247147,-0.072933,0.955397,0.000000,-0.295325
0.295975,0.009946,0.247159,0.252902,0.000000,-0.967492
0.177711,0.213001,0.171488,0.719594,0.000000,0.694395
0.204298,0.034743,0.290089,0.000000,1.000000,0.000000
0.125905,0.219609,-0.212455,0.509818,0.000000,-0.860282
-0.162665,0.205671,-0.185821,-0.658669,0.000000,-0.752433
-0.323754,0.034743,0.036468,0.000000,1.000000,0.000000
0.320332,-0.034743,0.005605,0.000000,-1.000000,0.000000
-0.440484,0.034743,-0.266817,0.000000,1.000000,0.000000
-0.001393,-0.034743,-0.485766,0.000000,-1.000000,0.000000
-0.252169,-0.034743,-0.408229,0.000000,-1.000000,0.000000
-0.244660,0.273925,-0.033620,-0.990690,0.000000,-0.136136
-0.449147,-0.034743,-0.126668,0.000000,-1.000000,0.000000
0.441429,0.028743,-0.014795,0.929079,0.000000,-0.369882
-0.039781,0.106619,-0.243734,-0.161084,0.000000,-0.986941
0.346423,0.011436,0.441988,0.616881,0.000000,0.787056
-0.146195,0.236463,-0.199038,-0.591978,0.000000,-0.805954
0.480718,0.034743,0.184135,0.000000,1.000000,0.000000
-0.283123,-0.034743,-0.025856,0.000000,-1.000000,0.000000
-0.158063,-0.034743,-0.415664,0.000000,-1.000000,0.000000
-0.466025,-0.033824,0.313342,-0.829859,0.000000,0.557973
-0.244636,0.269466,0.033796,-0.990592,0.000000,0.136846
-0.223330,0.034743,-0.390712,0.000000,1.000000,0.000000
0.551348,-0.016600,0.106665,0.981795,0.000000,0.189941
-0.250414,-0.034178,-0.267320,0.886112,0.000000,0.463471
-0.379558,-0.021319,-0.031457,0.617681,0.000000,-0.786429
-0.002225,-0.031067,0.561567,-0.003961,0.000000,0.999992
0.463438,-0.034743,0.110676,0.000000,-1.000000,0.000000
-0.309575,0.005692,-0.253648,-0.592911,0.000000,0.805268
0.367685,-0.015138,0.016182,-0.914519,0.000000,0.404543
-0.401799,0.001068,-0.392326,-0.715491,0.000000,-0.698622
0.039792,0.003399,0.400193,0.994803,0.000000,-0.101816
0.301172,0.034743,-0.194663,0.000000,1.000000,0.000000
0.250133,0.011106,-0.267869,-0.893158,0.000000,0.449743
0.212202,-0.027968,-0.126330,0.859258,0.000000,-0.511543
0.547222,0.020791,0.126138,0.974447,0.000000,0.224616
-0.193006,0.034743,-0.355913,0.000000,1.000000,0.000000
0.236720,0.002937,-0.070377,0.958536,0.000000,-0.284972
-0.436169,0.034743,0.099470,0.000000,1.000000,0.000000
-0.117991,0.029489,0.216950,-0.477772,0.000000,0.878484
0.248354,0.034743,0.034174,0.000000,1.000000,0.000000
-0.149111,0.034743,-0.415618,0.000000,1.000000,0.000000
0.368290,-0.034743,-0.378514,0.000000,-1.000000,0.000000
-0.384327,-0.034743,0.154178,0.000000,-1.000000,0.000000
0.246950,0.163162,0.002204,0.999960,0.000000,0.008925
0.225319,0.137577,-0.101097,0.912370,0.000000,-0.409367
-0.040040,-0.034743,0.515572,0.000000,-1.000000,0.000000
0.159294,0.238213,-0.188718,0.645018,0.000000,-0.764167
-0.242582,0.037683,0.046290,-0.982276,0.000000,0.187442
0.247990,-0.023585,0.272977,-0.946728,0.000000,-0.322036
-0.224196,0.047197,-0.103562,-0.907825,0.000000,-0.419348
0.246632,0.040080,-0.012723,0.998672,0.000000,-0.051520
0.225039,-0.020521,0.101719,0.911236,0.000000,0.411884
0.195909,0.006464,0.526291,0.348859,0.000000,0.937175
-0.321294,-0.005862,-0.304415,-0.885885,0.000000,-0.463906
-0.144097,0.192075,0.200562,-0.583482,0.000000,0.812126
0.242578,0.034743,-0.048766,0.000000,1.000000,0.000000
-0.231013,0.034743,-0.248250,0.000000,1.000000,0.000000
0.002633,0.006992,0.364352,0.065836,0.000000,-0.997830
-0.199046,0.094561,-0.146184,-0.805986,0.000000,-0.591935
0.004251,-0.016613,0.444039,0.106269,0.000000,0.994337
0.250059,-0.006358,-0.268017,-0.895005,0.000000,0.446056
-0.299236,0.014289,0.248162,-0.334428,0.000000,-0.942421
0.037615,0.012804,-0.417871,0.940380,0.000000,-0.340127
-0.453235,-0.034743,-0.078408,0.000000,-1.000000,0.000000
0.437677,0.003724,0.021992,0.835298,0.000000,0.549798
0.395264,-0.034743,-0.095479,0.000000,-1.000000,0.000000
0.218554,0.155543,0.114992,0.884980,0.000000,0.465630
0.318049,-0.009362,-0.262114,0.804746,0.000000,0.593619
-0.192543,0.034743,-0.238045,0.000000,1.000000,0.000000
0.079135,0.034743,-0.258915,0.000000,1.000000,0.000000
-0.186531,-0.004760,0.529687,-0.332159,0.000000,0.943223
0.254229,-0.034743,0.204955,0.000000,-1.000000,0.000000
-0.408561,-0.004228,-0.385279,-0.727532,0.000000,-0.686074
0.245115,0.048839,0.030127,0.992531,0.000000,0.121992
-0.388366,-0.034743,-0.172470,0.000000,-1.000000,0.000000
0.459624,-0.034743,-0.286528,0.000000,-1.000000,0.000000
-0.072052,0.034743,-0.246192,0.000000,1.000000,0.000000
0.320357,-0.034743,0.081600,0.000000,-1.000000,0.000000
0.272269,0.034743,0.002736,0.000000,1.000000,0.000000
0.131258,0.005681,-0.546016,0.233734,0.000000,-0.972301
0.468025,-0.034743,0.086703,0.000000,-1.000000,0.000000
-0.440970,-0.006210,-0.347719,-0.785242,0.000000,-0.619189
-0.401339,0.034743,-0.108866,0.000000,1.000000,0.000000
-0.247913,0.030620,0.273205,0.948641,0.000000,-0.316355
-0.162547,-0.034743,-0.356230,0.000000,-1.000000,0.000000
0.011807,0.237643,0.246677,0.047810,0.000000,0.998856
0.254950,-0.034743,0.051806,0.000000,-1.000000,0.000000
0.029747,0.051536,-0.245162,0.120452,0.000000,-0.992719
0.213856,0.034743,-0.350685,0.000000,1.000000,0.000000
0.245942,-0.032748,-0.283275,-0.997912,0.000000,0.064591
-0.318917,-0.014131,0.308379,-0.826462,0.000000,0.562993
-0.226916,-0.034743,-0.461857,0.000000,-1.000000,0.000000
-0.313272,0.000439,-0.314988,-0.685334,0.000000,-0.728229
0.228457,0.103618,-0.093790,0.925077,0.000000,-0.379780
-0.530578,-0.034743,-0.173928,0.000000,-1.000000,0.000000
-0.360471,0.034743,-0.002216,0.000000,1.000000,0.000000
0.321384,0.034743,0.077231,0.000000,1.000000,0.000000
-0.026909,-0.019784,-0.374670,-0.672727,0.000000,0.739891
-0.208445,-0.018424,-0.132438,-0.844045,0.000000,-0.536272
0.340988,0.034743,0.137903,0.000000,1.000000,0.000000
0.173254,0.200955,0.175989,0.701549,0.000000,0.712621
-0.123232,0.189997,-0.214016,-0.498995,0.000000,-0.866605
-0.029768,0.031236,-0.430984,-0.744203,0.000000,-0.667954
-0.477631,-0.034743,0.087769,0.000000,-1.000000,0.000000
0.246952,0.260323,-0.001906,0.999970,0.000000,-0.007718
-0.168490,-0.034743,0.258365,0.000000,-1.000000,0.000000
-0.261509,-0.034743,-0.236239,0.000000,-1.000000,0.000000
0.074527,-0.034743,0.266945,0.000000,-1.000000,0.000000
0.039969,-0.011472,0.402702,0.999236,0.000000,-0.039079
0.340541,-0.034743,-0.067543,0.000000,-1.000000,0.000000
0.231234,-0.034743,0.502457,0.000000,-1.000000,0.000000
-0.015902,0.001714,0.367562,-0.397550,0.000000,-0.917580
0.015550,-0.003801,-0.367412,0.388750,0.000000,0.921343
0.278014,-0.034743,0.471205,0.000000,-1.000000,0.000000
0.315513,0.033158,0.259015,0.741361,0.000000,-0.671106
-0.315220,-0.034743,-0.180246,0.000000,-1.000000,0.000000
0.324403,0.023857,-0.275166,0.963609,0.000000,0.267317
0.374613,0.034743,-0.166558,0.000000,1.000000,0.000000
0.243532,0.034743,0.159410,0.000000,1.000000,0.000000
-0.041202,0.034743,0.522827,0.000000,1.000000,0.000000
-0.007340,0.016442,0.364945,-0.183505,0.000000,-0.983019
-0.110260,0.275689,0.220979,-0.446470,0.000000,0.894799
0.167937,0.034743,0.279779,0.000000,1.000000,0.000000
-0.036034,0.285293,-0.244317,-0.145910,0.000000,-0.989298
0.436622,-0.019337,0.023517,0.808917,0.000000,0.587923
0.022026,0.034743,0.376003,0.000000,1.000000,0.000000
-0.070002,-0.002650,0.236831,-0.283457,0.000000,0.958985
-0.246943,0.159545,-0.002838,-0.999934,0.000000,-0.011493
0.223582,0.033045,0.104881,0.905340,0.000000,0.424688
0.053488,0.141878,-0.241098,0.216584,0.000000,-0.976264
-0.238502,0.111885,-0.064079,-0.965751,0.000000,-0.259470
-0.029419,-0.022289,0.431368,-0.735472,0.000000,0.677555
-0.312740,-0.004433,-0.315480,-0.672018,0.000000,-0.740535
0.109019,-0.034743,0.440052,0.000000,-1.000000,0.000000
0.020992,-0.018562,-0.438315,0.524795,0.000000,-0.851229
0.010798,-0.005328,-0.365751,0.269951,0.000000,0.962874
-0.433086,0.034743,0.015716,0.000000,1.000000,0.000000
-0.245891,-0.002870,0.284262,0.999203,0.000000,-0.039916
-0.245711,-0.032594,0.504964,-0.437543,0.000000,0.899198
-0.402414,-0.005013,0.039957,0.046289,0.000000,0.998928
-0.561540,0.031421,0.005927,-0.999944,0.000000,0.010554
-0.267604,-0.034743,0.078564,0.000000,-1.000000,0.000000
0.413927,-0.023257,0.038816,0.241531,0.000000,0.970393
0.036777,-0.004246,0.419997,0.919421,0.000000,0.393276
-0.123529,0.225398,0.213845,-0.500198,0.000000,0.865911
-0.224170,0.143627,0.103620,-0.907718,0.000000,0.419581
-0.208801,-0.008403,0.131876,-0.845485,0.000000,0.533999
0.032519,0.034743,-0.526064,0.000000,1.000000,0.000000
-0.156624,0.077940,0.190939,-0.634210,0.000000,0.773161
-0.040878,-0.034743,0.440508,0.000000,-1.000000,0.000000
-0.407289,-0.034743,0.333393,0.000000,-1.000000,0.000000
0.114248,-0.021486,0.549827,0.203444,0.000000,0.979087
0.364429,-0.017393,0.003612,-0.995914,0.000000,0.090309
-0.229382,0.034743,-0.382300,0.000000,1.000000,0.000000
0.237005,0.195888,0.069409,0.959692,0.000000,0.281055
0.199324,0.034743,-0.423258,0.000000,1.000000,0.000000
0.282455,-0.030895,-0.246004,-0.085092,0.000000,0.996373
0.279468,-0.034743,-0.359103,0.000000,-1.000000,0.000000
-0.380702,-0.018561,-0.032323,0.589091,0.000000,-0.808067
0.318468,-0.005705,-0.309025,0.815226,0.000000,-0.579143
0.013426,-0.006524,0.441945,0.335641,0.000000,0.941990
-0.506365,0.034743,-0.195766,0.000000,1.000000,0.000000
-0.330700,-0.034743,0.263567,0.000000,-1.000000,0.000000
0.038956,0.028602,0.413347,0.973888,0.000000,0.227029
0.415519,0.006101,0.377765,0.739922,0.000000,0.672693
-0.436550,0.024837,0.023615,-0.807122,0.000000,0.590384
0.404444,-0.034743,-0.201023,0.000000,-1.000000,0.000000
-0.240083,-0.034743,-0.341704,0.000000,-1.000000,0.000000
-0.235539,0.282858,0.074233,-0.953754,0.000000,0.300587
-0.273538,-0.011031,0.323914,0.308021,0.000000,0.951380
0.375273,0.034743,-0.225320,0.000000,1.000000,0.000000
-0.539806,0.017970,0.154828,-0.961242,0.000000,0.275706
-0.295589,-0.002452,-0.324657,-0.243256,0.000000,-0.969962
-0.376389,0.033646,-0.416766,-0.670242,0.000000,-0.742143
0.048378,0.272898,0.242175,0.195895,0.000000,0.980625
0.028032,-0.034743,0.509954,0.000000,-1.000000,0.000000
-0.256078,0.016772,0.259155,0.744518,0.000000,-0.667602
-0.144637,0.034743,-0.222956,0.000000,1.000000,0.000000
-0.473432,0.034743,-0.284188,0.000000,1.000000,0.000000
0.269217,-0.034743,0.213269,0.000000,-1.000000,0.000000
0.306273,0.034743,-0.218886,0.000000,1.000000,0.000000
-0.325859,-0.033252,-0.285791,-0.999999,0.000000,0.001699
0.274369,0.024774,0.324173,-0.287251,0.000000,0.957855
0.109066,0.186332,-0.221571,0.441635,0.000000,-0.897195
0.409153,0.034743,-0.134647,0.000000,1.000000,0.000000
-0.324051,-0.025983,-0.297748,-0.954809,0.000000,-0.297221
-0.003713,0.137572,-0.246932,-0.015035,0.000000,-0.999887
-0.437240,0.014015,-0.352397,-0.778602,0.000000,-0.627519
0.451354,-0.029139,0.334130,0.803733,0.000000,0.594990
-0.024128,0.034743,0.257040,0.000000,1.000000,0.000000
0.016238,-0.026094,-0.367710,0.405948,0.000000,0.913896
-0.031665,0.034743,0.249115,0.000000,1.000000,0.000000
-0.317019,0.024376,0.310940,-0.779003,0.000000,0.627020
-0.561528,-0.008280,-0.006972,-0.999923,0.000000,-0.012415
-0.401468,-0.034743,-0.152196,0.000000,-1.000000,0.000000
-0.061743,0.030537,-0.239117,-0.250012,0.000000,-0.968243
-0.486661,0.034743,-0.038651,0.000000,1.000000,0.000000
-0.039993,0.029145,0.405015,-0.999824,0.000000,0.018748
-0.132117,-0.025196,0.545809,-0.235263,0.000000,0.971932
-0.360709,0.034743,-0.001242,0.000000,1.000000,0.000000
0.306326,0.034743,-0.266694,0.000000,1.000000,0.000000
0.039972,-0.000888,-0.402772,0.999303,0.000000,0.037341
0.296469,-0.032550,-0.247292,0.265263,0.000000,0.964176
0.559219,-0.034547,-0.051350,0.995811,0.000000,-0.091439
-0.247979,0.025910,-0.298709,0.946998,0.000000,-0.321241
-0.023661,-0.015984,0.372014,-0.591533,0.000000,-0.806281
-0.246281,0.058243,-0.018293,-0.997253,0.000000,-0.074071
0.037733,0.003618,-0.417541,0.943320,0.000000,-0.331884
0.184803,0.034743,-0.205986,0.000000,1.000000,0.000000
-0.346654,-0.034743,-0.388327,0.000000,-1.000000,0.000000
-0.268170,0.018920,0.321735,0.442232,0.000000,0.896901
-0.489364,-0.034743,-0.205854,0.000000,-1.000000,0.000000
0.491801,-0.000703,0.271099,0.875758,0.000000,0.482751
0.506223,-0.034743,0.024883,0.000000,-1.000000,0.000000
-0.316017,0.027362,0.259581,-0.753940,0.000000,-0.656943
0.530927,0.034743,0.070018,0.000000,1.000000,0.000000
0.559580,-0.024560,-0.047254,0.996453,0.000000,-0.084146
0.080465,-0.034743,-0.350693,0.000000,-1.000000,0.000000
-0.246591,0.193642,0.013494,-0.998506,0.000000,0.054641
-0.019355,-0.031057,0.369260,-0.483876,0.000000,-0.875137
0.263990,0.008513,-0.252366,-0.546719,0.000000,0.837316
-0.310641,-0.001432,0.254461,-0.619562,0.000000,-0.784948
-0.515042,0.034743,0.096375,0.000000,1.000000,0.000000
-0.263426,-0.020221,-0.318976,0.560825,0.000000,-0.827935
-0.298308,-0.034743,0.352856,0.000000,-1.000000,0.000000
0.243412,0.160939,-0.041711,0.985633,0.000000,-0.168899
-0.219481,0.174257,0.113214,-0.888731,0.000000,0.458430
-0.102064,0.131782,-0.224882,-0.413283,0.000000,-0.910603
0.249918,-0.021796,0.268302,-0.898521,0.000000,-0.438930
-0.022492,-0.003392,0.371188,-0.562290,0.000000,-0.826940
-0.380815,0.031327,0.032405,0.586273,0.000000,0.810113
-0.186045,0.085635,-0.162408,-0.753341,0.000000,-0.657630
-0.274378,-0.034743,-0.436338,0.000000,-1.000000,0.000000
-0.363260,-0.034743,0.106800,0.000000,-1.000000,0.000000
0.094936,0.034743,0.321857,0.000000,1.000000,0.000000
-0.443512,-0.005569,0.007726,-0.981170,0.000000,0.193149
-0.416967,-0.031528,0.037930,-0.317530,0.000000,0.948248
-0.025351,-0.000735,0.435206,-0.633787,0.000000,0.773508
-0.160744,0.148679,-0.187485,-0.650891,0.000000,-0.759171
0.394399,-0.001047,0.038764,-0.246671,0.000000,0.969099
0.334804,-0.034743,0.265274,0.000000,-1.000000,0.000000
-0.315885,-0.024686,0.259431,-0.750643,0.000000,-0.660708
0.244885,-0.034743,0.123634,0.000000,-1.000000,0.000000
-0.256294,-0.034743,-0.370676,0.000000,-1.000000,0.000000
0.515138,-0.034743,0.206166,0.000000,-1.000000,0.000000
-0.202537,-0.026210,0.141307,-0.820122,0.000000,0.572189
0.057825,-0.034743,-0.419215,0.000000,-1.000000,0.000000
0.027596,0.034743,-0.503629,0.000000,1.000000,0.000000
-0.316571,-0.004073,-0.311486,-0.767801,0.000000,-0.640688
0.461018,-0.024269,0.320663,0.820943,0.000000,0.571011
0.219356,-0.026227,-0.113455,0.888226,0.000000,-0.459406
-0.188884,0.037751,-0.159097,-0.764838,0.000000,-0.644223
-0.226703,-0.034743,-0.325436,0.000000,-1.000000,0.000000
-0.004817,-0.034478,0.364557,-0.120437,0.000000,-0.992721
0.339251,0.034743,-0.239692,0.000000,1.000000,0.000000
-0.218034,0.034743,0.221008,0.000000,1.000000,0.000000
-0.103898,-0.034743,-0.471765,0.000000,-1.000000,0.000000
-0.429186,0.034743,0.296944,0.000000,1.000000,0.000000
-0.022478,0.034743,-0.503334,0.000000,1.000000,0.000000
-0.091252,-0.021390,-0.229482,-0.369502,0.000000,-0.929230
0.430874,0.014493,0.029866,0.665212,0.000000,0.746655
0.039641,-0.000012,-0.409611,0.991030,0.000000,-0.133641
0.231565,-0.034743,-0.337760,0.000000,-1.000000,0.000000
0.128985,-0.034743,0.265461,0.000000,-1.000000,0.000000
-0.440440,0.006542,-0.017071,-0.904356,0.000000,-0.426778
0.311626,-0.034743,-0.343093,0.000000,-1.000000,0.000000
0.271659,-0.013408,0.491492,0.483748,0.000000,0.875207
-0.246504,0.173471,0.014993,-0.998155,0.000000,0.060712
-0.209716,0.259998,0.130416,-0.849190,0.000000,0.528088
0.090562,-0.023570,-0.229755,0.366708,0.000000,-0.930336
-0.004402,0.134847,-0.246920,-0.017824,0.000000,-0.999841
-0.255737,0.034743,0.032596,0.000000,1.000000,0.000000
0.405516,-0.034743,0.073500,0.000000,-1.000000,0.000000
-0.168508,0.028751,-0.535693,-0.300065,0.000000,-0.953919
-0.144773,-0.034743,-0.316087,0.000000,-1.000000,0.000000
0.317882,0.034743,-0.448519,0.000000,1.000000,0.000000
-0.436981,-0.031172,-0.352718,-0.778139,0.000000,-0.628092
-0.247432,0.015050,0.296967,0.960664,0.000000,0.277712
-0.039826,0.013344,0.407994,-0.995647,0.000000,0.093200
0.268309,0.013078,-0.249914,-0.438739,0.000000,0.898615
-0.243570,0.165163,-0.040775,-0.986276,0.000000,-0.165108
0.011470,0.007535,0.561454,0.020426,0.000000,0.999791
0.034406,0.184759,0.244551,0.139317,0.000000,0.990248
0.206161,-0.034743,-0.521997,0.000000,-1.000000,0.000000
0.245293,0.034743,0.127630,0.000000,1.000000,0.000000
0.266462,-0.003129,-0.320841,-0.484910,0.000000,-0.874564
-0.356686,-0.034743,-0.031507,0.000000,-1.000000,0.000000
-0.408148,-0.033462,0.039811,-0.097060,0.000000,0.995279
0.039999,0.004335,0.403929,0.999965,0.000000,-0.008403
-0.272904,-0.034743,0.124155,0.000000,-1.000000,0.000000
-0.040000,-0.006057,-0.404259,-1.000000,0.000000,0.000162
-0.230565,-0.028193,0.088482,-0.933613,0.000000,0.358284
-0.326625,-0.034743,-0.287063,0.000000,-1.000000,0.000000
0.559940,-0.004172,-0.042778,0.997094,0.000000,-0.076176
-0.250128,-0.034743,-0.003720,0.000000,-1.000000,0.000000
-0.003507,0.034743,-0.267550,0.000000,1.000000,0.000000
-0.137253,-0.034743,-0.506300,0.000000,-1.000000,0.000000
-0.006175,0.034743,-0.481627,0.000000,1.000000,0.000000
-0.305609,0.012543,0.471132,-0.544204,0.000000,0.838953
-0.158135,-0.034743,0.434754,0.000000,-1.000000,0.000000
-0.041076,-0.034743,0.262222,0.000000,-1.000000,0.000000
0.036597,-0.034743,-0.326404,0.000000,-1.000000,0.000000
-0.281754,0.014193,0.246070,0.102621,0.000000,-0.994721
0.325542,-0.007927,-0.290887,0.992069,0.000000,-0.125694
-0.182531,0.009155,0.531079,-0.325037,0.000000,0.945701
-0.040000,-0.018857,-0.404349,-0.999998,0.000000,-0.002088
0.061633,0.034743,0.471306,0.000000,1.000000,0.000000
0.321755,-0.034743,0.294113,0.000000,-1.000000,0.000000
0.393046,0.034743,-0.111080,0.000000,1.000000,0.000000
-0.389313,0.004617,-0.404720,-0.693256,0.000000,-0.720691
0.222667,0.136796,0.106810,0.901634,0.000000,0.432501
0.294115,-0.008268,0.324998,0.206399,0.000000,0.978468
-0.246695,-0.001296,0.277723,0.979097,0.000000,-0.203396
0.494285,-0.020061,0.266542,0.880182,0.000000,0.474636
0.234665,-0.034743,0.147535,0.000000,-1.000000,0.000000
0.166551,-0.034743,-0.253191,0.000000,-1.000000,0.000000
-0.438699,-0.021365,0.020356,-0.860828,0.000000,0.508896
-0.324292,0.033028,0.296944,-0.960836,0.000000,0.277119
-0.321553,-0.022070,0.267805,-0.892353,0.000000,-0.451339
-0.028020,0.034743,-0.260952,0.000000,1.000000,0.000000
0.228547,-0.034743,-0.098711,0.000000,-1.000000,0.000000
0.175434,-0.020549,-0.173816,0.710374,0.000000,-0.703824
0.223998,0.034743,0.232230,0.000000,1.000000,0.000000
-0.301886,0.034743,-0.074726,0.000000,1.000000,0.000000
0.261676,0.023850,-0.317721,-0.604574,0.000000,-0.796549
-0.212670,0.034743,0.415554,0.000000,1.000000,0.000000
0.259936,0.034743,-0.119618,0.000000,1.000000,0.000000
-0.300191,0.017931,-0.248515,-0.358311,0.000000,0.933602
-0.275942,0.034743,0.037791,0.000000,1.000000,0.000000
-0.162501,0.278203,0.185964,-0.658007,0.000000,0.753012
0.060195,-0.034743,0.451118,0.000000,-1.000000,0.000000
-0.243372,0.276731,0.041943,-0.985472,0.000000,0.169838
-0.231557,0.028153,0.085851,-0.937631,0.000000,0.347633
0.019288,0.023498,0.369223,0.482209,0.000000,-0.876056
0.007206,0.127710,-0.246854,0.029179,0.000000,-0.999574
0.524607,0.025155,-0.200374,0.934177,0.000000,-0.356809
-0.409441,-0.034743,0.010103,0.000000,-1.000000,0.000000
-0.182302,0.169477,-0.166599,-0.738184,0.000000,-0.674599
0.391959,0.011977,0.038060,-0.307654,0.000000,0.951498
0.436432,-0.010257,0.023777,0.804152,0.000000,0.594424
-0.301444,-0.034743,0.073991,0.000000,-1.000000,0.000000
-0.070532,-0.033443,-0.557125,-0.125597,0.000000,-0.992081
-0.021263,-0.034743,-0.297913,0.000000,-1.000000,0.000000
-0.055647,-0.034743,0.246725,0.000000,-1.000000,0.000000
0.084451,-0.034743,0.236742,0.000000,-1.000000,0.000000
-0.017151,-0.032576,0.561310,-0.030541,0.000000,0.999534
0.256886,0.010456,0.258281,-0.724331,0.000000,-0.689452
0.247608,-0.025080,-0.504037,0.440920,0.000000,-0.897547
0.308679,-0.020544,0.253007,0.570511,0.000000,-0.821290
-0.293585,-0.028959,-0.325106,-0.193142,0.000000,-0.981171
-0.235019,-0.026247,-0.510028,-0.418503,0.000000,-0.908215
-0.452079,-0.013443,-0.333148,-0.805024,0.000000,-0.593242
-0.169071,-0.002211,-0.180012,-0.684608,0.000000,-0.728911
-0.144102,-0.034743,0.233417,0.000000,-1.000000,0.000000
-0.046418,0.009812,-0.242558,-0.187959,0.000000,-0.982177
0.265876,0.034743,-0.431536,0.000000,1.000000,0.000000
0.357713,0.034743,0.374830,0.000000,1.000000,0.000000
-0.281329,-0.034743,0.346074,0.000000,-1.000000,0.000000
0.239339,0.049032,0.060875,0.969144,0.000000,0.246497
-0.375724,-0.033167,-0.417366,-0.669058,0.000000,-0.743211
0.529362,-0.034743,-0.089331,0.000000,-1.000000,0.000000
0.423539,-0.034743,-0.309150,0.000000,-1.000000,0.000000
0.182461,-0.034743,0.496111,0.000000,-1.000000,0.000000
-0.517260,-0.023935,-0.218642,-0.921094,0.000000,-0.389340
-0.114756,0.157716,-0.218678,-0.464677,0.000000,-0.885480
-0.268398,0.003315,-0.249871,0.436531,0.000000,0.899689
0.175216,-0.034743,-0.476633,0.000000,-1.000000,0.000000
0.419848,0.034743,0.090855,0.000000,1.000000,0.000000
-0.246846,0.093066,-0.007503,-0.999538,0.000000,-0.030382
0.527665,-0.016138,-0.192179,0.939621,0.000000,-0.342216
-0.387595,0.034743,-0.347361,0.000000,1.000000,0.000000
0.245954,0.033831,-0.283098,-0.997615,0.000000,0.069018
-0.268148,-0.034743,0.103064,0.000000,-1.000000,0.000000
-0.264957,0.029804,0.319963,0.522542,0.000000,0.852614
-0.548884,0.000445,0.118699,-0.977406,0.000000,0.211369
-0.382824,-0.034743,0.131220,0.000000,-1.000000,0.000000
0.046859,0.287933,0.242473,0.189743,0.000000,0.981834
-0.406742,-0.014500,0.039923,-0.061909,0.000000,0.998082
0.219956,0.246905,0.112287,0.890657,0.000000,0.454676
0.015732,-0.019017,0.441042,0.393308,0.000000,0.919407
-0.324395,-0.028978,0.296581,-0.963405,0.000000,0.268052
-0.019754,0.032669,0.439047,-0.493847,0.000000,0.869549
0.298800,-0.032981,-0.475480,0.532078,0.000000,-0.846695
0.243425,0.034743,-0.311480,0.000000,1.000000,0.000000
-0.135262,-0.034743,0.458575,0.000000,-1.000000,0.000000
0.269603,-0.006625,0.322407,-0.406402,0.000000,0.913694
-0.280206,0.034743,0.262661,0.000000,1.000000,0.000000
0.385373,-0.015567,0.035257,-0.472323,0.000000,0.881426
0.491782,-0.020946,0.271133,0.875725,0.000000,0.482811
-0.472169,0.034743,-0.041863,0.000000,1.000000,0.000000
0.439296,0.007308,-0.019309,0.875773,0.000000,-0.482723
-0.242369,0.214515,0.047393,-0.981413,0.000000,0.191905
0.284380,0.034743,0.409646,0.000000,1.000000,0.000000
-0.270757,0.015879,-0.322898,0.377555,0.000000,-0.925987
0.384477,-0.034743,0.347805,0.000000,-1.000000,0.000000
-0.232149,-0.012039,0.511341,-0.413392,0.000000,0.910553
-0.252913,-0.034743,0.275628,0.000000,-1.000000,0.000000
0.144671,0.169111,-0.200148,0.585810,0.000000,-0.810449
-0.192908,-0.034743,-0.209635,0.000000,-1.000000,0.000000
0.270903,0.015022,-0.322958,-0.373909,0.000000,-0.927465
-0.024456,0.009596,-0.435919,-0.611390,0.000000,-0.791329
0.447200,-0.034743,0.107303,0.000000,-1.000000,0.000000
-0.188416,0.034743,0.181067,0.000000,1.000000,0.000000
0.123876,0.167518,-0.213644,0.501603,0.000000,-0.865098
0.328363,-0.034743,-0.446150,0.000000,-1.000000,0.000000
-0.107916,-0.027265,-0.222133,-0.436977,0.000000,-0.899473
0.283597,0.034743,-0.229239,0.000000,1.000000,0.000000
0.153905,0.034743,0.244323,0.000000,1.000000,0.000000
0.006760,0.276066,-0.246867,0.027372,0.000000,-0.999625
0.267719,-0.034743,-0.266182,0.000000,-1.000000,0.000000
0.178583,0.034743,0.185650,0.000000,1.000000,0.000000
0.314866,0.034743,0.019221,0.000000,1.000000,0.000000
0.039497,0.005921,-0.410590,0.987420,0.000000,-0.158122
-0.246890,0.271799,0.005873,-0.999717,0.000000,0.023780
0.528007,-0.032420,0.191235,0.940232,0.000000,0.340535
0.528788,-0.014007,0.189067,0.941621,0.000000,0.336674
-0.010322,-0.024514,-0.442911,-0.258044,0.000000,-0.966133
0.367140,-0.029539,0.014890,-0.928128,0.000000,0.372260
0.423752,-0.010748,0.368506,0.754583,0.000000,0.656205
0.390102,-0.033694,0.037408,-0.354101,0.000000,0.935207
-0.003664,-0.034743,-0.382555,0.000000,-1.000000,0.000000
-0.320548,0.005110,-0.305776,-0.867216,0.000000,-0.497932
-0.107064,-0.034743,0.268781,0.000000,-1.000000,0.000000
0.305522,0.016182,0.251025,0.491574,0.000000,-0.870836
0.009628,0.102498,-0.246772,0.038987,0.000000,-0.999240
0.101876,0.190337,-0.224967,0.412520,0.000000,-0.910948
0.420543,-0.034743,0.194613,0.000000,-1.000000,0.000000
0.218156,-0.034743,0.475981,0.000000,-1.000000,0.000000
-0.377122,0.026098,-0.029380,0.678596,0.000000,-0.734512
0.315410,-0.021653,-0.312817,0.738785,0.000000,-0.673942
-0.026512,0.004605,-0.434218,-0.662790,0.000000,-0.748806
0.321269,0.014011,0.304464,0.885242,0.000000,0.465130
-0.180675,0.025557,-0.168361,-0.731598,0.000000,-0.681736
-0.354411,-0.034743,0.238350,0.000000,-1.000000,0.000000
0.284855,0.008998,0.245872,-0.025088,0.000000,-0.999685
0.229239,0.165486,0.091863,0.928243,0.000000,0.371974
0.510307,-0.034743,0.205002,0.000000,-1.000000,0.000000
0.256814,0.025477,-0.258356,-0.726124,0.000000,0.687564
0.310787,-0.027105,0.317141,0.623199,0.000000,0.782064
-0.004583,-0.034743,0.343542,0.000000,-1.000000,0.000000
-0.481464,0.034743,-0.145788,0.000000,1.000000,0.000000
-0.124330,-0.034743,-0.520923,0.000000,-1.000000,0.000000
-0.009211,0.005573,0.246788,-0.037299,0.000000,0.999304
-0.241613,0.048196,-0.051108,-0.978352,0.000000,-0.206950
0.029113,0.005197,0.431696,0.727820,0.000000,0.685768
-0.315545,-0.005447,-0.312668,-0.742150,0.000000,-0.670234
0.246199,0.032672,-0.280653,-0.991494,0.000000,0.130149
0.421797,-0.034743,0.177656,0.000000,-1.000000,0.000000
0.211396,0.018129,0.520264,0.376436,0.000000,0.926443
0.054785,0.024955,0.558893,0.097557,0.000000,0.995230
-0.003018,-0.032343,0.364380,-0.075451,0.000000,-0.997149
0.024554,0.034743,-0.539983,0.000000,1.000000,0.000000
0.261511,0.034743,-0.017649,0.000000,1.000000,0.000000
0.246298,0.001757,0.291768,-0.989028,0.000000,0.147730
-0.554226,-0.016767,0.090534,-0.986919,0.000000,0.161215
-0.232285,0.027547,-0.511279,-0.413634,0.000000,-0.910443
0.246006,-0.032100,-0.289287,-0.996321,0.000000,-0.085702
-0.431695,0.034743,-0.017479,0.000000,1.000000,0.000000
0.026210,0.283469,0.245565,0.106132,0.000000,0.994352
-0.226188,0.147523,-0.099136,-0.915892,0.000000,-0.401426
0.020645,-0.033648,-0.370005,0.516115,0.000000,0.856519
-0.243338,0.034743,-0.205716,0.000000,1.000000,0.000000
-0.051058,0.021659,0.241624,-0.206748,0.000000,0.978394
-0.213713,-0.034743,-0.159988,0.000000,-1.000000,0.000000
0.039947,0.008421,-0.406315,0.998687,0.000000,-0.051230
-0.381179,0.032557,-0.032665,0.577176,0.000000,-0.816620
0.450172,0.006117,0.335719,0.801630,0.000000,0.597821
-0.246260,-0.034743,0.436144,0.000000,-1.000000,0.000000
0.104102,0.034743,0.508377,0.000000,1.000000,0.000000
0.401136,0.029952,0.039877,-0.078228,0.000000,0.996936
0.137481,0.119612,-0.205154,0.556693,0.000000,-0.830718
-0.096058,0.034743,0.495811,0.000000,1.000000,0.000000
0.057431,-0.034743,-0.448726,0.000000,-1.000000,0.000000
0.153848,-0.034743,-0.421891,0.000000,-1.000000,0.000000
0.039896,-0.004711,0.401385,0.997404,0.000000,-0.072005
0.431611,-0.022589,-0.029193,0.683646,0.000000,-0.729813
-0.400988,0.034743,0.250671,0.000000,1.000000,0.000000
0.085550,-0.004222,0.231668,0.346414,0.000000,0.938082
-0.291827,0.034743,-0.449815,0.000000,1.000000,0.000000
0.099317,-0.034743,0.361821,0.000000,-1.000000,0.000000
0.411188,-0.034743,-0.115158,0.000000,-1.000000,0.000000
-0.263497,-0.034548,0.495915,-0.469214,0.000000,0.883084
-0.219629,-0.034743,-0.412309,0.000000,-1.000000,0.000000
0.244000,0.034743,-0.068826,0.000000,1.000000,0.000000
-0.174377,0.098153,0.174877,-0.706094,0.000000,0.708118
-0.229045,0.024885,0.092345,-0.927458,0.000000,0.373927
-0.015913,-0.010415,0.367567,-0.397819,0.000000,-0.917464
0.113824,0.280301,-0.219165,0.460900,0.000000,-0.887452
0.550528,0.028777,0.110822,0.980335,0.000000,0.197342
-0.259659,-0.026565,-0.255633,0.654990,0.000000,0.755637
-0.325667,0.000389,-0.289773,-0.995202,0.000000,-0.097842
0.204313,0.034743,-0.450026,0.000000,1.000000,0.000000
-0.480212,0.032102,-0.291134,-0.855121,0.000000,-0.518428
0.136044,-0.034743,0.479833,0.000000,-1.000000,0.000000
0.374534,-0.008539,-0.026759,-0.743277,0.000000,-0.668983
-0.431223,-0.009716,0.029552,-0.673928,0.000000,0.738797
0.365095,0.030428,-0.008103,-0.979269,0.000000,-0.202564
-0.296028,0.034743,-0.161307,0.000000,1.000000,0.000000
0.265894,0.029883,-0.494634,0.473482,0.000000,-0.880804
0.325845,0.020898,0.284797,0.999648,0.000000,-0.026540
0.019048,0.030588,0.439439,0.476212,0.000000,0.879330
0.430118,-0.025729,0.030523,0.646303,0.000000,0.763081
0.075905,-0.034743,0.333131,0.000000,-1.000000,0.000000
0.484583,-0.034743,0.017097,0.000000,-1.000000,0.000000
0.400389,0.018275,-0.393766,0.712979,0.000000,-0.701186
0.239243,-0.034743,0.069767,0.000000,-1.000000,0.000000
-0.008056,0.099442,-0.246828,-0.032619,0.000000,-0.999468
-0.561014,-0.015320,-0.025012,-0.999008,0.000000,-0.044539
-0.147296,0.034743,0.499574,0.000000,1.000000,0.000000
0.003443,-0.031269,0.364414,0.086087,0.000000,-0.996288
0.255056,0.034727,-0.311377,-0.770073,0.000000,-0.637956
-0.001591,0.013333,-0.444234,-0.039784,0.000000,-0.999208
0.459276,-0.012364,0.323153,0.817841,0.000000,0.575444
0.410938,0.034743,0.280960,0.000000,1.000000,0.000000
-0.040890,0.038905,0.243551,-0.165575,0.000000,0.986197
0.236042,0.034743,0.120567,0.000000,1.000000,0.000000
-0.196659,0.130401,0.149380,-0.796320,0.000000,0.604875
-0.290230,-0.002363,-0.246098,-0.109272,0.000000,0.994012
0.361405,0.034743,0.168388,0.000000,1.000000,0.000000
-0.325742,-0.033364,0.288910,-0.997086,0.000000,0.076283
-0.127557,-0.034743,0.435119,0.000000,-1.000000,0.000000
-0.345050,-0.034743,0.080697,0.000000,-1.000000,0.000000
-0.317656,-0.018728,0.261591,-0.794934,0.000000,-0.606696
0.206273,0.034743,-0.386358,0.000000,1.000000,0.000000
-0.267998,-0.034743,-0.120497,0.000000,-1.000000,0.000000
-0.396111,-0.015962,0.039160,0.203854,0.000000,0.979001
0.239727,0.034743,0.407766,0.000000,1.000000,0.000000
0.102694,0.026751,0.224595,0.415832,0.000000,0.909442
0.299757,0.034743,-0.184400,0.000000,1.000000,0.000000
-0.431840,-0.033577,-0.358994,-0.768984,0.000000,-0.639268
0.267247,0.034743,0.275950,0.000000,1.000000,0.000000
0.073598,-0.034743,0.373614,0.000000,-1.000000,0.000000
0.325243,-0.024272,0.292849,0.984615,0.000000,0.174740
0.103013,0.034743,-0.416613,0.000000,1.000000,0.000000
-0.039270,0.013136,-0.411874,-0.981742,0.000000,-0.190216
-0.184179,0.169953,-0.164521,-0.745784,0.000000,-0.666188
0.442717,-0.034743,-0.068990,0.000000,-1.000000,0.000000
0.316557,-0.025486,0.260215,0.767455,0.000000,-0.641103
-0.039021,-0.030561,-0.413062,-0.975518,0.000000,-0.219919
0.224076,0.046837,-0.103821,0.907340,0.000000,-0.420397
0.246586,-0.034743,0.064172,0.000000,-1.000000,0.000000
-0.264543,-0.027777,-0.319706,0.532892,0.000000,-0.846183
0.121249,-0.034743,-0.378657,0.000000,-1.000000,0.000000
-0.314013,-0.024274,-0.257445,-0.703857,0.000000,0.710342
0.282720,-0.022108,0.485213,0.503445,0.000000,0.864027
0.323127,0.034743,0.064614,0.000000,1.000000,0.000000
-0.266332,-0.032339,-0.494398,-0.474262,0.000000,-0.880384
-0.215037,0.250704,-0.121442,-0.870738,0.000000,-0.491747
-0.417534,-0.032476,-0.037735,-0.331714,0.000000,-0.943380
-0.200969,-0.034743,0.255825,0.000000,-1.000000,0.000000
-0.036692,0.029379,0.420192,-0.917311,0.000000,0.398172
0.126623,0.194223,-0.212027,0.512728,0.000000,-0.858551
0.242537,0.223152,-0.046527,0.982093,0.000000,-0.188399
0.271773,-0.030069,0.248421,-0.352151,0.000000,-0.935943
-0.087100,0.256221,0.231090,-0.352689,0.000000,0.935741
0.561024,0.001154,-0.024796,0.999025,0.000000,-0.044154
0.299148,-0.028587,-0.475261,0.532698,0.000000,-0.846305
-0.038325,-0.034743,-0.288158,0.000000,-1.000000,0.000000
0.418687,0.013079,-0.037310,0.360530,0.000000,-0.932748
-0.249839,0.034743,0.486111,0.000000,1.000000,0.000000
0.239536,-0.001746,-0.060095,0.969942,0.000000,-0.243337
-0.320537,-0.022166,-0.305795,-0.866948,0.000000,-0.498399
-0.458821,-0.002384,-0.323799,-0.817031,0.000000,-0.576594
-0.047345,-0.033924,0.559572,-0.084308,0.000000,0.996440
-0.049153,-0.034743,0.523388,0.000000,-1.000000,0.000000
-0.353024,0.005402,-0.436734,-0.628636,0.000000,-0.777699
0.211413,0.109425,0.127647,0.856062,0.000000,0.516873
0.416979,-0.023631,-0.037926,0.317824,0.000000,-0.948150
-0.013220,-0.034743,-0.482555,0.000000,-1.000000,0.000000
-0.240662,0.269262,-0.055416,-0.974499,0.000000,-0.224392
-0.175156,0.170414,0.174096,-0.709250,0.000000,0.704957
0.266962,-0.034743,-0.054288,0.000000,-1.000000,0.000000
0.392683,0.032065,0.401451,0.699257,0.000000,0.714871
0.272539,0.034743,0.244704,0.000000,1.000000,0.000000
0.445423,-0.031161,-0.341996,0.793172,0.000000,-0.608997
-0.324039,0.027263,-0.297786,-0.954511,0.000000,-0.298177
0.079172,-0.034743,0.346842,0.000000,-1.000000,0.000000
-0.097634,0.275554,-0.226841,-0.395345,0.000000,-0.918533
-0.497544,0.031055,-0.260408,-0.885985,0.000000,-0.463713
0.106077,0.243682,-0.223017,0.429530,0.000000,-0.903052
0.104519,0.034743,-0.508223,0.000000,1.000000,0.000000
-0.447596,-0.034743,0.233628,0.000000,-1.000000,0.000000
-0.466249,-0.034273,-0.313008,-0.830258,0.000000,-0.557380
-0.396988,0.034743,0.389899,0.000000,1.000000,0.000000
0.255959,-0.034743,0.250224,0.000000,-1.000000,0.000000
0.197504,0.034743,0.260510,0.000000,1.000000,0.000000
-0.293113,0.034743,-0.421712,0.000000,1.000000,0.000000
-0.013906,0.018359,0.441770,-0.347656,0.000000,0.937622
-0.095460,-0.034743,-0.284502,0.000000,-1.000000,0.000000
-0.323685,-0.014257,-0.298866,-0.945653,0.000000,-0.325179
-0.206234,0.064457,0.135855,-0.835092,0.000000,0.550110
-0.244064,0.281092,-0.037706,-0.988276,0.000000,-0.152681
0.242299,-0.021165,0.047751,0.981129,0.000000,0.193356
0.260978,0.021600,0.317179,-0.622011,0.000000,0.783009
0.089136,-0.018704,-0.230313,0.360933,0.000000,-0.932592
0.365879,-0.004020,0.011245,-0.959674,0.000000,0.281117
-0.561280,-0.031905,-0.018084,-0.999481,0.000000,-0.032202
-0.148041,0.004545,0.541707,-0.263619,0.000000,0.964627
-0.258245,-0.024976,-0.256920,0.690359,0.000000,0.723467
-0.247142,-0.001333,0.295909,0.967920,0.000000,0.251259
0.222929,-0.034743,-0.320186,0.000000,-1.000000,0.000000
-0.151128,-0.034743,0.224110,0.000000,-1.000000,0.000000
-0.319019,0.034743,-0.315793,0.000000,1.000000,0.000000
0.218480,0.034743,0.309261,0.000000,1.000000,0.000000
0.107750,-0.034743,0.255027,0.000000,-1.000000,0.000000
0.311198,-0.031430,-0.254909,0.633485,0.000000,0.773755
-0.206634,0.034743,0.220657,0.000000,1.000000,0.000000
0.444159,0.021988,-0.002913,0.997346,0.000000,-0.072813
-0.104152,0.034743,0.319612,0.000000,1.000000,0.000000
-0.332168,0.034743,0.022923,0.000000,1.000000,0.000000
0.185676,0.034743,-0.213058,0.000000,1.000000,0.000000
0.113506,-0.034743,0.297225,0.000000,-1.000000,0.000000
0.040355,-0.018443,-0.560120,0.071861,0.000000,-0.997415
0.302818,0.034743,0.246636,0.000000,1.000000,0.000000
0.260629,-0.034743,0.282200,0.000000,-1.000000,0.000000
0.134930,-0.034743,0.377976,0.000000,-1.000000,0.000000
-0.023808,-0.024880,0.436409,-0.595195,0.000000,0.803581
-0.196738,0.018260,-0.525982,-0.350334,0.000000,-0.936625
0.246240,0.139248,-0.018835,0.997087,0.000000,-0.076269
-0.095265,0.258863,0.227846,-0.385750,0.000000,0.922603
0.079861,-0.034743,0.482074,0.000000,-1.000000,0.000000
-0.234022,0.059428,0.078885,-0.947612,0.000000,0.319423
-0.230998,0.009011,0.511862,-0.411342,0.000000,0.911481
0.178327,0.034743,0.350248,0.000000,1.000000,0.000000
0.407824,-0.031161,0.386059,0.726220,0.000000,0.687463
-0.526444,0.032762,-0.195498,-0.937448,0.000000,-0.348126
0.411477,-0.010684,0.039345,0.180288,0.000000,0.983614
-0.290587,0.034743,0.031881,0.000000,1.000000,0.000000
0.009112,0.158847,0.246791,0.036898,0.000000,0.999319
-0.272369,0.034743,0.122406,0.000000,1.000000,0.000000
-0.221478,0.257608,0.109254,-0.896819,0.000000,0.442397
0.080750,-0.034743,0.301188,0.000000,-1.000000,0.000000
0.060927,0.034743,-0.514095,0.000000,1.000000,0.000000
0.385284,-0.017088,0.408557,0.686082,0.000000,0.727524
0.122760,0.038844,-0.214287,0.497087,0.000000,-0.867701
0.079495,0.034743,0.276065,0.000000,1.000000,0.000000
-0.299138,-0.012549,0.248128,-0.331984,0.000000,-0.943285
-0.400117,0.034743,0.136548,0.000000,1.000000,0.000000
-0.250376,0.020789,0.304323,0.887081,0.000000,0.461613
0.419909,0.029390,-0.036814,0.391081,0.000000,-0.920356
0.319516,0.001960,-0.307474,0.841416,0.000000,-0.540388
-0.541179,0.034340,0.149959,-0.963687,0.000000,0.267035
-0.170336,0.034743,0.422402,0.000000,1.000000,0.000000
-0.258349,0.034743,-0.146531,0.000000,1.000000,0.000000
0.210129,0.034743,-0.452329,0.000000,1.000000,0.000000
0.214850,-0.034743,0.185852,0.000000,-1.000000,0.000000
-0.182947,0.250994,0.165890,-0.740796,0.000000,0.671730
0.440015,0.009698,-0.017943,0.893746,0.000000,-0.448573
0.338069,0.018169,-0.448411,0.602005,0.000000,-0.798493
0.259917,-0.034743,0.179206,0.000000,-1.000000,0.000000
-0.202152,0.004526,-0.141858,-0.818562,0.000000,-0.574418
0.270646,-0.034743,-0.035718,0.000000,-1.000000,0.000000
0.237792,0.081661,-0.066663,0.962879,0.000000,-0.269933
0.535012,-0.020262,0.170658,0.952706,0.000000,0.303894
0.221207,0.034743,-0.245965,0.000000,1.000000,0.000000
-0.315510,-0.006634,0.259011,-0.741284,0.000000,-0.671192
-0.366453,-0.007323,0.425529,-0.652549,0.000000,0.757747
0.028649,-0.029495,0.376351,0.716221,0.000000,-0.697873
-0.357394,0.034743,0.429846,0.000000,1.000000,0.000000
-0.268178,0.004482,-0.321739,0.442021,0.000000,-0.897004
-0.039533,0.002194,0.410360,-0.988325,0.000000,0.152359
0.282156,0.011201,-0.246031,-0.092571,0.000000,0.995706
0.039703,0.017660,-0.399398,0.992569,0.000000,0.121686
-0.238519,0.127383,0.064012,-0.965823,0.000000,0.259202
0.511543,0.004908,-0.231702,0.910914,0.000000,-0.412596
0.203515,0.035840,-0.139896,0.824081,0.000000,-0.566472
-0.513671,-0.034743,0.156680,0.000000,-1.000000,0.000000
-0.027314,-0.034743,-0.324301,0.000000,-1.000000,0.000000
0.268677,0.024206,-0.249737,-0.429541,0.000000,0.903047
-0.493395,-0.022133,0.268186,-0.878598,0.000000,0.477563
0.245705,0.276836,-0.024864,0.994919,0.000000,-0.100679
-0.027809,-0.027513,0.433017,-0.695235,0.000000,0.718783
0.439803,-0.034743,0.223418,0.000000,-1.000000,0.000000
0.169473,-0.034743,-0.399517,0.000000,-1.000000,0.000000
0.240240,0.118279,0.057219,0.972789,0.000000,0.231694
0.074398,-0.034743,0.439438,0.000000,-1.000000,0.000000
-0.399137,-0.022906,-0.395035,-0.710750,0.000000,-0.703445
-0.163210,0.020648,-0.537332,-0.290630,0.000000,-0.956835
-0.444263,0.020606,-0.000489,-0.999925,0.000000,-0.012219
0.067944,0.145266,-0.237429,0.275123,0.000000,-0.961409
-0.258140,-0.033313,-0.257020,0.692967,0.000000,0.720969
0.257897,0.011522,-0.314461,-0.699059,0.000000,-0.715064
0.381580,-0.034743,0.382018,0.000000,-1.000000,0.000000
-0.075497,0.034743,-0.354796,0.000000,1.000000,0.000000
0.377372,-0.034743,-0.399176,0.000000,-1.000000,0.000000
0.334194,-0.034743,0.088995,0.000000,-1.000000,0.000000
0.022095,-0.034743,-0.345293,0.000000,-1.000000,0.000000
-0.246942,0.169535,-0.002991,-0.999927,0.000000,-0.012112
-0.295295,-0.007676,-0.246988,-0.235908,0.000000,0.971775
0.560158,0.016008,-0.039818,0.997483,0.000000,-0.070905
0.039771,-0.025818,0.399990,0.994270,0.000000,-0.106900
-0.000539,-0.023282,0.444262,-0.013473,0.000000,0.999909
-0.013958,0.024734,-0.366780,-0.348955,0.000000,0.937140
0.039909,-0.005746,0.406963,0.997724,0.000000,0.067433
0.247146,0.014479,-0.275792,-0.967813,0.000000,0.251671
-0.561363,-0.030564,0.015310,-0.999628,0.000000,0.027262
0.325727,-0.022638,0.282611,0.996698,0.000000,-0.081203
0.273962,0.026194,0.324049,-0.297417,0.000000,0.954748
-0.522780,0.025913,0.205094,-0.930924,0.000000,0.365214
-0.270999,0.030800,0.322996,0.371488,0.000000,0.928438
-0.144357,0.034743,-0.206252,0.000000,1.000000,0.000000
-0.276109,0.017976,-0.324653,0.243742,0.000000,-0.969840
-0.392703,0.034743,0.081474,0.000000,1.000000,0.000000
0.160681,0.114858,-0.187539,0.650636,0.000000,-0.759390
0.042438,0.034743,0.279311,0.000000,1.000000,0.000000
0.057620,-0.034743,0.417561,0.000000,-1.000000,0.000000
-0.029447,-0.034743,0.402710,0.000000,-1.000000,0.000000
0.551557,0.001892,0.105580,0.982168,0.000000,0.188008
-0.325694,-0.016859,0.289485,-0.995884,0.000000,0.090641
-0.320698,0.034743,0.174632,0.000000,1.000000,0.000000
-0.246636,0.019694,-0.293707,0.980564,0.000000,-0.196202
0.259187,0.002131,-0.256049,-0.666800,0.000000,0.745236
0.267053,-0.015617,-0.250555,-0.470140,0.000000,0.882592
0.027055,0.006108,-0.374803,0.676378,0.000000,0.736555
0.031350,-0.026494,-0.379423,0.783752,0.000000,0.621075
0.095952,-0.034743,0.395841,0.000000,-1.000000,0.000000
0.442454,-0.034743,0.136090,0.000000,-1.000000,0.000000
-0.239474,0.110005,-0.060343,-0.969689,0.000000,-0.244344
0.419595,0.034743,0.050464,0.000000,1.000000,0.000000
-0.190397,-0.012120,-0.528310,-0.339044,0.000000,-0.940770
-0.418631,0.025979,0.037331,-0.359138,0.000000,0.933284
0.364329,-0.032767,-0.002248,-0.998419,0.000000,-0.056208
-0.237748,0.222147,0.066819,-0.962702,0.000000,0.270565
-0.432730,-0.034743,0.073998,0.000000,-1.000000,0.000000
0.032906,-0.026161,-0.427007,0.822658,0.000000,-0.568536
0.365000,-0.034743,-0.059016,0.000000,-1.000000,0.000000
0.044241,0.034743,-0.325612,0.000000,1.000000,0.000000
0.136611,0.049006,0.205734,0.553173,0.000000,0.833066
0.089098,-0.034743,-0.396064,0.000000,-1.000000,0.000000
-0.262332,0.000632,0.318209,0.588165,0.000000,0.808741
