x,y,z,nx,ny,nz
-40.736618,-5.042451,50.744369,1.000000,-0.000000,0.000000
-19.540019,-9.068336,-3.374695,0.000000,0.000000,-1.000000
0.485592,-3.467848,3.374695,0.000000,-0.000000,1.000000
-36.638188,19.505152,2.198290,0.000000,1.000000,0.000000
34.371297,-6.659059,-3.374695,0.000000,0.000000,-1.000000
-42.130812,-18.880100,56.688263,0.000000,0.000000,1.000000
-44.147309,4.387951,56.688263,0.000000,-0.000000,1.000000
-14.048439,1.656516,-3.374695,0.000000,0.000000,-1.000000
-41.448381,10.196680,56.688263,0.000000,0.000000,1.000000
39.332217,-17.306142,-3.374695,0.000000,0.000000,-1.000000
-27.966130,-15.222798,-3.374695,0.000000,0.000000,-1.000000
33.810972,19.505152,3.090310,0.000000,1.000000,0.000000
-12.378870,7.438501,-3.374695,0.000000,0.000000,-1.000000
-40.736618,1.545467,30.948152,1.000000,-0.000000,0.000000
-21.896866,19.505152,-0.833331,0.000000,1.000000,0.000000
-47.486008,-0.150192,27.971264,-1.000000,0.000000,-0.000000
-39.126148,-19.505152,0.157836,0.000000,-1.000000,0.000000
-47.486008,12.191919,49.345143,-1.000000,0.000000,0.000000
33.519397,-6.025926,3.374695,0.000000,-0.000000,1.000000
-47.486008,-4.006012,2.666232,-1.000000,0.000000,0.000000
-47.486008,-13.847007,18.359884,-1.000000,0.000000,0.000000
-47.486008,3.117644,52.262981,-1.000000,0.000000,0.000000
-47.486008,2.911348,43.410843,-1.000000,0.000000,0.000000
-30.435626,16.878852,-3.374695,0.000000,-0.000000,-1.000000
-47.486008,0.993645,3.233446,-1.000000,0.000000,0.000000
-44.316729,19.505152,48.928721,0.000000,1.000000,0.000000
-45.521439,19.505152,30.559332,0.000000,1.000000,0.000000
-40.736618,-4.683774,19.421287,1.000000,0.000000,-0.000000
-4.340812,-18.574970,3.374695,0.000000,-0.000000,1.000000
-6.596453,-17.857940,-3.374695,0.000000,0.000000,-1.000000
-29.165858,12.061661,3.374695,0.000000,-0.000000,1.000000
-40.736618,16.015299,51.294685,1.000000,0.000000,0.000000
-43.746630,-19.505152,53.725917,0.000000,-1.000000,0.000000
45.409149,-18.794533,3.374695,0.000000,-0.000000,1.000000
24.680270,2.620951,-3.374695,0.000000,0.000000,-1.000000
8.547016,15.328680,-3.374695,0.000000,-0.000000,-1.000000
-1.459824,19.505152,-1.438600,-0.000000,1.000000,0.000000
-40.736618,4.088890,31.847616,1.000000,-0.000000,0.000000
-30.932783,-4.567978,-3.374695,0.000000,0.000000,-1.000000
-47.486008,-15.352708,23.812355,-1.000000,0.000000,0.000000
-40.736618,7.256072,10.711354,1.000000,0.000000,-0.000000
39.641820,-13.325621,3.374695,0.000000,-0.000000,1.000000
-30.136134,-1.800938,3.374695,0.000000,-0.000000,1.000000
-44.860658,5.724044,29.687145,0.000000,-0.634393,-0.773011
37.573275,-1.540067,3.374695,0.000000,-0.000000,1.000000
-46.990179,19.505152,37.695806,0.000000,1.000000,0.000000
19.779959,-6.868239,3.374695,0.000000,-0.000000,1.000000
-2.045071,-8.637105,-3.374695,0.000000,0.000000,-1.000000
3.781744,-4.542005,3.374695,0.000000,-0.000000,1.000000
-15.093120,4.866235,3.374695,0.000000,-0.000000,1.000000
-47.486008,12.369060,14.188778,-1.000000,0.000000,0.000000
-40.736618,8.311707,11.063385,1.000000,0.000000,-0.000000
-40.736618,-11.196218,39.528497,1.000000,0.000000,-0.000000
47.486008,-4.888137,3.347570,1.000000,-0.000000,0.000000
-40.736618,-18.811283,31.678867,1.000000,0.000000,-0.000000
-40.736618,-11.278543,56.290729,1.000000,-0.000000,0.000000
-47.486008,15.732152,-1.600393,-1.000000,0.000000,0.000000
-41.468287,-19.505152,43.028818,0.000000,-1.000000,0.000000
41.506110,-11.657210,-3.374695,0.000000,0.000000,-1.000000
2.921005,-0.555268,3.374695,0.000000,-0.000000,1.000000
-7.336921,-2.994231,3.374695,0.000000,-0.000000,1.000000
-47.486008,-15.079711,30.746503,-1.000000,0.000000,0.000000
-42.864951,-19.505152,-1.666459,0.000000,-1.000000,0.000000
-47.486008,-19.011361,27.961639,-1.000000,0.000000,0.000000
-46.185629,-19.505152,27.815984,0.000000,-1.000000,0.000000
-47.486008,11.295248,55.058590,-1.000000,0.000000,0.000000
44.230911,19.505152,2.562210,-0.000000,1.000000,0.000000
-40.736618,-1.832458,40.589193,1.000000,-0.000000,0.000000
-47.486008,6.693907,40.621939,-1.000000,0.000000,0.000000
-47.486008,-10.963509,35.100573,-1.000000,0.000000,0.000000
34.613663,16.569048,-3.374695,0.000000,-0.000000,-1.000000
-47.486008,0.072395,-3.159094,-1.000000,0.000000,0.000000
-40.237767,-10.335815,-3.374695,0.000000,0.000000,-1.000000
-40.736618,-0.079646,50.575176,1.000000,-0.000000,0.000000
38.502826,-1.191269,-3.374695,0.000000,0.000000,-1.000000
-21.565263,-17.751510,-3.374695,0.000000,0.000000,-1.000000
-10.949163,18.928450,-3.374695,0.000000,-0.000000,-1.000000
-28.347629,-19.505152,0.523581,0.000000,-1.000000,0.000000
2.409241,-19.505152,1.021184,0.000000,-1.000000,0.000000
-47.486008,-9.916803,42.373457,-1.000000,0.000000,0.000000
-3.791269,19.505152,1.030276,0.000000,1.000000,0.000000
47.486008,-0.151466,-3.112879,1.000000,0.000000,-0.000000
27.110525,6.749474,-3.374695,0.000000,0.000000,-1.000000
-13.050060,17.017578,3.374695,-0.000000,0.000000,1.000000
-9.201683,14.746816,3.374695,-0.000000,0.000000,1.000000
-3.410732,16.951691,-3.374695,0.000000,-0.000000,-1.000000
-24.004659,2.053665,-3.374695,0.000000,0.000000,-1.000000
-40.736618,-9.254523,25.051170,1.000000,0.000000,-0.000000
-47.486008,6.534088,56.529484,-1.000000,0.000000,0.000000
-44.412511,0.469029,56.688263,0.000000,-0.000000,1.000000
-14.705596,19.505152,2.247436,0.000000,1.000000,0.000000
-40.736618,19.294131,50.719754,1.000000,-0.000000,0.000000
-47.486008,-3.923355,29.452441,-1.000000,0.000000,0.000000
-47.105829,-10.018000,56.688263,0.000000,-0.000000,1.000000
-16.793626,14.843226,3.374695,-0.000000,0.000000,1.000000
-18.858715,-18.860957,3.374695,0.000000,-0.000000,1.000000
-47.486008,-4.741372,33.932517,-1.000000,0.000000,0.000000
-46.986615,3.885163,56.688263,0.000000,-0.000000,1.000000
11.992622,6.514147,1.115158,-0.471397,-0.881921,0.000000
23.095132,0.904306,3.374695,0.000000,-0.000000,1.000000
-40.736618,2.864904,51.464003,1.000000,-0.000000,0.000000
-40.736618,19.460679,24.805210,1.000000,-0.000000,0.000000
15.533648,12.204528,-3.374695,0.000000,-0.000000,-1.000000
44.082871,14.376881,3.374695,0.000000,-0.000000,1.000000
-47.486008,-3.721510,27.107121,-1.000000,0.000000,0.000000
-40.736618,-11.500591,14.942920,1.000000,0.000000,-0.000000
47.486008,-16.322326,-3.152289,1.000000,0.000000,-0.000000
-22.883958,-11.962121,-3.374695,0.000000,0.000000,-1.000000
-10.623390,14.846853,-3.374695,0.000000,-0.000000,-1.000000
-47.486008,-0.531745,28.951090,-1.000000,0.000000,-0.000000
-47.486008,13.529374,36.367965,-1.000000,0.000000,0.000000
-15.121074,11.013496,3.374695,0.000000,-0.000000,1.000000
47.486008,-1.708581,-0.572842,1.000000,0.000000,-0.000000
-34.701092,-19.505152,2.323923,0.000000,-1.000000,0.000000
-40.736618,-10.019457,7.127133,1.000000,0.000000,-0.000000
-40.736618,5.100472,7.357694,1.000000,0.000000,-0.000000
24.171264,16.229583,-3.374695,0.000000,-0.000000,-1.000000
-47.486008,-18.411540,51.281057,-1.000000,0.000000,0.000000
-47.486008,-7.117862,29.639065,-1.000000,0.000000,0.000000
25.055538,13.477271,3.374695,-0.000000,0.000000,1.000000
47.486008,5.652217,0.073099,1.000000,-0.000000,0.000000
-13.974009,-7.861825,3.374695,0.000000,-0.000000,1.000000
-40.736618,12.075042,48.406704,1.000000,-0.000000,0.000000
-47.486008,-2.206391,54.999257,-1.000000,0.000000,0.000000
-47.486008,6.443374,39.614756,-1.000000,0.000000,0.000000
-44.912398,19.505152,25.187629,0.000000,1.000000,0.000000
-47.486008,-0.493346,26.890658,-1.000000,0.000000,-0.000000
0.425246,-13.226016,-3.374695,0.000000,0.000000,-1.000000
-1.456687,-6.008717,3.374695,0.000000,-0.000000,1.000000
-40.736618,-9.188533,36.063719,1.000000,0.000000,-0.000000
9.858436,-16.776349,3.374695,0.000000,-0.000000,1.000000
-40.736618,1.135051,53.204644,1.000000,-0.000000,0.000000
-47.486008,12.134290,29.044685,-1.000000,0.000000,0.000000
-11.626131,2.111903,3.374695,0.000000,-0.000000,1.000000
-45.092534,-19.505152,6.430784,0.000000,-1.000000,0.000000
-40.736618,-13.179349,25.164366,1.000000,0.000000,-0.000000
-14.296768,6.926976,-3.374695,0.000000,0.000000,-1.000000
-44.201418,-19.505152,8.680676,0.000000,-1.000000,0.000000
-41.972000,19.505152,40.267880,-0.000000,1.000000,0.000000
42.224962,-19.505152,-2.272957,0.000000,-1.000000,0.000000
1.457754,-18.699241,3.374695,0.000000,-0.000000,1.000000
-47.486008,2.337350,-1.553840,-1.000000,0.000000,0.000000
-47.152404,19.505152,13.341673,0.000000,1.000000,0.000000
-47.486008,-4.464088,55.669237,-1.000000,0.000000,0.000000
-47.486008,-11.872584,10.816223,-1.000000,0.000000,0.000000
35.644029,-10.286294,-3.374695,0.000000,0.000000,-1.000000
-47.486008,-4.348726,2.097614,-1.000000,0.000000,0.000000
42.051873,0.780696,3.374695,0.000000,-0.000000,1.000000
-47.486008,5.234765,0.805129,-1.000000,0.000000,0.000000
-40.736618,18.283898,24.609011,1.000000,-0.000000,0.000000
19.982182,-19.505152,-3.011892,0.000000,-1.000000,0.000000
-47.486008,-7.998102,4.139943,-1.000000,0.000000,0.000000
-26.932202,17.940137,3.374695,-0.000000,0.000000,1.000000
11.608327,-16.550125,-3.374695,0.000000,0.000000,-1.000000
-47.486008,12.858024,0.942442,-1.000000,0.000000,0.000000
14.465209,-9.308045,3.374695,0.000000,-0.000000,1.000000
-47.486008,18.971170,37.570261,-1.000000,0.000000,0.000000
-45.738675,7.587381,22.204725,0.000000,-0.634393,-0.773011
-40.736618,8.294945,5.440044,1.000000,0.000000,-0.000000
-47.486008,11.294127,11.449896,-1.000000,0.000000,0.000000
-28.015951,12.519570,-3.374695,0.000000,0.000000,-1.000000
11.790997,6.616690,-1.408904,-0.290285,-0.956940,0.000000
39.352257,-0.168702,-3.374695,0.000000,0.000000,-1.000000
-21.791799,19.505152,1.971393,0.000000,1.000000,0.000000
-39.755103,-10.287453,-3.374695,0.000000,0.000000,-1.000000
35.870793,11.497360,-3.374695,0.000000,0.000000,-1.000000
-35.764741,-19.505152,-0.963982,0.000000,-1.000000,0.000000
23.142281,-15.158003,3.374695,0.000000,-0.000000,1.000000
-47.486008,-7.557443,44.763490,-1.000000,0.000000,0.000000
-40.736618,-6.554280,40.622597,1.000000,-0.000000,0.000000
-40.736618,8.066920,17.739167,1.000000,0.000000,0.000000
-47.486008,2.963412,52.398573,-1.000000,0.000000,0.000000
-47.486008,-12.486668,43.738485,-1.000000,0.000000,0.000000
-18.519064,-16.859938,3.374695,0.000000,-0.000000,1.000000
-42.844476,-16.248052,-3.374695,0.000000,0.000000,-1.000000
-20.211946,-11.696757,3.374695,0.000000,-0.000000,1.000000
-18.466489,-9.034667,3.374695,0.000000,-0.000000,1.000000
14.481194,13.184042,3.374695,0.000000,-0.000000,1.000000
10.707747,9.019714,3.374695,-0.000000,0.000000,1.000000
-47.486008,-7.087696,32.872620,-1.000000,0.000000,0.000000
-0.092708,-10.745837,3.374695,0.000000,-0.000000,1.000000
23.058468,4.834275,-3.374695,0.000000,0.000000,-1.000000
-40.516949,18.985692,3.374695,0.000000,-0.000000,1.000000
44.616268,-3.097575,3.374695,0.000000,-0.000000,1.000000
-17.175680,14.201280,-3.374695,0.000000,-0.000000,-1.000000
-40.736618,16.475008,48.754389,1.000000,-0.000000,0.000000
-40.736618,-15.199658,16.016902,1.000000,0.000000,-0.000000
24.986291,-18.075482,-3.374695,0.000000,0.000000,-1.000000
42.145525,-7.428891,3.374695,0.000000,-0.000000,1.000000
-47.486008,0.566068,2.788161,-1.000000,0.000000,0.000000
-40.736618,-8.509542,39.958001,1.000000,0.000000,0.000000
7.972522,-1.229937,3.374695,0.000000,-0.000000,1.000000
47.486008,3.611807,-3.149699,1.000000,0.000000,-0.000000
-46.125136,-19.505152,53.429444,0.000000,-1.000000,0.000000
-40.736618,-7.767484,47.127514,1.000000,-0.000000,0.000000
-35.379965,13.917497,-3.374695,0.000000,0.000000,-1.000000
-1.827081,13.786105,-0.938411,0.290285,-0.956940,0.000000
14.820546,4.689911,-3.374695,0.000000,0.000000,-1.000000
-15.455998,-19.505152,-1.525878,0.000000,-1.000000,0.000000
3.757941,-9.466140,-3.374695,0.000000,0.000000,-1.000000
-40.736618,18.210625,13.146846,1.000000,-0.000000,0.000000
-47.486008,14.387621,52.881132,-1.000000,0.000000,0.000000
-47.486008,3.544966,36.589849,-1.000000,0.000000,0.000000
-24.736306,-4.891200,-3.374695,0.000000,0.000000,-1.000000
38.406316,-9.027461,3.374695,0.000000,-0.000000,1.000000
-37.879673,-19.081095,3.374695,0.000000,-0.000000,1.000000
39.373581,1.888616,-3.374695,0.000000,0.000000,-1.000000
43.821928,19.505152,-1.225859,-0.000000,1.000000,0.000000
29.352553,-8.217739,-3.374695,0.000000,0.000000,-1.000000
45.562062,-19.505152,0.254171,0.000000,-1.000000,0.000000
6.739032,7.664150,-3.374695,0.000000,-0.000000,-1.000000
3.118992,-7.884416,3.374695,0.000000,-0.000000,1.000000
-20.990819,3.167926,3.374695,0.000000,-0.000000,1.000000
-47.486008,-8.155850,16.870009,-1.000000,0.000000,0.000000
-23.732884,-17.525905,3.374695,0.000000,-0.000000,1.000000
-34.774307,10.300585,3.374695,0.000000,-0.000000,1.000000
-10.336429,11.946656,3.374695,-0.000000,-0.000000,1.000000
9.267256,12.412517,3.374695,0.000000,-0.000000,1.000000
-8.460527,19.505152,-0.118973,0.000000,1.000000,0.000000
-46.751045,4.267730,-3.374695,0.000000,0.000000,-1.000000
-31.641325,-9.325006,3.374695,0.000000,-0.000000,1.000000
11.077689,14.124948,3.374695,0.000000,-0.000000,1.000000
-12.380914,-4.235079,-3.374695,0.000000,0.000000,-1.000000
-32.049748,-1.399495,-3.374695,0.000000,0.000000,-1.000000
-10.898850,-19.505152,-2.297768,0.000000,-1.000000,0.000000
-10.172471,19.505152,0.640752,0.000000,1.000000,0.000000
-40.886665,2.660068,30.618926,0.000000,0.098015,-0.995185
-47.486008,-7.609365,18.451542,-1.000000,0.000000,-0.000000
-12.524839,-17.007426,-3.374695,0.000000,0.000000,-1.000000
14.235019,3.087822,3.374695,0.000000,0.000000,1.000000
47.486008,5.330995,-2.839295,1.000000,0.000000,-0.000000
-11.741236,14.678458,3.374695,-0.000000,0.000000,1.000000
-47.486008,-19.062611,56.283012,-1.000000,0.000000,0.000000
-30.199320,-19.505152,0.380177,0.000000,-1.000000,0.000000
-43.988622,19.505152,22.280006,-0.000000,1.000000,0.000000
35.624089,1.081205,-3.374695,0.000000,0.000000,-1.000000
-47.486008,13.019115,22.029001,-1.000000,0.000000,0.000000
-47.486008,3.812441,15.168496,-1.000000,0.000000,0.000000
-47.486008,-0.931175,34.420969,-1.000000,0.000000,0.000000
-47.486008,-7.119669,37.726749,-1.000000,0.000000,0.000000
-42.437940,-18.878828,-3.374695,0.000000,0.000000,-1.000000
-15.754407,0.785569,3.374695,0.000000,-0.000000,1.000000
17.882560,1.504855,-3.374695,0.000000,0.000000,-1.000000
27.460235,1.170700,3.374695,0.000000,-0.000000,1.000000
-19.223954,-8.040549,3.374695,0.000000,-0.000000,1.000000
-40.736618,-17.567709,50.761691,1.000000,0.000000,-0.000000
-47.486008,-12.042971,24.933732,-1.000000,0.000000,0.000000
31.533175,12.134750,-3.374695,0.000000,0.000000,-1.000000
30.685191,-12.229372,3.374695,0.000000,-0.000000,1.000000
-47.486008,-10.880272,5.404005,-1.000000,0.000000,0.000000
-13.800859,-6.105504,-3.374695,0.000000,0.000000,-1.000000
-40.736618,-6.624859,9.069887,1.000000,0.000000,-0.000000
31.295724,-0.017485,-3.374695,0.000000,0.000000,-1.000000
-47.153860,-19.091230,56.688263,0.000000,0.000000,1.000000
4.873468,17.845344,3.374695,-0.000000,0.000000,1.000000
-40.736618,-4.074004,33.366263,1.000000,-0.000000,0.000000
40.133021,2.452704,-3.374695,0.000000,0.000000,-1.000000
-47.486008,10.241727,48.101233,-1.000000,0.000000,0.000000
42.070684,17.819402,-3.374695,0.000000,-0.000000,-1.000000
-47.486008,-13.982788,42.049584,-1.000000,0.000000,0.000000
-40.736618,-2.383489,34.762890,1.000000,-0.000000,0.000000
-47.486008,10.551909,45.058555,-1.000000,0.000000,0.000000
-47.486008,-2.822110,55.239129,-1.000000,0.000000,0.000000
-40.736618,-8.092752,51.827951,1.000000,-0.000000,0.000000
17.226480,3.751023,3.374695,0.000000,-0.000000,1.000000
-40.736618,14.098002,5.592801,1.000000,0.000000,-0.000000
-34.792624,-19.505152,-2.404738,0.000000,-1.000000,0.000000
11.865480,16.589644,-3.374695,0.000000,-0.000000,-1.000000
21.249538,-18.323746,3.374695,0.000000,-0.000000,1.000000
-28.289905,-2.433163,3.374695,0.000000,-0.000000,1.000000
-47.486008,5.248744,50.639490,-1.000000,0.000000,0.000000
-47.486008,-7.962257,41.091787,-1.000000,0.000000,0.000000
-43.403159,19.505152,27.489016,-0.000000,1.000000,0.000000
-4.591860,-16.463539,3.374695,0.000000,-0.000000,1.000000
45.872096,-18.823738,3.374695,0.000000,-0.000000,1.000000
-42.958092,-19.505152,6.503725,0.000000,-1.000000,0.000000
3.187946,19.505152,3.243509,0.000000,1.000000,0.000000
16.483654,4.545193,-3.374695,0.000000,0.000000,-1.000000
-22.107484,-19.505152,-1.030255,0.000000,-1.000000,0.000000
-7.005172,10.824317,-3.374695,0.000000,0.000000,-1.000000
-47.486008,1.634326,30.881505,-1.000000,0.000000,-0.000000
44.323259,-2.531989,3.374695,0.000000,-0.000000,1.000000
-47.486008,5.336749,50.000249,-1.000000,0.000000,0.000000
19.958500,-1.386728,-3.374695,0.000000,0.000000,-1.000000
-47.486008,6.934975,15.138360,-1.000000,0.000000,0.000000
-2.470642,14.063310,-3.374695,0.000000,-0.000000,-1.000000
-47.486008,7.143501,10.990338,-1.000000,0.000000,0.000000
-47.486008,6.540463,40.215155,-1.000000,0.000000,0.000000
-47.486008,1.682565,11.736091,-1.000000,0.000000,0.000000
27.734818,5.441036,-3.374695,0.000000,0.000000,-1.000000
-15.647870,13.686407,-3.374695,0.000000,-0.000000,-1.000000
-47.486008,3.927912,44.205348,-1.000000,0.000000,0.000000
-47.486008,-10.271186,49.888910,-1.000000,0.000000,0.000000
47.486008,11.716714,-0.336635,1.000000,-0.000000,0.000000
4.236328,18.151577,-3.374695,0.000000,-0.000000,-1.000000
-9.836659,-14.555701,3.374695,0.000000,-0.000000,1.000000
-45.055019,-19.505152,34.512091,0.000000,-1.000000,0.000000
12.181642,6.413113,-0.679500,-0.471397,-0.881921,0.000000
-47.486008,-11.053095,3.407329,-1.000000,0.000000,0.000000
31.534165,10.701542,-3.374695,0.000000,0.000000,-1.000000
38.212758,-13.223939,-3.374695,0.000000,0.000000,-1.000000
-40.736618,13.692823,44.940688,1.000000,-0.000000,0.000000
-25.334021,-1.203263,3.374695,0.000000,-0.000000,1.000000
-47.486008,19.042982,22.290481,-1.000000,0.000000,0.000000
-47.486008,18.324443,11.620601,-1.000000,0.000000,0.000000
7.671634,-19.505152,0.570285,0.000000,-1.000000,0.000000
-29.977851,5.905407,3.374695,0.000000,-0.000000,1.000000
34.565304,0.497035,3.374695,0.000000,-0.000000,1.000000
1.957301,19.505152,1.542058,0.000000,1.000000,0.000000
26.692310,-1.007653,3.374695,0.000000,-0.000000,1.000000
6.803012,-2.556334,-3.374695,0.000000,0.000000,-1.000000
41.149728,-18.982190,-3.374695,0.000000,0.000000,-1.000000
-47.484494,-10.112164,-3.374695,0.000000,0.000000,-1.000000
12.478236,0.663455,2.266111,-0.634394,0.773010,0.000000
-21.454024,17.453349,-3.374695,0.000000,-0.000000,-1.000000
20.673896,14.030122,-3.374695,0.000000,0.000000,-1.000000
-27.670527,18.238492,-3.374695,0.000000,-0.000000,-1.000000
-16.574091,7.100769,-3.374695,0.000000,0.000000,-1.000000
-29.715407,9.829029,-3.374695,0.000000,0.000000,-1.000000
23.279391,15.989568,-3.374695,0.000000,0.000000,-1.000000
16.437659,10.766347,-3.374695,0.000000,-0.000000,-1.000000
14.427602,8.218555,-3.374695,0.000000,-0.000000,-1.000000
2.955797,19.505152,-1.031748,-0.000000,1.000000,0.000000
-40.736618,-9.525499,48.813246,1.000000,-0.000000,0.000000
-6.922264,11.766840,3.374695,-0.000000,0.000000,1.000000
33.871673,-4.997490,3.374695,0.000000,-0.000000,1.000000
-40.736618,-4.942547,22.121561,1.000000,0.000000,-0.000000
-47.486008,-10.460408,16.801498,-1.000000,0.000000,0.000000
-32.759828,16.657261,3.374695,0.000000,-0.000000,1.000000
-47.486008,14.859692,30.668186,-1.000000,0.000000,0.000000
25.942906,17.618450,-3.374695,0.000000,-0.000000,-1.000000
13.337733,-6.358804,-3.374695,0.000000,0.000000,-1.000000
35.171733,-8.219768,3.374695,0.000000,-0.000000,1.000000
-7.478704,19.505152,1.021076,0.000000,1.000000,0.000000
-6.278717,-19.505152,0.827998,0.000000,-1.000000,0.000000
-47.486008,-8.138927,19.436569,-1.000000,0.000000,0.000000
-46.374075,16.593791,-3.374695,0.000000,0.000000,-1.000000
15.138983,19.505152,-0.820309,-0.000000,1.000000,0.000000
-18.035790,-19.505152,3.264300,0.000000,-1.000000,0.000000
-47.486008,7.932678,43.609629,-1.000000,0.000000,0.000000
13.689987,2.220056,-1.722316,-0.956940,0.290285,0.000000
-31.050705,-5.107702,-3.374695,0.000000,0.000000,-1.000000
-44.082594,5.127007,30.152487,0.000000,-0.471397,-0.881921
-40.736618,16.385308,37.121933,1.000000,-0.000000,0.000000
-13.272006,-12.623712,-3.374695,0.000000,0.000000,-1.000000
-40.736618,-15.165699,53.795977,1.000000,-0.000000,0.000000
-27.511841,19.505152,0.531612,0.000000,1.000000,0.000000
9.836782,-3.674271,3.374695,0.000000,-0.000000,1.000000
-47.486008,4.275868,32.373490,-1.000000,0.000000,-0.000000
16.468788,15.830650,3.374695,-0.000000,0.000000,1.000000
42.797903,-19.505152,-1.125745,0.000000,-1.000000,0.000000
21.655911,19.505152,3.055987,0.000000,1.000000,0.000000
24.482225,11.242143,3.374695,0.000000,-0.000000,1.000000
-44.565982,12.452780,-3.374695,0.000000,0.000000,-1.000000
-22.794647,-17.116973,-3.374695,0.000000,0.000000,-1.000000
-41.735035,-19.505152,24.313652,0.000000,-1.000000,0.000000
-30.411238,-6.348695,3.374695,0.000000,-0.000000,1.000000
-39.389379,14.923117,-3.374695,0.000000,0.000000,-1.000000
-45.781547,-9.612875,-3.374695,0.000000,0.000000,-1.000000
-46.184668,16.326326,56.688263,0.000000,-0.000000,1.000000
16.987545,-14.751628,-3.374695,0.000000,0.000000,-1.000000
-23.372981,12.855482,-3.374695,0.000000,0.000000,-1.000000
30.276598,-5.607852,3.374695,0.000000,-0.000000,1.000000
6.593058,-15.039769,-3.374695,0.000000,0.000000,-1.000000
-40.736618,-5.624195,38.705611,1.000000,-0.000000,0.000000
-40.736618,-10.054608,45.923522,1.000000,-0.000000,0.000000
-47.425781,-0.055577,27.810465,0.000000,0.995185,-0.098017
-47.486008,-6.141699,25.123175,-1.000000,0.000000,0.000000
31.579710,-3.561602,-3.374695,0.000000,0.000000,-1.000000
-47.486008,-16.035226,41.578078,-1.000000,0.000000,0.000000
1.706527,12.800481,-0.100168,-0.773010,-0.634394,0.000000
-43.433422,-19.505152,17.887106,0.000000,-1.000000,0.000000
-26.989795,16.973864,-3.374695,0.000000,-0.000000,-1.000000
-44.035894,19.505152,37.736982,0.000000,1.000000,0.000000
-40.736618,16.560327,55.685128,1.000000,-0.000000,0.000000
-47.486008,-0.606724,11.607075,-1.000000,0.000000,0.000000
1.804456,-1.619768,-3.374695,0.000000,0.000000,-1.000000
-1.068108,3.399740,3.374695,0.000000,-0.000000,1.000000
31.986230,4.024844,-3.374695,0.000000,0.000000,-1.000000
-40.736618,10.680863,51.493402,1.000000,-0.000000,0.000000
10.269019,-19.505152,1.476324,0.000000,-1.000000,0.000000
5.982095,-17.096031,3.374695,0.000000,-0.000000,1.000000
-10.807371,-19.505152,1.375079,0.000000,-1.000000,0.000000
-46.530877,2.695813,-3.374695,0.000000,0.000000,-1.000000
-40.736618,18.959008,33.901844,1.000000,-0.000000,0.000000
7.099819,-6.323948,3.374695,0.000000,-0.000000,1.000000
-40.736618,11.169168,20.990575,1.000000,-0.000000,0.000000
-20.644244,-8.237170,-3.374695,0.000000,0.000000,-1.000000
-47.486008,9.672273,32.178645,-1.000000,0.000000,0.000000
-41.660953,-3.129808,56.688263,0.000000,0.000000,1.000000
-4.649773,-0.786905,-3.374695,0.000000,0.000000,-1.000000
-15.541548,-12.308621,-3.374695,0.000000,0.000000,-1.000000
-40.736618,8.335817,47.058148,1.000000,-0.000000,0.000000
36.649709,-16.881704,-3.374695,0.000000,0.000000,-1.000000
-40.736618,-7.341205,41.213468,1.000000,-0.000000,0.000000
-40.736618,-1.618490,13.055315,1.000000,0.000000,-0.000000
-25.467468,19.505152,2.702000,0.000000,1.000000,0.000000
-39.752628,-3.796929,3.374695,0.000000,-0.000000,1.000000
-42.080371,-19.505152,10.631547,0.000000,-1.000000,0.000000
-47.486008,6.788934,40.487020,-1.000000,0.000000,0.000000
-46.087795,19.505152,13.130268,-0.000000,1.000000,0.000000
-23.900810,-2.861708,-3.374695,0.000000,0.000000,-1.000000
47.486008,-1.858237,-1.664441,1.000000,0.000000,-0.000000
37.956033,-16.474521,-3.374695,0.000000,0.000000,-1.000000
-47.486008,3.248328,50.972004,-1.000000,0.000000,0.000000
-40.736618,-7.850877,11.822749,1.000000,0.000000,-0.000000
-47.486008,-13.405931,33.977950,-1.000000,0.000000,0.000000
-5.748358,4.419303,-3.374695,0.000000,0.000000,-1.000000
14.867685,-13.876391,-3.374695,0.000000,0.000000,-1.000000
40.975976,1.859211,-3.374695,0.000000,0.000000,-1.000000
47.486008,13.493559,0.695687,1.000000,-0.000000,0.000000
2.214265,12.049031,-1.774974,-0.881921,-0.471397,0.000000
43.423757,19.505152,-1.770243,-0.000000,1.000000,0.000000
-3.989482,-14.316445,-3.374695,0.000000,0.000000,-1.000000
-41.089167,8.544623,19.315061,0.000000,-0.995185,0.098017
4.389741,-8.768498,3.374695,0.000000,-0.000000,1.000000
-40.569888,-19.505152,1.747273,0.000000,-1.000000,0.000000
12.167254,-16.461689,-3.374695,0.000000,0.000000,-1.000000
-40.736618,-4.260858,37.085921,1.000000,-0.000000,0.000000
-6.179961,-6.581860,-3.374695,0.000000,0.000000,-1.000000
-41.502487,2.888078,56.688263,0.000000,0.000000,1.000000
-47.486008,18.450542,56.633804,-1.000000,0.000000,0.000000
1.938230,-19.505152,-1.736971,0.000000,-1.000000,0.000000
-40.736618,-15.848292,55.962065,1.000000,-0.000000,0.000000
-36.346560,-14.898903,-3.374695,0.000000,0.000000,-1.000000
36.452745,-6.619554,3.374695,0.000000,-0.000000,1.000000
-31.126008,19.100980,3.374695,-0.000000,0.000000,1.000000
-40.736618,5.639464,32.460920,1.000000,-0.000000,0.000000
-17.370226,17.195917,3.374695,-0.000000,0.000000,1.000000
-47.486008,-13.730246,7.151296,-1.000000,0.000000,0.000000
36.121516,8.888482,3.374695,0.000000,-0.000000,1.000000
-34.431541,19.505152,1.551865,0.000000,1.000000,0.000000
34.368122,19.505152,0.026779,-0.000000,1.000000,0.000000
24.384449,19.505152,-2.384036,-0.000000,1.000000,0.000000
38.214386,0.070450,-3.374695,0.000000,0.000000,-1.000000
-47.486008,-10.841800,45.088515,-1.000000,0.000000,0.000000
-47.486008,-19.006589,4.862150,-1.000000,0.000000,0.000000
-47.486008,15.796751,16.066917,-1.000000,0.000000,0.000000
-19.844924,19.505152,-3.238628,-0.000000,1.000000,0.000000
-47.486008,17.815227,49.264078,-1.000000,0.000000,0.000000
-47.486008,10.097948,50.930114,-1.000000,0.000000,0.000000
3.768605,-12.935770,-3.374695,0.000000,0.000000,-1.000000
11.724904,-16.404320,-3.374695,0.000000,0.000000,-1.000000
-47.486008,0.935384,3.445318,-1.000000,0.000000,0.000000
26.252915,2.046595,3.374695,0.000000,-0.000000,1.000000
-40.736618,-15.619771,26.201851,1.000000,0.000000,-0.000000
-40.736618,18.064632,10.545166,1.000000,-0.000000,0.000000
28.414141,5.149370,-3.374695,0.000000,0.000000,-1.000000
-40.736618,-8.854575,40.536146,1.000000,-0.000000,0.000000
-45.978202,-19.505152,43.430386,0.000000,-1.000000,0.000000
-32.041255,12.087453,-3.374695,0.000000,0.000000,-1.000000
-47.486008,10.680085,27.385206,-1.000000,0.000000,0.000000
33.787809,-19.505152,-0.778610,0.000000,-1.000000,0.000000
-0.522190,-17.802919,3.374695,0.000000,-0.000000,1.000000
-28.879910,12.918283,3.374695,0.000000,-0.000000,1.000000
13.335399,-6.126306,-3.374695,0.000000,0.000000,-1.000000
-47.486008,-7.362043,9.005528,-1.000000,0.000000,0.000000
-47.486008,-7.584163,24.349169,-1.000000,0.000000,0.000000
16.310110,11.072314,3.374695,-0.000000,0.000000,1.000000
-32.877699,2.440654,3.374695,0.000000,-0.000000,1.000000
-47.419363,-10.421950,-3.374695,0.000000,0.000000,-1.000000
-43.490401,8.182954,56.688263,0.000000,-0.000000,1.000000
-40.736618,-15.425105,10.055034,1.000000,0.000000,-0.000000
-42.315746,-7.178546,-3.374695,0.000000,0.000000,-1.000000
-7.815368,4.754446,-3.374695,0.000000,0.000000,-1.000000
23.177924,-13.101157,3.374695,0.000000,-0.000000,1.000000
-46.819648,-15.500149,56.688263,0.000000,-0.000000,1.000000
-16.212517,19.505152,0.877609,0.000000,1.000000,0.000000
-47.486008,-14.705768,13.563445,-1.000000,0.000000,0.000000
-40.736618,-3.906045,40.097940,1.000000,-0.000000,0.000000
10.448054,-9.299556,3.374695,0.000000,-0.000000,1.000000
-40.736618,-6.547953,47.717768,1.000000,-0.000000,0.000000
-40.736618,11.582158,30.769232,1.000000,-0.000000,0.000000
-40.736618,18.431149,10.996856,1.000000,-0.000000,0.000000
-32.533229,6.675383,-3.374695,0.000000,0.000000,-1.000000
35.568067,0.395051,-3.374695,0.000000,0.000000,-1.000000
43.428777,9.539599,3.374695,0.000000,-0.000000,1.000000
25.354086,4.004255,-3.374695,0.000000,0.000000,-1.000000
-43.813258,-19.505152,48.821767,0.000000,-1.000000,0.000000
-40.820825,19.505152,53.615385,-0.000000,1.000000,0.000000
-4.838162,9.230448,3.374695,-0.000000,-0.000000,1.000000
-47.486008,5.771559,13.882257,-1.000000,0.000000,0.000000
-39.701908,-1.140079,3.374695,0.000000,-0.000000,1.000000
-47.486008,-12.930030,4.387762,-1.000000,0.000000,0.000000
-29.779078,-9.614867,-3.374695,0.000000,0.000000,-1.000000
-10.355069,-10.260555,3.374695,0.000000,-0.000000,1.000000
45.871294,-17.690480,-3.374695,0.000000,0.000000,-1.000000
-18.400088,18.278725,3.374695,-0.000000,0.000000,1.000000
-47.486008,-16.474390,22.223103,-1.000000,0.000000,0.000000
40.239352,-5.384194,3.374695,0.000000,-0.000000,1.000000
0.147517,-7.900949,-3.374695,0.000000,0.000000,-1.000000
-7.033177,-2.053927,-3.374695,0.000000,0.000000,-1.000000
12.762815,8.713402,-3.374695,0.000000,-0.000000,-1.000000
40.663095,15.782431,-3.374695,0.000000,0.000000,-1.000000
-40.736618,8.229545,10.137299,1.000000,0.000000,-0.000000
-12.127303,13.251943,-3.374695,0.000000,-0.000000,-1.000000
-40.736618,-0.298154,8.652391,1.000000,0.000000,-0.000000
-39.709104,11.454353,-3.374695,0.000000,0.000000,-1.000000
-40.879196,-19.505152,17.287523,0.000000,-1.000000,0.000000
-40.736618,-8.556457,31.087102,1.000000,0.000000,-0.000000
-40.736618,-11.282612,25.997111,1.000000,0.000000,-0.000000
-40.736618,17.063001,41.132293,1.000000,-0.000000,0.000000
27.285993,-5.245087,-3.374695,0.000000,0.000000,-1.000000
8.945242,6.476473,0.767118,0.471397,-0.881921,0.000000
-40.736618,7.594240,12.430013,1.000000,0.000000,-0.000000
-47.486008,7.845829,11.362714,-1.000000,0.000000,0.000000
-33.606689,10.615742,3.374695,0.000000,-0.000000,1.000000
3.657024,-19.505152,2.873647,0.000000,-1.000000,0.000000
17.341114,19.505152,3.318556,0.000000,1.000000,0.000000
-8.806425,-5.164376,3.374695,0.000000,-0.000000,1.000000
-47.486008,-9.260103,28.391619,-1.000000,0.000000,0.000000
-40.736618,-10.116795,42.003229,1.000000,-0.000000,-0.000000
-47.486008,-19.280744,46.866552,-1.000000,0.000000,0.000000
-44.424994,19.505152,31.856749,0.000000,1.000000,0.000000
3.299791,-16.435676,-3.374695,0.000000,0.000000,-1.000000
35.663978,-12.018049,-3.374695,0.000000,0.000000,-1.000000
-40.736618,-10.021308,50.091973,1.000000,-0.000000,0.000000
-14.038030,-5.280809,3.374695,0.000000,-0.000000,1.000000
19.654392,-17.804133,3.374695,0.000000,-0.000000,1.000000
-24.707854,15.873687,3.374695,-0.000000,0.000000,1.000000
9.930287,7.351204,-3.374695,0.000000,-0.000000,-1.000000
43.575067,-13.893891,-3.374695,0.000000,0.000000,-1.000000
35.942788,11.803725,-3.374695,0.000000,0.000000,-1.000000
-45.822969,5.172007,56.688263,0.000000,-0.000000,1.000000
14.866785,10.710661,3.374695,-0.000000,0.000000,1.000000
-7.026625,13.136816,-3.374695,0.000000,-0.000000,-1.000000
-21.815076,-6.280910,3.374695,0.000000,-0.000000,1.000000
-43.811973,-5.631514,56.688263,0.000000,0.000000,1.000000
-17.926020,-2.036580,3.374695,0.000000,-0.000000,1.000000
-28.691102,11.854013,-3.374695,0.000000,0.000000,-1.000000
-43.333204,19.505152,5.656601,-0.000000,1.000000,0.000000
-45.340774,-19.505152,33.948313,0.000000,-1.000000,0.000000
-43.773706,19.505152,27.396624,-0.000000,1.000000,0.000000
-40.736618,7.369353,23.519013,1.000000,-0.000000,-0.000000
-7.319110,19.505152,-2.891228,-0.000000,1.000000,0.000000
-47.486008,13.834610,35.203002,-1.000000,0.000000,0.000000
0.066009,-15.399599,-3.374695,0.000000,0.000000,-1.000000
-8.935372,19.505152,-2.085223,-0.000000,1.000000,0.000000
-34.369299,-3.764343,-3.374695,0.000000,0.000000,-1.000000
-1.194233,-9.620699,3.374695,0.000000,-0.000000,1.000000
14.677477,-16.306237,-3.374695,0.000000,0.000000,-1.000000
-28.510975,-18.403803,3.374695,0.000000,-0.000000,1.000000
-47.486008,7.676648,44.534163,-1.000000,0.000000,0.000000
-47.486008,-2.321631,45.355355,-1.000000,0.000000,0.000000
-4.043953,11.678755,-0.813160,0.956940,-0.290285,0.000000
-47.486008,9.808101,16.118458,-1.000000,0.000000,0.000000
-40.736618,-1.713050,30.259658,1.000000,-0.000000,0.000000
-21.752594,-14.074706,3.374695,0.000000,-0.000000,1.000000
18.702143,11.053298,-3.374695,0.000000,-0.000000,-1.000000
14.489642,15.209607,3.374695,0.000000,-0.000000,1.000000
-45.890369,19.505152,52.909662,0.000000,1.000000,0.000000
40.993175,4.381561,-3.374695,0.000000,0.000000,-1.000000
-40.736618,-0.105454,3.806731,1.000000,0.000000,-0.000000
-42.482307,19.505152,54.630556,0.000000,1.000000,0.000000
37.365152,-19.505152,0.154001,0.000000,-1.000000,0.000000
-26.245031,18.340573,3.374695,-0.000000,0.000000,1.000000
-23.462595,13.620534,3.374695,0.000000,-0.000000,1.000000
37.655309,19.505152,0.935872,-0.000000,1.000000,0.000000
-35.793550,19.505152,1.076518,0.000000,1.000000,0.000000
38.454138,19.505152,3.167948,0.000000,1.000000,0.000000
-43.030381,19.505152,10.352064,-0.000000,1.000000,0.000000
47.486008,3.686605,2.020113,1.000000,-0.000000,0.000000
36.764182,-19.505152,-0.782633,0.000000,-1.000000,0.000000
-47.486008,-11.771527,37.942424,-1.000000,0.000000,0.000000
-12.359646,8.192365,-3.374695,0.000000,0.000000,-1.000000
20.967886,2.240266,3.374695,0.000000,-0.000000,1.000000
-37.540212,19.505152,1.437227,0.000000,1.000000,0.000000
45.802300,12.520334,3.374695,0.000000,-0.000000,1.000000
-40.615716,-5.741838,-3.374695,0.000000,0.000000,-1.000000
-40.736618,16.689190,12.258652,1.000000,-0.000000,0.000000
-40.736618,-4.748891,33.934887,1.000000,0.000000,0.000000
-2.371230,13.568455,2.158785,0.471396,-0.881922,0.000000
-47.486008,0.653135,3.091684,-1.000000,0.000000,0.000000
-40.736618,-5.335357,14.862719,1.000000,0.000000,0.000000
-40.736618,-6.606575,28.027709,1.000000,0.000000,-0.000000
46.820280,4.108403,-3.374695,0.000000,0.000000,-1.000000
-40.736618,-13.339589,32.342255,1.000000,0.000000,-0.000000
-46.028063,19.505152,9.017235,-0.000000,1.000000,0.000000
-3.839757,-19.505152,-2.400734,0.000000,-1.000000,0.000000
-23.596481,-6.866490,-3.374695,0.000000,0.000000,-1.000000
-16.912632,-19.505152,-3.323739,0.000000,-1.000000,0.000000
-14.359574,-17.307560,3.374695,0.000000,-0.000000,1.000000
-47.486008,-1.247121,40.264908,-1.000000,0.000000,0.000000
-36.444779,-19.505152,2.916713,0.000000,-1.000000,0.000000
-47.486008,-2.901974,6.883098,-1.000000,0.000000,0.000000
32.484369,-12.537919,3.374695,0.000000,-0.000000,1.000000
37.636727,18.700039,3.374695,-0.000000,0.000000,1.000000
-47.486008,-14.697358,13.743527,-1.000000,0.000000,0.000000
-29.601912,15.170697,3.374695,0.000000,-0.000000,1.000000
-31.905223,5.115235,3.374695,0.000000,-0.000000,1.000000
31.123469,15.721090,3.374695,0.000000,-0.000000,1.000000
-40.736618,15.468769,43.581926,1.000000,-0.000000,0.000000
-40.736618,-0.328257,56.246394,1.000000,-0.000000,0.000000
-40.736618,2.369363,54.704323,1.000000,-0.000000,0.000000
-44.374134,18.844603,56.688263,0.000000,-0.000000,1.000000
-6.519511,13.600749,3.374695,-0.000000,0.000000,1.000000
2.531979,11.091592,2.542084,-0.995185,-0.098017,0.000000
-41.662587,-19.505152,18.468459,0.000000,-1.000000,0.000000
25.574843,-4.567014,-3.374695,0.000000,0.000000,-1.000000
34.436975,13.726756,-3.374695,0.000000,0.000000,-1.000000
-9.366059,11.555006,3.374695,-0.000000,-0.000000,1.000000
-47.486008,-1.852850,20.259614,-1.000000,0.000000,0.000000
-47.486008,0.297688,-0.064356,-1.000000,0.000000,0.000000
-47.486008,13.101753,36.561792,-1.000000,0.000000,0.000000
0.174176,7.276223,1.911922,-0.290285,0.956940,0.000000
-45.476477,-4.881101,-3.374695,0.000000,0.000000,-1.000000
-13.206683,15.665691,3.374695,-0.000000,0.000000,1.000000
37.371899,17.529073,3.374695,0.000000,-0.000000,1.000000
12.656108,19.505152,2.301032,0.000000,1.000000,0.000000
-38.578362,19.505152,0.146375,0.000000,1.000000,0.000000
-40.736618,4.628616,10.849121,1.000000,0.000000,-0.000000
47.273926,-14.529553,3.374695,0.000000,-0.000000,1.000000
-47.486008,-17.495258,-2.040369,-1.000000,0.000000,0.000000
5.196577,-13.017394,3.374695,0.000000,-0.000000,1.000000
17.305006,18.717279,-3.374695,0.000000,-0.000000,-1.000000
-11.369776,-10.044754,-3.374695,0.000000,0.000000,-1.000000
-18.782477,19.505152,0.951601,0.000000,1.000000,0.000000
-40.736618,-14.809959,30.388340,1.000000,0.000000,-0.000000
-37.563333,-1.835115,-3.374695,0.000000,0.000000,-1.000000
-44.476002,-19.505152,7.818003,0.000000,-1.000000,0.000000
-47.486008,-15.868209,15.000005,-1.000000,0.000000,0.000000
-47.486008,12.097485,10.692347,-1.000000,0.000000,0.000000
-32.679103,18.836826,-3.374695,0.000000,-0.000000,-1.000000
40.127744,-19.505152,-2.021276,0.000000,-1.000000,0.000000
-40.736618,-9.889433,13.866464,1.000000,0.000000,-0.000000
-17.209051,-18.445413,-3.374695,0.000000,0.000000,-1.000000
-26.596201,-19.505152,2.895856,0.000000,-1.000000,0.000000
-40.736618,8.021735,43.336346,1.000000,-0.000000,0.000000
-22.439179,4.005947,-3.374695,0.000000,0.000000,-1.000000
-31.247904,-19.505152,-3.241376,0.000000,-1.000000,0.000000
17.506981,-12.086961,3.374695,0.000000,-0.000000,1.000000
-40.736618,-10.239960,39.485938,1.000000,0.000000,-0.000000
-47.486008,0.436068,38.651517,-1.000000,0.000000,0.000000
-40.736618,-19.214076,27.603065,1.000000,0.000000,-0.000000
-14.182130,-4.268944,-3.374695,0.000000,0.000000,-1.000000
-47.486008,13.512794,10.647315,-1.000000,0.000000,0.000000
-47.486008,-4.857136,22.940629,-1.000000,0.000000,-0.000000
-47.486008,-0.326640,48.446582,-1.000000,0.000000,0.000000
-40.736618,12.167168,32.601416,1.000000,-0.000000,0.000000
1.488681,19.505152,2.061769,0.000000,1.000000,0.000000
27.765592,-14.336524,3.374695,0.000000,-0.000000,1.000000
47.055634,-12.447400,3.374695,0.000000,-0.000000,1.000000
-46.936383,-13.184918,56.688263,0.000000,-0.000000,1.000000
-40.736618,-2.897712,23.236708,1.000000,0.000000,-0.000000
-40.736618,18.777836,36.119306,1.000000,-0.000000,0.000000
29.566482,19.505152,-0.991331,-0.000000,1.000000,0.000000
-40.736618,0.713438,36.706784,1.000000,-0.000000,0.000000
-47.486008,-7.909288,43.538807,-1.000000,0.000000,0.000000
-28.808940,-19.505152,-3.274703,0.000000,-1.000000,0.000000
-47.486008,17.920255,15.082258,-1.000000,0.000000,0.000000
-45.156822,1.652213,30.235375,0.000000,0.471397,-0.881921
47.486008,-3.118272,0.712389,1.000000,-0.000000,0.000000
-14.593031,9.559063,3.374695,0.000000,-0.000000,1.000000
-47.486008,-16.685960,38.574840,-1.000000,0.000000,0.000000
-46.928363,-19.388774,56.688263,0.000000,0.000000,1.000000
-27.035015,14.395957,3.374695,0.000000,-0.000000,1.000000
27.543428,-10.498120,3.374695,0.000000,-0.000000,1.000000
17.520806,-14.645914,-3.374695,0.000000,0.000000,-1.000000
12.969323,-7.496472,3.374695,0.000000,-0.000000,1.000000
-10.246432,18.130880,3.374695,-0.000000,0.000000,1.000000
-26.081241,-1.786507,-3.374695,0.000000,0.000000,-1.000000
-23.389284,-15.073651,3.374695,0.000000,-0.000000,1.000000
-47.486008,-8.229979,18.447655,-1.000000,0.000000,-0.000000
23.936810,18.072045,3.374695,-0.000000,0.000000,1.000000
-2.014367,-0.190986,3.374695,0.000000,-0.000000,1.000000
-12.644512,12.827180,3.374695,-0.000000,0.000000,1.000000
-40.736618,-19.359077,44.954251,1.000000,0.000000,-0.000000
-1.294982,7.152422,-0.846047,0.098017,0.995185,-0.000000
-47.486008,13.219463,32.305304,-1.000000,0.000000,0.000000
21.719548,-4.814611,3.374695,0.000000,0.000000,1.000000
-25.475186,15.510312,3.374695,-0.000000,-0.000000,1.000000
-2.981857,1.586731,3.374695,0.000000,-0.000000,1.000000
-19.281419,7.079573,-3.374695,0.000000,0.000000,-1.000000
3.828034,9.374032,-3.374695,0.000000,-0.000000,-1.000000
21.298899,18.977807,-3.374695,0.000000,-0.000000,-1.000000
29.969279,19.047334,-3.374695,0.000000,-0.000000,-1.000000
37.190239,10.464853,3.374695,0.000000,-0.000000,1.000000
-5.803523,4.398441,-3.374695,0.000000,0.000000,-1.000000
-40.736618,-16.150815,53.541941,1.000000,-0.000000,0.000000
-40.736618,15.784450,40.368516,1.000000,-0.000000,0.000000
47.486008,10.701778,-0.448974,1.000000,-0.000000,0.000000
-42.489770,-19.505152,18.459958,0.000000,-1.000000,0.000000
-40.736618,-19.344632,51.157134,1.000000,0.000000,-0.000000
-47.486008,11.767073,18.160168,-1.000000,0.000000,0.000000
-47.486008,-17.053287,15.816718,-1.000000,0.000000,0.000000
-47.486008,-0.845882,52.525020,-1.000000,0.000000,0.000000
10.310504,12.443956,-3.374695,0.000000,0.000000,-1.000000
47.486008,16.317780,-3.010440,1.000000,0.000000,-0.000000
33.414248,8.578647,-3.374695,0.000000,0.000000,-1.000000
-30.720891,15.442889,3.374695,0.000000,-0.000000,1.000000
-47.486008,12.135061,21.600599,-1.000000,0.000000,0.000000
-47.486008,-14.581366,45.840239,-1.000000,0.000000,0.000000
40.891838,-17.706048,3.374695,0.000000,-0.000000,1.000000
-36.796581,-2.732151,3.374695,0.000000,-0.000000,1.000000
-44.596370,-19.505152,15.526281,0.000000,-1.000000,0.000000
-47.486008,9.580776,25.912729,-1.000000,0.000000,0.000000
11.836668,-2.256072,3.374695,0.000000,-0.000000,1.000000
-47.486008,14.608932,2.269035,-1.000000,0.000000,0.000000
-40.736618,4.077627,42.598081,1.000000,-0.000000,0.000000
-6.481278,-15.902323,-3.374695,0.000000,0.000000,-1.000000
-47.486008,14.773512,47.761953,-1.000000,0.000000,-0.000000
2.290716,15.817501,3.374695,-0.000000,0.000000,1.000000
44.990684,-19.505152,2.950378,0.000000,-1.000000,0.000000
-40.736618,-5.095034,22.594623,1.000000,0.000000,-0.000000
13.503768,1.836663,1.194110,-0.881922,0.471396,0.000000
-47.486008,5.300688,42.638409,-1.000000,0.000000,0.000000
-40.736618,14.896597,8.103601,1.000000,0.000000,0.000000
-40.736618,-15.557095,26.492835,1.000000,0.000000,-0.000000
-27.141459,19.376883,3.374695,-0.000000,0.000000,1.000000
41.176869,-19.505152,2.934621,0.000000,-1.000000,0.000000
-20.501757,-14.762371,-3.374695,0.000000,0.000000,-1.000000
-38.356703,12.220820,3.374695,0.000000,-0.000000,1.000000
43.737253,-4.702782,-3.374695,0.000000,0.000000,-1.000000
-40.736618,-14.503764,23.412490,1.000000,0.000000,-0.000000
-47.486008,-11.447509,17.177591,-1.000000,0.000000,0.000000
-40.736618,-6.499058,52.498567,1.000000,-0.000000,0.000000
-47.486008,14.369010,26.553900,-1.000000,0.000000,0.000000
-22.854268,-14.491415,3.374695,0.000000,-0.000000,1.000000
-44.835823,19.505152,37.915375,0.000000,1.000000,0.000000
-18.693095,0.518450,3.374695,0.000000,-0.000000,1.000000
-41.529643,-1.115960,-3.374695,0.000000,0.000000,-1.000000
-40.736618,5.925854,24.153953,1.000000,-0.000000,-0.000000
-35.489285,-12.530302,-3.374695,0.000000,0.000000,-1.000000
-47.486008,-10.808624,36.439785,-1.000000,0.000000,0.000000
37.409743,19.505152,-1.100906,-0.000000,1.000000,0.000000
-40.736618,-5.133341,19.801029,1.000000,0.000000,-0.000000
-40.736618,-15.751093,10.746194,1.000000,0.000000,-0.000000
-40.736618,-18.485308,24.147523,1.000000,0.000000,-0.000000
-47.486008,10.840669,-1.409783,-1.000000,0.000000,0.000000
7.469643,4.995106,-2.688851,0.881921,-0.471397,0.000000
-12.919691,10.313957,-3.374695,0.000000,0.000000,-1.000000
41.598645,-5.466077,3.374695,0.000000,-0.000000,1.000000
23.399859,-17.967298,3.374695,0.000000,-0.000000,1.000000
1.843397,-2.286665,3.374695,0.000000,-0.000000,1.000000
-35.671419,-19.505152,-2.776542,0.000000,-1.000000,0.000000
15.887887,-12.661258,-3.374695,0.000000,0.000000,-1.000000
-40.736618,-13.272470,15.692471,1.000000,0.000000,-0.000000
-47.486008,11.962825,20.221905,-1.000000,0.000000,0.000000
-5.956776,-6.806174,3.374695,0.000000,-0.000000,1.000000
-39.060121,-16.921106,-3.374695,0.000000,0.000000,-1.000000
23.680802,0.992967,-3.374695,0.000000,0.000000,-1.000000
-7.317862,17.342680,-3.374695,0.000000,-0.000000,-1.000000
-41.304552,3.014739,23.868972,0.000000,0.098015,0.995185
-47.486008,-1.572106,-2.468680,-1.000000,0.000000,0.000000
-38.711267,-16.135682,-3.374695,0.000000,0.000000,-1.000000
-44.012825,4.926075,16.386383,0.000000,0.098015,0.995185
-40.736618,-0.635342,24.609603,1.000000,0.000000,-0.000000
-47.359297,0.388970,25.506410,-0.000000,0.881921,0.471397
-40.912385,19.505152,54.059816,-0.000000,1.000000,0.000000
-22.205414,-4.603883,3.374695,0.000000,-0.000000,1.000000
-43.187818,-19.505152,44.734134,0.000000,-1.000000,0.000000
0.954533,16.602418,-3.374695,0.000000,-0.000000,-1.000000
-0.164629,-18.330587,3.374695,0.000000,-0.000000,1.000000
-34.437618,16.995390,3.374695,0.000000,-0.000000,1.000000
-17.494162,8.001209,-3.374695,0.000000,0.000000,-1.000000
-1.370770,-19.505152,-0.302294,0.000000,-1.000000,0.000000
38.625991,-5.008540,-3.374695,0.000000,0.000000,-1.000000
41.375957,-12.171993,-3.374695,0.000000,0.000000,-1.000000
-40.736618,-13.264759,39.367483,1.000000,0.000000,-0.000000
-26.413037,9.018569,-3.374695,0.000000,0.000000,-1.000000
-47.486008,-18.342856,4.933617,-1.000000,0.000000,-0.000000
-47.486008,-6.303428,23.429382,-1.000000,0.000000,0.000000
38.949394,-19.505152,2.441299,0.000000,-1.000000,0.000000
16.305407,-11.772427,-3.374695,0.000000,0.000000,-1.000000
0.597675,-1.906940,-3.374695,0.000000,0.000000,-1.000000
-47.486008,15.590005,47.402193,-1.000000,0.000000,0.000000
47.486008,-11.467491,2.664162,1.000000,-0.000000,0.000000
-19.474159,-15.262798,-3.374695,0.000000,0.000000,-1.000000
47.486008,17.286338,-0.464940,1.000000,-0.000000,0.000000
35.969081,13.506441,3.374695,0.000000,-0.000000,1.000000
-1.979101,-9.249514,3.374695,0.000000,-0.000000,1.000000
-40.736618,9.121704,49.934023,1.000000,-0.000000,0.000000
33.843203,-18.642507,-3.374695,0.000000,0.000000,-1.000000
30.745113,15.111710,-3.374695,0.000000,-0.000000,-1.000000
20.539014,19.201359,3.374695,-0.000000,0.000000,1.000000
37.883282,13.602609,3.374695,0.000000,-0.000000,1.000000
-23.278763,-16.474942,-3.374695,0.000000,0.000000,-1.000000
15.065879,19.505152,-0.795299,-0.000000,1.000000,0.000000
-41.521412,-19.505152,52.125416,0.000000,-1.000000,0.000000
47.486008,-7.448545,-0.239280,1.000000,0.000000,-0.000000
-41.308226,7.380474,22.374529,-0.000000,-0.634393,-0.773011
-18.356107,-11.857847,3.374695,0.000000,-0.000000,1.000000
-10.352757,-1.985808,-3.374695,0.000000,0.000000,-1.000000
28.767173,-15.085039,3.374695,0.000000,-0.000000,1.000000
13.199765,1.365424,0.018475,-0.773010,0.634394,0.000000
12.853577,-11.765940,3.374695,0.000000,-0.000000,1.000000
25.955793,19.505152,1.011962,-0.000000,1.000000,0.000000
-40.736618,-11.140088,30.311192,1.000000,0.000000,-0.000000
-4.385964,-8.495230,-3.374695,0.000000,0.000000,-1.000000
-11.695548,-0.736624,-3.374695,0.000000,0.000000,-1.000000
-12.152883,-1.086109,3.374695,0.000000,-0.000000,1.000000
-40.736618,19.154281,37.110178,1.000000,-0.000000,0.000000
-47.486008,-2.232974,32.297051,-1.000000,0.000000,0.000000
43.742756,1.820449,3.374695,0.000000,-0.000000,1.000000
-40.736618,5.350655,32.090690,1.000000,-0.000000,0.000000
-40.736618,-4.444374,52.443755,1.000000,-0.000000,0.000000
-19.712076,-0.119631,3.374695,0.000000,-0.000000,1.000000
-47.486008,-7.670328,55.179456,-1.000000,0.000000,0.000000
2.178412,8.060332,-3.374695,0.000000,0.000000,-1.000000
-46.431369,17.167660,-3.374695,0.000000,0.000000,-1.000000
-47.486008,-5.760753,27.600911,-1.000000,0.000000,0.000000
4.988950,19.505152,-0.053116,-0.000000,1.000000,0.000000
-28.577442,6.194520,3.374695,0.000000,-0.000000,1.000000
-40.736618,-11.622983,17.232263,1.000000,0.000000,-0.000000
-47.486008,-10.808882,27.756218,-1.000000,0.000000,0.000000
21.731224,-6.521455,3.374695,0.000000,-0.000000,1.000000
-46.765529,-19.505152,-1.581643,0.000000,-1.000000,0.000000
-40.736618,2.809353,39.430083,1.000000,-0.000000,0.000000
-47.486008,-12.082698,44.303885,-1.000000,0.000000,0.000000
-40.736618,8.791401,26.915704,1.000000,-0.000000,0.000000
-21.493326,6.866245,-3.374695,0.000000,0.000000,-1.000000
-44.484748,-19.505152,25.627194,0.000000,-1.000000,0.000000
-38.587130,1.196133,3.374695,0.000000,-0.000000,1.000000
-25.633797,-19.505152,2.058696,0.000000,-1.000000,0.000000
-9.637851,13.766465,-3.374695,0.000000,-0.000000,-1.000000
-1.297284,-10.289870,-3.374695,0.000000,0.000000,-1.000000
-41.344709,1.457242,30.131160,0.000000,0.471397,-0.881921
-12.651949,16.021217,3.374695,-0.000000,0.000000,1.000000
-1.050897,18.102700,-3.374695,0.000000,-0.000000,-1.000000
-40.736618,7.180862,13.223345,1.000000,0.000000,-0.000000
-47.486008,15.517048,10.328351,-1.000000,0.000000,0.000000
-47.342925,19.505152,18.056272,0.000000,1.000000,0.000000
