x,y,z,nx,ny,nz
0.306349,0.012625,0.384143,0.618663,0.124276,0.775765
0.277469,-0.096487,0.227420,-0.241960,-0.949803,-0.198316
-0.205104,-0.091607,0.382987,-0.204056,-0.901763,0.381032
0.038802,-0.086957,0.335787,-0.059347,-0.855992,-0.513572
0.077120,-0.092130,0.426425,0.074983,-0.906906,0.414607
-0.150390,-0.069383,0.278305,0.347246,-0.682997,-0.642600
0.234976,0.071971,0.215522,-0.520100,0.708469,-0.477041
0.416585,-0.041964,0.244538,0.785377,-0.413090,0.461021
-0.254308,0.044847,0.300159,-0.639765,0.000000,0.768571
-0.121186,-0.026265,0.266114,0.400349,-0.258546,-0.879133
0.283605,-0.100376,0.245191,-0.116466,-0.988078,-0.100690
0.404837,-0.092313,0.153457,0.390317,-0.908715,0.147953
0.173741,0.020656,0.458170,0.347162,0.203336,0.915496
0.158469,-0.088920,0.302412,-0.224448,-0.875307,-0.428323
0.231131,0.101516,0.319503,0.021917,0.999301,0.030297
0.101690,0.091092,0.330272,-0.130260,0.896689,-0.423062
-0.239929,-0.087325,0.371743,-0.277078,-0.859610,0.429301
0.376499,-0.093895,0.206304,0.334743,-0.924285,0.183424
0.350235,-0.101180,0.151152,-0.082079,-0.995996,-0.035423
0.146465,0.005138,0.469691,0.297312,0.050577,0.953440
-0.121117,0.011363,0.476333,-0.244882,0.111860,0.963078
0.037534,-0.017168,0.287980,-0.127383,-0.168995,-0.977351
0.226990,-0.035565,0.429394,0.437770,-0.350099,0.828124
0.354111,-0.095566,0.037464,-0.337272,-0.940731,-0.035683
-0.255906,-0.057450,0.399368,-0.444958,-0.565523,0.694403
0.318063,0.040402,0.000000,1.000000,0.000000,0.000000
0.255831,0.004459,0.420290,0.519450,0.043892,0.853373
0.096631,0.061073,0.461716,0.163695,0.601195,0.782156
-0.152110,0.015660,0.300159,-0.639765,0.000000,0.768571
0.308831,-0.085160,0.321675,0.377592,-0.838297,0.393297
-0.196704,-0.100884,0.351122,-0.057376,-0.993085,0.102417
0.127383,-0.079040,0.300869,-0.244922,-0.778052,-0.578488
0.349085,-0.093480,0.034386,-0.389569,-0.920197,-0.038374
0.146625,-0.101551,0.359072,-0.009994,-0.999650,-0.024476
0.100998,0.079830,0.311765,-0.190595,0.785834,-0.588335
0.003073,-0.055687,0.305562,-0.008410,-0.548169,-0.836326
-0.100961,0.100773,0.390537,-0.031622,0.991987,0.122319
-0.050984,0.099277,0.365461,0.029298,0.977260,-0.210012
-0.143224,0.032064,0.465395,-0.279099,0.315630,0.906908
0.324243,-0.088445,0.298193,0.362083,-0.870639,0.332993
-0.219893,-0.019711,0.438110,-0.440056,-0.194030,0.876757
0.342944,-0.053769,0.331153,0.610336,-0.529296,0.589351
0.233924,-0.079956,0.229744,-0.440104,-0.787069,-0.432239
0.401949,-0.023942,0.278959,0.798392,-0.235683,0.554097
0.308300,-0.083034,0.123228,-0.534963,-0.817369,-0.213826
-0.259709,-0.081519,0.368911,-0.343492,-0.802461,0.487923
-0.106347,-0.030210,0.273609,0.345889,-0.297384,-0.889901
-0.060062,-0.002664,0.282679,0.207763,-0.026221,-0.977828
0.450558,0.080274,0.044990,0.609815,0.790201,0.060893
0.241251,-0.049222,0.181124,-0.699561,-0.484530,-0.525210
0.319485,0.082276,0.086374,-0.566230,0.809907,-0.153082
0.457297,0.012065,0.179895,0.923997,0.118761,0.363489
-0.184752,-0.098817,0.317081,0.116766,-0.972731,-0.200400
0.347359,0.092104,0.015045,-0.421477,0.906655,-0.018255
0.275322,0.101408,0.285413,0.041161,0.998241,0.042670
0.406304,0.080582,0.198951,0.546870,0.793238,0.267781
0.407577,0.097443,0.098277,0.274812,0.959212,0.066264
0.083774,0.080790,0.444298,0.112330,0.795279,0.595745
0.147539,-0.100243,0.343747,-0.063941,-0.986772,-0.148975
0.359684,0.095462,0.226918,0.289231,0.939707,0.182471
0.392125,-0.009453,0.000000,1.000000,0.000000,0.000000
0.215905,0.101444,0.331882,0.028927,0.998592,0.044465
0.431208,-0.093003,0.013242,0.402124,-0.915502,0.012349
0.181631,0.040107,0.448493,0.344874,0.394803,0.851582
0.352823,0.099396,0.109941,-0.197225,0.978430,-0.061456
0.202997,-0.067190,0.240014,-0.484347,-0.661406,-0.572669
0.451713,-0.053641,0.152657,0.804524,-0.528031,0.271891
0.422897,0.032072,0.241374,0.824072,0.315713,0.470351
0.439759,-0.044976,0.196416,0.818703,-0.442731,0.365670
0.344306,-0.091930,0.045597,-0.421857,-0.904939,-0.055867
0.292753,-0.099958,0.230208,-0.140186,-0.983970,-0.110236
0.292735,-0.046248,0.066041,-0.868533,-0.455254,-0.195942
-0.157337,-0.092571,0.311189,0.185828,-0.911253,-0.367541
0.182474,-0.080092,0.272616,-0.342174,-0.788407,-0.511207
0.220959,-0.100146,0.342502,0.090984,-0.985815,0.141032
0.365646,-0.101543,0.128458,-0.027741,-0.999568,-0.009746
-0.102423,0.096652,0.409196,-0.074761,0.951420,0.298683
0.287727,-0.089295,0.185062,-0.401026,-0.879004,-0.257934
0.039939,-0.083358,0.446823,0.050885,-0.820558,0.569293
0.271875,-0.101421,0.288390,0.039151,-0.998370,0.041530
-0.174356,0.099276,0.373381,-0.089726,0.977256,0.192146
0.254823,-0.016850,0.139195,-0.865447,-0.165869,-0.472745
-0.060695,0.098056,0.358896,0.043579,0.965245,-0.257689
0.248015,0.083587,0.221923,-0.423516,0.822815,-0.378960
0.409148,0.027222,0.266729,0.807072,0.267972,0.526142
0.384370,0.066704,0.265514,0.620555,0.656625,0.428666
0.379603,0.012205,0.000000,1.000000,0.000000,0.000000
0.478591,-0.025577,0.099652,0.947465,-0.251772,0.197282
0.302016,0.091236,0.168551,-0.384018,0.898109,-0.214315
0.392321,-0.032168,0.000000,1.000000,0.000000,0.000000
0.269092,0.099052,0.251008,-0.162339,0.975046,-0.151429
-0.068141,0.101108,0.394553,-0.016506,0.995286,0.095573
0.312288,-0.056243,0.358094,0.547332,-0.553650,0.627614
-0.106815,-0.036158,0.473579,-0.205614,-0.355928,0.911613
-0.229248,-0.092909,0.365710,-0.214791,-0.914581,0.342647
0.123601,0.096726,0.337576,-0.105085,0.952148,-0.287005
0.442295,-0.084110,0.068109,0.554244,-0.827967,0.085349
0.329767,-0.097110,0.146187,-0.268390,-0.955935,-0.118978
0.194527,-0.098671,0.366253,0.111584,-0.971294,0.210088
0.079759,-0.097186,0.412477,0.055273,-0.956680,0.285847
0.053008,-0.100802,0.399643,0.016312,-0.992275,0.122978
-0.250514,0.050669,0.407788,-0.453686,0.498771,0.738510
-0.007936,-0.058835,0.473289,-0.013667,-0.579164,0.815096
-0.023923,-0.022886,0.488931,-0.047615,-0.225285,0.973129
0.406304,0.025072,0.272073,0.805208,0.246804,0.539192
-0.158817,-0.003038,0.241450,0.549294,-0.029905,-0.835094
0.288018,-0.053876,0.098569,-0.802112,-0.530340,-0.274509
0.226695,-0.076577,0.231190,-0.460052,-0.753808,-0.469175
0.027359,0.003113,0.491319,0.055572,0.030645,0.997984
0.202074,0.035491,0.441697,0.389809,0.349370,0.852050
-0.214718,0.095966,0.285486,0.197162,0.944674,-0.262143
0.081048,0.096807,0.413465,0.058308,0.952952,0.297459
-0.077261,-0.076203,0.451152,-0.111623,-0.750130,0.651801
-0.003899,-0.098426,0.365377,0.002641,-0.968886,-0.247495
0.144824,0.051953,0.455363,0.260448,0.511415,0.818915
-0.206684,0.099571,0.354875,-0.099748,0.980162,0.171267
-0.271381,0.013438,0.300159,-0.639765,0.000000,0.768571
0.145079,-0.075680,0.434740,0.211168,-0.744982,0.632780
-0.237708,0.099804,0.285615,0.119322,0.982450,-0.143370
0.036360,0.035689,0.484289,0.070097,0.351320,0.933628
0.338895,-0.088535,0.035287,-0.487721,-0.871521,-0.050783
0.384582,0.016417,0.304916,0.773294,0.161607,0.613106
0.119351,0.085385,0.429297,0.145120,0.840517,0.521988
0.204262,-0.068227,0.418632,0.324892,-0.671618,0.665864
0.208681,-0.092970,0.377667,0.194931,-0.915175,0.352784
0.401671,0.099860,0.078104,0.180242,0.982998,0.035048
-0.189907,-0.063090,0.430102,-0.316581,-0.621043,0.716995
0.238024,0.042528,0.420045,0.447729,0.418635,0.790116
-0.235495,-0.099556,0.285811,0.126504,-0.980012,-0.153533
-0.032432,0.037996,0.294548,0.101501,0.374026,-0.921847
-0.241237,0.101401,0.314889,-0.036712,0.998176,0.047921
-0.190237,0.030732,0.300159,-0.639765,0.000000,0.768571
0.472626,-0.045268,0.091932,0.878759,-0.445607,0.170931
0.302500,-0.084597,0.142300,-0.500982,-0.832753,-0.235668
0.062458,-0.032065,0.287440,-0.201480,-0.315638,-0.927242
0.430830,-0.092249,0.000000,1.000000,0.000000,0.000000
0.368532,-0.043652,0.000000,1.000000,0.000000,0.000000
0.170754,0.097323,0.318537,-0.135447,0.958024,-0.252673
-0.261748,-0.003338,0.300159,-0.639765,0.000000,0.768571
0.189599,0.042049,0.229989,-0.579050,0.413922,-0.702403
-0.216451,0.101364,0.316954,0.037361,0.997803,-0.054708
0.245259,-0.098950,0.273748,-0.151045,-0.974044,-0.168591
-0.169986,0.051805,0.446674,-0.305951,0.509959,0.803950
-0.153683,-0.052830,0.451892,-0.275014,-0.520044,0.808654
0.244044,0.006857,0.155148,-0.841976,0.067498,-0.535275
0.104617,-0.011207,0.480245,0.211549,-0.110322,0.971121
-0.042764,-0.028981,0.290040,0.139803,-0.285279,-0.948194
-0.206329,0.021844,0.444168,-0.411439,0.215028,0.885709
0.224790,-0.080256,0.239217,-0.419824,-0.790029,-0.446768
-0.139490,0.030230,0.467145,-0.273156,0.297576,0.914787
0.425037,-0.007639,0.000000,1.000000,0.000000,0.000000
0.399659,-0.004872,0.000000,1.000000,0.000000,0.000000
0.015929,0.044818,0.481444,0.029676,0.441179,0.896929
-0.239094,0.034434,0.300159,-0.639765,0.000000,0.768571
0.079019,-0.100035,0.400507,0.033700,-0.984728,0.170807
0.208181,-0.067095,0.235420,-0.497394,-0.660471,-0.562474
-0.074053,0.074311,0.453804,-0.109812,0.731503,0.672937
-0.024181,0.091618,0.345811,0.030135,0.901871,-0.430953
0.082679,-0.056067,0.294440,-0.225440,-0.551912,-0.802851
-0.157949,-0.024536,0.245548,0.524975,-0.241529,-0.816128
0.439758,0.007661,0.220269,0.891564,0.075411,0.446573
0.129675,0.090958,0.320029,-0.167235,0.895373,-0.412723
0.358398,0.096535,0.019079,-0.310977,0.950273,-0.016555
0.339503,0.088317,0.023874,-0.492943,0.869371,-0.034664
-0.127721,-0.081315,0.303901,0.232237,-0.800446,-0.552588
0.288008,0.007127,0.026282,-0.993408,0.070156,-0.090654
0.413587,0.095475,0.098887,0.332252,0.939839,0.079440
-0.138331,0.018376,0.255598,0.468116,0.180894,-0.864954
0.050160,-0.092947,0.428614,0.046909,-0.914947,0.400838
0.315971,0.095508,0.284461,0.253220,0.940165,0.227967
0.310208,-0.080592,0.108684,-0.574547,-0.793332,-0.201298
0.144225,0.079277,0.430549,0.198615,0.780386,0.592916
-0.231466,0.022836,0.300159,-0.639765,0.000000,0.768571
-0.057931,-0.076260,0.318197,0.118334,-0.750687,-0.649974
-0.269316,0.034289,0.404755,-0.521449,0.337529,0.783686
0.417342,-0.073165,0.195862,0.628023,-0.720220,0.294737
0.174102,-0.058850,0.253753,-0.461147,-0.579309,-0.672120
0.224390,-0.101516,0.324268,0.021252,-0.999302,0.030711
0.293981,-0.014633,0.000000,1.000000,0.000000,0.000000
0.101961,-0.072046,0.302184,-0.225392,-0.709205,-0.668002
0.326165,-0.036205,0.000000,1.000000,0.000000,0.000000
0.219443,0.088486,0.381882,0.244740,0.871039,0.425903
-0.047288,0.053554,0.300519,0.132089,0.527172,-0.839430
-0.063853,-0.089818,0.433323,-0.068109,-0.884154,0.462205
0.075517,0.076882,0.315221,-0.152282,0.756810,-0.635649
0.135281,0.008256,0.255711,-0.466085,0.081274,-0.880999
0.289402,-0.020459,0.030792,-0.974012,-0.201398,-0.103633
0.418162,-0.096925,0.048468,0.297461,-0.954111,0.034478
-0.054709,0.089974,0.338990,0.073972,0.885688,-0.458350
0.419481,-0.097338,0.010475,0.286075,-0.958181,0.007143
0.368428,-0.100244,0.064788,-0.159577,-0.986787,-0.028061
-0.242525,-0.040927,0.418296,-0.459076,-0.402881,0.791793
0.169231,-0.063000,0.438726,0.282324,-0.620157,0.731915
-0.229845,0.059687,0.413108,-0.393423,0.587545,0.707113
0.353459,0.075197,0.000000,1.000000,0.000000,0.000000
-0.147978,0.043171,0.459246,-0.277620,0.424964,0.861587
0.014257,-0.098712,0.414291,0.008124,-0.971703,0.236067
0.140041,0.056429,0.272151,-0.380466,0.555472,-0.739389
0.406400,-0.100084,0.035499,0.170699,-0.985210,0.014910
-0.015106,-0.076216,0.457456,-0.021820,-0.750253,0.660791
-0.137560,-0.085234,0.424059,-0.167882,-0.839031,0.517535
-0.271657,0.035264,0.300159,-0.639765,0.000000,0.768571
0.192144,-0.099792,0.317986,-0.096785,-0.982333,-0.160173
0.407909,-0.096196,0.112710,0.309817,-0.946934,0.085606
0.093795,0.101410,0.372943,-0.014368,0.998263,-0.057128
0.159959,-0.099430,0.378990,0.079704,-0.978768,0.188842
0.404725,-0.099600,0.068803,0.194002,-0.980447,0.032980
0.291548,0.048485,0.075922,-0.850393,0.477274,-0.221451
-0.162340,0.091431,0.403374,-0.162719,0.900029,0.404314
0.407441,0.036115,0.263996,0.784409,0.355510,0.508247
-0.141439,-0.068012,0.281551,0.333446,-0.669501,-0.663764
0.061421,-0.022181,0.485809,0.122406,-0.218347,0.968164
0.179575,-0.101575,0.345063,-0.007035,-0.999884,-0.013519
0.288325,-0.077284,0.149128,-0.576482,-0.760765,-0.298169
0.476591,0.015476,0.117835,0.959438,0.152340,0.237216
0.433940,-0.007949,0.231473,0.879615,-0.078251,0.469206
0.336690,0.095369,0.114253,-0.326204,0.938796,-0.110694
0.333627,-0.101439,0.213359,0.045411,-0.998546,0.029041
-0.117863,-0.002869,0.263868,0.407676,-0.028245,-0.912690
-0.123098,0.098714,0.345264,0.079305,0.971717,-0.222434
0.350726,0.101353,0.186937,0.059877,0.997695,0.031914
0.100388,-0.060295,0.461507,0.171063,-0.593531,0.786421
0.438533,0.088695,0.036736,0.485842,0.873099,0.040699
0.303616,0.053053,0.013338,-0.851972,0.522248,-0.037429
-0.316574,0.037735,0.300159,-0.639765,0.000000,0.768571
-0.166055,0.087298,0.295074,0.250809,0.859340,-0.445679
0.154172,-0.084960,0.297244,-0.252418,-0.836328,-0.486662
-0.271071,0.026863,0.300159,-0.639765,0.000000,0.768571
0.293703,-0.059668,0.093822,-0.770947,-0.587358,-0.246275
-0.247110,0.006497,0.300159,-0.639765,0.000000,0.768571
0.322094,0.076413,0.031196,-0.655876,0.752191,-0.063523
0.401042,0.034921,0.000000,1.000000,0.000000,0.000000
0.039962,0.101494,0.384137,-0.004412,0.999091,-0.042409
-0.083062,0.081246,0.318919,0.151302,0.799770,-0.580926
0.155663,-0.045025,0.255843,-0.465940,-0.443214,-0.765808
0.438025,-0.087219,0.063648,0.507378,-0.858564,0.073725
-0.185157,0.073799,0.421475,-0.276400,0.726459,0.629174
-0.031341,-0.100952,0.377905,0.009225,-0.993752,-0.111232
-0.005206,0.021576,0.291226,0.017467,0.212390,-0.977029
0.377960,-0.035863,0.000000,1.000000,0.000000,0.000000
0.275057,-0.081713,0.357285,0.362437,-0.804363,0.470787
0.305024,-0.100377,0.268208,0.115544,-0.988093,0.101598
0.303170,0.100231,0.219005,-0.131999,0.986653,-0.095354
0.199377,-0.050495,0.435192,0.361407,-0.497067,0.788866
0.278906,0.041927,0.104982,-0.852467,0.412722,-0.320874
-0.087137,-0.089403,0.430041,-0.094301,-0.880066,0.465394
-0.132497,-0.024474,0.260149,0.440472,-0.240914,-0.864838
-0.236532,0.020448,0.429185,-0.472791,0.201291,0.857875
0.424451,-0.062342,0.203583,0.711902,-0.613680,0.341456
0.251189,-0.099213,0.327040,0.130906,-0.976635,0.170435
0.141708,-0.053698,0.269298,-0.395300,-0.528597,-0.751214
0.309271,-0.101050,0.220989,-0.083533,-0.994716,-0.059689
0.374013,0.037991,0.308388,0.715562,0.373980,0.590009
0.087492,-0.033423,0.281319,-0.280443,-0.329011,-0.901722
-0.108556,-0.100654,0.389427,-0.036300,-0.990820,0.130220
0.317075,0.082715,0.096948,-0.555175,0.814227,-0.169749
0.156607,-0.090133,0.408405,0.165158,-0.887251,0.430707
0.480192,-0.010425,0.105252,0.971653,-0.102624,0.212975
0.269523,-0.004653,0.104467,-0.931431,-0.045801,-0.361023
-0.165954,0.094173,0.310928,0.176584,0.927017,-0.330844
0.267425,0.097948,0.320590,0.169897,0.964185,0.203673
0.325689,-0.078389,0.012434,-0.635593,-0.771643,-0.024265
0.258170,-0.005923,0.130164,-0.891410,-0.058303,-0.449431
0.430722,-0.054097,0.203853,0.765061,-0.532515,0.362091
-0.080750,0.084868,0.324821,0.132596,0.835420,-0.533377
-0.227204,-0.005550,0.436370,-0.461130,-0.054630,0.885649
0.035665,-0.048490,0.478481,0.065318,-0.477327,0.876295
0.230315,0.011293,0.175539,-0.790400,0.111170,-0.602420
0.287941,-0.051132,0.093563,-0.821799,-0.503329,-0.267033
-0.184836,0.013872,0.455071,-0.372788,0.136549,0.917815
0.236152,-0.087002,0.241953,-0.360593,-0.856434,-0.369450
0.335909,-0.100222,0.164321,-0.146734,-0.986568,-0.071779
0.075320,-0.057713,0.468121,0.130731,-0.568113,0.812501
0.440740,-0.036778,0.000000,1.000000,0.000000,0.000000
0.373629,0.056553,0.000000,1.000000,0.000000,0.000000
0.150795,-0.090094,0.308748,-0.202765,-0.886867,-0.415155
-0.035898,-0.086201,0.334871,0.056398,-0.848546,-0.526108
-0.071798,-0.069342,0.308045,0.165886,-0.682588,-0.711727
-0.016545,-0.083189,0.331824,0.028582,-0.818895,-0.573231
0.238957,-0.060917,0.196297,-0.618366,-0.599656,-0.507973
0.251890,0.100717,0.315608,0.081433,0.991442,0.102032
-0.181466,-0.090994,0.293861,0.233600,-0.895729,-0.378285
0.277504,0.077952,0.169932,-0.546847,0.767348,-0.334866
-0.144338,0.073449,0.286003,0.311254,0.723013,-0.616743
-0.321160,0.048039,0.300159,-0.639765,0.000000,0.768571
-0.137865,-0.054789,0.272058,0.380647,-0.539328,-0.751155
0.458832,0.009197,0.176783,0.929303,0.090533,0.358050
0.053353,0.054140,0.299874,-0.148219,0.532944,-0.833068
-0.157812,-0.037192,0.250431,0.496120,-0.366115,-0.787289
-0.133644,0.072386,0.289949,0.293694,0.712558,-0.637185
-0.098313,-0.079808,0.312592,0.185630,-0.785611,-0.590218
0.294421,0.049093,0.065430,-0.854628,0.483259,-0.189926
-0.008450,-0.073965,0.320795,0.018050,-0.728101,-0.685232
-0.213096,-0.061690,0.300159,-0.639765,0.000000,0.768571
0.227865,-0.075371,0.228121,-0.473825,-0.741941,-0.474357
0.435471,-0.084065,0.103392,0.546258,-0.827515,0.129695
0.468428,0.054567,0.085841,0.829673,0.537147,0.152040
-0.329773,-0.043301,0.300159,-0.639765,0.000000,0.768571
0.390685,0.051424,0.000000,1.000000,0.000000,0.000000
0.225502,0.097828,0.284667,-0.167356,0.962995,-0.211265
-0.259764,0.070101,0.300159,-0.639765,0.000000,0.768571
-0.248501,-0.099066,0.329912,-0.133198,-0.975186,0.176835
-0.294932,0.053380,0.374858,-0.526097,0.525458,0.668667
0.406748,-0.100036,0.034665,0.173419,-0.984737,0.014779
0.384135,0.086134,0.223454,0.458279,0.847887,0.266584
0.318581,0.073322,0.032451,-0.688570,0.721770,-0.070139
0.381386,-0.101196,0.013851,-0.087592,-0.996151,-0.003181
0.399318,-0.002952,0.287563,0.811139,-0.029055,0.584131
0.476130,-0.004500,0.124066,0.966738,-0.044293,0.251904
0.137351,0.010683,0.471986,0.277867,0.105166,0.954846
-0.145908,-0.045959,0.262065,0.433821,-0.452411,-0.779182
0.272106,-0.084763,0.354049,0.335874,-0.834387,0.437020
0.190549,-0.077467,0.263062,-0.379492,-0.762567,-0.523906
-0.229059,0.097709,0.281270,0.172805,0.961827,-0.212194
0.425546,0.081737,0.148963,0.560472,0.804599,0.196194
-0.185818,0.046973,0.443242,-0.342812,0.462390,0.817726
0.002566,0.101108,0.380687,-0.000653,0.995292,-0.096920
0.389472,0.002265,0.000000,1.000000,0.000000,0.000000
0.454862,0.068483,0.099296,0.721613,0.674136,0.157528
-0.052898,-0.002416,0.284100,0.182998,-0.023779,-0.982826
0.258102,0.083532,0.209980,-0.441458,0.822269,-0.359150
0.289944,0.018654,0.020690,-0.980503,0.183625,-0.069968
0.001508,0.025610,0.488844,0.002986,0.252097,0.967697
0.113001,-0.071072,0.297198,-0.253939,-0.699618,-0.667870
0.433110,0.042763,0.000000,1.000000,0.000000,0.000000
0.353361,-0.035592,0.000000,1.000000,0.000000,0.000000
0.455053,0.063875,0.000000,1.000000,0.000000,0.000000
0.271205,-0.098909,0.312419,0.149520,-0.973641,0.172242
-0.197107,-0.099293,0.361800,-0.101095,-0.977418,0.185565
0.211053,0.089138,0.268875,-0.296160,0.877459,-0.377299
0.345787,-0.029093,0.344168,0.679078,-0.286384,0.675897
-0.095689,-0.059889,0.462809,-0.163547,-0.589533,0.791014
0.178882,-0.064456,0.255654,-0.443119,-0.634495,-0.633294
-0.181518,-0.025422,0.453949,-0.359469,-0.250248,0.898976
0.072670,0.082702,0.323485,-0.127285,0.814103,-0.566600
0.297125,-0.071706,0.114941,-0.660645,-0.705858,-0.255566
0.440307,0.081134,0.100690,0.586631,0.798666,0.134151
0.411642,-0.056476,0.236980,0.720378,-0.555936,0.414718
0.470646,-0.062381,0.008267,0.789132,-0.614067,0.013861
-0.006304,-0.075872,0.322928,0.012979,-0.746871,-0.664842
0.374384,0.008807,0.000000,1.000000,0.000000,0.000000
0.393354,-0.095209,0.163470,0.322050,-0.937215,0.133838
0.078638,0.072004,0.309032,-0.173960,0.708796,-0.683627
0.284596,0.001479,0.401478,0.578247,0.014554,0.815732
0.200970,-0.055567,0.230089,-0.550704,-0.546992,-0.630496
0.397553,0.010116,0.000000,1.000000,0.000000,0.000000
0.391691,0.051501,0.000000,1.000000,0.000000,0.000000
0.344405,-0.082337,0.000000,1.000000,0.000000,0.000000
0.244548,-0.071868,0.204435,-0.542242,-0.707455,-0.453300
0.327493,0.093819,0.127896,-0.357238,0.923535,-0.139513
0.162967,0.054544,0.257621,-0.451007,0.536917,-0.712960
0.141062,0.099803,0.384434,0.064279,0.982436,0.175178
0.391272,-0.091172,0.190875,0.396406,-0.897478,0.193379
0.297168,0.053140,0.063903,-0.833224,0.523100,-0.179177
0.049398,0.052838,0.474742,0.088393,0.520129,0.849502
0.317812,0.074366,0.047445,-0.673793,0.732042,-0.100588
-0.158618,0.089463,0.303458,0.219464,0.880654,-0.419863
0.216139,0.065583,0.226336,-0.527425,0.645584,-0.552308
-0.297295,-0.060431,0.366861,-0.506086,-0.594867,0.624508
0.403068,-0.074502,0.220838,0.596193,-0.733385,0.326650
-0.260990,0.018254,0.300159,-0.639765,0.000000,0.768571
0.414953,0.036472,0.000000,1.000000,0.000000,0.000000
0.393104,-0.081598,0.221175,0.519137,-0.803232,0.292086
0.451903,0.018468,0.190552,0.906080,0.181792,0.382062
0.445280,0.085476,0.011899,0.540207,0.841409,0.014435
-0.190124,0.101585,0.341731,-0.002477,0.999987,0.004452
-0.030672,-0.069089,0.314574,0.071145,-0.680094,-0.729665
0.492083,0.002213,0.004518,0.999721,0.021782,0.009179
0.369500,-0.101356,0.103413,-0.064864,-0.997729,-0.018154
0.389070,-0.000389,0.000000,1.000000,0.000000,0.000000
0.139409,0.018198,0.254975,-0.471971,0.179139,-0.863222
0.276971,0.055774,0.129226,-0.757422,0.549025,-0.353390
0.272247,0.101502,0.285768,0.028185,0.999165,0.029584
0.354297,-0.101574,0.168073,0.014238,-0.999876,0.006755
-0.136327,0.101250,0.374781,-0.027809,0.996686,0.076450
0.001605,-0.084224,0.333738,-0.002688,-0.829089,-0.559110
0.213923,-0.097584,0.360014,0.141981,-0.960598,0.238941
-0.047368,-0.062826,0.467980,-0.079135,-0.618444,0.781835
0.254358,0.067529,0.185218,-0.603926,0.664740,-0.439766
0.364417,-0.090858,0.239331,0.373873,-0.894387,0.245542
-0.018923,0.082975,0.331392,0.032891,0.816787,-0.576000
0.226470,0.061225,0.210921,-0.583946,0.602687,-0.543853
-0.100585,-0.060271,0.291922,0.262236,-0.593293,-0.761075
0.125852,0.041390,0.269865,-0.385979,0.407432,-0.827659
0.323386,0.100970,0.238326,0.088577,0.993928,0.065279
0.324343,0.047952,0.353972,0.595577,0.472029,0.649982
0.369180,0.101092,0.092239,-0.095621,0.995131,-0.023891
-0.001280,-0.028769,0.293110,0.004188,-0.283195,-0.959053
-0.053287,-0.030313,0.288706,0.173236,-0.298393,-0.938590
0.318792,0.092768,0.142379,-0.372105,0.913192,-0.166189
0.365553,-0.070740,0.284882,0.566099,-0.696348,0.441170
0.292618,0.092413,0.189015,-0.348822,0.909700,-0.225320
0.102416,0.077344,0.444764,0.145484,0.761357,0.631799
-0.088178,-0.069970,0.455737,-0.137717,-0.688771,0.711779
0.210229,0.091937,0.379404,0.206177,0.905008,0.372091
0.211126,0.101518,0.324105,-0.020070,0.999324,-0.030810
0.161308,-0.082384,0.420072,0.209741,-0.810970,0.546201
0.037258,-0.050062,0.299840,-0.107299,-0.492798,-0.863503
0.295311,0.037376,0.021322,-0.927443,0.367920,-0.066962
0.279881,-0.100426,0.293915,0.103966,-0.988570,0.109179
-0.167070,0.099521,0.330308,0.090568,0.979661,-0.179059
0.418396,0.071758,0.196986,0.640412,0.706372,0.301514
0.261987,0.100934,0.273924,-0.078250,0.993571,-0.081815
-0.003910,-0.051049,0.302687,0.011167,-0.502514,-0.864497
0.064516,-0.023969,0.284602,-0.214839,-0.235948,-0.947720
-0.141778,0.075086,0.436519,-0.208068,0.739132,0.640618
0.449622,0.041297,0.000000,1.000000,0.000000,0.000000
-0.114646,0.086186,0.429272,-0.136590,0.848396,0.511437
0.205844,-0.055979,0.428428,0.361386,-0.551044,0.752164
0.448885,-0.000615,0.201718,0.912118,-0.006056,0.409884
-0.177093,0.099539,0.325148,0.095549,0.979844,-0.175431
0.408758,0.099813,0.023659,0.185745,0.982539,0.010751
0.018707,0.077820,0.324704,-0.036971,0.766045,-0.641723
0.324428,0.097553,0.161044,-0.249890,0.960296,-0.124044
0.436259,0.034056,0.214747,0.845275,0.335239,0.416083
-0.231191,0.026053,0.300159,-0.639765,0.000000,0.768571
-0.005364,0.092904,0.349407,0.006210,0.914533,-0.404464
0.092757,-0.023371,0.480533,0.184446,-0.230057,0.955538
0.216366,0.011017,0.441346,0.437593,0.108451,0.892609
0.123427,-0.057164,0.280619,-0.332823,-0.562709,-0.756695
0.275243,-0.027700,0.099877,-0.904403,-0.272676,-0.328180
-0.204752,0.096275,0.370098,-0.154491,0.947709,0.279249
-0.117194,-0.000251,0.264122,0.405577,-0.002467,-0.914058
-0.102200,-0.052444,0.285816,0.288358,-0.516253,-0.806432
0.124168,-0.054938,0.278681,-0.342337,-0.540799,-0.768337
-0.087705,0.049366,0.288729,0.254024,0.485945,-0.836259
0.310806,-0.064344,0.026454,-0.771042,-0.633394,-0.065627
0.279882,0.025632,0.400789,0.554017,0.252313,0.793350
0.203039,-0.097789,0.300934,-0.151500,-0.962614,-0.224547
-0.231656,-0.009201,0.300159,-0.639765,0.000000,0.768571
0.323897,0.078647,0.039037,-0.628415,0.774182,-0.075738
0.063782,0.069438,0.309895,-0.147146,0.683532,-0.714935
0.417187,-0.016305,0.258555,0.838974,-0.160507,0.519961
0.450046,0.075318,0.088737,0.658370,0.741416,0.129814
-0.277870,0.004565,0.300159,-0.639765,0.000000,0.768571
0.053903,-0.097068,0.356527,-0.044091,-0.955516,-0.291627
-0.209478,-0.096820,0.292519,0.176247,-0.953081,-0.246115
0.364871,-0.101580,0.142536,0.010839,-0.999932,0.004234
0.113379,-0.043611,0.276444,-0.342715,-0.429296,-0.835614
-0.184526,0.019867,0.300159,-0.639765,0.000000,0.768571
-0.310641,0.054193,0.300159,-0.639765,0.000000,0.768571
0.060746,-0.081961,0.324892,-0.108585,-0.806804,-0.580755
-0.232861,-0.036866,0.425673,-0.447207,-0.362902,0.817501
-0.094185,0.031747,0.278550,0.304269,0.312510,-0.899865
0.238120,0.017544,0.166367,-0.807427,0.172699,-0.564125
0.277285,0.027697,0.094058,-0.911122,0.272647,-0.309063
-0.168465,0.052267,0.300159,-0.639765,0.000000,0.768571
0.403974,0.100686,0.007377,0.132872,0.991130,0.002426
-0.070829,0.097869,0.411724,-0.045445,0.963405,0.264169
-0.139036,0.096391,0.330408,0.122449,0.948858,-0.290989
0.355057,0.101586,0.161568,-0.004045,0.999990,-0.001841
0.429582,0.091837,0.061537,0.423155,0.904027,0.060616
0.160825,0.101504,0.351393,-0.016768,0.999188,-0.036638
-0.288368,-0.072581,0.360465,-0.437072,-0.714474,0.546347
0.298429,-0.083316,0.335023,0.380572,-0.820142,0.427237
-0.217314,0.008501,0.441151,-0.440350,0.083686,0.893918
0.282005,0.095573,0.317924,0.224918,0.940806,0.253566
0.077202,0.097417,0.412178,0.052202,0.958957,0.278704
0.304283,0.026892,0.382162,0.600666,0.264717,0.754404
0.234367,-0.100302,0.292021,-0.099213,-0.987358,-0.123620
0.023054,-0.027703,0.487733,0.045426,-0.272701,0.961026
-0.184078,0.016505,0.224481,0.625661,0.162468,-0.762989
-0.193174,0.075606,0.415699,-0.281463,0.744254,0.605694
-0.194036,0.081679,0.407063,-0.255846,0.804028,0.536733
0.164070,0.034235,0.245041,-0.523820,0.337000,-0.782332
0.199476,-0.020782,0.447537,0.398501,-0.204576,0.894062
0.205985,0.036888,0.212415,-0.648640,0.363114,-0.668890
-0.028257,-0.101305,0.381933,0.005494,-0.997224,-0.074258
-0.095201,0.100718,0.392417,-0.030771,0.991446,0.126836
0.067587,-0.053301,0.472209,0.120617,-0.524687,0.842707
-0.120152,0.005635,0.477074,-0.243851,0.055467,0.968225
-0.112298,-0.031462,0.271653,0.363249,-0.309702,-0.878712
0.283341,-0.101238,0.256403,-0.061380,-0.996568,-0.055545
0.066879,0.031356,0.482555,0.130578,0.308663,0.942166
-0.130049,-0.096432,0.334179,0.114056,-0.949259,-0.293085
-0.130191,-0.025546,0.261614,0.431210,-0.251468,-0.866500
0.274304,0.099153,0.245973,-0.162000,0.976039,-0.145269
0.057078,0.005943,0.283438,-0.197077,0.058503,-0.978641
-0.195640,0.057969,0.236741,0.523122,0.570638,-0.633021
0.482865,-0.042309,0.000000,1.000000,0.000000,0.000000
0.423795,-0.001753,0.250145,0.861047,-0.017259,0.508232
0.324451,0.084095,0.077384,-0.545689,0.827819,-0.130151
0.152528,0.086493,0.416788,0.180247,0.851424,0.492532
0.012061,-0.045525,0.299484,-0.035974,-0.448141,-0.893239
0.145789,-0.078125,0.291146,-0.286195,-0.769048,-0.571540
-0.244402,-0.100165,0.326048,-0.100010,-0.986001,0.133420
0.283182,0.016318,0.400876,0.569477,0.160635,0.806159
0.270211,0.101587,0.282115,0.000704,0.999999,0.000735
0.057482,-0.091941,0.429921,0.056364,-0.905047,0.421559
0.449405,-0.059422,0.147321,0.770720,-0.584942,0.252653
0.161611,0.021397,0.242278,-0.542472,0.210626,-0.813241
-0.115427,-0.069493,0.294640,0.266063,-0.684078,-0.679152
-0.039972,0.001523,0.286188,0.138313,0.014988,-0.990275
0.421593,-0.096695,0.008807,0.306508,-0.951847,0.006403
-0.152488,-0.092236,0.312777,0.183647,-0.907953,-0.376690
0.016262,-0.076090,0.322825,-0.033333,-0.749013,-0.661716
-0.246758,-0.086340,0.369200,-0.292799,-0.849911,0.438086
-0.037921,0.070315,0.314947,0.086278,0.692162,-0.716566
-0.165017,0.093577,0.309795,0.182976,0.921152,-0.343509
0.376411,-0.098460,0.000000,1.000000,0.000000,0.000000
0.179609,0.040246,0.449242,0.340858,0.396177,0.852561
-0.114127,0.089618,0.323141,0.156825,0.882179,-0.444035
0.397319,-0.101123,0.048199,0.094698,-0.995440,0.011488
-0.261953,-0.023095,0.413473,-0.521164,-0.227347,0.822619
0.320137,0.101206,0.207962,-0.072537,0.996252,-0.047120
0.118586,0.098262,0.344951,-0.082488,0.967275,-0.239948
0.269542,0.000625,0.104130,-0.932793,0.006154,-0.360360
-0.205085,-0.095711,0.291595,0.192811,-0.942162,-0.274143
-0.086658,0.100860,0.368357,0.027341,0.992847,-0.116217
-0.165151,0.085173,0.414196,-0.201857,0.838427,0.506254
0.287269,0.085091,0.172437,-0.468351,0.837622,-0.281134
0.299005,-0.098055,0.207567,-0.214710,-0.965238,-0.149050
0.455167,0.014356,0.184420,0.917514,0.141321,0.371749
0.041512,-0.027209,0.289707,-0.136657,-0.267836,-0.953724
-0.164486,-0.096901,0.320275,0.137149,-0.953875,-0.267046
-0.177220,-0.101036,0.336119,0.048500,-0.994579,-0.091985
0.231496,-0.100590,0.331994,0.079919,-0.990190,0.114613
0.303848,-0.078630,0.118726,-0.589738,-0.774021,-0.230436
-0.171092,-0.043218,0.451122,-0.320922,-0.425429,0.846179
0.120687,0.025348,0.266076,-0.400008,0.249517,-0.881893
0.193978,-0.063088,0.242987,-0.488999,-0.621023,-0.612544
0.391405,0.100801,0.096601,0.120500,0.992268,0.029740
0.088787,-0.021631,0.277423,-0.297822,-0.212934,-0.930570
-0.270254,0.022904,0.300159,-0.639765,0.000000,0.768571
0.256420,-0.086949,0.220224,-0.392297,-0.855913,-0.336921
0.472995,-0.017711,0.130140,0.949404,-0.174344,0.261219
0.203704,-0.028359,0.443549,0.400757,-0.279159,0.872619
0.222356,-0.048196,0.203047,-0.650046,-0.474431,-0.593595
-0.310747,-0.024282,0.300159,-0.639765,0.000000,0.768571
0.384039,-0.101420,0.022944,-0.057163,-0.998359,-0.003415
0.112972,-0.094433,0.334533,-0.117943,-0.929576,-0.349253
0.181465,-0.068827,0.428411,0.286871,-0.677516,0.677257
0.350709,0.059099,0.317633,0.602857,0.581762,0.546000
0.427408,-0.003136,0.243854,0.868161,-0.030868,0.495322
0.239833,0.095912,0.264526,-0.221356,0.944137,-0.244147
0.236716,0.101359,0.319129,0.039865,0.997759,0.053744
0.427688,0.068695,0.183470,0.677029,0.676225,0.290432
0.015606,-0.045444,0.299279,-0.046574,-0.447338,-0.893151
0.335606,-0.079994,0.304501,0.456491,-0.787445,0.414182
0.093452,0.090111,0.330687,-0.125559,0.887035,-0.444301
0.028013,0.082748,0.448596,0.036154,0.814558,0.578954
-0.018657,-0.022549,0.290891,0.062409,-0.221967,-0.973055
0.009468,0.080352,0.452599,0.012797,0.790969,0.611723
0.312368,0.033202,0.000000,1.000000,0.000000,0.000000
0.327287,-0.080754,0.032614,-0.603719,-0.794924,-0.060161
0.282517,-0.013919,0.065062,-0.965302,-0.137014,-0.222304
0.160962,0.028509,0.460738,0.316555,0.280634,0.906111
0.167928,-0.095361,0.313366,-0.162812,-0.938715,-0.303819
0.417552,0.030660,0.000000,1.000000,0.000000,0.000000
-0.183780,-0.093130,0.389987,-0.170282,-0.916753,0.361342
-0.104880,0.089845,0.425209,-0.111766,0.884412,0.453127
0.345934,-0.097196,0.103195,-0.278680,-0.956779,-0.083133
-0.119318,0.031146,0.472400,-0.233093,0.306595,0.922858
-0.243620,-0.042222,0.416987,-0.458818,-0.415629,0.785327
0.456650,-0.013357,0.181089,0.921505,-0.131484,0.365432
0.188185,0.082876,0.407980,0.242227,0.815815,0.525140
0.127104,0.093028,0.325813,-0.146014,0.915746,-0.374286
0.254856,0.008525,0.136931,-0.877795,0.083920,-0.471629
0.066355,-0.097752,0.356776,-0.049762,-0.962255,-0.267560
-0.175991,0.010125,0.300159,-0.639765,0.000000,0.768571
0.243834,0.100484,0.285710,-0.095395,0.989144,-0.111777
-0.258736,-0.003464,0.300159,-0.639765,0.000000,0.768571
-0.220814,0.016931,0.300159,-0.639765,0.000000,0.768571
0.115277,-0.078614,0.305152,-0.223825,-0.773859,-0.592490
-0.178890,0.069155,0.260643,0.414519,0.680745,-0.603955
-0.013736,-0.098375,0.415656,-0.008239,-0.968385,0.249325
-0.023924,-0.083699,0.447473,-0.030257,-0.823913,0.565908
0.127245,-0.053424,0.276238,-0.355854,-0.525894,-0.772531
0.447708,0.000296,0.204320,0.909737,0.002915,0.415175
-0.143298,0.042877,0.261794,0.435283,0.422073,-0.795225
0.314317,0.070410,0.043501,-0.714037,0.693098,-0.098822
-0.064370,-0.034064,0.481967,-0.124718,-0.335316,0.933814
-0.009174,0.097812,0.417875,-0.005928,0.962843,0.269997
-0.117213,0.032422,0.269915,0.377490,0.319157,-0.869276
-0.038373,0.098496,0.413634,-0.022614,0.969571,0.243763
0.071849,-0.100726,0.370438,-0.024741,-0.991523,-0.127557
0.236266,-0.101331,0.301878,-0.043671,-0.997487,-0.055798
0.113422,0.098862,0.398066,0.063036,0.973182,0.221231
-0.229616,0.077944,0.393614,-0.323157,0.767264,0.553964
0.140849,-0.050923,0.457241,0.254733,-0.501272,0.826945
-0.024514,-0.009423,0.491078,-0.049642,-0.092759,0.994450
-0.046672,0.005565,0.285315,0.161194,0.054781,-0.985401
0.325362,-0.086749,0.090364,-0.501397,-0.853937,-0.139255
0.158053,-0.043044,0.455940,0.296677,-0.423716,0.855831
-0.132302,0.048216,0.461362,-0.242627,0.474626,0.846087
0.055943,0.026525,0.485391,0.110525,0.261105,0.958962
0.270228,-0.089709,0.211044,-0.369807,-0.883080,-0.288814
0.351979,0.100848,0.138675,-0.112002,0.992728,-0.044128
0.158683,0.004862,0.241623,-0.548313,0.047861,-0.834903
0.048259,0.101236,0.396051,0.010049,0.996543,0.082468
0.465405,-0.006530,0.159315,0.944147,-0.064276,0.323196
0.058842,-0.096665,0.417655,0.042900,-0.951547,0.304497
0.478707,0.028658,0.094791,0.941112,0.282100,0.186354
0.060276,0.042866,0.292291,-0.183108,0.421964,-0.887929
0.272424,0.099979,0.304453,0.118158,0.984176,0.132050
0.020317,-0.061823,0.309266,-0.052015,-0.608574,-0.791790
0.164868,0.080493,0.284210,-0.306111,0.792360,-0.527695
0.468419,0.003627,0.150698,0.951342,0.035699,0.306062
0.209903,0.061605,0.227806,-0.538799,0.606430,-0.584755
-0.017730,0.069451,0.315907,0.040895,0.683667,-0.728648
0.158361,0.058150,0.446592,0.274039,0.572415,0.772815
-0.209025,0.092494,0.278896,0.248005,0.910491,-0.330907
0.303547,0.092705,0.172221,-0.355665,0.912569,-0.201791
0.091362,0.072359,0.452717,0.138848,0.712290,0.688015
0.169891,0.013119,0.460967,0.342920,0.129138,0.930446
0.145724,-0.059797,0.449640,0.249233,-0.588630,0.769024
0.099562,-0.099807,0.358022,-0.049934,-0.982479,-0.179562
-0.330654,0.017998,0.300159,-0.639765,0.000000,0.768571
0.271081,-0.101546,0.285101,0.019425,-0.999603,0.020430
0.383478,-0.003564,0.000000,1.000000,0.000000,0.000000
-0.082247,0.004922,0.277126,0.284184,0.048455,-0.957545
0.299221,0.050100,0.373933,0.543524,0.493171,0.679238
-0.171720,0.067825,0.263974,0.405957,0.667654,-0.624049
0.076233,0.101411,0.389112,0.011295,0.998273,0.057655
-0.132524,0.066942,0.284807,0.317323,0.658964,-0.681962
0.265667,0.011746,0.413450,0.536957,0.115623,0.835649
0.033829,0.047713,0.479033,0.062191,0.469673,0.880647
0.449187,-0.077601,0.079108,0.635568,-0.763888,0.111932
-0.000311,0.012045,0.491411,-0.000628,0.118565,0.992946
0.173941,0.036234,0.239051,-0.549664,0.356678,-0.755414
0.290061,-0.016531,0.011980,-0.985831,-0.162725,-0.040715
0.055637,0.083698,0.328288,-0.094697,0.823904,-0.558762
0.105693,0.099712,0.396111,0.049306,0.981541,0.184785
-0.009882,-0.090598,0.344445,0.012973,-0.891833,-0.452179
-0.194006,0.087390,0.277686,0.292018,0.860247,-0.417972
0.074146,-0.067985,0.306207,-0.174873,-0.669230,-0.722185
-0.005489,0.015988,0.290169,0.018676,0.157386,-0.987361
0.325388,0.094835,0.276434,0.273204,0.933536,0.232101
0.197424,-0.079717,0.408283,0.269836,-0.784720,0.558035
-0.032680,-0.044332,0.297348,0.098296,-0.436397,-0.894369
0.007488,-0.085004,0.446104,0.009190,-0.836760,0.547492
0.202198,0.099693,0.311080,-0.104734,0.981360,-0.161133
0.308994,-0.070188,0.346124,0.481444,-0.690921,0.539296
0.191774,-0.092399,0.290777,-0.228809,-0.909553,-0.346930
-0.071342,0.039584,0.478813,-0.135722,0.389655,0.910906
-0.110896,-0.078734,0.441005,-0.154103,-0.775044,0.612829
0.179209,-0.094509,0.304459,-0.186029,-0.930327,-0.316045
-0.045695,-0.100637,0.373897,0.016554,-0.990646,-0.135449
0.281704,0.048921,0.107476,-0.818836,0.481572,-0.312405
0.336757,0.013126,0.357697,0.679728,0.129212,0.721993
0.110797,0.099789,0.354608,-0.055857,0.982304,-0.178772
0.291470,0.096541,0.209452,-0.252758,0.950328,-0.181633
-0.049479,0.036981,0.291759,0.155728,0.364032,-0.918275
-0.175824,-0.014403,0.458549,-0.354402,-0.141785,0.924281
0.034909,-0.001991,0.286858,-0.120781,-0.019599,-0.992486
-0.143786,-0.064003,0.446868,-0.237862,-0.630030,0.739245
-0.178426,-0.013138,0.457728,-0.360140,-0.129323,0.923891
0.331425,0.080897,0.307326,0.443519,0.796335,0.411269
-0.222834,0.045870,0.300159,-0.639765,0.000000,0.768571
-0.252739,0.019142,0.420149,-0.506237,0.188432,0.841557
0.439438,0.075716,0.130015,0.639297,0.745334,0.189146
0.385252,-0.099166,0.147679,0.202638,-0.976168,0.077677
-0.206918,0.055573,0.428207,-0.364211,0.547048,0.753717
-0.165133,0.086108,0.412625,-0.197141,0.847630,0.492604
0.296980,0.084759,0.154021,-0.489336,0.834353,-0.253781
-0.216711,0.031577,0.436232,-0.422866,0.310841,0.851212
0.309689,-0.085347,0.128899,-0.500728,-0.840140,-0.208414
0.282847,0.028658,0.076769,-0.925888,0.282099,-0.251300
0.434312,0.089586,0.060013,0.467053,0.881871,0.064537
-0.287155,-0.027169,0.395099,-0.566501,-0.267447,0.779454
0.188711,0.101048,0.353808,0.048397,0.994698,0.090738
0.285494,-0.065454,0.127944,-0.697882,-0.644317,-0.312756
0.293533,-0.062635,0.101424,-0.744136,-0.616563,-0.257121
0.290088,0.015181,0.002078,-0.988745,0.149440,-0.007082
0.357267,0.096158,0.019068,-0.322079,0.946557,-0.017190
0.434947,-0.077938,0.135950,0.612193,-0.767206,0.191352
-0.220591,0.049282,0.300159,-0.639765,0.000000,0.768571
0.359407,0.101176,0.174823,0.080813,0.995954,0.039309
0.395164,0.002802,0.000000,1.000000,0.000000,0.000000
-0.029552,0.081793,0.449820,-0.038879,0.805151,0.591795
0.244566,0.086226,0.370875,0.291069,0.848793,0.441394
0.146741,-0.099074,0.337570,-0.088127,-0.975261,-0.202731
0.282155,0.003296,0.062563,-0.975774,0.032442,-0.216362
0.192980,0.016162,0.451306,0.388160,0.159093,0.907756
0.463849,0.065204,0.065429,0.759308,0.641857,0.107105
-0.023546,0.101428,0.384148,0.003416,0.998440,-0.055735
-0.077373,0.000084,0.278403,0.267769,0.000830,-0.963483
0.322392,-0.058902,0.000000,1.000000,0.000000,0.000000
0.460108,-0.073130,0.029505,0.692681,-0.719875,0.044420
0.045690,0.100159,0.370764,-0.020434,0.985945,-0.165814
0.281335,-0.094342,0.322831,0.243659,-0.928685,0.279598
-0.171498,0.056642,0.442822,-0.299797,0.557573,0.774102
0.111751,-0.096620,0.341337,-0.096101,-0.951106,-0.293535
-0.080765,-0.070765,0.307218,0.182416,-0.696598,-0.693884
-0.230196,-0.082884,0.300159,-0.639765,0.000000,0.768571
0.012809,-0.030364,0.487315,0.025075,-0.298902,0.953954
-0.102937,-0.095346,0.340255,0.099927,-0.938570,-0.330304
0.286298,0.026070,0.059211,-0.946481,0.256626,-0.195746
-0.100980,0.080884,0.440580,-0.135166,0.796204,0.589736
-0.139978,0.071224,0.285652,0.313766,0.701120,-0.640298
0.188239,0.062453,0.246832,-0.478273,0.614773,-0.627144
0.269873,0.062678,0.153747,-0.683791,0.616988,-0.389557
0.082890,-0.045527,0.474165,0.153940,-0.448155,0.880602
-0.102654,0.074854,0.305054,0.215618,0.736853,-0.640747
-0.240772,-0.026743,0.425094,-0.475452,-0.263251,0.839431
0.229777,0.044398,0.423606,0.428855,0.437042,0.790618
0.054147,0.071516,0.313755,-0.120781,0.703990,-0.699865
0.153895,-0.091646,0.310688,-0.191496,-0.902148,-0.386598
0.354973,0.015229,0.000000,1.000000,0.000000,0.000000
0.340719,0.101521,0.183300,-0.031600,0.999356,-0.017000
-0.066635,-0.076889,0.452048,-0.095309,-0.756883,0.646564
0.415682,-0.094924,0.096450,0.346971,-0.934414,0.080507
0.188481,0.101462,0.347784,0.023607,0.998772,0.043559
-0.247659,-0.037106,0.300159,-0.639765,0.000000,0.768571
0.288472,-0.099924,0.235256,-0.139626,-0.983635,-0.113868
0.340617,0.101587,0.191173,0.000490,1.000000,0.000275
-0.158600,0.013101,0.242552,0.542699,0.128965,-0.829967
-0.068077,0.090961,0.430423,-0.069558,0.895403,0.439789
0.074146,0.016322,0.280645,-0.252115,0.160672,-0.954266
0.278022,-0.091812,0.207739,-0.342861,-0.903778,-0.256188
0.284487,0.088331,0.336598,0.318829,0.869508,0.377231
-0.007251,-0.090324,0.436973,-0.007593,-0.889129,0.457594
0.301869,0.073218,0.106547,-0.653681,0.720741,-0.230723
-0.274990,-0.022786,0.405006,-0.547419,-0.224297,0.806240
-0.074868,-0.093612,0.343012,0.082820,-0.921501,-0.379442
0.131972,-0.100738,0.353613,-0.045101,-0.991646,-0.120846
-0.019024,0.096341,0.422334,-0.014273,0.948365,0.316859
-0.281270,0.071080,0.300159,-0.639765,0.000000,0.768571
-0.031755,0.101474,0.384454,0.003872,0.998893,-0.046877
0.098106,-0.078638,0.444146,0.136544,-0.774100,0.618162
0.381763,0.049370,0.289842,0.696078,0.485993,0.528475
-0.024731,0.085919,0.335429,0.039232,0.845767,-0.532108
-0.014220,-0.044788,0.481512,-0.026495,-0.440882,0.897174
0.415721,-0.035429,0.000000,1.000000,0.000000,0.000000
0.217376,-0.003407,0.190461,-0.751712,-0.033539,-0.658638
0.153256,0.100564,0.343529,-0.057658,0.989935,-0.129243
0.082250,-0.045097,0.474493,0.153043,-0.443928,0.882896
0.105652,0.058498,0.288767,-0.280911,0.575847,-0.767782
0.409223,-0.016767,0.000000,1.000000,0.000000,0.000000
0.433027,0.092111,0.017558,0.421380,0.906723,0.017086
0.479326,-0.046058,0.041126,0.888053,-0.453382,0.076194
0.216240,-0.018055,0.440274,0.433828,-0.177730,0.883292
0.362194,0.101360,0.163357,0.060904,0.997766,0.027469
0.377220,0.031928,0.000000,1.000000,0.000000,0.000000
0.412352,0.099001,0.028194,0.223655,0.974548,0.015292
0.243858,-0.097595,0.268007,-0.186793,-0.960710,-0.205291
0.275398,0.054211,0.130208,-0.764564,0.533640,-0.361484
0.294771,0.058505,0.087531,-0.783690,0.575911,-0.232713
0.477379,-0.001486,0.119534,0.969948,-0.014624,0.242871
-0.031860,0.097072,0.359182,0.026048,0.955556,-0.293657
-0.161493,-0.091939,0.307503,0.197773,-0.905025,-0.376585
0.361957,-0.069271,0.291668,0.569555,-0.681888,0.458951
-0.115170,0.055467,0.461495,-0.202855,0.546004,0.812853
0.191128,-0.091264,0.288327,-0.242675,-0.898380,-0.366090
0.110278,-0.068525,0.295649,-0.257999,-0.674544,-0.691684
-0.080412,0.074873,0.452103,-0.118351,0.737037,0.665409
-0.190612,-0.099510,0.317247,0.103600,-0.979559,-0.172428
0.294097,-0.046303,0.059828,-0.872217,-0.455801,-0.177433
-0.021257,0.005733,0.288334,0.073405,0.056431,-0.995704
0.367479,0.092965,0.226159,0.343342,0.915132,0.211304
-0.150375,0.016834,0.248386,0.510733,0.165707,-0.843619
0.231739,0.087206,0.246648,-0.351216,0.858435,-0.373813
0.063691,0.100398,0.369600,-0.025901,0.988301,-0.150301
-0.035710,-0.078457,0.324048,0.069581,-0.772315,-0.631417
-0.048319,-0.040230,0.293306,0.149258,-0.396014,-0.906033
-0.000890,-0.003781,0.492057,-0.001807,-0.037222,0.999305
0.425709,0.095301,0.003248,0.346295,0.938122,0.002642
0.034687,0.067054,0.465563,0.055814,0.660071,0.749127
0.391199,-0.077081,0.000000,1.000000,0.000000,0.000000
-0.052450,-0.054039,0.299969,0.145846,-0.531954,-0.834119
0.038986,-0.017915,0.287919,-0.132079,-0.176349,-0.975426
-0.040358,0.100536,0.403097,-0.014289,0.989660,0.142720
-0.061731,0.099482,0.364784,0.033787,0.979283,-0.199656
0.023440,0.097103,0.359932,-0.019093,0.955866,-0.293182
0.303396,-0.018326,0.000000,1.000000,0.000000,0.000000
0.223140,0.042131,0.197671,-0.681125,0.414729,-0.603381
-0.297568,-0.061243,0.365858,-0.503429,-0.602863,0.618963
0.245395,-0.002132,0.152607,-0.848998,-0.020983,-0.527980
0.425394,-0.086226,0.128064,0.506284,-0.848791,0.152416
0.307978,0.092787,0.164555,-0.359077,0.913375,-0.191858
0.215073,0.053521,0.215126,-0.600937,0.526852,-0.601083
0.433425,-0.029048,0.224000,0.851279,-0.285945,0.439954
0.136930,0.100706,0.351459,-0.047707,0.991327,-0.122451
-0.211906,-0.062609,0.420125,-0.354650,-0.616307,0.703128
0.219429,-0.073741,0.404761,0.327805,-0.725889,0.604673
0.275679,0.009644,0.088096,-0.948244,0.094931,-0.303019
0.267499,0.101087,0.270572,-0.069631,0.995083,-0.070431
0.377855,-0.088742,0.000000,1.000000,0.000000,0.000000
-0.257505,0.012303,0.300159,-0.639765,0.000000,0.768571
0.055423,0.093544,0.426571,0.050245,0.920828,0.386719
0.316823,-0.034884,0.000000,1.000000,0.000000,0.000000
0.092905,0.093106,0.337348,-0.106205,0.916516,-0.385642
0.472683,-0.055252,0.054269,0.833682,-0.543887,0.095715
0.462117,-0.062261,0.090066,0.775581,-0.612883,0.151159
0.239987,0.047139,0.180938,-0.707315,0.464025,-0.533279
-0.051765,0.022063,0.286744,0.173415,0.217180,-0.960604
0.133680,-0.101434,0.361016,-0.019039,-0.998496,-0.051416
0.344040,0.092746,0.059174,-0.402117,0.912972,-0.069163
-0.059489,0.101534,0.389301,-0.004875,0.999479,0.031903
-0.219543,-0.095941,0.281701,0.202065,-0.944429,-0.259274
0.318593,0.067433,0.340791,0.510758,0.663801,0.546346
0.159373,0.018206,0.242998,-0.539549,0.179216,-0.822659
0.240437,-0.095072,0.260835,-0.238815,-0.935867,-0.259076
0.324521,0.100292,0.245152,0.127002,0.987252,0.095941
0.210494,-0.017835,0.200252,-0.713260,-0.175562,-0.678556
-0.173232,-0.026539,0.235662,0.571715,-0.261244,-0.777749
-0.001704,0.052486,0.303559,0.004807,0.516657,-0.856179
-0.009835,0.090327,0.343914,0.013081,0.889157,-0.457415
0.334096,0.030712,0.000000,1.000000,0.000000,0.000000
0.316035,-0.069089,0.004366,-0.733052,-0.680097,-0.010128
0.275220,0.053716,0.129859,-0.767612,0.528766,-0.362187
0.308849,0.094095,0.169394,-0.330465,0.926251,-0.181250
0.146276,-0.007579,0.469590,0.296573,-0.074605,0.952092
0.270240,0.008606,0.103325,-0.930696,0.084714,-0.355848
0.338173,-0.096866,0.123252,-0.283077,-0.953532,-0.103172
-0.250389,-0.027140,0.300159,-0.639765,0.000000,0.768571
0.332467,0.088407,0.073522,-0.480979,0.870256,-0.106363
-0.177531,0.047176,0.242542,0.523089,0.464395,-0.714643
0.147465,0.053557,0.266088,-0.411899,0.527200,-0.743236
0.305078,-0.078778,0.116038,-0.590135,-0.775473,-0.224461
0.340058,-0.086385,0.285471,0.403024,-0.850356,0.338329
0.102701,-0.072803,0.449815,0.155239,-0.716661,0.679925
-0.160009,0.085468,0.295035,0.257690,0.841328,-0.475145
0.437466,-0.034979,0.211513,0.845239,-0.344324,0.408671
0.468132,0.054375,0.088105,0.830118,0.535253,0.156233
0.257242,0.087749,0.221333,-0.381950,0.863780,-0.328632
0.333409,0.100954,0.224342,0.092437,0.993774,0.062198
-0.189314,0.069602,0.253695,0.435630,0.685150,-0.583778
0.053259,0.101445,0.392310,0.007108,0.998603,0.052359
0.281666,0.086362,0.185110,-0.440050,0.850129,-0.289200
0.222830,-0.003072,0.438738,0.452625,-0.030244,0.891188
0.245122,0.099405,0.330506,0.122806,0.978520,0.165584
0.277270,0.100618,0.254772,-0.101440,0.990466,-0.093209
0.475703,-0.024258,0.114074,0.944300,-0.238790,0.226443
-0.251633,0.000576,0.300159,-0.639765,0.000000,0.768571
0.254056,0.043596,0.157251,-0.768015,0.429155,-0.475372
0.267762,0.032806,0.122366,-0.860794,0.322936,-0.393378
0.129223,-0.100502,0.384195,0.046457,-0.989325,0.138123
0.000580,0.071097,0.317979,-0.001304,0.699862,-0.714277
-0.003707,-0.099993,0.372598,0.001755,-0.984310,-0.176439
-0.147214,0.097026,0.329010,0.121008,0.955101,-0.270441
-0.222642,-0.099964,0.342645,-0.096996,-0.984026,0.149277
0.036634,0.024599,0.487731,0.072671,0.242151,0.967513
0.430658,-0.082198,0.131323,0.562067,-0.809139,0.171394
0.290420,0.088011,0.332234,0.328681,0.866366,0.376004
0.263277,-0.097751,0.324916,0.171367,-0.962240,0.211487
-0.088245,-0.101287,0.388437,-0.016995,-0.997053,0.074808
-0.203132,0.077200,0.253071,0.406868,0.759945,-0.506895
0.058653,-0.091901,0.342262,-0.071978,-0.904658,-0.420015
0.191732,0.077807,0.262700,-0.379037,0.765914,-0.519332
0.238550,-0.030171,0.425198,0.467211,-0.296997,0.832770
0.320547,0.082928,0.085931,-0.557891,0.816327,-0.149558
0.358342,0.099734,0.096953,-0.183531,0.981759,-0.049656
0.439144,0.061677,0.170999,0.740446,0.607132,0.288323
-0.185758,0.092641,0.295288,0.218492,0.911937,-0.347322
0.064604,-0.044672,0.292248,-0.193857,-0.439745,-0.876951
-0.176776,0.015195,0.230015,0.602511,0.149579,-0.783968
-0.073585,0.091827,0.427704,-0.072516,0.903928,0.421493
0.314035,0.088292,0.131090,-0.456421,0.869126,-0.190527
-0.078725,-0.086392,0.327776,0.122861,-0.850429,-0.511543
-0.027740,-0.099254,0.367852,0.016022,-0.977038,-0.212464
0.338515,-0.028175,0.351697,0.666270,-0.277347,0.692216
-0.005748,0.027267,0.292626,0.018917,0.268415,-0.963118
