x,y,z,nx,ny,nz
-24.570969,20.537721,-2.288965,0.000000,-0.000000,-1.000000
46.588617,-13.823162,-2.288965,0.000000,0.000000,-1.000000
40.046233,-23.539536,1.338130,0.000000,-1.000000,0.000000
32.646341,11.368523,-2.288965,0.000000,0.000000,-1.000000
37.960275,9.560699,2.288965,-0.000000,0.000000,1.000000
35.145560,6.232571,-2.288965,0.000000,0.000000,-1.000000
37.223278,21.170655,2.288965,-0.000000,0.000000,1.000000
12.802193,7.761461,-2.288965,0.000000,-0.000000,-1.000000
-41.078967,8.285050,-2.288965,0.000000,0.000000,-1.000000
-43.046955,20.243443,2.288965,0.000000,-0.000000,1.000000
32.520094,-16.002535,2.288965,-0.000000,0.000000,1.000000
25.298374,-22.098163,-2.288965,0.000000,0.000000,-1.000000
-24.709350,-9.423873,2.288965,0.000000,0.000000,1.000000
-23.176827,-8.061946,-2.288965,0.000000,0.000000,-1.000000
42.128658,19.356170,2.288965,0.000000,-0.000000,1.000000
31.286372,-2.743982,-2.288965,0.000000,0.000000,-1.000000
-46.430582,-7.019945,2.288965,0.000000,-0.000000,1.000000
-12.811229,-7.915373,2.288965,0.000000,-0.000000,1.000000
13.497286,-11.118972,1.375392,0.881921,0.471397,0.000000
15.638934,6.842717,-2.288965,-0.000000,0.000000,-1.000000
-26.070792,12.604397,2.288965,0.000000,-0.000000,1.000000
16.988522,16.028935,-2.288965,0.000000,-0.000000,-1.000000
-1.808832,-16.866105,-2.288965,0.000000,0.000000,-1.000000
4.572151,17.740214,2.288965,-0.000000,0.000000,1.000000
-1.127661,10.333583,2.288965,-0.000000,0.000000,1.000000
21.480037,12.513401,-2.288965,0.000000,-0.000000,-1.000000
23.953790,17.429008,-2.288965,0.000000,-0.000000,-1.000000
34.266447,-17.872928,2.288965,-0.000000,-0.000000,1.000000
-30.366408,-4.769394,-2.288965,0.000000,0.000000,-1.000000
-19.224262,2.585186,-2.288965,0.000000,0.000000,-1.000000
-5.522861,23.279851,-2.288965,0.000000,-0.000000,-1.000000
14.602225,-6.977693,-0.234365,0.634393,-0.773011,0.000000
14.883281,-12.566078,-1.383084,0.471398,0.881921,-0.000000
5.027466,3.061382,-2.288965,0.000000,0.000000,-1.000000
-14.447658,12.519598,-2.288965,0.000000,-0.000000,-1.000000
22.968908,4.752088,-2.288965,0.000000,0.000000,-1.000000
-34.294900,23.539536,-1.107114,0.000000,1.000000,0.000000
35.980545,18.459204,-2.288965,0.000000,-0.000000,-1.000000
27.207123,2.165549,2.288965,0.000000,-0.000000,1.000000
14.628988,0.557087,-2.288965,0.000000,0.000000,-1.000000
-40.793615,-1.591297,2.288965,0.000000,-0.000000,1.000000
35.897663,-8.498630,2.288965,-0.000000,0.000000,1.000000
33.728240,23.539536,-1.749830,-0.000000,1.000000,0.000000
43.054128,-9.989336,2.288965,-0.000000,0.000000,1.000000
-23.965396,-23.539536,1.274028,0.000000,-1.000000,0.000000
-7.956870,2.148192,-2.288965,0.000000,0.000000,-1.000000
-5.713334,-3.941993,-2.288965,0.000000,0.000000,-1.000000
11.237641,5.576809,-1.866635,-0.098017,-0.995185,0.000000
19.198784,6.503197,-2.288965,-0.000000,0.000000,-1.000000
2.752899,7.599615,-2.288965,0.000000,-0.000000,-1.000000
32.688399,-4.965367,-2.288965,0.000000,0.000000,-1.000000
41.427459,-1.202675,2.288965,-0.000000,0.000000,1.000000
-41.768724,10.250093,2.288965,0.000000,-0.000000,1.000000
-5.527096,18.395505,-2.288965,0.000000,-0.000000,-1.000000
-20.752330,-12.098511,-2.288965,0.000000,0.000000,-1.000000
21.895298,-0.593747,-2.288965,0.000000,-0.000000,-1.000000
10.977208,-0.895011,1.619148,-0.098017,0.995185,0.000000
37.383233,-21.370283,2.288965,0.000000,-0.000000,1.000000
7.617719,10.637797,2.288965,-0.000000,0.000000,1.000000
14.353687,-12.208012,1.973538,0.634393,0.773011,0.000000
-23.394172,18.207599,2.288965,-0.000000,0.000000,1.000000
-38.623342,2.572502,2.288965,0.000000,-0.000000,1.000000
12.535078,-2.490706,-2.288965,0.000000,0.000000,-1.000000
-23.024584,18.140444,2.288965,-0.000000,0.000000,1.000000
-34.838649,-22.441520,-2.288965,0.000000,0.000000,-1.000000
43.974468,-3.053811,-2.288965,0.000000,0.000000,-1.000000
-21.861309,15.831359,-2.288965,0.000000,-0.000000,-1.000000
2.738894,11.859921,2.288965,-0.000000,0.000000,1.000000
-45.986786,21.462505,2.288965,0.000000,-0.000000,1.000000
-38.708454,19.148227,-2.288965,0.000000,0.000000,-1.000000
2.325954,7.450493,-2.288965,0.000000,-0.000000,-1.000000
-46.487033,-12.497692,2.288965,0.000000,-0.000000,1.000000
15.089426,1.035732,2.288965,0.000000,-0.000000,1.000000
-24.259920,23.539536,-0.745224,0.000000,1.000000,0.000000
9.864783,-21.553336,2.288965,0.000000,-0.000000,1.000000
-39.101595,-19.343926,2.288965,0.000000,-0.000000,1.000000
-17.500927,-2.800523,-2.288965,0.000000,0.000000,-1.000000
19.071141,-12.097075,-2.288965,0.000000,0.000000,-1.000000
-6.145540,2.844852,2.288965,0.000000,-0.000000,1.000000
9.513313,-17.617378,-2.288965,0.000000,0.000000,-1.000000
26.001309,3.593292,2.288965,0.000000,-0.000000,1.000000
19.162703,-14.517771,-2.288965,0.000000,0.000000,-1.000000
45.243731,-2.587734,-2.288965,0.000000,0.000000,-1.000000
45.033622,-3.075031,-2.288965,0.000000,0.000000,-1.000000
-13.445471,-15.560019,2.288965,0.000000,-0.000000,1.000000
-20.011740,-10.857811,-2.288965,0.000000,0.000000,-1.000000
-6.885465,2.689399,2.288965,0.000000,-0.000000,1.000000
1.750158,12.002113,2.288965,-0.000000,0.000000,1.000000
-11.927474,13.345346,-2.288965,0.000000,-0.000000,-1.000000
-24.108008,15.800230,-2.288965,0.000000,-0.000000,-1.000000
12.411782,23.423557,2.288965,-0.000000,0.000000,1.000000
-33.537861,15.712851,-2.288965,0.000000,0.000000,-1.000000
-19.802384,8.814659,2.288965,0.000000,-0.000000,1.000000
32.388926,16.979522,-2.288965,0.000000,-0.000000,-1.000000
-23.401905,-23.539536,0.507146,0.000000,-1.000000,0.000000
-21.570535,-11.307939,2.288965,0.000000,-0.000000,1.000000
12.394955,7.548949,2.288965,-0.000000,0.000000,1.000000
45.529768,2.877382,-2.288965,0.000000,0.000000,-1.000000
10.757474,-0.916653,0.398928,-0.098017,0.995185,0.000000
-37.067064,11.330061,-2.288965,0.000000,0.000000,-1.000000
17.498694,-22.538015,2.288965,0.000000,-0.000000,1.000000
-7.632473,-12.762015,-2.288965,0.000000,0.000000,-1.000000
-17.933024,-23.539536,0.853553,0.000000,-1.000000,0.000000
6.520152,23.539536,1.416448,0.000000,1.000000,0.000000
-20.875550,-8.402507,2.288965,0.000000,-0.000000,1.000000
43.379568,19.140700,2.288965,-0.000000,0.000000,1.000000
4.358156,-15.585007,-2.288965,0.000000,0.000000,-1.000000
32.323405,-5.770551,-2.288965,0.000000,0.000000,-1.000000
16.899027,23.539536,1.434314,0.000000,1.000000,0.000000
21.088353,-10.104410,2.288965,-0.000000,0.000000,1.000000
-29.894233,-13.787665,-2.288965,0.000000,0.000000,-1.000000
-33.784412,17.388815,2.288965,0.000000,-0.000000,1.000000
-39.870484,4.800406,-2.288965,0.000000,0.000000,-1.000000
-8.543966,17.606474,2.288965,-0.000000,0.000000,1.000000
3.165148,-23.539536,0.212252,0.000000,-1.000000,0.000000
33.437402,13.644012,-2.288965,0.000000,0.000000,-1.000000
-8.499917,-8.396650,-2.288965,0.000000,0.000000,-1.000000
17.723909,-19.356376,-2.288965,0.000000,0.000000,-1.000000
46.894512,-19.073491,-0.856312,1.000000,0.000000,-0.000000
13.168297,22.468604,2.288965,-0.000000,0.000000,1.000000
22.972395,7.192325,2.288965,0.000000,-0.000000,1.000000
46.894512,-14.161109,-0.052790,1.000000,0.000000,-0.000000
-10.717900,4.604255,-2.288965,0.000000,-0.000000,-1.000000
-3.483846,8.448980,2.288965,-0.000000,0.000000,1.000000
-43.021335,7.436374,2.288965,0.000000,-0.000000,1.000000
-1.908833,0.109463,2.288965,0.000000,-0.000000,1.000000
-33.126780,1.746168,2.288965,0.000000,-0.000000,1.000000
-35.704832,-23.539536,-1.299619,0.000000,-1.000000,0.000000
-36.417974,-23.539536,-2.123950,0.000000,-1.000000,0.000000
-13.201983,-21.056261,-2.288965,0.000000,0.000000,-1.000000
24.694772,-7.354338,2.288965,-0.000000,0.000000,1.000000
-25.999983,-23.539536,-1.605670,0.000000,-1.000000,0.000000
17.544783,-1.456107,-2.288965,0.000000,0.000000,-1.000000
-22.400983,-11.955330,-1.406249,-0.471396,-0.881922,0.000000
-26.728651,-8.197860,-2.288965,0.000000,0.000000,-1.000000
42.813911,1.985774,-2.288965,0.000000,0.000000,-1.000000
44.567213,17.779763,-2.288965,0.000000,0.000000,-1.000000
-29.469097,-6.237087,-2.288965,0.000000,0.000000,-1.000000
3.327729,4.044961,-2.288965,0.000000,-0.000000,-1.000000
-31.792639,-2.523230,2.288965,0.000000,-0.000000,1.000000
-2.260456,-4.402097,-2.288965,0.000000,0.000000,-1.000000
-37.723326,-0.354818,2.288965,0.000000,-0.000000,1.000000
-18.525091,18.431494,-2.288965,0.000000,-0.000000,-1.000000
33.173680,-16.004415,2.288965,-0.000000,0.000000,1.000000
23.555291,20.467568,2.288965,-0.000000,0.000000,1.000000
11.659698,-15.722032,-2.288965,0.000000,0.000000,-1.000000
21.432601,6.750153,2.288965,0.000000,-0.000000,1.000000
-11.554561,-20.832076,2.288965,0.000000,-0.000000,1.000000
-45.142673,-4.208468,2.288965,0.000000,-0.000000,1.000000
0.135527,-6.753324,2.288965,0.000000,-0.000000,1.000000
41.815003,-23.539536,0.892127,0.000000,-1.000000,0.000000
-14.860019,-15.385126,-2.288965,0.000000,0.000000,-1.000000
11.945946,10.339502,2.288965,-0.000000,0.000000,1.000000
17.479299,-23.539536,-1.342650,0.000000,-1.000000,0.000000
-20.008490,-2.791862,2.288965,0.000000,-0.000000,1.000000
-46.894512,-18.962632,2.203971,-1.000000,0.000000,0.000000
-45.095787,-13.339159,-2.288965,0.000000,0.000000,-1.000000
-25.329132,-3.063375,2.288965,0.000000,-0.000000,1.000000
-44.982422,-4.094783,-2.288965,0.000000,0.000000,-1.000000
37.300499,17.033095,2.288965,0.000000,-0.000000,1.000000
-41.782431,-5.325378,-2.288965,0.000000,0.000000,-1.000000
-8.414054,-15.854556,-2.288965,0.000000,0.000000,-1.000000
14.914956,21.007995,2.288965,-0.000000,0.000000,1.000000
-10.062980,-7.065204,-2.288965,0.000000,0.000000,-1.000000
-6.732796,-8.123932,2.288965,0.000000,-0.000000,1.000000
-12.809815,-7.650755,-2.288965,0.000000,0.000000,-1.000000
21.232843,2.776206,-2.288965,0.000000,0.000000,-1.000000
22.174497,23.539536,1.123900,0.000000,1.000000,0.000000
8.569466,16.705975,2.288965,-0.000000,0.000000,1.000000
42.284536,3.540228,-2.288965,0.000000,0.000000,-1.000000
43.829829,23.208184,2.288965,-0.000000,0.000000,1.000000
-0.993374,-8.676558,-2.288965,0.000000,0.000000,-1.000000
41.608462,-0.259985,-2.288965,0.000000,0.000000,-1.000000
-44.710582,3.250453,-2.288965,0.000000,0.000000,-1.000000
32.251082,-19.009681,2.288965,0.000000,-0.000000,1.000000
-21.068550,-22.989972,2.288965,0.000000,-0.000000,1.000000
-28.045861,-23.539536,-0.383205,0.000000,-1.000000,0.000000
11.003163,15.366460,2.288965,-0.000000,0.000000,1.000000
26.519655,12.163635,-2.288965,-0.000000,0.000000,-1.000000
-1.762138,-2.719733,2.288965,0.000000,-0.000000,1.000000
-46.894512,-3.484846,0.047371,-1.000000,0.000000,0.000000
41.882362,20.363023,-2.288965,-0.000000,0.000000,-1.000000
1.597783,-10.967943,2.288965,0.000000,0.000000,1.000000
-11.890568,12.479525,2.288965,-0.000000,0.000000,1.000000
38.560077,2.093776,-2.288965,0.000000,0.000000,-1.000000
-7.122300,21.544659,-2.288965,0.000000,-0.000000,-1.000000
16.706348,7.914997,-2.288965,-0.000000,0.000000,-1.000000
22.593510,-16.906329,2.288965,0.000000,-0.000000,1.000000
15.124849,-23.539536,0.529411,0.000000,-1.000000,0.000000
-46.772625,-10.334965,2.288965,0.000000,-0.000000,1.000000
-36.249698,-17.456425,2.288965,0.000000,-0.000000,1.000000
18.740969,-17.292893,2.288965,0.000000,-0.000000,1.000000
-26.426185,10.145102,-2.288965,0.000000,0.000000,-1.000000
-46.172700,-10.388745,2.288965,0.000000,-0.000000,1.000000
-27.201423,-14.706076,0.146720,0.995185,-0.098016,0.000000
-14.536038,-2.655229,-2.288965,0.000000,0.000000,-1.000000
-10.119228,11.153680,-2.288965,0.000000,-0.000000,-1.000000
19.664318,-9.130225,-1.780658,-0.995185,-0.098016,0.000000
46.894512,18.718123,0.734052,1.000000,-0.000000,0.000000
-37.864972,17.995303,2.288965,0.000000,-0.000000,1.000000
40.447883,3.060541,-2.288965,0.000000,0.000000,-1.000000
-31.933616,19.134776,2.288965,-0.000000,0.000000,1.000000
-35.155680,22.009340,2.288965,-0.000000,0.000000,1.000000
5.291593,-18.657309,2.288965,0.000000,-0.000000,1.000000
42.669400,-13.918829,-2.288965,0.000000,0.000000,-1.000000
-29.077684,-5.177033,2.288965,0.000000,-0.000000,1.000000
-40.550783,6.747303,-2.288965,0.000000,0.000000,-1.000000
-18.260098,-11.637933,2.288965,-0.000000,0.000000,1.000000
28.959293,-0.433605,2.288965,-0.000000,0.000000,1.000000
23.169567,-6.349633,-2.288965,0.000000,0.000000,-1.000000
23.514407,-20.675151,2.288965,0.000000,-0.000000,1.000000
-32.856484,17.891037,-2.288965,0.000000,0.000000,-1.000000
15.367200,-6.607510,0.303925,0.290285,-0.956940,0.000000
27.068361,-23.539536,1.287586,0.000000,-1.000000,0.000000
-17.712687,-1.053457,-2.288965,0.000000,0.000000,-1.000000
-41.276772,-16.708583,-2.288965,0.000000,0.000000,-1.000000
33.077082,-8.538844,-2.288965,0.000000,0.000000,-1.000000
33.998781,-5.708035,-2.288965,0.000000,0.000000,-1.000000
-30.748893,-10.607087,2.288965,0.000000,-0.000000,1.000000
-36.117183,18.264362,2.288965,0.000000,-0.000000,1.000000
21.713766,-16.228558,-2.288965,0.000000,0.000000,-1.000000
10.079924,15.841487,2.288965,-0.000000,0.000000,1.000000
-0.362474,18.126102,2.288965,-0.000000,0.000000,1.000000
-23.219351,-11.643135,-1.924032,-0.290285,-0.956940,0.000000
-5.805752,11.746265,2.288965,-0.000000,0.000000,1.000000
-35.734100,20.642795,-2.288965,0.000000,-0.000000,-1.000000
45.292945,11.504661,2.288965,-0.000000,0.000000,1.000000
-4.329636,5.605985,2.288965,0.000000,-0.000000,1.000000
6.296912,5.439636,-2.288965,0.000000,-0.000000,-1.000000
-13.987802,-0.268788,-2.288965,0.000000,0.000000,-1.000000
-40.037603,21.297283,2.288965,-0.000000,0.000000,1.000000
-11.947378,6.223399,-2.288965,0.000000,0.000000,-1.000000
-19.697903,-4.064197,2.288965,0.000000,-0.000000,1.000000
42.154434,0.486146,2.288965,-0.000000,0.000000,1.000000
43.005157,12.580433,2.288965,-0.000000,0.000000,1.000000
-5.297392,14.918551,2.288965,-0.000000,0.000000,1.000000
27.432094,5.028817,-2.288965,0.000000,-0.000000,-1.000000
28.136310,13.246754,2.288965,0.000000,0.000000,1.000000
41.381733,-3.297947,2.288965,-0.000000,0.000000,1.000000
-12.400607,-4.863797,2.288965,0.000000,-0.000000,1.000000
-2.750203,-23.539536,-1.530616,0.000000,-1.000000,0.000000
-16.919509,-2.465153,-2.288965,0.000000,0.000000,-1.000000
-20.931278,-3.012033,2.288965,0.000000,-0.000000,1.000000
20.105089,14.925550,2.288965,-0.000000,0.000000,1.000000
37.985078,6.507699,2.288965,-0.000000,0.000000,1.000000
46.894512,12.368774,1.298894,1.000000,-0.000000,0.000000
7.475801,-17.018330,-2.288965,0.000000,0.000000,-1.000000
22.540034,-14.163271,2.288965,-0.000000,-0.000000,1.000000
-39.831973,-19.352452,2.288965,0.000000,-0.000000,1.000000
7.584121,-0.334997,2.288965,0.000000,-0.000000,1.000000
-33.840648,18.532346,2.288965,0.000000,-0.000000,1.000000
-12.411160,-23.539536,0.218374,0.000000,-1.000000,0.000000
-2.094015,-0.420355,2.288965,0.000000,-0.000000,1.000000
2.467541,16.204012,-2.288965,0.000000,-0.000000,-1.000000
6.265501,15.660377,2.288965,-0.000000,0.000000,1.000000
-30.526625,12.717302,2.288965,0.000000,-0.000000,1.000000
9.171538,-2.269766,2.288965,0.000000,-0.000000,1.000000
8.689055,16.377849,2.288965,-0.000000,0.000000,1.000000
11.561718,5.488703,-0.756500,-0.290284,-0.956940,0.000000
-9.747249,-13.554432,2.288965,0.000000,0.000000,1.000000
45.585466,-1.856131,-2.288965,0.000000,0.000000,-1.000000
20.932139,11.351687,2.288965,-0.000000,0.000000,1.000000
-2.354270,-7.929927,2.288965,0.000000,-0.000000,1.000000
-16.819491,7.822178,-2.288965,0.000000,-0.000000,-1.000000
30.436316,-23.539536,1.376466,0.000000,-1.000000,0.000000
-3.721682,-0.276974,2.288965,0.000000,-0.000000,1.000000
42.019701,22.662621,2.288965,-0.000000,0.000000,1.000000
-9.964661,0.591363,2.288965,0.000000,-0.000000,1.000000
27.565139,-6.470312,-2.288965,0.000000,0.000000,-1.000000
1.033128,-20.386879,-2.288965,0.000000,0.000000,-1.000000
14.363322,-21.457324,2.288965,0.000000,-0.000000,1.000000
43.603936,21.605447,-2.288965,-0.000000,0.000000,-1.000000
-5.248190,-8.010869,2.288965,0.000000,-0.000000,1.000000
45.521943,-16.355307,2.288965,-0.000000,0.000000,1.000000
24.337479,0.207979,-2.288965,0.000000,-0.000000,-1.000000
-5.584858,-14.232570,2.288965,0.000000,-0.000000,1.000000
-26.909178,19.202598,2.288965,-0.000000,0.000000,1.000000
-0.120081,7.720287,2.288965,-0.000000,0.000000,1.000000
-36.004001,7.756253,-2.288965,0.000000,0.000000,-1.000000
15.395148,-23.350927,2.288965,0.000000,-0.000000,1.000000
-38.785158,-15.510021,2.288965,0.000000,-0.000000,1.000000
0.500664,-9.484607,2.288965,0.000000,-0.000000,1.000000
-27.928341,2.024048,2.288965,0.000000,-0.000000,1.000000
-1.365280,-22.417342,2.288965,0.000000,-0.000000,1.000000
-46.894512,-11.728575,1.189464,-1.000000,0.000000,0.000000
-24.906800,-11.721881,-1.770111,0.290285,-0.956940,0.000000
43.513459,0.944754,-2.288965,0.000000,0.000000,-1.000000
46.894512,-5.284205,-1.125382,1.000000,0.000000,-0.000000
-24.472933,8.787618,-2.288965,0.000000,0.000000,-1.000000
17.546056,-20.659462,2.288965,0.000000,-0.000000,1.000000
19.015833,-2.803933,-2.288965,0.000000,-0.000000,-1.000000
-16.978519,-0.483786,2.288965,0.000000,-0.000000,1.000000
44.756870,8.220056,2.288965,-0.000000,0.000000,1.000000
-38.269275,9.863036,-2.288965,0.000000,0.000000,-1.000000
0.454808,23.539536,0.542754,0.000000,1.000000,0.000000
13.450543,-8.358151,1.615715,0.881921,-0.471397,0.000000
1.339944,23.539536,1.801583,0.000000,1.000000,0.000000
-24.628222,-11.637376,-0.073599,0.290285,-0.956940,0.000000
-39.718586,0.986951,2.288965,0.000000,-0.000000,1.000000
-28.628326,-5.132354,-2.288965,0.000000,0.000000,-1.000000
-11.280989,23.267166,-2.288965,0.000000,-0.000000,-1.000000
-46.845231,-0.464269,-2.288965,0.000000,0.000000,-1.000000
29.488711,-7.206240,2.288965,-0.000000,0.000000,1.000000
-11.851555,4.002874,2.288965,0.000000,-0.000000,1.000000
-1.584900,-23.539536,-0.111715,0.000000,-1.000000,0.000000
41.993710,9.594931,2.288965,-0.000000,0.000000,1.000000
-1.355519,-15.477600,-2.288965,0.000000,0.000000,-1.000000
16.982858,-14.552510,2.288965,0.000000,-0.000000,1.000000
1.118680,-10.979034,-2.288965,0.000000,0.000000,-1.000000
-24.109725,10.236231,-2.288965,0.000000,0.000000,-1.000000
2.963044,21.412574,2.288965,-0.000000,0.000000,1.000000
38.544026,-22.037909,2.288965,0.000000,-0.000000,1.000000
6.405246,-8.394282,2.288965,0.000000,-0.000000,1.000000
30.069183,-7.180662,2.288965,-0.000000,0.000000,1.000000
30.209094,-4.466329,2.288965,-0.000000,0.000000,1.000000
-5.488728,2.049261,-2.288965,0.000000,-0.000000,-1.000000
-10.443090,-22.829749,2.288965,0.000000,-0.000000,1.000000
-11.087927,-3.712038,-2.288965,0.000000,0.000000,-1.000000
-17.362187,-16.235629,2.288965,0.000000,-0.000000,1.000000
-28.000350,-18.405454,2.288965,0.000000,-0.000000,1.000000
-34.358979,7.810101,-2.288965,0.000000,0.000000,-1.000000
2.009158,17.223454,2.288965,-0.000000,0.000000,1.000000
-3.917866,-7.366293,2.288965,0.000000,-0.000000,1.000000
11.074130,15.688251,-2.288965,0.000000,-0.000000,-1.000000
4.034924,-0.431856,2.288965,0.000000,-0.000000,1.000000
-31.859905,-22.326130,2.288965,0.000000,-0.000000,1.000000
37.065590,9.264521,-2.288965,0.000000,0.000000,-1.000000
-40.069542,-9.670838,-2.288965,0.000000,0.000000,-1.000000
46.894512,-6.178552,1.795072,1.000000,-0.000000,0.000000
39.418567,-23.539536,0.778252,0.000000,-1.000000,0.000000
-2.198222,20.300959,2.288965,-0.000000,0.000000,1.000000
28.748827,-11.315678,2.288965,-0.000000,0.000000,1.000000
32.339850,19.222305,2.288965,-0.000000,0.000000,1.000000
33.707206,-18.205362,-2.288965,0.000000,0.000000,-1.000000
-42.967984,18.793017,-2.288965,0.000000,0.000000,-1.000000
-11.679739,17.983906,-2.288965,0.000000,-0.000000,-1.000000
27.955464,21.080707,2.288965,-0.000000,0.000000,1.000000
44.096980,2.042778,-2.288965,0.000000,0.000000,-1.000000
2.449005,9.404442,-2.288965,0.000000,-0.000000,-1.000000
24.456904,23.539536,-2.241823,-0.000000,1.000000,0.000000
-46.452906,13.709416,2.288965,0.000000,-0.000000,1.000000
-16.058608,-12.061562,-2.288965,0.000000,0.000000,-1.000000
41.811844,18.603444,2.288965,0.000000,0.000000,1.000000
-4.184085,-20.299455,-2.288965,0.000000,0.000000,-1.000000
-1.238244,9.655466,2.288965,-0.000000,0.000000,1.000000
-5.655415,4.262829,2.288965,0.000000,-0.000000,1.000000
28.665516,23.539536,0.702171,-0.000000,1.000000,0.000000
20.044562,-23.539536,-0.045159,0.000000,-1.000000,0.000000
-8.649370,3.737840,2.288965,0.000000,-0.000000,1.000000
-28.641040,-1.836375,-2.288965,0.000000,0.000000,-1.000000
-39.371321,10.691828,2.288965,0.000000,-0.000000,1.000000
34.236863,-22.237258,2.288965,0.000000,-0.000000,1.000000
-2.395085,-16.378817,2.288965,0.000000,-0.000000,1.000000
10.086997,-8.557466,2.288965,0.000000,0.000000,1.000000
44.507716,-3.924856,-2.288965,0.000000,0.000000,-1.000000
-45.007623,-0.201567,2.288965,0.000000,-0.000000,1.000000
-22.972606,2.919843,2.288965,0.000000,-0.000000,1.000000
-18.973860,-3.887379,2.288965,0.000000,-0.000000,1.000000
18.561051,-7.212307,-1.882102,-0.634394,-0.773010,0.000000
-14.897803,1.883887,2.288965,0.000000,-0.000000,1.000000
-42.941530,13.474702,-2.288965,0.000000,0.000000,-1.000000
26.218631,7.991207,2.288965,0.000000,-0.000000,1.000000
-31.604314,22.841962,-2.288965,0.000000,-0.000000,-1.000000
-33.768030,0.159707,2.288965,0.000000,-0.000000,1.000000
46.894512,-12.600537,-0.969352,1.000000,0.000000,-0.000000
33.581946,-19.753402,2.288965,0.000000,-0.000000,1.000000
-33.405965,16.553350,2.288965,0.000000,-0.000000,1.000000
21.072700,9.433024,-2.288965,-0.000000,0.000000,-1.000000
-7.543784,3.404025,2.288965,0.000000,-0.000000,1.000000
-14.495981,9.914981,-2.288965,0.000000,0.000000,-1.000000
13.880717,2.839206,0.939820,-0.995185,-0.098018,0.000000
-13.316126,0.261191,2.288965,0.000000,-0.000000,1.000000
-7.031136,0.376138,2.288965,0.000000,-0.000000,1.000000
-21.671957,19.924876,2.288965,-0.000000,0.000000,1.000000
-30.695335,-5.177993,-2.288965,0.000000,0.000000,-1.000000
42.529150,9.606624,-2.288965,0.000000,0.000000,-1.000000
-44.213726,3.978533,-2.288965,0.000000,0.000000,-1.000000
4.702673,15.105927,2.288965,-0.000000,0.000000,1.000000
18.847688,3.485696,-2.288965,0.000000,0.000000,-1.000000
34.309532,15.713050,2.288965,0.000000,0.000000,1.000000
28.780541,4.282347,2.288965,-0.000000,0.000000,1.000000
1.129593,15.837638,-2.288965,0.000000,-0.000000,-1.000000
-39.272698,18.572633,-2.288965,0.000000,0.000000,-1.000000
-33.803115,8.087237,2.288965,0.000000,-0.000000,1.000000
-15.821666,-19.418277,-2.288965,0.000000,0.000000,-1.000000
-4.245197,22.226648,-2.288965,0.000000,-0.000000,-1.000000
-32.721519,-20.189244,-2.288965,0.000000,0.000000,-1.000000
31.115923,-23.539536,0.866869,0.000000,-1.000000,0.000000
-45.122692,-3.391634,2.288965,0.000000,-0.000000,1.000000
-22.708802,-8.137143,2.288965,0.000000,-0.000000,1.000000
-15.856278,-2.638774,-2.288965,0.000000,0.000000,-1.000000
25.647727,-19.742493,-2.288965,0.000000,0.000000,-1.000000
36.858685,18.661980,-2.288965,0.000000,0.000000,-1.000000
-42.281180,-18.812140,-2.288965,0.000000,0.000000,-1.000000
26.999777,-12.931429,-2.288965,0.000000,0.000000,-1.000000
19.018780,-16.731403,2.288965,0.000000,-0.000000,1.000000
-28.098998,-18.967873,2.288965,0.000000,-0.000000,1.000000
32.377898,-15.732960,-2.288965,0.000000,0.000000,-1.000000
1.741383,-8.314250,-2.288965,0.000000,0.000000,-1.000000
-3.030028,17.967778,-2.288965,0.000000,-0.000000,-1.000000
6.741335,-7.500945,-2.288965,0.000000,0.000000,-1.000000
-25.654919,-17.621325,-1.882962,0.471397,0.881921,-0.000000
0.249487,15.993341,2.288965,-0.000000,0.000000,1.000000
40.461711,-19.756913,-2.288965,0.000000,0.000000,-1.000000
-29.471053,17.795773,2.288965,-0.000000,0.000000,1.000000
30.676045,19.098832,2.288965,-0.000000,0.000000,1.000000
27.907383,14.048840,-2.288965,-0.000000,0.000000,-1.000000
-0.342754,-23.378177,-2.288965,0.000000,0.000000,-1.000000
-6.435554,6.688073,-2.288965,0.000000,0.000000,-1.000000
3.466934,-11.425160,2.288965,0.000000,-0.000000,1.000000
5.079083,-13.327691,2.288965,0.000000,-0.000000,1.000000
40.212820,-7.660367,2.288965,-0.000000,0.000000,1.000000
-46.894512,-18.008498,-1.118442,-1.000000,0.000000,0.000000
34.766435,-13.260565,-2.288965,0.000000,0.000000,-1.000000
-34.505849,-21.361888,2.288965,0.000000,-0.000000,1.000000
-4.515647,8.517077,2.288965,-0.000000,0.000000,1.000000
45.554198,-9.800354,-2.288965,0.000000,0.000000,-1.000000
-46.894512,-22.018038,0.735816,-1.000000,0.000000,0.000000
5.874917,22.212226,-2.288965,0.000000,-0.000000,-1.000000
-45.186133,-0.856752,-2.288965,0.000000,0.000000,-1.000000
19.730923,14.337465,-2.288965,0.000000,-0.000000,-1.000000
35.317396,-23.539536,-0.890240,0.000000,-1.000000,0.000000
-44.016763,13.316594,-2.288965,0.000000,0.000000,-1.000000
-35.249356,13.040542,-2.288965,0.000000,0.000000,-1.000000
30.059898,-5.312506,2.288965,-0.000000,0.000000,1.000000
33.043018,-5.732216,-2.288965,0.000000,0.000000,-1.000000
-22.135220,-23.539536,1.552335,0.000000,-1.000000,0.000000
-46.894512,6.517967,-0.264612,-1.000000,0.000000,0.000000
-16.447986,11.506442,2.288965,0.000000,-0.000000,1.000000
40.360488,11.865535,-2.288965,0.000000,0.000000,-1.000000
2.142630,1.614116,-2.288965,0.000000,0.000000,-1.000000
33.880959,18.697698,2.288965,-0.000000,0.000000,1.000000
42.504470,-0.957629,-2.288965,0.000000,0.000000,-1.000000
-17.862580,23.539536,0.585950,0.000000,1.000000,0.000000
-27.610879,23.539536,-2.226278,-0.000000,1.000000,0.000000
36.654657,13.178175,-2.288965,0.000000,-0.000000,-1.000000
-37.656976,22.908284,2.288965,-0.000000,0.000000,1.000000
13.040366,-9.537277,-2.288965,0.000000,-0.000000,-1.000000
-42.897079,-5.022977,2.288965,0.000000,-0.000000,1.000000
-7.596302,-6.346534,-2.288965,0.000000,0.000000,-1.000000
4.939754,-5.898249,2.288965,0.000000,-0.000000,1.000000
-8.200721,2.860777,-2.288965,0.000000,0.000000,-1.000000
-11.222207,-1.843589,2.288965,0.000000,-0.000000,1.000000
-20.953648,22.132585,2.288965,-0.000000,0.000000,1.000000
-43.088168,18.094543,2.288965,0.000000,-0.000000,1.000000
1.495093,5.913769,2.288965,-0.000000,0.000000,1.000000
-2.456153,4.760072,-2.288965,0.000000,0.000000,-1.000000
-23.017930,10.076390,-2.288965,0.000000,0.000000,-1.000000
-33.159360,23.399829,-2.288965,0.000000,-0.000000,-1.000000
-18.611491,22.860138,-2.288965,0.000000,-0.000000,-1.000000
17.014362,-2.296657,2.288965,0.000000,-0.000000,1.000000
-23.106831,-21.831065,2.288965,0.000000,-0.000000,1.000000
-9.351938,-1.553354,2.288965,0.000000,-0.000000,1.000000
-8.844721,10.508579,-2.288965,0.000000,-0.000000,-1.000000
-19.074709,-16.101494,-2.288965,0.000000,0.000000,-1.000000
-42.485696,-23.539536,-1.501127,0.000000,-1.000000,0.000000
-25.434591,-20.577353,2.288965,0.000000,-0.000000,1.000000
-22.323213,-11.701155,2.288965,0.000000,-0.000000,1.000000
-5.666794,19.797383,2.288965,-0.000000,0.000000,1.000000
-16.094581,-9.915594,2.288965,0.000000,-0.000000,1.000000
28.147265,10.447750,2.288965,0.000000,-0.000000,1.000000
-35.653695,23.059374,2.288965,-0.000000,0.000000,1.000000
-2.168612,16.893023,2.288965,-0.000000,0.000000,1.000000
-27.185804,-14.547487,-1.829403,0.995185,-0.098016,0.000000
43.064019,23.539536,2.103540,0.000000,1.000000,0.000000
-23.941870,15.360035,2.288965,-0.000000,0.000000,1.000000
21.026784,-15.836816,2.288965,0.000000,-0.000000,1.000000
29.600397,16.355192,-2.288965,0.000000,-0.000000,-1.000000
41.110403,6.128727,2.288965,-0.000000,0.000000,1.000000
23.469042,21.058976,-2.288965,0.000000,-0.000000,-1.000000
45.693388,7.805027,-2.288965,0.000000,0.000000,-1.000000
13.475845,-8.310815,0.456773,0.881921,-0.471397,0.000000
-3.338520,3.597122,2.288965,0.000000,-0.000000,1.000000
-6.766460,-5.842697,-2.288965,0.000000,0.000000,-1.000000
38.461211,13.426629,2.288965,0.000000,-0.000000,1.000000
-28.993465,-4.541731,2.288965,0.000000,-0.000000,1.000000
-23.577805,10.859914,-2.288965,0.000000,0.000000,-1.000000
44.006082,-5.182023,2.288965,-0.000000,0.000000,1.000000
-19.810881,14.540891,-2.288965,0.000000,-0.000000,-1.000000
-26.685302,23.539536,-0.158885,0.000000,1.000000,0.000000
46.894512,-5.600771,-0.009844,1.000000,0.000000,-0.000000
7.469392,1.580847,-2.187525,0.956940,0.290284,-0.000000
9.231165,-10.968576,2.288965,0.000000,-0.000000,1.000000
-32.509378,7.382916,-2.288965,0.000000,0.000000,-1.000000
-2.247121,4.700264,2.288965,0.000000,-0.000000,1.000000
-4.716810,23.539536,-0.518517,-0.000000,1.000000,0.000000
-12.933145,-3.642734,2.288965,0.000000,-0.000000,1.000000
-1.153939,-23.539536,0.739998,0.000000,-1.000000,0.000000
-35.880007,23.539536,-0.987569,0.000000,1.000000,0.000000
-32.402427,-16.131422,-2.288965,0.000000,0.000000,-1.000000
-3.633249,2.310872,-2.288965,0.000000,0.000000,-1.000000
0.301262,-6.034892,2.288965,0.000000,-0.000000,1.000000
-34.641617,-11.470667,2.288965,0.000000,-0.000000,1.000000
21.006917,-4.776413,-2.288965,0.000000,0.000000,-1.000000
10.078632,-18.730234,-2.288965,0.000000,0.000000,-1.000000
-3.125802,11.026167,-2.288965,0.000000,-0.000000,-1.000000
-9.941420,9.594171,2.288965,0.000000,-0.000000,1.000000
-24.353339,-11.599075,-0.600227,0.098016,-0.995185,0.000000
-1.012862,9.452084,-2.288965,0.000000,-0.000000,-1.000000
-8.185922,11.359529,-2.288965,0.000000,-0.000000,-1.000000
-15.573645,-18.735077,-2.288965,0.000000,0.000000,-1.000000
13.555852,5.435498,-2.288965,-0.000000,0.000000,-1.000000
-46.095272,-20.921728,2.288965,0.000000,-0.000000,1.000000
-2.224247,23.539536,0.881198,0.000000,1.000000,0.000000
7.474135,8.209787,2.288965,-0.000000,0.000000,1.000000
-2.649432,1.022046,2.288965,0.000000,-0.000000,1.000000
27.863247,16.541258,-2.288965,0.000000,-0.000000,-1.000000
-40.002506,-4.047967,2.288965,0.000000,-0.000000,1.000000
-45.940660,12.304698,-2.288965,0.000000,0.000000,-1.000000
-17.754899,23.479642,2.288965,-0.000000,0.000000,1.000000
-4.870128,23.539536,2.042488,0.000000,1.000000,0.000000
-16.787317,22.281905,2.288965,-0.000000,0.000000,1.000000
-41.077075,-4.688558,2.288965,0.000000,-0.000000,1.000000
40.712165,-6.085675,-2.288965,0.000000,0.000000,-1.000000
13.181358,-17.406007,-2.288965,0.000000,0.000000,-1.000000
-12.524690,10.004628,2.288965,0.000000,-0.000000,1.000000
-40.344931,-5.916156,-2.288965,0.000000,0.000000,-1.000000
44.991700,14.703631,2.288965,-0.000000,0.000000,1.000000
-33.430639,1.344344,-2.288965,0.000000,0.000000,-1.000000
6.385508,0.988355,-2.288965,0.000000,0.000000,-1.000000
35.161057,-4.518904,2.288965,-0.000000,0.000000,1.000000
-39.048908,23.539536,1.138255,0.000000,1.000000,0.000000
29.876702,22.627391,2.288965,-0.000000,0.000000,1.000000
-46.894512,19.801963,-0.326416,-1.000000,0.000000,0.000000
3.411716,-7.804183,2.288965,0.000000,-0.000000,1.000000
13.633137,1.012690,-0.430918,-0.881921,0.471397,0.000000
-25.225395,9.322107,2.288965,0.000000,-0.000000,1.000000
-3.759029,-13.295628,-2.288965,0.000000,-0.000000,-1.000000
16.331832,23.539536,-1.009203,-0.000000,1.000000,0.000000
-46.830766,2.160825,-2.288965,0.000000,0.000000,-1.000000
3.315133,13.232812,2.288965,-0.000000,0.000000,1.000000
26.845275,-13.566663,-2.288965,0.000000,0.000000,-1.000000
-24.352420,6.698672,-2.288965,0.000000,0.000000,-1.000000
-3.268877,-16.016340,2.288965,0.000000,-0.000000,1.000000
-44.188135,-23.539536,-0.092406,0.000000,-1.000000,0.000000
-8.977047,3.180017,-2.288965,0.000000,0.000000,-1.000000
37.764002,-19.084261,-2.288965,0.000000,0.000000,-1.000000
-17.162899,-23.539536,-0.085977,0.000000,-1.000000,0.000000
19.883476,22.522523,2.288965,-0.000000,0.000000,1.000000
-7.751884,-18.661701,-2.288965,0.000000,0.000000,-1.000000
-23.937069,-1.896602,-2.288965,0.000000,0.000000,-1.000000
-13.137932,-18.902649,-2.288965,0.000000,0.000000,-1.000000
-20.814530,3.892062,2.288965,0.000000,-0.000000,1.000000
-6.812395,13.289000,2.288965,-0.000000,0.000000,1.000000
-1.742691,-23.539536,1.787826,0.000000,-1.000000,0.000000
-15.457631,-18.195711,-2.288965,0.000000,0.000000,-1.000000
-46.894512,7.428759,-0.033036,-1.000000,0.000000,0.000000
40.166678,-23.539536,-0.779556,0.000000,-1.000000,0.000000
-36.642210,-12.888284,2.288965,0.000000,-0.000000,1.000000
33.702168,6.647988,-2.288965,0.000000,0.000000,-1.000000
38.238452,2.445075,2.288965,-0.000000,0.000000,1.000000
21.457642,10.171059,-2.288965,-0.000000,0.000000,-1.000000
-9.476481,-16.512466,-2.288965,0.000000,0.000000,-1.000000
-34.730235,23.539536,-1.890732,-0.000000,1.000000,0.000000
-5.212727,-7.730776,-2.288965,0.000000,0.000000,-1.000000
-29.615377,10.146064,-2.288965,0.000000,0.000000,-1.000000
-40.302451,13.559953,2.288965,-0.000000,-0.000000,1.000000
38.861125,4.185454,-2.288965,0.000000,0.000000,-1.000000
-7.688132,7.728147,-2.288965,0.000000,0.000000,-1.000000
43.136145,-7.661272,2.288965,-0.000000,0.000000,1.000000
2.514779,-4.965478,-2.288965,0.000000,0.000000,-1.000000
-12.658864,18.237484,-2.288965,0.000000,-0.000000,-1.000000
-1.864918,2.247264,-2.288965,0.000000,0.000000,-1.000000
36.890453,2.648362,2.288965,-0.000000,0.000000,1.000000
-35.330860,16.941714,-2.288965,0.000000,0.000000,-1.000000
-29.854183,12.031462,2.288965,0.000000,-0.000000,1.000000
-5.825546,14.150957,2.288965,-0.000000,0.000000,1.000000
-16.242859,19.187056,2.288965,-0.000000,0.000000,1.000000
27.856176,22.225339,2.288965,-0.000000,0.000000,1.000000
-35.606161,-23.539536,0.143002,0.000000,-1.000000,0.000000
46.894512,17.537274,0.971166,1.000000,-0.000000,0.000000
-2.705185,-0.939865,-2.288965,0.000000,0.000000,-1.000000
-3.085201,18.641595,2.288965,-0.000000,0.000000,1.000000
-26.367008,-18.890707,-2.288965,0.000000,0.000000,-1.000000
-45.228989,3.482691,-2.288965,0.000000,0.000000,-1.000000
-30.821141,19.186700,2.288965,-0.000000,0.000000,1.000000
-34.902960,-19.319858,2.288965,0.000000,-0.000000,1.000000
17.918449,-2.263830,2.288965,0.000000,-0.000000,1.000000
13.253437,-2.211719,-2.288965,0.000000,0.000000,-1.000000
-39.117473,6.625741,-2.288965,0.000000,0.000000,-1.000000
25.917875,-22.231137,2.288965,0.000000,-0.000000,1.000000
-43.347295,-1.727551,2.288965,0.000000,-0.000000,1.000000
34.208781,-1.366007,2.288965,-0.000000,0.000000,1.000000
-23.172759,13.736454,2.288965,0.000000,-0.000000,1.000000
35.073870,22.343910,2.288965,-0.000000,0.000000,1.000000
15.410649,23.081250,-2.288965,0.000000,-0.000000,-1.000000
-26.284577,3.619984,-2.288965,0.000000,0.000000,-1.000000
-42.854259,-21.645332,2.288965,0.000000,0.000000,1.000000
-41.460004,22.002735,2.288965,-0.000000,0.000000,1.000000
46.894512,11.779978,-0.622027,1.000000,-0.000000,0.000000
16.036616,-13.366549,-2.288965,0.000000,0.000000,-1.000000
22.259835,-19.880676,-2.288965,0.000000,0.000000,-1.000000
20.002617,11.863522,2.288965,-0.000000,0.000000,1.000000
-33.798283,19.858050,-2.288965,0.000000,-0.000000,-1.000000
8.004215,4.591951,-2.288965,0.000000,-0.000000,-1.000000
24.030023,17.314852,2.288965,-0.000000,0.000000,1.000000
11.484083,12.060549,2.288965,-0.000000,0.000000,1.000000
12.269290,-3.283254,2.288965,0.000000,-0.000000,1.000000
-31.874857,6.604797,-2.288965,0.000000,0.000000,-1.000000
-44.030977,2.551570,2.288965,0.000000,-0.000000,1.000000
-45.689320,-9.193398,2.288965,0.000000,-0.000000,1.000000
-36.924607,-2.874237,-2.288965,0.000000,0.000000,-1.000000
-21.739900,-23.539536,2.008519,0.000000,-1.000000,0.000000
42.874779,-18.075303,-2.288965,0.000000,0.000000,-1.000000
-46.894512,8.445832,1.038669,-1.000000,0.000000,0.000000
37.269405,-13.451592,2.288965,-0.000000,0.000000,1.000000
21.915087,-5.292499,-2.288965,0.000000,0.000000,-1.000000
-46.894512,6.388416,-0.987763,-1.000000,0.000000,0.000000
29.628684,22.724631,-2.288965,0.000000,-0.000000,-1.000000
25.609102,15.408098,-2.288965,0.000000,-0.000000,-1.000000
25.763175,22.132422,2.288965,-0.000000,0.000000,1.000000
-22.618695,-20.585969,2.288965,0.000000,-0.000000,1.000000
-14.372828,23.098076,-2.288965,0.000000,-0.000000,-1.000000
38.657352,23.539536,0.513970,-0.000000,1.000000,0.000000
-37.206227,15.245520,2.288965,0.000000,-0.000000,1.000000
26.776362,7.057878,-2.288965,0.000000,0.000000,-1.000000
10.617197,-16.502959,2.288965,0.000000,-0.000000,1.000000
-43.804061,1.690939,-2.288965,0.000000,0.000000,-1.000000
45.861391,22.007410,2.288965,-0.000000,0.000000,1.000000
-44.850427,-7.974071,-2.288965,0.000000,0.000000,-1.000000
20.339083,-18.923274,2.288965,0.000000,-0.000000,1.000000
-27.159265,-15.399832,1.532327,0.995185,0.098016,0.000000
42.039761,-9.583794,-2.288965,0.000000,0.000000,-1.000000
20.603006,-11.718141,-2.288965,0.000000,0.000000,-1.000000
-42.687193,-0.076438,2.288965,0.000000,-0.000000,1.000000
-42.068292,1.289543,-2.288965,0.000000,0.000000,-1.000000
6.435976,-13.764457,-2.288965,0.000000,0.000000,-1.000000
-32.357876,9.201528,-2.288965,0.000000,0.000000,-1.000000
39.699450,-13.716485,-2.288965,0.000000,0.000000,-1.000000
6.952987,10.316271,2.288965,-0.000000,0.000000,1.000000
-43.362501,-19.848276,-2.288965,0.000000,0.000000,-1.000000
-17.299842,-21.902360,2.288965,0.000000,-0.000000,1.000000
-32.938200,-3.538307,2.288965,0.000000,-0.000000,1.000000
5.810789,-5.594087,2.288965,0.000000,-0.000000,1.000000
32.983847,12.303811,-2.288965,0.000000,0.000000,-1.000000
-4.278765,16.284845,-2.288965,0.000000,-0.000000,-1.000000
7.108566,-2.258144,2.288965,0.000000,-0.000000,1.000000
40.524625,-9.991799,-2.288965,0.000000,0.000000,-1.000000
-24.376839,-23.065484,-2.288965,0.000000,0.000000,-1.000000
34.012114,-22.175771,2.288965,0.000000,-0.000000,1.000000
-12.873577,20.717152,-2.288965,0.000000,-0.000000,-1.000000
-10.766350,-6.235036,-2.288965,0.000000,0.000000,-1.000000
33.368850,-9.560170,-2.288965,0.000000,0.000000,-1.000000
29.756409,12.756490,-2.288965,-0.000000,0.000000,-1.000000
0.385872,0.841532,2.288965,0.000000,-0.000000,1.000000
-43.932735,10.374082,2.288965,0.000000,-0.000000,1.000000
43.016509,8.517316,-2.288965,0.000000,0.000000,-1.000000
13.127587,-9.360274,-2.288965,0.000000,-0.000000,-1.000000
-14.949528,-15.421613,-2.288965,0.000000,0.000000,-1.000000
18.738031,-12.032123,1.928490,-0.634393,0.773010,0.000000
23.679858,-16.033243,-2.288965,0.000000,0.000000,-1.000000
-39.776957,-6.028825,2.288965,0.000000,-0.000000,1.000000
34.368805,6.123675,2.288965,-0.000000,0.000000,1.000000
-41.046045,-8.950758,-2.288965,0.000000,0.000000,-1.000000
-46.894512,-3.530713,1.121252,-1.000000,0.000000,0.000000
-1.119115,0.031597,2.288965,0.000000,-0.000000,1.000000
27.630323,-2.186144,-2.288965,0.000000,0.000000,-1.000000
-8.687486,20.140357,-2.288965,0.000000,-0.000000,-1.000000
29.518689,-15.263070,-2.288965,0.000000,0.000000,-1.000000
40.165648,23.539536,-0.655131,-0.000000,1.000000,0.000000
4.164677,2.602579,2.288965,0.000000,-0.000000,1.000000
-32.736427,7.656433,-2.288965,0.000000,0.000000,-1.000000
34.685616,-6.685703,-2.288965,0.000000,0.000000,-1.000000
-32.036219,22.329040,-2.288965,0.000000,-0.000000,-1.000000
-46.894512,-2.004223,-1.644957,-1.000000,0.000000,0.000000
-36.337592,21.574781,2.288965,-0.000000,0.000000,1.000000
-21.238691,0.533345,2.288965,0.000000,-0.000000,1.000000
0.455385,12.776632,-2.288965,0.000000,-0.000000,-1.000000
-30.111077,-18.707478,2.288965,0.000000,-0.000000,1.000000
-14.923258,-15.095874,2.288965,0.000000,-0.000000,1.000000
46.894512,-12.880670,1.665908,1.000000,-0.000000,0.000000
27.045915,11.327722,-2.288965,-0.000000,0.000000,-1.000000
-0.202489,-3.292386,-2.288965,0.000000,0.000000,-1.000000
6.404588,-17.599530,-2.288965,0.000000,0.000000,-1.000000
-3.784354,0.069475,-2.288965,0.000000,0.000000,-1.000000
-12.218026,-19.865333,-2.288965,0.000000,0.000000,-1.000000
27.187450,-20.396469,2.288965,0.000000,-0.000000,1.000000
-37.650386,0.644766,-2.288965,0.000000,0.000000,-1.000000
-3.285311,0.457275,2.288965,0.000000,-0.000000,1.000000
-7.177499,-4.639983,-2.288965,0.000000,0.000000,-1.000000
46.894512,7.018115,2.192399,1.000000,-0.000000,0.000000
44.746094,-10.626353,-2.288965,0.000000,0.000000,-1.000000
-41.457310,11.197491,2.288965,0.000000,-0.000000,1.000000
-25.550420,-9.792049,2.288965,0.000000,-0.000000,1.000000
-46.894512,4.023629,-0.887442,-1.000000,0.000000,0.000000
-19.951032,-23.539536,1.876898,0.000000,-1.000000,0.000000
19.769698,11.615435,-2.288965,0.000000,-0.000000,-1.000000
21.793544,-22.359835,2.288965,0.000000,-0.000000,1.000000
-42.611548,11.607251,-2.288965,0.000000,0.000000,-1.000000
39.776691,-20.986147,2.288965,-0.000000,-0.000000,1.000000
-22.222670,-17.627220,1.948123,-0.471397,0.881921,0.000000
-42.492717,16.367441,-2.288965,0.000000,0.000000,-1.000000
16.201242,-3.096766,2.288965,0.000000,-0.000000,1.000000
25.829865,-10.846495,-2.288965,0.000000,0.000000,-1.000000
29.656411,12.428985,-2.288965,-0.000000,0.000000,-1.000000
-33.513960,10.025988,-2.288965,0.000000,0.000000,-1.000000
45.282411,23.435572,2.288965,-0.000000,0.000000,1.000000
-8.953961,-17.722285,-2.288965,0.000000,0.000000,-1.000000
-8.726171,-4.271278,2.288965,0.000000,-0.000000,1.000000
-6.603332,-13.663480,2.288965,0.000000,0.000000,1.000000
12.943411,23.539536,1.601531,0.000000,1.000000,0.000000
-11.004305,2.922948,-2.288965,0.000000,0.000000,-1.000000
-30.757879,10.208381,2.288965,0.000000,-0.000000,1.000000
37.697562,-10.235012,2.288965,-0.000000,0.000000,1.000000
-30.325479,23.539536,0.004817,0.000000,1.000000,0.000000
0.534622,-9.974459,2.288965,0.000000,-0.000000,1.000000
-1.264744,23.539536,2.107566,0.000000,1.000000,0.000000
6.532612,4.281642,2.288965,-0.000000,0.000000,1.000000
39.547852,-6.562359,2.288965,-0.000000,0.000000,1.000000
2.466229,3.985246,-2.288965,0.000000,0.000000,-1.000000
-14.900698,-14.157166,2.288965,0.000000,-0.000000,1.000000
27.469713,-12.910066,2.288965,-0.000000,0.000000,1.000000
-1.314526,-7.762696,2.288965,0.000000,-0.000000,1.000000
-46.093876,-14.665580,-2.288965,0.000000,0.000000,-1.000000
37.102399,7.243661,2.288965,-0.000000,0.000000,1.000000
-33.182526,21.134382,-2.288965,0.000000,-0.000000,-1.000000
39.764927,8.764675,2.288965,-0.000000,0.000000,1.000000
-46.894512,1.779283,1.671341,-1.000000,0.000000,0.000000
-4.345889,-6.753457,2.288965,0.000000,-0.000000,1.000000
-5.017253,-7.296567,2.288965,0.000000,-0.000000,1.000000
-0.359201,-18.574842,-2.288965,0.000000,0.000000,-1.000000
-8.732870,6.861243,2.288965,0.000000,-0.000000,1.000000
0.321626,9.659381,2.288965,-0.000000,0.000000,1.000000
22.372566,-14.688004,2.288965,-0.000000,-0.000000,1.000000
-3.014060,-3.607275,2.288965,0.000000,-0.000000,1.000000
36.569554,-1.089777,2.288965,-0.000000,0.000000,1.000000
34.287482,-22.322224,-2.288965,0.000000,0.000000,-1.000000
-27.245022,19.356513,-2.288965,0.000000,-0.000000,-1.000000
-40.675066,-20.872953,-2.288965,0.000000,0.000000,-1.000000
-23.146616,7.836566,2.288965,0.000000,-0.000000,1.000000
13.208541,16.332313,-2.288965,0.000000,-0.000000,-1.000000
45.410676,-3.877551,2.288965,-0.000000,0.000000,1.000000
41.652158,5.933184,2.288965,-0.000000,0.000000,1.000000
-16.845046,-21.108326,2.288965,0.000000,-0.000000,1.000000
26.264644,-13.573555,-2.288965,0.000000,0.000000,-1.000000
-29.143738,-0.555650,2.288965,0.000000,-0.000000,1.000000
1.296892,-23.539536,-0.785996,0.000000,-1.000000,0.000000
-28.534122,3.464356,-2.288965,0.000000,0.000000,-1.000000
40.891123,23.454106,-2.288965,0.000000,-0.000000,-1.000000
-46.894512,17.806906,1.846195,-1.000000,0.000000,0.000000
21.677213,18.400174,-2.288965,0.000000,-0.000000,-1.000000
40.807913,-21.698147,-2.288965,0.000000,0.000000,-1.000000
18.088721,-6.874162,1.001573,-0.471396,-0.881922,0.000000
41.508696,-12.073436,-2.288965,0.000000,0.000000,-1.000000
-46.894512,11.943701,-1.708732,-1.000000,0.000000,0.000000
3.228598,21.899960,2.288965,-0.000000,0.000000,1.000000
-33.656306,22.426359,2.288965,-0.000000,0.000000,1.000000
-13.814968,8.156017,2.288965,0.000000,-0.000000,1.000000
20.193045,11.579366,2.288965,-0.000000,0.000000,1.000000
-14.613056,21.234197,2.288965,-0.000000,0.000000,1.000000
-18.573105,6.249010,2.288965,0.000000,-0.000000,1.000000
32.903472,-23.179398,-2.288965,0.000000,0.000000,-1.000000
-43.808975,11.121183,-2.288965,0.000000,0.000000,-1.000000
-6.929025,-23.386289,2.288965,0.000000,-0.000000,1.000000
-17.658077,13.174424,-2.288965,0.000000,-0.000000,-1.000000
41.516284,20.453821,-2.288965,-0.000000,0.000000,-1.000000
45.156027,1.199996,2.288965,-0.000000,0.000000,1.000000
2.331738,-20.321036,2.288965,0.000000,-0.000000,1.000000
3.941282,20.880568,2.288965,-0.000000,0.000000,1.000000
-27.157050,-14.255540,-0.650608,0.995185,-0.098016,0.000000
14.601456,21.654977,2.288965,-0.000000,0.000000,1.000000
-24.261288,-1.032796,-2.288965,0.000000,0.000000,-1.000000
1.628572,-4.968102,-2.288965,0.000000,0.000000,-1.000000
-7.773544,-19.502512,2.288965,0.000000,-0.000000,1.000000
-39.710525,-8.766937,2.288965,0.000000,-0.000000,1.000000
6.759199,16.970311,2.288965,-0.000000,0.000000,1.000000
-3.386862,9.838214,-2.288965,0.000000,-0.000000,-1.000000
41.918719,-23.539536,-1.487647,0.000000,-1.000000,0.000000
42.203776,0.750077,-2.288965,0.000000,0.000000,-1.000000
20.951240,23.539536,-0.887131,-0.000000,1.000000,0.000000
-11.830336,-23.539536,1.767585,0.000000,-1.000000,0.000000
-35.125595,23.539536,-1.377455,0.000000,1.000000,0.000000
-39.457045,-1.527601,-2.288965,0.000000,0.000000,-1.000000
-15.644766,21.665994,-2.288965,0.000000,-0.000000,-1.000000
-36.182536,16.625349,-2.288965,0.000000,0.000000,-1.000000
37.140556,4.174121,-2.288965,0.000000,0.000000,-1.000000
-41.231986,-5.740448,2.288965,0.000000,-0.000000,1.000000
-43.117467,22.503664,2.288965,-0.000000,0.000000,1.000000
15.045973,-23.539536,-0.793001,0.000000,-1.000000,0.000000
40.327831,12.725014,2.288965,-0.000000,0.000000,1.000000
0.529286,23.539536,-0.611483,-0.000000,1.000000,0.000000
-22.376912,-9.269335,-2.288965,0.000000,0.000000,-1.000000
-41.070095,-16.038513,2.288965,0.000000,-0.000000,1.000000
1.057655,-16.774798,2.288965,0.000000,-0.000000,1.000000
-4.455516,-19.312092,2.288965,0.000000,-0.000000,1.000000
-10.710541,3.017375,-2.288965,0.000000,0.000000,-1.000000
-28.157918,11.553253,-2.288965,0.000000,0.000000,-1.000000
3.802074,11.668585,2.288965,-0.000000,0.000000,1.000000
-10.438226,-12.110946,2.288965,0.000000,-0.000000,1.000000
22.293371,-10.646385,-2.288965,0.000000,0.000000,-1.000000
17.954466,0.690958,2.288965,0.000000,-0.000000,1.000000
-7.089426,-22.337009,-2.288965,0.000000,0.000000,-1.000000
-21.368456,-16.861008,1.497804,-0.773010,0.634394,0.000000
-24.434150,23.539536,1.239418,0.000000,1.000000,0.000000
11.572649,-14.262027,-2.288965,0.000000,0.000000,-1.000000
-25.981388,-0.725844,2.288965,0.000000,-0.000000,1.000000
-38.668607,-15.782907,-2.288965,0.000000,0.000000,-1.000000
-11.661524,20.434255,2.288965,-0.000000,0.000000,1.000000
26.370431,13.072295,-2.288965,-0.000000,0.000000,-1.000000
44.275320,18.351076,-2.288965,0.000000,0.000000,-1.000000
-46.894512,-3.999209,-1.922818,-1.000000,0.000000,0.000000
26.450864,-5.411969,-2.288965,0.000000,0.000000,-1.000000
14.015683,-23.539536,1.184383,0.000000,-1.000000,0.000000
22.889717,1.268532,-2.288965,0.000000,0.000000,-1.000000
24.174696,-2.916066,-2.288965,0.000000,0.000000,-1.000000
18.405503,-16.396546,2.288965,0.000000,-0.000000,1.000000
23.440238,-23.539536,-2.141528,0.000000,-1.000000,0.000000
-10.125368,-16.060952,2.288965,0.000000,-0.000000,1.000000
28.215650,-8.602418,-2.288965,0.000000,0.000000,-1.000000
-0.079773,-19.858004,2.288965,0.000000,-0.000000,1.000000
-35.596338,-22.522283,-2.288965,0.000000,0.000000,-1.000000
-11.446764,21.735810,-2.288965,0.000000,-0.000000,-1.000000
-21.218332,19.242569,-2.288965,0.000000,-0.000000,-1.000000
35.756650,-7.743975,2.288965,-0.000000,0.000000,1.000000
39.598124,11.778491,-2.288965,0.000000,0.000000,-1.000000
26.301435,11.118536,2.288965,0.000000,0.000000,1.000000
9.241463,-2.218814,2.288965,0.000000,-0.000000,1.000000
-15.891143,-13.500767,2.288965,0.000000,-0.000000,1.000000
38.877374,-18.680002,-2.288965,0.000000,0.000000,-1.000000
-3.067701,7.782828,-2.288965,0.000000,-0.000000,-1.000000
-30.191226,-19.013587,-2.288965,0.000000,0.000000,-1.000000
-14.858338,6.545921,2.288965,0.000000,-0.000000,1.000000
-11.730307,15.884393,-2.288965,0.000000,-0.000000,-1.000000
42.881393,14.980527,2.288965,-0.000000,0.000000,1.000000
-41.015409,21.356449,2.288965,0.000000,-0.000000,1.000000
43.387041,-0.270419,-2.288965,0.000000,0.000000,-1.000000
4.144985,21.277593,2.288965,-0.000000,0.000000,1.000000
