x,y,z,nx,ny,nz
0.338020,0.108539,0.313619,0.250391,0.939859,0.232315
0.256078,0.042980,0.182521,-0.755827,0.372167,-0.538719
0.307849,-0.023076,0.020044,-0.977762,-0.199823,-0.063663
0.315359,-0.053361,0.049622,-0.876069,-0.462060,-0.137850
0.452555,0.088227,0.203422,0.588523,0.763976,0.264539
0.427464,-0.111993,0.140107,0.231907,-0.969764,0.076010
0.443993,0.104618,0.155879,0.399573,0.905904,0.140284
0.324051,0.097416,0.359077,0.359816,0.843542,0.398708
0.346153,-0.088684,0.032593,-0.637713,-0.767930,-0.060046
0.445197,-0.096410,0.192999,0.505082,-0.834834,0.218960
0.496680,-0.038483,0.186498,0.882673,-0.333227,0.331434
0.321240,-0.014000,0.429431,0.594587,-0.121225,0.794840
0.195963,0.092436,0.292926,-0.333308,0.800420,-0.498230
0.206937,-0.032178,0.231818,-0.639564,-0.278639,-0.716462
0.468423,-0.095842,0.129841,0.537628,-0.829909,0.149024
0.413445,-0.048368,0.326023,0.713045,-0.418825,0.562274
0.401052,-0.115440,0.119432,-0.026542,-0.999616,-0.007904
0.374020,0.115356,0.206216,0.041296,0.998888,0.022768
0.507741,-0.069041,0.081437,0.791503,-0.597834,0.126950
0.403343,0.111398,0.204242,0.235235,0.964612,0.119117
0.307265,-0.080300,0.142400,-0.652069,-0.695329,-0.302198
0.494728,0.078317,0.108692,0.717794,0.678161,0.157700
0.278878,-0.029291,0.362589,0.510437,0.000000,0.859915
0.278095,0.102812,0.384160,0.267064,0.890266,0.368921
0.530861,-0.019612,0.070055,0.977004,-0.169822,0.128931
0.250658,-0.045934,0.191929,-0.728469,-0.397748,-0.557790
0.199488,-0.040876,0.242032,-0.594853,-0.353949,-0.721713
0.228702,0.040255,0.362589,0.510437,0.000000,0.859915
0.216616,-0.084522,0.265896,-0.430388,-0.731892,-0.528300
0.336121,-0.109078,0.185117,-0.287697,-0.944524,-0.158447
0.322833,-0.085375,0.118483,-0.632172,-0.739275,-0.232014
0.473451,0.019031,0.250342,0.871940,0.164789,0.461048
0.442969,-0.011821,0.000000,1.000000,0.000000,0.000000
0.344129,0.051108,0.396770,0.587558,0.442556,0.677436
0.319974,0.102472,0.182580,-0.400533,0.887321,-0.228547
0.344631,-0.093083,0.077799,-0.577354,-0.806024,-0.130335
0.437664,-0.091650,0.224578,0.541316,-0.793614,0.277765
0.206314,-0.027123,0.230573,-0.648163,-0.234862,-0.724378
0.304205,-0.107943,0.348647,0.233688,-0.934697,0.267827
0.338607,0.111187,0.300722,0.202074,0.962787,0.179465
0.243910,-0.049007,0.202611,-0.696528,-0.424362,-0.578589
0.235736,0.108285,0.397091,0.177418,0.937661,0.298857
0.507642,-0.075417,0.038696,0.755129,-0.653044,0.057561
0.419024,0.110326,0.179330,0.271697,0.955333,0.116278
0.284179,-0.086772,0.408789,0.376656,-0.751377,0.541815
0.403453,0.115430,0.109777,-0.029533,0.999531,-0.008036
0.536920,0.007135,0.000411,0.998090,0.061779,0.000764
0.317964,0.079760,0.115053,-0.680036,0.690653,-0.246066
0.297625,-0.102678,0.217789,-0.369369,-0.889107,-0.270289
0.486274,-0.076620,0.147190,0.716117,-0.663469,0.216761
0.401345,-0.115080,0.093108,-0.081423,-0.996501,-0.018889
0.212217,-0.114107,0.343622,-0.080922,-0.988071,-0.131028
0.115446,0.029168,0.362589,0.510437,0.000000,0.859915
0.302521,-0.059054,0.424049,0.499090,-0.511362,0.699584
0.366876,-0.068275,0.000000,1.000000,0.000000,0.000000
0.434649,0.109513,0.145362,0.301022,0.948288,0.100673
0.430456,-0.106283,0.180656,0.360675,-0.920326,0.151370
0.298650,-0.102948,0.368063,0.285509,-0.891445,0.351867
0.433748,-0.114850,0.000126,0.104707,-0.994503,0.000030
0.402477,-0.044794,0.341909,0.702457,-0.387875,0.596747
0.264932,-0.059041,0.183728,-0.706230,-0.511245,-0.489763
0.534579,0.017558,0.036121,0.986127,0.152035,0.066631
0.259516,-0.115231,0.322577,-0.041501,-0.997806,-0.051585
0.462925,-0.106916,0.047051,0.376068,-0.925803,0.038223
0.387021,-0.083307,0.319143,0.534316,-0.721370,0.440604
0.213955,0.086194,0.270386,-0.412978,0.746370,-0.521901
0.372717,0.109465,0.095906,-0.308586,0.947876,-0.079404
0.356992,0.005264,0.401183,0.664073,0.045585,0.746277
0.371173,-0.105694,0.054291,-0.398702,-0.915225,-0.058318
0.189680,0.060968,0.262151,-0.497851,0.527931,-0.688065
0.268703,-0.024041,0.151972,-0.851358,-0.208175,-0.481510
0.451315,-0.107820,0.103479,0.349171,-0.933633,0.080059
0.333530,0.082415,0.069816,-0.685647,0.713646,-0.143522
0.376061,0.114741,0.159720,-0.104266,0.993563,-0.044284
0.345001,0.114305,0.270040,0.112247,0.989789,0.087858
0.359362,-0.077551,0.357965,0.524970,-0.671529,0.522930
0.521864,-0.054121,0.043505,0.880336,-0.468639,0.073389
0.340343,-0.110192,0.184419,-0.263111,-0.954173,-0.142570
0.253334,-0.001461,0.362589,0.510437,0.000000,0.859915
0.371674,-0.113024,0.142186,-0.191782,-0.978692,-0.073367
0.513577,-0.067421,0.043520,0.808994,-0.583806,0.068554
0.346402,0.098095,0.100596,-0.506782,0.849419,-0.147170
0.322884,-0.064908,0.045964,-0.818846,-0.562053,-0.116566
0.407015,0.114722,0.033636,-0.114373,0.993393,-0.009452
0.442685,0.112231,0.074295,0.232452,0.971825,0.039012
0.445735,-0.108988,0.113031,0.320520,-0.943748,0.081279
0.462055,-0.009029,0.273214,0.858144,-0.078180,0.507422
0.326014,-0.080638,0.092881,-0.688454,-0.698255,-0.196139
0.421337,0.010550,0.332381,0.781829,0.091356,0.616763
0.292858,0.075111,0.160458,-0.666155,0.650401,-0.364988
0.323773,0.099606,0.164613,-0.451088,0.862509,-0.229342
0.398546,-0.057798,0.000000,1.000000,0.000000,0.000000
0.326045,0.080439,0.092063,-0.690522,0.696536,-0.194977
0.520057,0.035533,0.109879,0.930937,0.307682,0.196691
0.376108,-0.077758,0.340047,0.548430,-0.673320,0.495847
0.481671,0.072039,0.173354,0.735404,0.623802,0.264673
0.254100,0.108813,0.286533,-0.222250,0.942229,-0.250617
0.246669,-0.043591,0.362589,0.510437,0.000000,0.859915
0.297699,0.112589,0.261069,-0.167313,0.974924,-0.146726
0.305174,-0.107136,0.223974,-0.300959,-0.927705,-0.220880
0.301212,-0.108024,0.233016,-0.279677,-0.935399,-0.216357
0.464958,-0.106981,0.013351,0.376464,-0.926368,0.010810
0.297259,-0.089913,0.183211,-0.534236,-0.778573,-0.329267
0.395738,0.051002,0.345395,0.675948,0.441637,0.589958
0.438625,0.113564,0.059418,0.179982,0.983368,0.024381
0.426292,0.029456,0.000000,1.000000,0.000000,0.000000
0.485166,-0.092633,0.072939,0.590516,-0.802128,0.088777
0.358853,0.074286,0.362496,0.538657,0.643254,0.544126
0.392089,-0.114345,0.194863,0.125509,-0.990130,0.062376
0.291990,0.034354,0.444604,0.524092,0.297480,0.798018
0.317619,0.095841,0.163491,-0.496049,0.829903,-0.255335
0.373539,0.115022,0.172230,-0.081177,0.995997,-0.037429
0.444974,-0.092585,0.206804,0.542035,-0.801709,0.251914
0.350506,0.101127,0.104974,-0.462602,0.875674,-0.138545
0.500381,-0.084173,0.018522,0.684189,-0.728865,0.025326
0.419159,0.115439,0.069607,0.027707,0.999606,0.004601
0.305751,0.115451,0.286292,-0.017652,0.999708,-0.016528
0.329880,0.070640,0.016573,-0.790105,0.611685,-0.039695
0.290166,-0.064940,0.148944,-0.735657,-0.562330,-0.377616
0.327014,0.112966,0.226276,-0.170819,0.978187,-0.118197
0.293619,-0.115221,0.291666,-0.047885,-0.997720,-0.047567
0.368606,0.009062,0.390215,0.684575,0.078470,0.724707
0.243687,-0.114587,0.361577,0.069556,-0.992225,0.103205
0.407161,-0.115470,0.116458,0.015251,-0.999874,0.004362
0.202018,-0.071808,0.262468,-0.477691,-0.621793,-0.620632
0.498259,-0.085467,0.032568,0.671094,-0.740073,0.043865
0.358807,0.115464,0.217322,-0.016050,0.999824,-0.009721
0.290000,-0.108349,0.359157,0.217405,-0.938211,0.269250
0.460967,-0.108362,0.023889,0.345289,-0.938326,0.017894
0.325378,-0.103291,0.343724,0.307455,-0.894418,0.324790
0.449212,0.019911,0.291331,0.826439,0.172416,0.535977
0.291400,0.043019,0.441301,0.511370,0.372508,0.774428
0.341281,0.010759,0.000000,1.000000,0.000000,0.000000
0.290516,-0.055592,0.434745,0.486998,-0.481380,0.728771
0.307622,-0.027233,0.033390,-0.966124,-0.235811,-0.104864
0.213685,-0.008972,0.362589,0.510437,0.000000,0.859915
0.504255,0.073951,0.078692,0.758897,0.640351,0.118431
0.385845,0.111426,0.065156,-0.259124,0.964852,-0.043757
0.287846,0.023737,0.111363,-0.912721,0.205545,-0.353116
0.162192,-0.087229,0.362589,0.510437,0.000000,0.859915
0.247258,0.072686,0.221430,-0.578882,0.629401,-0.518411
0.472781,-0.099965,0.079874,0.493717,-0.865613,0.083411
0.452301,-0.080946,0.222405,0.640046,-0.700921,0.314723
0.528378,-0.025779,0.078837,0.964095,-0.223222,0.143848
0.293705,-0.032775,0.102024,-0.905790,-0.283805,-0.314642
0.413425,-0.048277,0.000000,1.000000,0.000000,0.000000
0.196363,0.107769,0.325512,-0.185632,0.933191,-0.307725
0.232909,0.105440,0.293326,-0.253655,0.913022,-0.319454
0.389105,0.110835,0.009409,-0.280800,0.959742,-0.006790
0.384887,0.115337,0.157366,-0.046818,0.998720,-0.019142
0.275874,-0.005814,0.133132,-0.899471,-0.050346,-0.434070
0.300569,0.029551,0.075952,-0.937246,0.255887,-0.236837
0.327970,0.114179,0.291776,0.112035,0.988693,0.099671
0.343285,-0.050705,0.397762,0.587016,-0.439066,0.680171
0.305038,-0.060931,0.107882,-0.800873,-0.527613,-0.283243
0.179712,0.075353,0.281700,-0.407565,0.652494,-0.638860
0.348071,-0.115480,0.236270,-0.006949,-0.999965,-0.004717
0.403710,-0.092214,0.279775,0.494795,-0.798498,0.342898
0.366001,-0.105930,0.084644,-0.388036,-0.917265,-0.089740
0.532802,0.026861,0.035343,0.970440,0.232598,0.064374
0.208080,0.103995,0.307686,-0.243591,0.900513,-0.360195
0.513419,-0.029708,0.144087,0.930400,-0.257249,0.261110
0.351792,-0.054086,0.387938,0.593527,-0.468341,0.654510
0.307911,0.026972,0.029966,-0.967772,0.233552,-0.094184
0.322773,-0.113061,0.233066,-0.165211,-0.979017,-0.119294
0.346716,-0.057422,0.000000,1.000000,0.000000,0.000000
0.238930,-0.028303,0.362589,0.510437,0.000000,0.859915
0.389634,-0.111398,0.035043,-0.262607,-0.964614,-0.023618
0.391436,0.062905,0.340037,0.633108,0.544703,0.549975
0.475379,0.001573,0.250046,0.884954,0.013624,0.465479
0.407066,-0.114856,0.149620,0.097827,-0.994554,0.035957
0.323577,-0.064344,0.037627,-0.824843,-0.557167,-0.095915
0.233772,-0.113944,0.373298,0.086396,-0.986662,0.137961
0.379206,0.106746,0.270375,0.310708,0.924328,0.221536
0.517692,-0.035214,0.120985,0.927387,-0.304927,0.216731
0.330472,0.095989,0.356163,0.378171,0.831188,0.407570
0.178802,0.013256,0.249477,-0.578691,0.114786,-0.807428
0.391442,0.064635,0.338280,0.627014,0.559682,0.541857
0.312478,-0.065319,0.094376,-0.789454,-0.565607,-0.238435
0.215122,-0.000031,0.362589,0.510437,0.000000,0.859915
0.182372,-0.005102,0.246071,-0.594851,-0.044182,-0.802621
0.239650,-0.105470,0.287933,-0.260575,-0.913283,-0.313074
0.354197,-0.092725,0.339307,0.430443,-0.802924,0.412348
0.306892,0.093306,0.175656,-0.511403,0.807952,-0.292712
0.336971,-0.086447,0.074380,-0.647479,-0.748562,-0.142918
0.346907,-0.030510,0.000000,1.000000,0.000000,0.000000
0.481013,0.056825,0.203253,0.801909,0.492061,0.338848
0.340133,0.100653,0.336238,0.348663,0.871571,0.344670
0.355988,-0.060065,0.379442,0.584381,-0.520111,0.622883
0.408090,0.100648,0.249434,0.418380,0.871529,0.255724
0.285770,-0.022557,0.115947,-0.908785,-0.195322,-0.368726
0.314819,-0.114142,0.306262,0.108967,-0.988377,0.106005
0.340183,0.081813,0.370741,0.477171,0.708428,0.520036
0.535064,0.021411,0.008927,0.982527,0.185398,0.016393
0.352345,-0.093110,0.026495,-0.589900,-0.806257,-0.044358
0.303287,0.046353,0.088309,-0.879392,0.401378,-0.256056
0.483904,0.000670,0.000000,1.000000,0.000000,0.000000
0.269258,-0.069171,0.437988,0.419377,-0.598961,0.682179
0.436674,0.047200,0.000000,1.000000,0.000000,0.000000
0.224690,-0.000850,0.362589,0.510437,0.000000,0.859915
0.444450,-0.086937,0.223927,0.587847,-0.752805,0.296175
0.381719,-0.006512,0.377642,0.709762,-0.056390,0.702181
0.447357,-0.066174,0.257755,0.710108,-0.573016,0.409145
0.402638,-0.090754,0.284611,0.504986,-0.785856,0.356957
0.457624,0.075191,0.223553,0.681978,0.651088,0.333151
0.271299,0.056984,0.171966,-0.734635,0.493433,-0.465655
0.288619,-0.003152,0.452960,0.537168,-0.027290,0.843034
0.271676,-0.045811,0.452353,0.472622,-0.396683,0.786938
0.494919,-0.087724,0.042784,0.647958,-0.759614,0.056014
0.241272,0.107747,0.293701,-0.228440,0.932998,-0.278080
0.260987,-0.066243,0.197114,-0.653645,-0.573613,-0.493676
0.377780,0.108131,0.050242,-0.348067,0.936326,-0.046291
0.357079,0.062494,0.376321,0.578826,0.541146,0.610018
0.238337,0.096612,0.267651,-0.364336,0.836576,-0.409146
0.283203,-0.050780,0.144495,-0.800023,-0.439713,-0.408186
0.481150,0.072642,0.173373,0.731358,0.629021,0.263531
0.456803,0.084847,0.203299,0.619783,0.734701,0.275832
0.250277,-0.069564,0.214277,-0.606347,-0.602369,-0.519129
0.290463,-0.060427,0.141835,-0.765762,-0.523247,-0.373926
0.244303,-0.115051,0.355871,0.049014,-0.996243,0.071398
0.468105,0.029464,0.000000,1.000000,0.000000,0.000000
0.444053,0.113283,0.006487,0.194324,0.980933,0.002839
0.377462,0.111509,0.248098,0.217378,0.965574,0.142878
0.487251,-0.019855,0.000000,1.000000,0.000000,0.000000
0.351916,-0.068475,0.375526,0.550627,-0.592936,0.587568
0.395357,0.079898,0.000000,1.000000,0.000000,0.000000
0.528343,-0.044157,0.004925,0.923974,-0.382359,0.008613
0.222058,0.111231,0.321344,-0.152862,0.963172,-0.221209
0.224936,-0.014791,0.209112,-0.726367,-0.128078,-0.675268
0.476910,0.029081,0.238941,0.865250,0.251821,0.433507
0.231451,-0.016995,0.202344,-0.744663,-0.147159,-0.651015
0.248317,0.104137,0.276631,-0.288767,0.901736,-0.321693
0.359191,0.099606,0.053918,-0.500447,0.862502,-0.075121
0.420575,-0.115426,0.063509,0.031566,-0.999490,0.004767
0.491152,0.086127,0.085804,0.656249,0.745784,0.114646
0.202606,-0.059993,0.251525,-0.536022,-0.519486,-0.665443
0.274701,0.106961,0.259823,-0.273934,0.926191,-0.259097
0.342464,0.086085,0.038982,-0.662310,0.745428,-0.075388
0.423817,0.105169,0.201698,0.373025,0.910679,0.177526
0.312892,0.111808,0.324200,0.173824,0.968167,0.180106
0.250880,0.005043,0.362589,0.510437,0.000000,0.859915
0.511015,-0.009635,0.164170,0.948755,-0.083429,0.304801
0.348406,0.098566,0.096329,-0.502249,0.853500,-0.138864
0.203166,0.108044,0.322162,-0.188375,0.935569,-0.298707
0.536033,0.005408,0.032451,0.997078,0.046824,0.060363
0.506846,-0.063710,0.106803,0.816135,-0.551677,0.171977
0.286384,-0.095374,0.212374,-0.452925,-0.825861,-0.335876
0.367872,-0.113924,0.163908,-0.149656,-0.986487,-0.066680
0.426092,-0.036985,0.316968,0.760085,-0.320262,0.565423
0.461858,-0.007924,0.273707,0.858253,-0.068612,0.508620
0.497156,-0.077299,0.101722,0.727876,-0.669341,0.148928
0.293060,0.114484,0.323935,0.088134,0.991333,0.097419
0.130921,0.069789,0.362589,0.510437,0.000000,0.859915
0.289831,-0.037886,0.444627,0.515858,-0.328057,0.791372
0.365976,-0.072087,0.357884,0.558569,-0.624216,0.546218
0.415470,0.115218,0.108867,0.065671,0.997693,0.017208
0.334546,0.086252,0.083723,-0.645073,0.746874,-0.161435
0.330981,-0.053733,0.406079,0.559234,-0.465287,0.686124
0.490816,0.023673,0.000000,1.000000,0.000000,0.000000
0.513809,-0.064013,0.063973,0.825939,-0.554301,0.102835
0.298400,-0.037785,0.092903,-0.902243,-0.327188,-0.280903
0.235977,0.066901,0.227127,-0.587276,0.579311,-0.565249
0.212168,0.083955,0.362589,0.510437,0.000000,0.859915
0.273062,-0.078419,0.426511,0.395816,-0.679045,0.618246
0.293199,0.047328,0.118700,-0.845505,0.409819,-0.342300
0.407207,0.015841,0.348614,0.752464,0.137167,0.644192
0.441088,0.053074,0.283286,0.747291,0.459577,0.479943
0.450227,0.111893,0.002400,0.247451,0.968900,0.001319
0.478433,0.079036,0.164301,0.689593,0.684382,0.236817
0.291676,0.015538,0.096490,-0.940767,0.134545,-0.311216
0.235447,0.112641,0.318633,-0.131075,0.975374,-0.177385
0.390914,0.109587,0.238811,0.269209,0.948936,0.164461
0.204843,0.085246,0.276046,-0.402020,0.738156,-0.541762
0.228297,-0.098028,0.279136,-0.334683,-0.848841,-0.409213
0.299737,0.115168,0.284290,-0.053665,0.997261,-0.050900
0.296735,-0.101490,0.373161,0.296984,-0.878816,0.373474
0.395100,-0.031407,0.357434,0.713619,-0.271961,0.645589
0.273278,-0.019258,0.141608,-0.875444,-0.166757,-0.453641
0.329921,0.097033,0.141628,-0.498269,0.840224,-0.213896
0.269982,-0.105504,0.259815,-0.293027,-0.913573,-0.281992
0.409837,-0.082475,0.290744,0.570905,-0.714168,0.405008
0.287179,-0.050518,0.440095,0.491422,-0.437444,0.753092
0.251293,0.015631,0.176762,-0.810392,0.135351,-0.570039
0.377370,0.114919,0.212470,0.086139,0.995102,0.048499
0.319652,-0.062637,0.056652,-0.827241,-0.542380,-0.146613
0.306189,0.017807,0.028931,-0.983660,0.154190,-0.092942
0.396109,0.090013,0.295193,0.502333,0.779436,0.374354
0.402233,-0.115059,0.088045,-0.083745,-0.996319,-0.018331
0.209281,0.079085,0.264779,-0.451875,0.684810,-0.571703
0.321056,0.104312,0.188100,-0.370248,0.903251,-0.216920
0.446974,-0.042633,0.282909,0.785281,-0.369169,0.497039
0.266737,-0.108282,0.272766,-0.243051,-0.937631,-0.248544
0.453716,-0.067262,0.244774,0.715409,-0.582434,0.385954
0.367220,-0.103238,0.298778,0.347633,-0.893953,0.282842
0.499947,0.076691,0.090095,0.735810,0.664079,0.132599
0.293192,-0.114012,0.276884,-0.115752,-0.987245,-0.109314
0.285954,-0.112040,0.347012,0.154165,-0.970172,0.187083
0.527079,0.013311,0.099404,0.976127,0.115263,0.184092
0.278369,-0.088110,0.410896,0.362577,-0.762958,0.535194
0.506993,0.037538,0.157419,0.903163,0.325048,0.280429
0.332682,0.073627,0.001659,-0.770398,0.637552,-0.003842
0.441508,-0.092684,0.213799,0.536922,-0.802567,0.260003
0.332781,0.011494,0.420905,0.617124,0.099527,0.780546
0.226913,-0.055628,0.226274,-0.620539,-0.481691,-0.618793
0.427515,0.039877,0.313323,0.756964,0.345299,0.554774
0.508051,-0.076309,0.017057,0.750165,-0.660771,0.025186
0.210266,-0.040431,0.362589,0.510437,0.000000,0.859915
0.496619,0.066947,0.139190,0.784591,0.579707,0.219902
0.397853,0.114622,0.088471,-0.119055,0.992535,-0.026474
0.484607,-0.089345,0.100054,0.620520,-0.773654,0.128115
0.194651,-0.101149,0.309862,-0.256691,-0.875864,-0.408622
0.475267,-0.090449,0.132750,0.598831,-0.783214,0.167264
0.283547,-0.113026,0.343435,0.130684,-0.978707,0.158286
0.353960,0.107588,0.137384,-0.338796,0.931625,-0.131498
0.308751,0.061541,0.098012,-0.806522,0.532890,-0.256028
0.498404,0.026926,0.000000,1.000000,0.000000,0.000000
0.299582,-0.053398,0.110347,-0.832033,-0.462383,-0.306469
0.284735,-0.004499,0.455359,0.529778,-0.038956,0.847242
0.329960,0.072721,0.036242,-0.772189,0.629707,-0.084816
0.510142,-0.058621,0.106581,0.843380,-0.507606,0.176202
0.306091,0.003717,0.009273,-0.999024,0.032188,-0.030264
0.251999,0.091687,0.244964,-0.435966,0.793933,-0.423796
0.200431,0.019468,0.362589,0.510437,0.000000,0.859915
0.473991,0.101539,0.050467,0.473695,0.879244,0.050436
0.206065,0.033430,0.233089,-0.633982,0.289476,-0.717127
0.497398,0.000667,0.202763,0.925999,0.005773,0.377481
0.297567,-0.040789,0.099037,-0.887673,-0.353203,-0.295439
0.493082,-0.029486,0.000000,1.000000,0.000000,0.000000
0.270845,-0.101089,0.245900,-0.357973,-0.875345,-0.325003
0.528847,0.040319,0.032978,0.935258,0.349130,0.058321
0.511822,-0.062975,0.082696,0.827503,-0.545309,0.133702
0.280777,0.029102,0.131154,-0.876789,0.251995,-0.409560
0.230052,-0.034398,0.209891,-0.705205,-0.297858,-0.643403
0.315073,-0.108347,0.215437,-0.285708,-0.938193,-0.195358
0.175907,0.075008,0.283744,-0.400639,0.649506,-0.646244
0.268725,0.086592,0.216752,-0.515000,0.749814,-0.415396
0.339517,-0.099717,0.339175,0.356849,-0.863466,0.356490
0.398193,-0.076716,0.000000,1.000000,0.000000,0.000000
0.496391,-0.015421,0.202500,0.917626,-0.133537,0.374341
0.308838,-0.115405,0.280737,-0.027492,-0.999310,-0.024990
0.338749,-0.075000,0.000000,1.000000,0.000000,0.000000
0.285271,0.069738,0.165106,-0.689870,0.603870,-0.399275
0.428870,0.000745,0.000000,1.000000,0.000000,0.000000
0.344944,-0.101358,0.123276,-0.451294,-0.877680,-0.161283
0.438978,0.112318,0.091987,0.227610,0.972584,0.047695
0.425129,-0.057416,0.302654,0.706830,-0.497174,0.503200
0.333425,-0.106838,0.177677,-0.335057,-0.925126,-0.178547
0.378748,-0.107244,0.007155,-0.370901,-0.928646,-0.007007
0.385437,-0.115100,0.146230,-0.076202,-0.996673,-0.028910
0.288857,-0.067660,0.155532,-0.713537,-0.585881,-0.384198
0.451867,-0.110526,0.054436,0.287812,-0.957059,0.034672
0.454117,0.110640,0.024084,0.286211,0.958046,0.015179
0.519126,0.023362,0.128330,0.950706,0.202298,0.235018
0.350650,-0.105746,0.133600,-0.375593,-0.915670,-0.143103
0.409729,0.114869,0.003866,-0.103114,0.994669,-0.000973
0.215502,-0.010140,0.362589,0.510437,0.000000,0.859915
0.446586,-0.004886,0.298279,0.830828,-0.042311,0.554918
0.332916,0.080971,0.065575,-0.699581,0.701141,-0.137797
0.264985,0.062300,0.446133,0.429991,0.539463,0.723939
0.291130,-0.036943,0.444163,0.519386,-0.319900,0.792403
0.465358,0.047153,0.247489,0.805955,0.408309,0.428627
0.251874,-0.000126,0.174071,-0.822656,-0.001090,-0.568539
0.537130,-0.001470,0.001299,0.999916,-0.012730,0.002418
0.536387,0.013128,0.002401,0.993508,0.113677,0.004448
0.244668,0.029979,0.190574,-0.761876,0.259589,-0.593430
0.182349,0.011121,0.246615,-0.591773,0.096298,-0.800332
0.474246,-0.064693,0.206665,0.759393,-0.560188,0.330925
0.452753,-0.089106,0.200394,0.581696,-0.771584,0.257465
0.339043,0.113110,0.288158,0.153732,0.979436,0.130659
0.290704,-0.046435,0.440040,0.504686,-0.402092,0.763946
0.365806,-0.039229,0.383896,0.648824,-0.339692,0.680909
0.421099,0.003090,0.000000,1.000000,0.000000,0.000000
0.300039,0.107602,0.232735,-0.286915,0.931745,-0.222554
0.326721,-0.081820,0.382648,0.458255,-0.708490,0.536697
0.291019,0.059834,0.139857,-0.770910,0.518112,-0.370483
0.318768,-0.054723,0.027596,-0.877321,-0.473857,-0.075951
0.522836,-0.052239,0.043595,0.888757,-0.452349,0.074107
0.397946,-0.083607,0.000000,1.000000,0.000000,0.000000
0.304903,-0.025755,0.050643,-0.961641,-0.223013,-0.159723
0.340651,0.094936,0.103063,-0.544991,0.822069,-0.164885
0.453524,0.110840,0.022455,0.280415,0.959778,0.013884
0.305228,-0.040718,0.071927,-0.910832,-0.352586,-0.214637
0.455102,-0.109266,0.060012,0.320951,-0.946150,0.042322
0.210974,0.106862,0.313488,-0.211694,0.925332,-0.314558
0.504044,0.074454,0.077296,0.755598,0.644706,0.115872
0.189422,-0.046586,0.252915,-0.548525,-0.403397,-0.732388
0.445237,-0.111311,0.080314,0.262185,-0.963858,0.047294
0.309996,-0.010459,0.438079,0.575259,-0.090567,0.812942
0.522975,0.042669,0.079404,0.918710,0.369478,0.139489
0.431949,-0.005648,0.000000,1.000000,0.000000,0.000000
0.526518,0.047324,0.022526,0.911349,0.409784,0.038990
0.306514,0.110739,0.239342,-0.223628,0.958905,-0.174621
0.368002,0.115222,0.189372,-0.059959,0.997724,-0.030855
0.195301,0.089230,0.288446,-0.355918,0.772656,-0.525667
0.399389,0.068485,0.324569,0.624864,0.593026,0.507805
0.509815,0.039432,0.145604,0.903763,0.341452,0.258115
0.369334,-0.009957,0.389423,0.685582,-0.086218,0.722872
0.301083,-0.104120,0.217967,-0.350401,-0.901593,-0.253671
0.334084,0.100049,0.343730,0.348109,0.866338,0.358160
0.439939,0.079299,0.249190,0.632550,0.686665,0.358290
0.190541,0.074664,0.273774,-0.435798,0.646527,-0.626166
0.321552,-0.057671,0.005718,-0.866245,-0.499382,-0.015403
0.420330,-0.079464,0.280725,0.603421,-0.688091,0.403006
0.505502,-0.057396,0.129668,0.840535,-0.497005,0.215608
0.223671,0.003495,0.362589,0.510437,0.000000,0.859915
0.428471,0.114737,0.073778,0.111961,0.993526,0.019279
0.381551,-0.040618,0.367514,0.674213,-0.351714,0.649410
0.312773,-0.049325,0.053020,-0.891479,-0.427116,-0.151120
0.368603,-0.103773,0.041957,-0.435974,-0.898590,-0.049625
0.267194,-0.003773,0.149621,-0.872051,-0.032673,-0.488324
0.165843,-0.011776,0.362589,0.510437,0.000000,0.859915
0.315252,-0.046077,0.017932,-0.915478,-0.398985,-0.052074
0.498030,0.085395,0.036989,0.671365,0.739448,0.049862
0.468330,-0.021471,0.258897,0.859916,-0.185925,0.475370
0.474615,-0.095203,0.109246,0.551620,-0.824375,0.126971
0.176449,-0.003636,0.250283,-0.575915,-0.031482,-0.816903
0.248057,0.003727,0.179570,-0.809609,0.032271,-0.586082
0.176757,-0.079131,0.362589,0.510437,0.000000,0.859915
0.535659,-0.004599,0.038613,0.996621,-0.039825,0.071841
0.377486,-0.074372,0.342941,0.566242,-0.644002,0.514423
0.265144,0.070436,0.439370,0.409447,0.609918,0.678494
0.397555,-0.113125,0.026403,-0.200673,-0.979568,-0.013327
0.446343,-0.107630,0.125006,0.349059,-0.931988,0.097760
0.284110,-0.045599,0.444757,0.494593,-0.394853,0.774254
0.222921,0.115459,0.360797,0.011165,0.999774,0.018070
0.322999,0.101070,0.171671,-0.427201,0.875183,-0.227054
0.311996,-0.099050,0.366133,0.333489,-0.857686,0.391355
0.489991,0.038516,0.203396,0.870710,0.333513,0.361433
0.271131,0.084419,0.209847,-0.539631,0.731000,-0.417657
0.390880,0.018287,0.366292,0.720479,0.158346,0.675157
0.386075,0.110375,0.035310,-0.292932,0.955758,-0.026791
0.467800,-0.090414,0.157189,0.589734,-0.782909,0.198161
0.322217,0.059692,0.019310,-0.854523,0.516883,-0.051210
0.491483,-0.091551,0.023588,0.608843,-0.792752,0.029221
0.403488,-0.115280,0.096129,-0.057911,-0.998226,-0.013797
0.343330,0.090506,0.067616,-0.609427,0.783705,-0.120021
0.210728,-0.005867,0.362589,0.510437,0.000000,0.859915
0.305678,0.068367,0.120531,-0.749756,0.592002,-0.295634
0.469543,0.088071,0.160934,0.611901,0.762622,0.209726
0.290642,0.042501,0.119570,-0.859892,0.368021,-0.353760
0.325185,-0.100569,0.350917,0.334110,-0.870847,0.360548
0.410202,0.009396,0.000000,1.000000,0.000000,0.000000
0.340313,0.092843,0.353010,0.412749,0.803944,0.428149
0.372907,0.113488,0.239207,0.155819,0.982716,0.099952
0.415190,0.079639,0.287982,0.595055,0.689606,0.412739
0.237697,-0.043550,0.206240,-0.699553,-0.377106,-0.606974
0.182025,0.061611,0.268010,-0.475207,0.533496,-0.699686
0.525343,0.036950,0.077779,0.937216,0.319957,0.138759
0.241203,-0.112311,0.378170,0.125200,-0.972519,0.196295
0.315287,-0.058669,0.066306,-0.842907,-0.508020,-0.177267
0.226004,0.100840,0.287085,-0.301475,0.873189,-0.382953
0.394689,-0.114784,0.181340,0.099916,-0.993936,0.045907
0.317753,-0.111245,0.227250,-0.218364,-0.963290,-0.156169
0.466838,-0.012196,0.000000,1.000000,0.000000,0.000000
0.356345,-0.098393,0.324739,0.386962,-0.852000,0.352641
0.332686,-0.103523,0.163004,-0.397999,-0.896421,-0.195005
0.534675,-0.018967,0.030988,0.984768,-0.164241,0.057073
0.373461,0.106725,0.055328,-0.377913,0.924147,-0.055987
0.203531,0.016266,0.230266,-0.655670,0.140849,-0.741794
0.325839,0.066213,0.027990,-0.816303,0.573352,-0.070123
0.271254,0.111550,0.282673,-0.179190,0.965930,-0.186734
0.286605,0.015305,0.110559,-0.924760,0.132526,-0.356730
0.326653,0.081898,0.382603,0.457791,0.709165,0.536203
0.466183,0.072312,0.210971,0.710337,0.626165,0.321463
0.310267,0.105521,0.210138,-0.336430,0.913726,-0.227857
0.327502,0.078693,0.080009,-0.710987,0.681415,-0.173695
0.420253,0.101789,0.223962,0.416849,0.881412,0.222148
0.400566,-0.080854,0.306070,0.567356,-0.700124,0.433513
0.390188,0.110554,0.234124,0.247871,0.957308,0.148730
0.262104,-0.049084,0.178515,-0.748141,-0.425028,-0.509545
0.321834,0.058073,0.000916,-0.864360,0.502867,-0.002461
0.301130,0.003969,0.444711,0.560357,0.034371,0.827538
0.334189,-0.101431,0.340180,0.335053,-0.878304,0.341060
0.426033,0.082831,0.265760,0.591216,0.717252,0.368801
0.442160,0.014516,0.303368,0.818039,0.125696,0.561260
0.305209,-0.029405,0.054163,-0.952164,-0.254621,-0.168972
0.403443,0.111776,0.200877,0.225021,0.967891,0.112039
0.315785,-0.114147,0.305220,0.109113,-0.988419,0.105462
0.338026,0.026516,0.413465,0.616032,0.229609,0.753515
0.447485,-0.109680,0.096670,0.305982,-0.949740,0.066101
0.509692,0.049899,0.129168,0.874199,0.432082,0.221543
0.520256,0.022932,0.124051,0.953359,0.198576,0.227320
0.254738,-0.113035,0.305794,-0.131127,-0.978789,-0.157408
0.299748,-0.085974,0.169901,-0.580846,-0.744462,-0.329231
0.268704,0.008839,0.147467,-0.874086,0.076537,-0.479704
0.535089,-0.021657,0.001854,0.982253,-0.187528,0.003404
0.524277,0.001910,0.116778,0.975946,0.016539,0.217383
0.240916,0.076005,0.232356,-0.541917,0.658141,-0.522663
0.277496,-0.052528,0.156955,-0.775167,-0.454845,-0.438443
0.287441,0.023162,0.112077,-0.912751,0.200560,-0.355894
0.448094,0.042751,0.281044,0.786977,0.370185,0.493590
0.496040,-0.088337,0.001342,0.644113,-0.764928,0.001742
0.476199,-0.101550,0.020695,0.475743,-0.879342,0.020675
0.477831,-0.085558,0.144572,0.642881,-0.740857,0.194510
0.286653,0.022388,0.113654,-0.911963,0.193866,-0.361581
0.235066,0.069208,0.230479,-0.571617,0.599281,-0.560461
0.294643,0.043164,0.110099,-0.868848,0.373762,-0.324661
0.312425,0.049764,0.056227,-0.888124,0.430916,-0.159835
0.502564,0.007647,0.188886,0.934015,0.066215,0.351044
0.418518,0.086554,0.270102,0.556236,0.749488,0.358983
0.217535,0.007853,0.215832,-0.708237,0.068000,-0.702692
0.169213,0.054617,0.271486,-0.466058,0.472936,-0.747744
0.188805,0.029364,0.245830,-0.589094,0.254267,-0.767018
0.303742,-0.064118,0.117306,-0.775860,-0.555210,-0.299639
0.501508,0.083417,0.003493,0.691540,0.722322,0.004816
0.292470,0.100946,0.377765,0.297353,0.874111,0.384072
0.281743,-0.007974,0.120544,-0.917190,-0.069047,-0.392422
0.161320,-0.038508,0.267970,-0.486242,-0.333449,-0.807700
0.527901,0.043541,0.027525,0.924944,0.377031,0.048227
0.318451,-0.062253,0.061775,-0.826853,-0.539061,-0.160397
0.388898,-0.099626,0.281457,0.409705,-0.862682,0.296516
0.431919,0.050990,0.298930,0.737780,0.441532,0.510617
0.323337,0.076942,0.089653,-0.718611,0.666256,-0.199252
0.263376,0.027905,0.162730,-0.825507,0.241636,-0.510050
0.353690,0.098386,0.327644,0.384141,0.851942,0.355852
0.420743,-0.089547,0.259971,0.537190,-0.775406,0.331922
0.503655,-0.023036,0.179900,0.922803,-0.199472,0.329615
0.444740,0.112296,0.058763,0.231351,0.972390,0.030568
0.336934,0.079008,0.018247,-0.728280,0.684144,-0.039440
0.284580,-0.012410,0.454771,0.527393,-0.107462,0.842798
0.288214,0.012820,0.452423,0.533964,0.111007,0.838188
0.502026,0.019188,0.186463,0.924397,0.166155,0.343341
0.239923,-0.110962,0.385021,0.146547,-0.960842,0.235174
0.214903,-0.094574,0.283041,-0.347036,-0.818934,-0.457070
0.321612,-0.070571,0.075005,-0.770879,-0.611084,-0.179781
0.275745,-0.096774,0.398591,0.310461,-0.837983,0.448774
0.311952,0.062252,0.088954,-0.809984,0.539054,-0.230969
0.141400,0.034676,0.362589,0.510437,0.000000,0.859915
0.350713,0.115484,0.234508,0.001701,0.999998,0.001138
0.325048,0.115289,0.279015,0.044148,0.998306,0.037896
0.342330,0.104404,0.146333,-0.393026,0.904050,-0.168003
0.302883,0.074369,0.139118,-0.695223,0.643969,-0.319326
0.313728,0.109333,0.222240,-0.262767,0.946734,-0.186140
0.354699,-0.094095,0.001589,-0.579755,-0.814787,-0.002597
0.300866,-0.086355,0.168789,-0.579067,-0.747761,-0.324862
0.413640,-0.099649,0.243566,0.435519,-0.862877,0.256449
0.505448,0.025182,0.173393,0.923129,0.218055,0.316678
0.232613,-0.113372,0.377769,0.099820,-0.981711,0.162110
0.342268,0.084405,0.019736,-0.681378,0.730877,-0.039289
0.410895,-0.110524,0.195746,0.261751,-0.957046,0.124695
0.422855,0.010466,0.000000,1.000000,0.000000,0.000000
0.337353,0.082047,0.045332,-0.697474,0.710455,-0.093723
0.241510,-0.110652,0.385275,0.152034,-0.958155,0.242537
0.393885,-0.030041,0.359332,0.713335,-0.260129,0.650758
0.217299,-0.113042,0.333483,-0.111678,-0.978853,-0.171389
0.278681,0.080016,0.421056,0.397969,0.692875,0.601286
0.270937,-0.042508,0.454389,0.476181,-0.368080,0.798604
0.177081,0.040825,0.362589,0.510437,0.000000,0.859915
0.223308,0.100084,0.287501,-0.306052,0.866644,-0.394031
0.310347,0.069690,0.110906,-0.750891,0.603454,-0.268339
0.401586,-0.114563,0.066739,-0.124391,-0.992018,-0.020672
0.313679,-0.093108,0.162641,-0.525198,-0.806234,-0.272312
0.276242,-0.111119,0.359161,0.166039,-0.962199,0.215878
0.344210,0.091529,0.069900,-0.597588,0.792566,-0.121355
0.465230,0.093301,0.152902,0.559847,0.807908,0.183999
0.380860,0.110045,0.066545,-0.298776,0.952894,-0.052203
0.203939,0.089871,0.283374,-0.366842,0.778205,-0.509728
0.335570,-0.040347,0.410058,0.593406,-0.349371,0.725127
0.501493,0.050314,0.157369,0.858812,0.435676,0.269496
0.262121,-0.021283,0.162014,-0.836060,-0.184291,-0.516760
0.386148,-0.113083,0.097347,-0.196705,-0.979208,-0.049589
0.222711,0.029587,0.215675,-0.694386,0.256203,-0.672450
0.306514,-0.029820,0.046943,-0.954953,-0.258217,-0.146251
0.273386,0.079382,0.198382,-0.587837,0.687380,-0.426564
0.170108,-0.009842,0.362589,0.510437,0.000000,0.859915
0.278898,-0.064859,0.168997,-0.707621,-0.561623,-0.428780
0.182398,0.094689,0.305194,-0.293680,0.819929,-0.491395
0.325729,-0.064303,0.000767,-0.830639,-0.556807,-0.001955
0.453329,-0.006106,0.287819,0.843039,-0.052876,0.535247
0.291830,-0.106660,0.363218,0.240129,-0.923588,0.298869
0.390006,-0.112220,0.058661,-0.233451,-0.971734,-0.035113
0.309125,-0.110809,0.236354,-0.223752,-0.959514,-0.171079
0.427043,0.103903,0.201193,0.394859,0.899711,0.186030
0.389635,-0.112325,0.063826,-0.229251,-0.972643,-0.037554
0.325044,-0.004164,0.427534,0.604829,-0.036058,0.795538
0.481913,0.091793,0.097780,0.594691,0.794848,0.120663
0.198201,0.004131,0.233458,-0.646784,0.035774,-0.761834
0.221082,0.093441,0.276210,-0.367211,0.809124,-0.458776
0.445723,-0.075048,0.000000,1.000000,0.000000,0.000000
0.257846,-0.015411,0.167004,-0.831822,-0.133443,-0.538762
0.200631,-0.084346,0.277923,-0.399801,-0.730370,-0.553822
0.421241,-0.000870,0.000000,1.000000,0.000000,0.000000
0.486937,0.086369,0.105894,0.648665,0.747886,0.141065
0.282521,-0.067437,0.166446,-0.699434,-0.583945,-0.412069
0.417307,0.016710,0.000000,1.000000,0.000000,0.000000
0.313824,0.104788,0.201817,-0.353526,0.907377,-0.227348
0.309523,-0.104910,0.353598,0.275335,-0.908435,0.314541
0.198838,0.019533,0.362589,0.510437,0.000000,0.859915
0.351146,0.098279,0.083814,-0.510797,0.851012,-0.121920
0.403563,-0.102724,0.249432,0.388684,-0.889501,0.240236
0.293788,-0.080553,0.168951,-0.621175,-0.697519,-0.357223
0.404762,0.115110,0.147929,0.075560,0.996759,0.027615
0.269375,0.034726,0.362589,0.510437,0.000000,0.859915
0.324952,-0.078950,0.090703,-0.702944,-0.683645,-0.196212
0.459212,0.018255,0.000000,1.000000,0.000000,0.000000
0.372263,-0.108433,0.085340,-0.335382,-0.938940,-0.076885
0.353426,0.093228,0.007264,-0.590049,0.807276,-0.012127
0.221778,-0.049222,0.226764,-0.632512,-0.426224,-0.646731
0.353767,-0.049470,0.389274,0.607719,-0.428366,0.668715
0.469739,-0.104202,0.040041,0.429549,-0.902301,0.036615
0.535976,-0.015351,0.012238,0.990867,-0.132928,0.022625
0.412821,0.115160,0.012448,-0.074848,0.997192,-0.002257
0.383530,0.109013,0.002757,-0.330050,0.943961,-0.002372
0.386079,0.057793,0.350786,0.640780,0.500440,0.582203
0.488673,0.086591,0.096283,0.649179,0.749804,0.127908
0.342312,0.090442,0.355434,0.431357,0.783150,0.447893
0.504106,-0.076609,0.063366,0.742450,-0.663368,0.093326
0.298029,0.013915,0.073726,-0.963666,0.120491,-0.238391
0.410702,0.057668,0.321725,0.682045,0.499356,0.534283
0.272440,-0.004770,0.139922,-0.888781,-0.041303,-0.456467
0.393878,0.032878,0.358146,0.709252,0.284698,0.644910
0.297569,-0.018353,0.078069,-0.954973,-0.158919,-0.250543
0.229462,0.013711,0.362589,0.510437,0.000000,0.859915
0.287001,-0.005965,0.107079,-0.935664,-0.051652,-0.349092
0.338150,-0.115021,0.268833,0.070057,-0.995987,0.055696
0.140053,0.067542,0.362589,0.510437,0.000000,0.859915
0.307916,-0.080466,0.141373,-0.651872,-0.696769,-0.299292
0.355083,0.102447,0.097980,-0.444934,0.887108,-0.122774
0.285701,-0.083502,0.187770,-0.577272,-0.723059,-0.379398
0.302916,-0.051165,0.097187,-0.853639,-0.443046,-0.273880
0.284932,0.084699,0.191228,-0.564436,0.733426,-0.378813
0.343761,0.103602,0.138559,-0.409771,0.897111,-0.165165
0.168382,-0.005599,0.255874,-0.549069,-0.048481,-0.834370
0.381424,0.029248,0.372834,0.691798,0.253267,0.676219
0.363722,0.051253,0.000000,1.000000,0.000000,0.000000
0.207009,-0.020324,0.362589,0.510437,0.000000,0.859915
0.300616,-0.073676,0.412709,0.453386,-0.637970,0.622444
0.176684,0.075460,0.362589,0.510437,0.000000,0.859915
0.298275,-0.113118,0.330127,0.135039,-0.979503,0.149459
0.398944,0.096671,0.275514,0.450150,0.837090,0.310878
0.214660,0.089682,0.275046,-0.387628,0.776570,-0.496672
0.500254,0.017564,0.191899,0.922800,0.152092,0.353989
0.337637,0.087864,0.078808,-0.631962,0.760832,-0.147507
0.260235,0.101211,0.257416,-0.342381,0.876399,-0.338673
0.390551,0.115259,0.138681,-0.058863,0.998047,-0.020902
0.469435,-0.045350,0.241393,0.817872,-0.392694,0.420566
0.313840,0.041705,0.008863,-0.932144,0.361130,-0.026323
0.224966,-0.111679,0.321329,-0.146023,-0.967045,-0.208570
0.310843,-0.100699,0.363379,0.318230,-0.871972,0.372013
0.290658,-0.102181,0.225451,-0.368186,-0.884805,-0.285586
0.310035,0.080018,0.135589,-0.660626,0.692893,-0.288915
0.532017,-0.006682,0.072598,0.989158,-0.057861,0.134979
0.203378,-0.042637,0.239669,-0.601307,-0.369198,-0.708606
0.394681,0.000697,0.364342,0.734770,0.006031,0.678289
0.440731,-0.028956,0.000000,1.000000,0.000000,0.000000
0.350044,-0.100348,0.101626,-0.475313,-0.868927,-0.137995
0.293853,0.012612,0.088403,-0.951877,0.109207,-0.286364
0.518227,0.055327,0.070682,0.869715,0.479088,0.118622
0.261816,-0.063258,0.192619,-0.673902,-0.547764,-0.495793
0.214241,0.037352,0.362589,0.510437,0.000000,0.859915
0.422653,-0.112264,0.150773,0.220889,-0.972110,0.078798
0.521615,-0.052525,0.054976,0.885676,-0.454824,0.093346
0.243806,0.082413,0.238061,-0.501219,0.713625,-0.489408
0.470784,-0.035242,0.000000,1.000000,0.000000,0.000000
0.509731,-0.001100,0.169377,0.948937,-0.009526,0.315320
0.513146,-0.067376,0.048675,0.808539,-0.583423,0.076695
0.302935,-0.090420,0.174936,-0.538697,-0.782965,-0.311082
0.227036,0.099954,0.284278,-0.312573,0.865516,-0.391382
0.435117,-0.090753,0.231939,0.545731,-0.785846,0.290901
0.407301,0.087874,0.284086,0.532184,0.760919,0.371190
0.450120,-0.093475,0.192291,0.540023,-0.809416,0.230697
0.476918,0.101404,0.000303,0.478526,0.878073,0.000304
0.400920,0.109463,0.222374,0.278702,0.947855,0.154584
0.465451,0.020647,0.264348,0.855537,0.178788,0.485893
0.224740,-0.108415,0.308735,-0.202752,-0.938783,-0.278528
0.486150,0.013185,0.226645,0.900417,0.114170,0.419778
0.348662,-0.105208,0.314099,0.306385,-0.911013,0.276013
0.499153,0.059595,0.147802,0.821314,0.516043,0.243195
0.283999,-0.006179,0.455727,0.528128,-0.053506,0.847477
0.168919,0.039825,0.263809,-0.506161,0.344847,-0.790494
0.301575,-0.011833,0.056271,-0.977860,-0.102466,-0.182459
0.312759,-0.067817,0.099421,-0.771379,-0.587237,-0.245209
0.345935,0.115255,0.228126,-0.052584,0.998014,-0.034676
0.431140,-0.114518,0.068626,0.127511,-0.991629,0.020296
0.312892,-0.043963,0.035207,-0.918907,-0.380682,-0.103396
0.168866,-0.002253,0.255419,-0.551397,-0.019513,-0.834015
0.349353,-0.090050,0.000242,-0.626083,-0.779756,-0.000434
0.497574,0.087021,0.001654,0.657408,0.753532,0.002186
0.380804,0.087398,0.319593,0.500692,0.756790,0.420210
0.236691,-0.115377,0.342915,-0.024530,-0.999067,-0.035538
0.230006,-0.069979,0.236343,-0.554805,-0.605961,-0.570091
0.423111,-0.113188,0.136466,0.188864,-0.980112,0.060914
0.277373,-0.061513,0.167292,-0.724722,-0.532654,-0.437102
0.331021,-0.092507,0.362350,0.403749,-0.801035,0.441962
0.394710,-0.112302,0.004308,-0.233117,-0.972445,-0.002544
0.471084,-0.043401,0.239951,0.825745,-0.375818,0.420601
0.341310,-0.113744,0.280262,0.133684,-0.984926,0.109773
0.316632,0.075985,0.398045,0.468793,0.657969,0.589331
0.253440,0.048845,0.190430,-0.724439,0.422960,-0.544329
0.264355,0.100994,0.397842,0.268403,0.874527,0.403933
0.372955,0.106751,0.059048,-0.376795,0.924374,-0.059656
0.274714,-0.097683,0.232748,-0.406985,-0.845853,-0.344813
0.417177,0.115463,0.043428,-0.019159,0.999814,-0.001994
0.245168,0.104052,0.279192,-0.286243,0.901005,-0.325967
0.350851,0.070144,0.374808,0.542888,0.607390,0.579957
0.238905,0.051891,0.210613,-0.670138,0.449329,-0.590777
0.423220,0.115460,0.026611,0.020735,0.999784,0.001304
0.345208,0.110925,0.294541,0.211657,0.960515,0.180591
0.293186,0.056301,0.432475,0.489934,0.487519,0.722696
0.224817,0.083519,0.257589,-0.454127,0.723207,-0.520327
0.274835,0.041731,0.452398,0.484123,0.361352,0.796900
0.274952,-0.018820,0.459636,0.506493,-0.162967,0.846703
0.263155,-0.019116,0.362589,0.510437,0.000000,0.859915
0.417744,0.005503,0.337445,0.777024,0.047655,0.627664
0.272195,-0.060895,0.442812,0.444953,-0.527298,0.723860
0.280014,-0.106106,0.374044,0.236570,-0.918788,0.316012
0.438971,-0.114065,0.025478,0.156066,-0.987705,0.009058
0.441275,-0.063439,0.271592,0.711626,-0.549325,0.437985
0.279572,0.107771,0.369259,0.216912,0.933203,0.286498
0.328821,-0.071372,0.036734,-0.781299,-0.618025,-0.087283
0.300593,0.108199,0.234570,-0.275587,0.936911,-0.215057
0.220069,0.095672,0.281071,-0.345282,0.828437,-0.440991
0.283149,-0.033847,0.129225,-0.869784,-0.293089,-0.396956
0.266252,-0.077289,0.204703,-0.589056,-0.669259,-0.452885
0.222844,0.094013,0.275812,-0.364989,0.814071,-0.451742
0.427493,0.114757,0.078279,0.110260,0.993698,0.020190
0.268596,0.011204,0.148091,-0.871585,0.097017,-0.480550
0.316247,-0.112291,0.236145,-0.187132,-0.972346,-0.139734
0.256929,0.101178,0.402285,0.259498,0.876113,0.406308
0.205057,-0.112201,0.336800,-0.123128,-0.971566,-0.202234
0.481812,-0.087690,0.121121,0.631077,-0.759325,0.158645
0.263863,-0.103576,0.392238,0.246857,-0.896885,0.366959
0.462009,0.027610,0.267360,0.840423,0.239079,0.486344
0.504534,0.009815,0.183077,0.936625,0.084988,0.339868
0.319980,0.039127,0.362589,0.510437,0.000000,0.859915
0.326612,-0.088710,0.119295,-0.601400,-0.768158,-0.219661
0.410041,-0.112846,0.175963,0.195328,-0.977149,0.083822
0.374548,0.111399,0.112963,-0.252395,0.964626,-0.076122
0.338788,0.106559,0.320221,0.280153,0.922711,0.264800
0.433790,-0.106510,0.171038,0.359567,-0.922286,0.141773
0.225069,0.109138,0.311001,-0.191686,0.945040,-0.264871
0.233588,0.004025,0.362589,0.510437,0.000000,0.859915
0.437363,-0.114404,0.006921,0.136462,-0.990643,0.002159
0.344342,0.092663,0.076482,-0.582614,0.802381,-0.129405
0.357722,0.038981,0.391561,0.634901,0.337540,0.694959
0.414955,-0.057918,0.000000,1.000000,0.000000,0.000000
0.298827,0.115310,0.306409,0.038353,0.998490,0.039326
0.526298,-0.046901,0.030624,0.912274,-0.406127,0.053083
0.488736,-0.037573,0.207236,0.870565,-0.325347,0.369141
0.272631,-0.060559,0.442787,0.446431,-0.524389,0.725062
0.213206,-0.103996,0.304159,-0.249578,-0.900522,-0.356048
0.250351,0.113855,0.314941,-0.104176,0.985887,-0.131053
0.392967,-0.113081,0.064458,-0.200271,-0.979190,-0.032850
0.423857,-0.011058,0.000000,1.000000,0.000000,0.000000
0.290269,0.048003,0.126462,-0.833818,0.415669,-0.363272
0.455497,-0.039396,0.271383,0.807548,-0.341140,0.481134
0.327666,0.067106,0.001640,-0.813833,0.581085,-0.004072
0.311937,0.093461,0.166986,-0.517869,0.809294,-0.277225
0.297179,0.014402,0.446360,0.549864,0.124712,0.825891
0.407028,-0.098934,0.256725,0.436300,-0.856688,0.275188
0.384466,-0.049400,0.359035,0.660624,-0.427759,0.616927
0.383398,-0.002255,0.376168,0.713669,-0.019524,0.700211
0.283989,0.007650,0.455629,0.527793,0.066246,0.846786
0.482746,0.093717,0.078819,0.576698,0.811513,0.094158
0.177753,0.001982,0.249309,-0.580450,0.017162,-0.814115
0.325109,0.111866,0.311626,0.179311,0.968662,0.171874
0.438577,-0.112444,0.091317,0.223184,-0.973668,0.046470
0.236632,0.081295,0.243631,-0.494850,0.703951,-0.509486
0.468915,-0.084426,0.174849,0.639320,-0.731055,0.238389
0.383740,0.109079,0.252904,0.274220,0.944533,0.180725
0.309842,-0.029539,0.010308,-0.966199,-0.255784,-0.032145
0.401584,-0.104346,0.246381,0.365233,-0.903545,0.224079
0.161309,-0.084242,0.362589,0.510437,0.000000,0.859915
0.273616,0.106949,0.260922,-0.273059,0.926086,-0.260391
0.443168,-0.109838,0.112912,0.299308,-0.951104,0.076259
0.505739,-0.027454,0.170887,0.920220,-0.237726,0.310938
0.465765,-0.098079,0.126449,0.509495,-0.849283,0.138321
0.276016,0.105190,0.252363,-0.304591,0.910861,-0.278490
0.264504,0.106227,0.384824,0.222209,0.919841,0.323289
0.364923,-0.106217,0.291386,0.306725,-0.919748,0.244916
0.337356,0.083545,0.055714,-0.681175,0.723426,-0.112496
0.258673,-0.083924,0.429042,0.354687,-0.726712,0.588292
0.476019,-0.092390,0.120128,0.581729,-0.800025,0.146805
0.313027,0.040690,0.018578,-0.934226,0.352345,-0.055445
0.246420,-0.040036,0.193533,-0.737673,-0.346678,-0.579355
0.281846,0.020775,0.124343,-0.899992,0.179898,-0.397054
0.522515,-0.006686,0.123652,0.971491,-0.057893,0.229901
0.448272,0.007944,0.295430,0.832999,0.068786,0.548982
0.225016,-0.038997,0.217506,-0.676767,-0.337686,-0.654182
0.227306,-0.100545,0.285385,-0.306482,-0.870635,-0.384790
0.514618,-0.066515,0.038566,0.815186,-0.575968,0.061091
0.388402,-0.054639,0.350840,0.653768,-0.473124,0.590543
0.294757,-0.002612,0.082932,-0.962378,-0.022620,-0.270772
0.280445,-0.023086,0.362589,0.510437,0.000000,0.859915
0.395906,-0.103132,0.259955,0.376151,-0.893034,0.246984
0.237398,-0.114995,0.335543,-0.053137,-0.995759,-0.075105
0.301208,0.023404,0.066994,-0.955890,0.202663,-0.212608
0.191262,0.081172,0.280511,-0.400715,0.702878,-0.587699
0.461545,-0.105957,0.074930,0.392591,-0.917502,0.063735
0.347369,0.102913,0.125245,-0.426831,0.891141,-0.153895
0.314851,0.046010,0.023580,-0.914647,0.398406,-0.068501
0.337436,-0.092090,0.100103,-0.578498,-0.797426,-0.171617
0.335018,0.078802,0.038609,-0.726210,0.682360,-0.083691
0.274545,-0.007241,0.136034,-0.894274,-0.062700,-0.443105
0.236296,0.107737,0.297685,-0.223887,0.932910,-0.282052
0.307255,0.027908,0.037987,-0.963029,0.241658,-0.119063
0.469835,-0.103302,0.057032,0.443795,-0.894508,0.053871
0.522542,-0.012290,0.121516,0.968479,-0.106423,0.225218
0.230807,-0.113463,0.326867,-0.107455,-0.982495,-0.152177
0.486701,0.070034,0.163663,0.753664,0.606433,0.253435
0.424711,0.114811,0.089868,0.105548,0.994163,0.022334
0.401654,0.099227,0.264165,0.427438,0.859225,0.281123
0.208688,0.086464,0.274852,-0.400869,0.748704,-0.527964
0.374782,-0.092108,0.317699,0.460142,-0.797574,0.390057
0.337136,0.111339,0.301550,0.197905,0.964105,0.177015
0.296422,0.095227,0.386384,0.344351,0.824589,0.448860
0.375912,0.106276,0.020411,-0.390737,0.920258,-0.021216
0.230490,0.096124,0.273473,-0.357186,0.832354,-0.423798
0.426427,0.102275,0.209904,0.416671,0.885618,0.205102
0.473335,0.061958,0.213148,0.769478,0.536507,0.346504
0.122202,-0.035534,0.362589,0.510437,0.000000,0.859915
0.220987,-0.027235,0.216590,-0.694031,-0.235832,-0.680223
0.498704,0.016980,0.196133,0.920502,0.147032,0.362020
0.439355,0.114119,0.003048,0.153347,0.988172,0.001064
0.498859,0.076197,0.098218,0.737289,0.659798,0.145161
0.132177,0.045593,0.362589,0.510437,0.000000,0.859915
0.322461,-0.078080,0.096415,-0.705924,-0.676108,-0.211069
0.277777,0.053314,0.157282,-0.771911,0.461654,-0.437069
0.523119,-0.054306,0.021857,0.881768,-0.470243,0.036842
0.314956,-0.047233,0.028832,-0.908734,-0.409001,-0.083189
0.289160,0.080663,0.413166,0.410335,0.698476,0.586307
0.359272,-0.065881,0.371081,0.571293,-0.570473,0.590072
0.285924,-0.074998,0.172323,-0.651293,-0.649416,-0.392526
0.373229,0.113514,0.145015,-0.171472,0.982934,-0.066624
0.372471,-0.092872,0.318837,0.451535,-0.804190,0.386516
0.476971,0.078385,0.170308,0.691603,0.678751,0.246945
0.374835,-0.105739,0.017093,-0.401646,-0.915612,-0.018316
0.444113,-0.110624,0.098047,0.280314,-0.957912,0.061885
0.428804,0.008935,0.000000,1.000000,0.000000,0.000000
0.498003,0.009523,0.200226,0.924657,0.082462,0.371765
0.439376,0.038620,0.297271,0.780557,0.334419,0.528105
0.529851,0.029261,0.061190,0.960981,0.253376,0.110979
0.257671,-0.004740,0.165549,-0.840613,-0.041045,-0.540079
0.364473,0.106746,0.289929,0.298636,0.924329,0.237557
0.112541,0.052647,0.362589,0.510437,0.000000,0.859915
0.252519,0.102315,0.267827,-0.318139,0.885964,-0.337425
0.224501,-0.020826,0.210958,-0.716798,-0.180334,-0.673558
0.297780,0.006414,0.071953,-0.970526,0.055540,-0.234509
0.527132,-0.046802,0.010249,0.914027,-0.405264,0.017771
0.350720,-0.017494,0.405075,0.647008,-0.151483,0.747284
0.429307,-0.016257,0.000000,1.000000,0.000000,0.000000
0.337972,-0.108708,0.179494,-0.298078,-0.941323,-0.158307
0.442628,0.112762,0.059320,0.213951,0.976423,0.028673
0.375762,0.111970,0.116409,-0.233877,0.969563,-0.072453
0.358527,-0.001450,0.399961,0.667432,-0.012554,0.744565
0.237997,-0.004826,0.192769,-0.776398,-0.041793,-0.628855
0.232565,-0.067871,0.231608,-0.573279,-0.587709,-0.570919
0.428015,0.039295,0.312999,0.759031,0.340258,0.555065
0.406347,0.049329,0.334122,0.698402,0.427145,0.574267
0.239919,-0.046521,0.362589,0.510437,0.000000,0.859915
0.139466,-0.028340,0.362589,0.510437,0.000000,0.859915
0.309301,-0.060950,0.095012,-0.811940,-0.527773,-0.249415
0.330660,-0.102072,0.160689,-0.420711,-0.883857,-0.204450
0.324833,-0.066923,0.400632,0.513269,-0.579496,0.633040
0.413446,-0.115323,0.109748,0.051118,-0.998600,0.013569
0.505821,0.077719,0.035643,0.737828,0.672983,0.051991
0.305350,0.052839,0.092209,-0.851222,0.457544,-0.257051
0.327869,0.094605,0.137220,-0.529037,0.819205,-0.221413
0.411570,-0.041051,0.333293,0.726380,-0.355469,0.588229
