x,y,z,nx,ny,nz
-5.580601,-8.016876,-0.819096,0.595699,0.803208,0.000000
1.073837,-12.874832,2.774428,-0.000000,-0.000000,1.000000
-0.218454,9.764618,-0.266359,0.049068,-0.998795,0.000000
-11.456730,-11.366795,-2.774428,0.000000,-0.000000,-1.000000
-9.285771,-12.108027,-2.774428,0.000000,-0.000000,-1.000000
-8.171391,-12.171171,-2.774428,0.000000,-0.000000,-1.000000
-1.137233,-16.776164,-2.774428,0.000000,-0.000000,-1.000000
-1.567384,-18.408091,2.774428,-0.000000,-0.000000,1.000000
9.727057,14.969095,2.774428,0.000000,0.000000,1.000000
-13.742530,-8.747696,2.774428,-0.000000,0.000000,1.000000
8.179862,8.149808,-2.774428,-0.000000,0.000000,-1.000000
1.474901,-20.114826,-0.432593,0.049068,-0.998795,0.000000
7.865741,17.969526,2.774428,0.000000,0.000000,1.000000
-6.876748,17.876002,-2.774428,-0.000000,-0.000000,-1.000000
18.622965,-1.704327,-2.774428,0.000000,0.000000,-1.000000
5.980510,-13.335639,2.774428,0.000000,-0.000000,1.000000
10.284194,10.540185,2.774428,0.000000,0.000000,1.000000
-6.198382,13.277046,2.774428,0.000000,0.000000,1.000000
10.089701,-13.929416,2.774428,0.000000,-0.000000,1.000000
-14.439910,-11.509345,2.774428,-0.000000,0.000000,1.000000
-11.369400,10.941362,-2.774428,-0.000000,0.000000,-1.000000
15.716262,-0.359906,-2.774428,0.000000,0.000000,-1.000000
-10.762848,1.828200,2.774428,0.000000,0.000000,1.000000
10.384084,-16.264297,2.774428,0.000000,-0.000000,1.000000
1.188370,10.883152,2.774428,0.000000,-0.000000,1.000000
-8.159113,-18.445457,1.222494,-0.427555,-0.903989,0.000000
-19.526051,-2.350543,2.774428,-0.000000,0.000000,1.000000
3.248638,19.438814,-2.774428,-0.000000,0.000000,-1.000000
-11.809716,-15.057693,2.774428,-0.000000,0.000000,1.000000
9.836799,17.611446,0.137861,0.514103,0.857729,-0.000000
18.057490,-8.979400,-1.397255,0.903989,-0.427555,0.000000
10.629890,17.136085,1.052473,0.514103,0.857729,-0.000000
5.050085,-8.356155,-0.162918,-0.514103,0.857729,0.000000
-11.662683,-0.695686,-2.774428,-0.000000,-0.000000,-1.000000
-17.268070,-6.049573,-2.774428,0.000000,-0.000000,-1.000000
-15.639832,4.441402,-2.774428,-0.000000,0.000000,-1.000000
1.277857,-20.124506,2.217344,0.049068,-0.998795,0.000000
15.868302,8.726700,-2.774428,-0.000000,0.000000,-1.000000
9.018930,9.247902,-2.774428,0.000000,0.000000,-1.000000
-7.025966,7.651458,2.774428,0.000000,0.000000,1.000000
16.080165,-0.485111,2.774428,0.000000,-0.000000,1.000000
10.963191,-5.367592,-2.774428,0.000000,0.000000,-1.000000
-16.805492,-3.183926,2.774428,-0.000000,0.000000,1.000000
-18.568262,7.899465,-2.389867,-0.903989,0.427555,0.000000
-1.881436,9.772954,-2.774428,-0.000000,0.000000,-1.000000
-1.657774,-20.105842,0.105331,-0.049068,-0.998795,0.000000
3.855328,-8.977109,1.950897,-0.427555,0.903989,0.000000
-12.680148,13.204166,-2.774428,-0.000000,-0.000000,-1.000000
5.690386,13.363851,2.774428,0.000000,-0.000000,1.000000
18.796457,7.317745,-0.850382,0.941544,0.336890,-0.000000
-6.697470,-8.218777,2.774428,-0.000000,0.000000,1.000000
7.690263,6.020987,-1.361715,-0.803208,-0.595699,-0.000000
-7.856914,-16.561710,-2.774428,0.000000,-0.000000,-1.000000
-12.239984,-1.663646,-2.774428,0.000000,-0.000000,-1.000000
0.806098,9.735749,-1.362791,-0.049068,-0.998795,0.000000
-16.429504,11.694936,-2.157547,-0.803208,0.595699,0.000000
6.892940,10.729105,-2.774428,0.000000,0.000000,-1.000000
-11.831888,-1.413647,-2.774428,0.000000,-0.000000,-1.000000
5.426813,-9.079402,2.774428,-0.000000,-0.000000,1.000000
17.138184,0.106307,2.774428,0.000000,0.000000,1.000000
-19.900695,3.255399,-1.985158,-0.989177,0.146730,0.000000
8.976230,-15.677354,-2.774428,0.000000,0.000000,-1.000000
19.620036,4.654364,-1.004347,0.970031,0.242980,0.000000
10.118795,-11.298648,-2.774428,0.000000,0.000000,-1.000000
-13.268383,13.919165,2.774428,0.000000,0.000000,1.000000
5.409711,19.430832,-2.549813,0.242980,0.970031,0.000000
12.026067,-10.681561,2.774428,0.000000,-0.000000,1.000000
-10.187443,9.310048,-2.774428,-0.000000,-0.000000,-1.000000
17.080744,0.009181,-2.774428,0.000000,0.000000,-1.000000
-0.463525,17.875744,-2.774428,-0.000000,0.000000,-1.000000
0.127020,20.181043,-2.142698,0.049068,0.998795,-0.000000
9.514521,-2.198504,-1.705029,-0.970031,0.242980,0.000000
8.848603,-13.991267,2.774428,0.000000,-0.000000,1.000000
-9.767873,-2.140162,2.774428,-0.000000,0.000000,1.000000
7.571774,-17.284439,-2.774428,0.000000,0.000000,-1.000000
6.820959,-6.994927,1.907161,-0.671559,0.740951,0.000000
-8.846027,18.120571,1.392271,-0.427555,0.903989,0.000000
11.799389,-5.154559,-2.774428,0.000000,0.000000,-1.000000
-9.842870,-10.881523,-2.774428,0.000000,-0.000000,-1.000000
-14.270181,-7.758614,2.774428,-0.000000,0.000000,1.000000
-7.603628,-18.356158,2.774428,-0.000000,0.000000,1.000000
3.023134,-12.053973,-2.774428,0.000000,0.000000,-1.000000
-20.144467,0.871535,-0.678074,-0.998795,0.049068,0.000000
-10.424097,0.286262,-2.774428,-0.000000,0.000000,-1.000000
4.924871,19.552278,-2.205649,0.242980,0.970031,0.000000
-7.997595,16.360142,2.774428,0.000000,0.000000,1.000000
-10.640779,-10.075033,-2.774428,0.000000,-0.000000,-1.000000
5.104618,8.323469,0.912078,-0.514103,-0.857729,0.000000
-15.242217,5.311405,2.774428,0.000000,0.000000,1.000000
-0.053362,14.209636,2.774428,0.000000,0.000000,1.000000
14.497753,-11.014897,-2.774428,0.000000,0.000000,-1.000000
-3.250018,-19.193432,2.774428,-0.000000,0.000000,1.000000
1.843554,-15.238137,2.774428,0.000000,-0.000000,1.000000
18.290467,-8.486813,2.571255,0.903989,-0.427555,0.000000
3.284956,18.801435,2.774428,0.000000,0.000000,1.000000
-19.844628,-3.633373,1.476518,-0.989177,-0.146730,0.000000
9.486440,2.310607,-2.733518,-0.970031,-0.242980,-0.000000
-17.519857,0.268541,-2.774428,-0.000000,-0.000000,-1.000000
19.499235,-0.185715,2.774428,0.000000,-0.000000,1.000000
-3.303049,14.654180,2.774428,0.000000,0.000000,1.000000
18.899141,-3.660551,-2.774428,0.000000,0.000000,-1.000000
2.573899,19.384183,-2.774428,-0.000000,0.000000,-1.000000
-8.490265,-18.288834,0.629518,-0.427555,-0.903989,0.000000
9.780445,-7.503511,-2.774428,0.000000,0.000000,-1.000000
16.465715,11.646111,0.655001,0.803208,0.595699,0.000000
-7.281714,-8.610327,-2.774428,0.000000,-0.000000,-1.000000
19.589924,-2.416336,2.774428,0.000000,-0.000000,1.000000
-11.641092,9.697813,-2.774428,-0.000000,-0.000000,-1.000000
7.416158,-6.356203,0.933779,-0.740951,0.671559,0.000000
-7.880645,-17.763546,2.774428,-0.000000,0.000000,1.000000
-6.277860,-8.047573,-2.774428,0.000000,-0.000000,-1.000000
-4.555294,18.008555,-2.774428,-0.000000,-0.000000,-1.000000
-10.490269,4.384625,-2.774428,-0.000000,-0.000000,-1.000000
11.294374,12.258242,-2.774428,-0.000000,0.000000,-1.000000
-7.909879,18.563336,0.165071,-0.427555,0.903989,0.000000
2.131249,-20.067447,0.023370,0.146730,-0.989177,0.000000
-11.805733,-13.695832,-2.774428,0.000000,-0.000000,-1.000000
20.147236,0.815164,1.173323,0.998795,0.049068,-0.000000
19.851699,-3.585701,1.557265,0.989177,-0.146730,0.000000
4.139100,-8.842895,-2.191164,-0.427555,0.903989,0.000000
-10.358485,9.713876,-2.774428,-0.000000,0.000000,-1.000000
-4.490802,-14.516216,-2.774428,0.000000,-0.000000,-1.000000
16.360867,11.787482,1.878018,0.803208,0.595699,-0.000000
-19.802060,-3.920340,-1.373032,-0.989177,-0.146730,0.000000
-1.933944,11.563499,2.774428,0.000000,0.000000,1.000000
-12.048800,3.250464,2.774428,0.000000,0.000000,1.000000
6.912320,6.912102,0.062445,-0.740951,-0.671559,-0.000000
-20.149133,0.776563,0.300527,-0.998795,0.049068,0.000000
1.719056,-10.744518,-2.774428,0.000000,0.000000,-1.000000
8.303075,-5.138642,1.351434,-0.857729,0.514103,0.000000
8.625365,-4.599027,0.256422,-0.903989,0.427555,0.000000
10.429552,1.305174,-2.774428,0.000000,0.000000,-1.000000
-9.514448,2.198794,0.290630,0.970031,-0.242980,0.000000
-11.293299,-8.733822,2.774428,-0.000000,0.000000,1.000000
-7.276432,7.933045,2.774428,0.000000,0.000000,1.000000
7.090706,-17.711585,2.774428,0.000000,-0.000000,1.000000
-10.853942,-11.792724,-2.774428,0.000000,-0.000000,-1.000000
-15.706869,12.669296,1.191754,-0.803208,0.595699,0.000000
12.715793,8.992946,2.774428,0.000000,0.000000,1.000000
20.107154,1.631065,-2.247367,0.998795,0.049068,0.000000
-1.024211,-15.717684,2.774428,-0.000000,-0.000000,1.000000
-16.020512,-12.246397,-1.736559,-0.803208,-0.595699,0.000000
-0.617684,-15.177476,-2.774428,0.000000,-0.000000,-1.000000
11.406218,-16.643631,1.376358,0.595699,-0.803208,0.000000
-14.640136,0.051746,-2.774428,-0.000000,-0.000000,-1.000000
14.499802,12.438889,-2.774428,-0.000000,0.000000,-1.000000
-11.320504,16.636866,-2.774428,-0.000000,-0.000000,-1.000000
-10.582257,8.764747,-2.774428,-0.000000,-0.000000,-1.000000
-14.847421,-13.642515,-0.460633,-0.740951,-0.671559,0.000000
-8.996275,-15.839131,-2.774428,0.000000,-0.000000,-1.000000
18.219832,-1.926873,-2.774428,0.000000,0.000000,-1.000000
7.928347,-14.618314,-2.774428,0.000000,0.000000,-1.000000
10.554463,2.471949,-2.774428,0.000000,0.000000,-1.000000
20.150636,0.745956,1.382847,0.998795,0.049068,-0.000000
8.056578,7.052835,2.774428,0.000000,-0.000000,1.000000
-14.247263,14.299310,-0.064683,-0.671559,0.740951,0.000000
-18.743097,-6.934353,2.774428,-0.000000,0.000000,1.000000
7.575969,-18.704063,0.905090,0.336890,-0.941544,0.000000
-20.182970,0.087798,-1.054920,-0.998795,0.049068,0.000000
1.998210,18.913685,-2.774428,-0.000000,0.000000,-1.000000
6.280898,-17.141580,-2.774428,0.000000,0.000000,-1.000000
-12.151407,0.236690,2.774428,0.000000,0.000000,1.000000
9.226071,5.975012,2.774428,0.000000,-0.000000,1.000000
0.591597,-20.158219,2.222644,0.049068,-0.998795,0.000000
-8.534293,9.126985,-2.774428,-0.000000,-0.000000,-1.000000
9.079518,7.167304,-2.774428,-0.000000,0.000000,-1.000000
-6.525755,7.262485,1.372403,0.671559,-0.740951,0.000000
10.406646,9.059664,-2.774428,0.000000,0.000000,-1.000000
-19.621467,4.648650,1.480327,-0.970031,0.242980,0.000000
-5.410816,16.353124,-2.774428,-0.000000,-0.000000,-1.000000
8.098430,-15.668990,-2.774428,0.000000,0.000000,-1.000000
6.373779,-19.134213,-0.511703,0.336890,-0.941544,0.000000
-1.358783,-20.120530,2.457591,-0.049068,-0.998795,0.000000
17.040695,5.773759,-2.774428,-0.000000,0.000000,-1.000000
9.407746,-3.806800,-2.774428,0.000000,0.000000,-1.000000
8.353561,-13.979591,-2.774428,0.000000,0.000000,-1.000000
-7.953117,-13.017569,-2.774428,0.000000,-0.000000,-1.000000
13.818345,10.882764,2.774428,0.000000,0.000000,1.000000
-7.415835,-6.356559,0.424972,0.740951,0.671559,0.000000
-5.790064,-7.861528,-2.537109,0.595699,0.803208,0.000000
14.207985,-3.789311,-2.774428,0.000000,0.000000,-1.000000
4.057762,19.358203,2.774428,0.000000,0.000000,1.000000
-19.914619,3.161532,0.815679,-0.989177,0.146730,0.000000
-12.648519,-15.722278,2.671910,-0.595699,-0.803208,0.000000
-2.649244,12.843635,2.774428,0.000000,0.000000,1.000000
-11.374866,14.310100,2.774428,0.000000,0.000000,1.000000
-6.187498,-10.413033,-2.774428,0.000000,-0.000000,-1.000000
6.265856,-13.396399,2.774428,0.000000,-0.000000,1.000000
-15.986771,0.229752,-2.774428,-0.000000,-0.000000,-1.000000
-8.510001,10.571386,-2.774428,-0.000000,-0.000000,-1.000000
-7.864134,-14.233533,-2.774428,0.000000,-0.000000,-1.000000
-18.603982,7.823940,-0.499943,-0.903989,0.427555,0.000000
3.700249,11.728364,2.774428,0.000000,-0.000000,1.000000
18.412701,-2.790390,2.774428,0.000000,-0.000000,1.000000
5.034965,19.524700,-0.065367,0.242980,0.970031,0.000000
10.662730,9.074002,-2.774428,0.000000,0.000000,-1.000000
-18.141816,-8.801108,1.640181,-0.903989,-0.427555,0.000000
19.158860,6.304895,-1.980209,0.941544,0.336890,0.000000
12.726832,-7.625045,-2.774428,0.000000,0.000000,-1.000000
19.435224,-5.392174,-0.710697,0.970031,-0.242980,0.000000
-13.969573,14.550993,1.521348,-0.671559,0.740951,0.000000
-0.583163,-9.746701,-0.014084,0.049068,0.998795,0.000000
-2.033205,12.118584,2.774428,0.000000,0.000000,1.000000
9.534080,2.120420,-0.840384,-0.970031,-0.242980,0.000000
-12.536065,-1.411289,2.774428,-0.000000,0.000000,1.000000
6.511201,12.208676,-2.774428,0.000000,0.000000,-1.000000
-20.119860,1.372429,-1.819088,-0.998795,0.049068,0.000000
12.909892,13.772583,2.774428,0.000000,0.000000,1.000000
-17.475441,-10.063709,1.501237,-0.857729,-0.514103,0.000000
-13.944647,-13.631846,-2.774428,0.000000,-0.000000,-1.000000
0.834264,-13.594230,2.774428,-0.000000,-0.000000,1.000000
10.705927,-6.402372,-2.774428,0.000000,0.000000,-1.000000
-6.199655,-11.288040,-2.774428,0.000000,-0.000000,-1.000000
3.190151,19.910374,1.578281,0.146730,0.989177,-0.000000
18.050216,8.994780,-0.667327,0.903989,0.427555,-0.000000
18.030015,-9.037492,0.659467,0.903989,-0.427555,0.000000
-2.598800,-19.998092,0.897805,-0.146730,-0.989177,0.000000
-6.873719,6.947109,1.964414,0.671559,-0.740951,0.000000
-5.479221,-12.280149,2.774428,-0.000000,0.000000,1.000000
10.333905,1.401492,2.774428,0.000000,-0.000000,1.000000
-4.054046,-11.477288,2.774428,-0.000000,0.000000,1.000000
-13.479666,-13.975331,2.774428,-0.000000,0.000000,1.000000
17.673625,-1.184680,-2.774428,0.000000,0.000000,-1.000000
-9.250637,-7.565004,2.774428,-0.000000,0.000000,1.000000
7.439339,-16.664079,2.774428,0.000000,-0.000000,1.000000
1.722279,17.713748,2.774428,0.000000,0.000000,1.000000
-8.587558,4.664011,-1.634332,0.857729,-0.514103,0.000000
-11.051129,3.060124,-2.774428,-0.000000,0.000000,-1.000000
-15.324190,13.116481,1.774378,-0.740951,0.671559,0.000000
-14.964537,-2.699299,-2.774428,0.000000,-0.000000,-1.000000
-8.371175,-5.025024,-0.822164,0.857729,0.514103,0.000000
-14.867367,-3.368857,2.774428,-0.000000,0.000000,1.000000
10.963710,13.034657,-2.774428,-0.000000,0.000000,-1.000000
9.665965,-1.378241,2.242721,-0.989177,0.146730,0.000000
-2.643568,-13.951347,-2.774428,0.000000,-0.000000,-1.000000
18.237581,-8.598631,-1.271568,0.903989,-0.427555,0.000000
-9.021082,-4.017999,2.774428,-0.000000,0.000000,1.000000
11.496254,16.576856,2.070074,0.595699,0.803208,-0.000000
-6.927373,-18.936134,2.044992,-0.336890,-0.941544,0.000000
-9.314327,17.899082,-0.303126,-0.427555,0.903989,0.000000
11.814484,8.029969,2.774428,0.000000,0.000000,1.000000
16.691398,11.198150,2.774428,0.000000,0.000000,1.000000
-14.861778,-2.648615,-2.774428,0.000000,-0.000000,-1.000000
-16.516101,-11.578173,1.755051,-0.803208,-0.595699,0.000000
-15.717309,-7.685514,-2.774428,0.000000,-0.000000,-1.000000
13.329463,15.131155,0.725967,0.671559,0.740951,-0.000000
-14.651174,-4.195800,2.774428,-0.000000,0.000000,1.000000
9.443132,-16.035441,2.774428,0.000000,-0.000000,1.000000
9.363455,2.801594,1.006700,-0.970031,-0.242980,-0.000000
-17.742439,-5.603232,-2.774428,0.000000,-0.000000,-1.000000
2.248148,18.021213,-2.774428,-0.000000,0.000000,-1.000000
3.235319,17.394081,-2.774428,0.000000,0.000000,-1.000000
10.201638,-3.682732,-2.774428,0.000000,0.000000,-1.000000
18.435278,-8.180635,1.571641,0.903989,-0.427555,0.000000
-10.531573,-14.426676,2.774428,-0.000000,0.000000,1.000000
15.416839,11.528135,2.774428,0.000000,0.000000,1.000000
-10.869858,-8.933192,2.774428,-0.000000,0.000000,1.000000
-13.684551,14.809322,1.627100,-0.671559,0.740951,0.000000
-15.214114,-13.237931,1.688457,-0.740951,-0.671559,0.000000
-18.558044,-4.773497,2.774428,-0.000000,0.000000,1.000000
-11.645953,-5.875854,2.774428,-0.000000,0.000000,1.000000
-18.810826,7.277585,2.468668,-0.941544,0.336890,0.000000
-5.290105,-9.279457,2.774428,-0.000000,0.000000,1.000000
-6.997881,6.817700,-2.724258,0.740951,-0.671559,0.000000
9.033187,8.878671,2.774428,0.000000,-0.000000,1.000000
-14.611040,-11.135677,-2.774428,0.000000,-0.000000,-1.000000
20.160276,0.549743,2.592744,0.998795,0.049068,-0.000000
-10.113511,-2.754546,2.774428,-0.000000,0.000000,1.000000
11.777754,-10.159252,-2.774428,0.000000,0.000000,-1.000000
-2.384636,19.339023,2.774428,0.000000,0.000000,1.000000
-6.562161,-18.018355,-2.774428,0.000000,-0.000000,-1.000000
12.895853,-4.944993,2.774428,0.000000,-0.000000,1.000000
-11.593535,-10.359204,2.774428,-0.000000,0.000000,1.000000
-6.715545,-17.269471,-2.774428,0.000000,-0.000000,-1.000000
18.031779,9.033762,2.448013,0.903989,0.427555,-0.000000
6.127612,-10.453425,2.774428,-0.000000,-0.000000,1.000000
-20.130819,1.149347,-2.291905,-0.998795,0.049068,0.000000
-10.833858,4.308771,-2.774428,-0.000000,0.000000,-1.000000
-5.191536,-19.485481,1.730164,-0.242980,-0.970031,0.000000
3.523600,9.979686,2.774428,0.000000,-0.000000,1.000000
14.336516,1.802861,-2.774428,0.000000,0.000000,-1.000000
-16.454358,11.661424,-0.437917,-0.803208,0.595699,0.000000
3.967949,-8.923843,-2.029873,-0.427555,0.903989,0.000000
-5.163322,18.798394,2.774428,0.000000,0.000000,1.000000
-10.679423,3.623897,2.774428,0.000000,0.000000,1.000000
-2.420754,-15.781785,2.774428,-0.000000,0.000000,1.000000
10.370459,16.252909,2.774428,0.000000,0.000000,1.000000
8.303572,5.137814,-2.260747,-0.857729,-0.514103,-0.000000
11.706883,16.420643,1.534493,0.595699,0.803208,-0.000000
-12.130264,10.256763,2.774428,0.000000,0.000000,1.000000
13.672503,-7.623140,2.774428,-0.000000,-0.000000,1.000000
7.325640,15.181940,2.774428,0.000000,0.000000,1.000000
18.325008,-3.034103,-2.774428,0.000000,0.000000,-1.000000
-4.981975,16.305761,-2.774428,-0.000000,0.000000,-1.000000
-3.160786,-16.308143,2.774428,-0.000000,0.000000,1.000000
-7.858121,-7.926087,-2.774428,0.000000,-0.000000,-1.000000
-8.814893,-4.198304,-1.723801,0.903989,0.427555,0.000000
-2.061221,-16.993621,2.774428,-0.000000,0.000000,1.000000
-4.703172,19.607810,1.226502,-0.242980,0.970031,0.000000
-4.411765,-10.304941,-2.774428,0.000000,-0.000000,-1.000000
3.027959,-9.286327,0.820298,-0.336890,0.941544,0.000000
2.097246,11.990320,-2.774428,0.000000,0.000000,-1.000000
-14.844196,12.147602,-2.774428,-0.000000,0.000000,-1.000000
19.965053,2.821535,-0.042268,0.989177,0.146730,0.000000
-7.519232,8.625259,2.774428,0.000000,0.000000,1.000000
-10.569341,-10.186321,2.774428,-0.000000,0.000000,1.000000
2.549669,-20.005380,-2.279557,0.146730,-0.989177,0.000000
-8.901902,-5.677199,-2.774428,0.000000,-0.000000,-1.000000
-4.459669,-10.405792,2.774428,-0.000000,0.000000,1.000000
-11.794917,-12.230551,2.774428,-0.000000,0.000000,1.000000
-20.135363,-1.056854,-1.757945,-0.998795,-0.049068,0.000000
-17.029768,6.870141,-2.774428,-0.000000,-0.000000,-1.000000
-7.661661,18.673401,0.873125,-0.336890,0.941544,0.000000
-17.084062,8.530950,2.774428,0.000000,0.000000,1.000000
-11.911590,15.641157,2.774428,0.000000,0.000000,1.000000
-6.742137,-13.327515,2.774428,-0.000000,0.000000,1.000000
11.183608,-6.465304,2.774428,-0.000000,-0.000000,1.000000
-15.217214,-13.234511,-0.119149,-0.740951,-0.671559,0.000000
-9.115088,10.746931,-2.774428,-0.000000,0.000000,-1.000000
-3.144319,15.181050,-2.774428,-0.000000,0.000000,-1.000000
11.008695,-16.056183,-2.774428,0.000000,0.000000,-1.000000
16.850613,7.186517,-2.774428,-0.000000,0.000000,-1.000000
4.579621,-13.546370,-2.774428,0.000000,0.000000,-1.000000
-14.315899,3.186822,-2.774428,-0.000000,-0.000000,-1.000000
16.098726,-9.509000,2.774428,0.000000,-0.000000,1.000000
14.156723,2.472913,2.774428,0.000000,-0.000000,1.000000
-9.502115,4.342805,-2.774428,-0.000000,0.000000,-1.000000
0.380126,-17.778734,-2.774428,0.000000,0.000000,-1.000000
-17.340456,-10.288919,1.878626,-0.857729,-0.514103,0.000000
8.265833,-5.200777,0.603757,-0.857729,0.514103,0.000000
-9.356435,14.223127,-2.774428,-0.000000,-0.000000,-1.000000
4.603464,19.632786,-1.882460,0.242980,0.970031,0.000000
-3.370308,19.883650,1.617295,-0.146730,0.989177,0.000000
-17.167508,7.156733,2.774428,0.000000,0.000000,1.000000
19.741795,-4.168276,-0.873937,0.970031,-0.242980,0.000000
0.891018,-20.050001,-2.774428,0.000000,0.000000,-1.000000
6.804498,-17.132891,-2.774428,0.000000,0.000000,-1.000000
-5.799474,19.161366,-2.774428,-0.000000,-0.000000,-1.000000
18.835866,-1.149849,2.774428,0.000000,-0.000000,1.000000
-6.076362,14.450175,2.774428,0.000000,0.000000,1.000000
14.218400,-6.176401,-2.774428,0.000000,0.000000,-1.000000
9.671640,12.480736,-2.774428,-0.000000,0.000000,-1.000000
10.412622,5.081639,2.774428,0.000000,-0.000000,1.000000
10.575269,-9.567667,-2.774428,0.000000,0.000000,-1.000000
-15.344844,12.137331,2.774428,0.000000,0.000000,1.000000
-19.729767,-4.216291,-2.562713,-0.970031,-0.242980,0.000000
9.642295,-1.537810,0.776554,-0.989177,0.146730,0.000000
-10.824406,-17.019497,1.654051,-0.514103,-0.857729,0.000000
-7.643775,-16.437186,-2.774428,0.000000,-0.000000,-1.000000
18.123463,-2.348581,-2.774428,0.000000,0.000000,-1.000000
-10.052612,17.482092,0.323292,-0.514103,0.857729,0.000000
-11.864507,16.303742,2.485431,-0.595699,0.803208,0.000000
9.096029,-6.418219,2.774428,-0.000000,-0.000000,1.000000
-11.448548,14.994913,2.774428,0.000000,0.000000,1.000000
-13.208551,-12.811286,-2.774428,0.000000,-0.000000,-1.000000
7.846529,-5.810287,1.857862,-0.803208,0.595699,0.000000
6.656956,7.143571,1.378187,-0.671559,-0.740951,0.000000
7.447691,-13.154842,2.774428,0.000000,-0.000000,1.000000
-0.526250,11.336754,-2.774428,-0.000000,0.000000,-1.000000
-17.548246,-9.942242,-1.730454,-0.857729,-0.514103,0.000000
-2.518747,9.600433,2.774428,0.000000,0.000000,1.000000
-3.400993,10.881464,2.774428,0.000000,0.000000,1.000000
-20.106824,-1.637781,2.625648,-0.998795,-0.049068,0.000000
15.575744,-9.768911,-2.774428,0.000000,0.000000,-1.000000
14.126642,-9.454232,-2.774428,0.000000,0.000000,-1.000000
16.493090,0.500817,-2.774428,0.000000,0.000000,-1.000000
-0.910482,18.202777,-2.774428,-0.000000,0.000000,-1.000000
17.131143,4.495106,2.774428,0.000000,0.000000,1.000000
15.043365,-13.426324,2.471513,0.740951,-0.671559,0.000000
-0.698083,17.888117,-2.774428,-0.000000,0.000000,-1.000000
15.782369,-4.983793,2.774428,-0.000000,-0.000000,1.000000
20.036781,-2.337980,1.054241,0.989177,-0.146730,0.000000
3.672710,-19.838793,0.311727,0.146730,-0.989177,0.000000
-4.625005,-12.372879,2.774428,-0.000000,0.000000,1.000000
9.707973,1.095048,1.233308,-0.989177,-0.146730,0.000000
-18.706348,-2.238949,2.774428,-0.000000,0.000000,1.000000
-8.886838,13.401978,-2.774428,-0.000000,-0.000000,-1.000000
-12.662737,15.642321,2.774428,0.000000,0.000000,1.000000
9.177119,3.333177,1.375988,-0.941544,-0.336890,0.000000
-3.142526,9.245335,-2.706285,0.336890,-0.941544,0.000000
-10.349521,-15.214804,2.774428,-0.000000,0.000000,1.000000
-18.444107,-0.889965,-2.774428,0.000000,-0.000000,-1.000000
13.730227,-14.767923,-2.252278,0.671559,-0.740951,0.000000
-20.062696,-2.163277,2.473688,-0.989177,-0.146730,0.000000
-13.417153,-5.989622,-2.774428,0.000000,-0.000000,-1.000000
-1.812163,-11.722622,-2.774428,0.000000,-0.000000,-1.000000
-2.261393,-14.306157,2.774428,-0.000000,0.000000,1.000000
8.012136,-12.695063,2.774428,-0.000000,-0.000000,1.000000
-16.731896,11.287206,1.945715,-0.803208,0.595699,0.000000
-10.204766,16.147369,2.774428,0.000000,0.000000,1.000000
20.116922,1.432235,-0.355595,0.998795,0.049068,-0.000000
-10.468587,-8.508259,2.774428,-0.000000,0.000000,1.000000
-6.076238,-7.649287,2.166728,0.595699,0.803208,0.000000
-10.953629,-11.597176,-2.774428,0.000000,-0.000000,-1.000000
14.120812,3.600543,-2.774428,-0.000000,0.000000,-1.000000
-8.308930,5.128875,-2.168022,0.857729,-0.514103,0.000000
-2.955873,19.945125,-0.487465,-0.146730,0.989177,0.000000
9.761823,0.275347,1.637917,-0.998795,-0.049068,0.000000
2.799889,-9.363882,1.968904,-0.242980,0.970031,0.000000
-19.153357,6.320276,-1.741989,-0.941544,0.336890,0.000000
-15.188693,-9.760903,-2.774428,0.000000,-0.000000,-1.000000
17.944385,0.017656,-2.774428,0.000000,0.000000,-1.000000
12.049285,-4.443620,2.774428,0.000000,-0.000000,1.000000
-1.794800,10.836947,-2.774428,-0.000000,0.000000,-1.000000
12.128321,-0.917077,-2.774428,0.000000,0.000000,-1.000000
-13.580400,0.107830,2.774428,0.000000,0.000000,1.000000
13.260534,-15.193628,2.320936,0.671559,-0.740951,0.000000
-3.031460,-9.285075,-1.890732,0.336890,0.941544,0.000000
-19.457041,5.305077,1.516484,-0.970031,0.242980,0.000000
16.328646,9.551990,2.774428,0.000000,0.000000,1.000000
13.309083,7.836313,2.774428,0.000000,0.000000,1.000000
1.173340,13.892953,-2.774428,0.000000,0.000000,-1.000000
-12.320729,11.475022,-2.774428,-0.000000,-0.000000,-1.000000
-11.493739,16.578721,-0.209500,-0.595699,0.803208,0.000000
-6.740858,-7.809535,-2.774428,0.000000,-0.000000,-1.000000
12.932085,-5.338545,2.774428,0.000000,-0.000000,1.000000
17.833845,9.452259,2.569842,0.903989,0.427555,-0.000000
-14.202851,12.873954,-2.774428,-0.000000,-0.000000,-1.000000
16.639337,-11.412009,-0.740038,0.803208,-0.595699,0.000000
11.966881,-4.532260,-2.774428,0.000000,0.000000,-1.000000
8.778202,-15.365143,-2.774428,0.000000,0.000000,-1.000000
-16.066712,-1.886522,-2.774428,0.000000,-0.000000,-1.000000
-15.669393,-12.719827,-1.797842,-0.803208,-0.595699,0.000000
-11.968432,7.512059,2.774428,0.000000,0.000000,1.000000
4.055026,-11.336821,-2.774428,0.000000,0.000000,-1.000000
3.718537,-9.097558,-2.774428,0.000000,0.000000,-1.000000
-15.726102,12.643363,-1.095786,-0.803208,0.595699,0.000000
-2.292999,12.771287,-2.774428,-0.000000,-0.000000,-1.000000
1.831564,-17.754736,2.774428,0.000000,-0.000000,1.000000
14.378606,5.825629,-2.774428,-0.000000,0.000000,-1.000000
-9.770541,-0.097888,-0.344850,0.998795,0.049068,0.000000
-7.542531,-11.847698,2.774428,-0.000000,0.000000,1.000000
8.609672,10.440305,2.774428,0.000000,-0.000000,1.000000
-4.977799,15.657247,2.774428,0.000000,0.000000,1.000000
-14.078006,10.247280,-2.774428,-0.000000,-0.000000,-1.000000
-16.146165,12.076974,0.085531,-0.803208,0.595699,0.000000
13.366950,7.106101,-2.774428,-0.000000,0.000000,-1.000000
14.572568,8.126405,2.774428,0.000000,0.000000,1.000000
-14.253928,6.423003,-2.774428,-0.000000,-0.000000,-1.000000
-8.507163,-9.564425,2.774428,-0.000000,0.000000,1.000000
1.432894,-16.357360,2.774428,-0.000000,-0.000000,1.000000
4.297929,-14.813406,-2.774428,0.000000,0.000000,-1.000000
10.930666,13.520498,2.774428,0.000000,0.000000,1.000000
10.359208,-3.715765,-2.774428,0.000000,0.000000,-1.000000
17.339410,-10.290664,2.450986,0.857729,-0.514103,0.000000
-4.004581,8.906517,1.190548,0.427555,-0.903989,0.000000
0.589060,9.746412,-1.038149,-0.049068,-0.998795,-0.000000
12.041590,-14.825356,2.774428,-0.000000,-0.000000,1.000000
-9.314736,-17.898888,0.195171,-0.427555,-0.903989,0.000000
-13.305786,0.078704,2.774428,0.000000,0.000000,1.000000
6.369112,-7.404458,-2.470916,-0.671559,0.740951,0.000000
19.332302,-5.803061,-1.925542,0.970031,-0.242980,0.000000
-4.455214,-16.995768,2.774428,-0.000000,0.000000,1.000000
-10.739155,-17.070594,2.457652,-0.514103,-0.857729,0.000000
-5.225147,16.757819,2.774428,0.000000,0.000000,1.000000
13.339661,1.442001,2.774428,0.000000,0.000000,1.000000
17.364269,9.276769,2.774428,0.000000,-0.000000,1.000000
-18.073466,-8.809801,2.774428,-0.000000,0.000000,1.000000
6.864165,15.608555,2.774428,0.000000,0.000000,1.000000
-17.499931,6.156694,2.774428,0.000000,0.000000,1.000000
3.565293,-19.854727,-1.801722,0.146730,-0.989177,0.000000
13.964106,14.555948,0.999469,0.671559,0.740951,0.000000
18.083725,7.949628,-2.774428,-0.000000,0.000000,-1.000000
-11.592926,-11.758472,2.774428,-0.000000,0.000000,1.000000
-1.925994,-15.491616,2.774428,-0.000000,0.000000,1.000000
6.148597,11.880713,-2.774428,0.000000,0.000000,-1.000000
-10.026013,-2.885624,-2.774428,0.000000,-0.000000,-1.000000
6.039716,18.895187,-2.774428,-0.000000,0.000000,-1.000000
13.340476,-4.323647,2.774428,-0.000000,-0.000000,1.000000
-3.507868,-9.838735,2.774428,-0.000000,0.000000,1.000000
-8.864065,16.584790,-2.774428,-0.000000,-0.000000,-1.000000
-8.051624,-18.396136,2.774428,-0.000000,0.000000,1.000000
13.799199,14.516817,-2.774428,-0.000000,0.000000,-1.000000
5.647216,-8.256713,2.774428,-0.000000,-0.000000,1.000000
11.827285,7.541999,2.774428,0.000000,-0.000000,1.000000
-11.478740,11.270205,-2.774428,-0.000000,0.000000,-1.000000
-8.878964,11.216940,2.774428,0.000000,0.000000,1.000000
-16.301231,11.867892,-0.424184,-0.803208,0.595699,0.000000
-9.959016,17.538192,-1.334157,-0.514103,0.857729,0.000000
-16.609867,-7.923548,-2.774428,0.000000,-0.000000,-1.000000
-13.396071,14.442884,-2.774428,-0.000000,-0.000000,-1.000000
-17.450796,2.128290,2.774428,0.000000,0.000000,1.000000
-15.327695,-13.112615,-0.926019,-0.740951,-0.671559,0.000000
-10.688936,12.979320,2.774428,0.000000,0.000000,1.000000
14.335435,-1.209160,-2.774428,0.000000,0.000000,-1.000000
-14.196070,-2.478244,2.774428,-0.000000,0.000000,1.000000
5.975138,12.080028,-2.774428,0.000000,0.000000,-1.000000
-6.515904,14.803161,-2.774428,-0.000000,0.000000,-1.000000
-8.658987,18.209035,2.064640,-0.427555,0.903989,0.000000
18.936872,6.925310,-2.419827,0.941544,0.336890,0.000000
12.511818,-15.823663,0.242175,0.595699,-0.803208,0.000000
-8.487079,-15.239102,2.774428,-0.000000,0.000000,1.000000
15.859635,7.541693,2.774428,0.000000,0.000000,1.000000
-3.222808,9.216609,2.368645,0.336890,-0.941544,0.000000
-7.395608,-11.425980,-2.774428,0.000000,-0.000000,-1.000000
-14.195750,14.345997,-1.741098,-0.671559,0.740951,0.000000
-18.843063,-7.187490,0.296984,-0.941544,-0.336890,0.000000
15.216818,3.769951,-2.774428,-0.000000,0.000000,-1.000000
11.848213,-4.792452,-2.774428,0.000000,0.000000,-1.000000
-3.778828,-13.469272,2.774428,-0.000000,0.000000,1.000000
-11.834221,12.990546,-2.774428,-0.000000,-0.000000,-1.000000
-14.520699,13.514637,2.774428,0.000000,0.000000,1.000000
19.235717,-1.779265,2.774428,0.000000,-0.000000,1.000000
-16.796354,-1.365306,2.774428,-0.000000,0.000000,1.000000
-1.207907,-9.691232,-0.030991,0.146730,0.989177,0.000000
4.717067,19.055483,2.774428,0.000000,0.000000,1.000000
-4.156148,-17.178244,-2.774428,0.000000,-0.000000,-1.000000
-8.843066,18.121972,-1.229317,-0.427555,0.903989,0.000000
-12.337586,-13.505939,-2.774428,0.000000,-0.000000,-1.000000
19.854388,3.567573,2.684958,0.989177,0.146730,-0.000000
-3.998721,10.910117,2.774428,0.000000,0.000000,1.000000
-10.802199,17.007120,2.774428,0.000000,0.000000,1.000000
8.469188,-4.861500,2.097145,-0.857729,0.514103,0.000000
-19.095009,-0.163449,-2.774428,0.000000,-0.000000,-1.000000
14.333662,12.441187,2.774428,0.000000,0.000000,1.000000
-18.059985,-8.974127,0.728813,-0.903989,-0.427555,0.000000
20.029936,-2.384130,1.076873,0.989177,-0.146730,0.000000
1.269435,9.682105,0.332761,-0.146730,-0.989177,-0.000000
-0.504198,-17.106971,2.774428,-0.000000,-0.000000,1.000000
-2.816782,-16.674714,2.774428,-0.000000,0.000000,1.000000
-7.095811,18.813271,-2.774428,-0.000000,-0.000000,-1.000000
16.840926,7.675992,-2.774428,-0.000000,0.000000,-1.000000
-5.209059,-15.049690,2.774428,-0.000000,0.000000,1.000000
15.972231,-2.886368,2.774428,0.000000,-0.000000,1.000000
-19.980741,-2.715770,1.674881,-0.989177,-0.146730,0.000000
12.979276,1.147796,2.774428,0.000000,-0.000000,1.000000
16.957173,9.238503,-2.774428,-0.000000,0.000000,-1.000000
-0.020456,9.855992,2.774428,0.000000,0.000000,1.000000
-17.965195,-9.174542,2.537545,-0.903989,-0.427555,0.000000
-14.570508,6.755467,2.774428,0.000000,0.000000,1.000000
-8.661365,-18.207910,1.973315,-0.427555,-0.903989,0.000000
18.752334,6.648490,2.774428,0.000000,0.000000,1.000000
4.766185,17.439330,2.774428,0.000000,0.000000,1.000000
-19.059166,6.583521,-1.797691,-0.941544,0.336890,0.000000
-18.151538,-0.635474,2.774428,-0.000000,0.000000,1.000000
-14.596741,2.578912,-2.774428,-0.000000,0.000000,-1.000000
11.999543,-11.141836,-2.774428,0.000000,0.000000,-1.000000
-17.239387,-4.061928,2.774428,-0.000000,0.000000,1.000000
15.506259,12.915599,0.894934,0.740951,0.671559,0.000000
-16.664042,11.378697,0.779688,-0.803208,0.595699,0.000000
15.473252,-6.312361,2.774428,0.000000,-0.000000,1.000000
-14.545887,-13.975206,-1.995066,-0.740951,-0.671559,0.000000
-1.969206,-9.571957,1.960897,0.242980,0.970031,0.000000
18.576561,-2.157975,2.774428,0.000000,-0.000000,1.000000
1.446754,20.116208,0.591205,0.049068,0.998795,0.000000
-9.532735,2.125789,0.789024,0.970031,-0.242980,0.000000
-11.374243,16.667346,0.733265,-0.595699,0.803208,0.000000
11.687655,-3.708924,-2.774428,0.000000,0.000000,-1.000000
-17.573985,-8.786661,2.774428,-0.000000,0.000000,1.000000
-12.431818,15.882995,0.038460,-0.595699,0.803208,0.000000
6.521959,13.113987,-2.774428,0.000000,0.000000,-1.000000
-0.476226,20.163887,0.273632,-0.049068,0.998795,0.000000
-11.503556,-13.198206,2.774428,-0.000000,0.000000,1.000000
-0.879987,-18.753784,-2.774428,0.000000,-0.000000,-1.000000
-8.942128,-10.896839,-2.774428,0.000000,-0.000000,-1.000000
11.227552,1.329020,2.774428,0.000000,0.000000,1.000000
15.195145,-13.258860,0.001911,0.740951,-0.671559,0.000000
14.036341,14.401104,2.774428,0.000000,0.000000,1.000000
-13.475514,-2.874833,2.774428,-0.000000,0.000000,1.000000
15.597376,-7.638279,2.774428,0.000000,-0.000000,1.000000
17.733100,9.633831,-1.111454,0.857729,0.514103,0.000000
17.409435,8.728925,-2.774428,-0.000000,0.000000,-1.000000
-1.779465,15.519854,2.774428,0.000000,0.000000,1.000000
-13.042559,-2.471236,-2.774428,0.000000,-0.000000,-1.000000
-14.478949,7.827630,-2.774428,-0.000000,-0.000000,-1.000000
-8.698636,7.112028,2.774428,0.000000,0.000000,1.000000
9.195055,3.283048,0.271791,-0.941544,-0.336890,0.000000
-12.339246,-15.951651,-0.132678,-0.595699,-0.803208,0.000000
10.762201,-1.601309,2.774428,-0.000000,-0.000000,1.000000
-4.749216,-19.596277,2.397506,-0.242980,-0.970031,0.000000
-0.466358,-16.523544,2.774428,-0.000000,-0.000000,1.000000
-6.297118,-12.277347,2.774428,-0.000000,0.000000,1.000000
13.973799,14.547162,1.132778,0.671559,0.740951,0.000000
-12.417813,-4.264054,2.774428,-0.000000,0.000000,1.000000
-9.677003,-1.303831,2.243878,0.989177,0.146730,0.000000
1.279599,15.366979,2.774428,0.000000,0.000000,1.000000
5.570815,-19.390477,-0.090697,0.242980,-0.970031,0.000000
-2.978541,19.941763,-1.150151,-0.146730,0.989177,0.000000
7.554758,-14.643026,-2.774428,0.000000,0.000000,-1.000000
11.607210,-16.494566,0.373421,0.595699,-0.803208,0.000000
-19.543804,4.958697,2.054810,-0.970031,0.242980,0.000000
8.309669,5.127642,-1.695283,-0.857729,-0.514103,-0.000000
5.052807,8.354523,-0.078618,-0.514103,-0.857729,0.000000
13.310859,-15.148016,-1.644330,0.671559,-0.740951,0.000000
-17.879819,-6.251292,2.774428,-0.000000,0.000000,1.000000
16.726325,10.612886,2.774428,0.000000,0.000000,1.000000
-5.458810,-8.107202,-0.802892,0.595699,0.803208,0.000000
-18.971571,-1.542703,2.774428,-0.000000,0.000000,1.000000
-20.123159,1.305262,1.245465,-0.998795,0.049068,0.000000
-2.393434,17.350353,2.774428,0.000000,0.000000,1.000000
-8.441367,15.475099,2.774428,0.000000,0.000000,1.000000
7.724919,5.974259,1.828873,-0.803208,-0.595699,0.000000
-8.098157,8.013448,-2.774428,-0.000000,0.000000,-1.000000
12.248530,-6.109741,2.774428,0.000000,-0.000000,1.000000
-0.613441,-20.157146,-2.209630,-0.049068,-0.998795,0.000000
3.714761,-19.735373,-2.774428,0.000000,0.000000,-1.000000
9.348775,16.205712,-2.774428,-0.000000,0.000000,-1.000000
9.939158,-7.549724,-2.774428,0.000000,0.000000,-1.000000
-19.708090,-4.302833,-0.708226,-0.970031,-0.242980,0.000000
12.184605,11.536334,-2.774428,-0.000000,0.000000,-1.000000
-15.590015,-2.803949,-2.774428,0.000000,-0.000000,-1.000000
-18.761651,-0.497809,2.774428,-0.000000,0.000000,1.000000
15.985483,12.008087,-2.774428,-0.000000,0.000000,-1.000000
-13.560609,-6.690384,2.774428,-0.000000,0.000000,1.000000
10.600677,10.506637,2.774428,0.000000,-0.000000,1.000000
-15.393145,-0.054085,-2.774428,-0.000000,-0.000000,-1.000000
-9.964873,-0.576511,-2.774428,-0.000000,-0.000000,-1.000000
18.933578,-2.133037,2.774428,0.000000,-0.000000,1.000000
-19.226485,5.390433,2.774428,0.000000,0.000000,1.000000
-3.073415,-19.927690,-0.030781,-0.146730,-0.989177,0.000000
-11.283428,11.989323,2.774428,0.000000,0.000000,1.000000
18.534818,7.970175,2.630704,0.903989,0.427555,-0.000000
16.921122,-10.988535,-0.446370,0.857729,-0.514103,0.000000
6.771819,-8.988624,2.774428,-0.000000,-0.000000,1.000000
-0.923774,-12.783007,2.774428,-0.000000,-0.000000,1.000000
-18.518305,5.642928,2.774428,0.000000,0.000000,1.000000
6.229359,7.531122,-1.837166,-0.671559,-0.740951,-0.000000
-3.389724,19.880770,-0.847784,-0.146730,0.989177,0.000000
16.334327,-11.823266,-0.666995,0.803208,-0.595699,0.000000
14.499454,3.312167,2.774428,0.000000,0.000000,1.000000
2.844822,17.211379,2.774428,0.000000,0.000000,1.000000
11.193106,-16.798507,-2.347607,0.514103,-0.857729,0.000000
-10.129882,-17.435779,1.968561,-0.514103,-0.857729,0.000000
-2.451045,-20.020010,0.833135,-0.146730,-0.989177,0.000000
8.480396,-14.319088,-2.774428,0.000000,0.000000,-1.000000
14.413520,10.095868,-2.774428,-0.000000,0.000000,-1.000000
-15.832598,-12.499770,-0.739323,-0.803208,-0.595699,0.000000
9.594081,1.862846,0.798027,-0.989177,-0.146730,-0.000000
19.588505,-4.780243,-0.775794,0.970031,-0.242980,0.000000
-6.431327,7.348069,-0.641127,0.671559,-0.740951,0.000000
15.513825,8.005000,2.774428,0.000000,0.000000,1.000000
-15.837976,6.404483,-2.774428,-0.000000,0.000000,-1.000000
17.880715,9.353161,-1.782514,0.903989,0.427555,-0.000000
18.318471,-5.477489,-2.774428,0.000000,0.000000,-1.000000
-17.345391,10.280685,-0.383808,-0.857729,0.514103,0.000000
-11.544584,14.062105,2.774428,0.000000,0.000000,1.000000
18.996886,-6.757584,-2.118851,0.941544,-0.336890,0.000000
-10.485479,14.256593,2.774428,0.000000,0.000000,1.000000
14.504664,-14.020689,2.546130,0.740951,-0.671559,0.000000
3.393110,9.155674,-1.066591,-0.336890,-0.941544,-0.000000
18.272757,2.410632,2.774428,0.000000,0.000000,1.000000
-16.749910,0.497552,-2.774428,-0.000000,-0.000000,-1.000000
1.870140,-20.095409,2.311711,0.049068,-0.998795,0.000000
-9.787067,-15.257610,-2.774428,0.000000,-0.000000,-1.000000
13.612551,1.426034,2.774428,0.000000,0.000000,1.000000
14.284433,6.261210,-2.774428,0.000000,0.000000,-1.000000
4.099229,17.020357,-2.774428,-0.000000,0.000000,-1.000000
-6.309182,-7.458775,0.532849,0.671559,0.740951,0.000000
-17.359918,-7.746755,-2.774428,0.000000,-0.000000,-1.000000
-10.714768,17.085211,-0.090715,-0.514103,0.857729,0.000000
1.824037,9.599837,-2.358095,-0.146730,-0.989177,-0.000000
9.620870,1.682248,-1.713612,-0.989177,-0.146730,-0.000000
19.333810,5.797040,-1.523319,0.970031,0.242980,-0.000000
1.046608,15.848642,2.774428,0.000000,0.000000,1.000000
-10.572589,-0.821917,-2.774428,-0.000000,-0.000000,-1.000000
12.020170,3.019902,2.774428,0.000000,-0.000000,1.000000
-14.730044,13.069817,2.774428,0.000000,0.000000,1.000000
4.955141,-8.413061,0.137018,-0.514103,0.857729,0.000000
8.872529,-4.773096,2.774428,-0.000000,-0.000000,1.000000
-10.736495,-15.312467,2.774428,-0.000000,0.000000,1.000000
-15.957485,-3.553592,2.774428,-0.000000,0.000000,1.000000
-8.248255,-5.230104,-2.433967,0.857729,0.514103,0.000000
-3.817450,19.817323,-0.904159,-0.146730,0.989177,0.000000
1.718760,-9.615454,0.980266,-0.146730,0.989177,0.000000
11.199824,16.027263,-2.774428,-0.000000,0.000000,-1.000000
17.657416,-7.381270,-2.774428,0.000000,0.000000,-1.000000
0.401980,-16.202626,2.774428,0.000000,-0.000000,1.000000
-3.044874,9.280275,0.787639,0.336890,-0.941544,0.000000
9.684116,1.255877,1.070588,-0.989177,-0.146730,0.000000
17.758721,-6.653247,2.774428,0.000000,-0.000000,1.000000
-1.667128,20.105382,-2.170829,-0.049068,0.998795,0.000000
-2.792671,19.969334,-0.884557,-0.146730,0.989177,0.000000
-8.750762,-17.135847,2.774428,-0.000000,0.000000,1.000000
9.067913,-10.463171,2.774428,0.000000,-0.000000,1.000000
-3.975034,-13.240057,-2.774428,0.000000,-0.000000,-1.000000
-13.675817,-1.869675,2.774428,-0.000000,0.000000,1.000000
19.517073,-5.065415,2.033013,0.970031,-0.242980,0.000000
-14.175576,-14.364282,-2.591991,-0.671559,-0.740951,0.000000
19.360905,5.688871,-0.549268,0.970031,0.242980,-0.000000
-18.689424,1.870204,-2.774428,-0.000000,-0.000000,-1.000000
0.489750,16.605373,-2.774428,-0.000000,0.000000,-1.000000
19.979848,2.533308,-2.774428,-0.000000,0.000000,-1.000000
7.947052,-5.674748,-2.145816,-0.803208,0.595699,0.000000
-2.226987,20.053246,0.934070,-0.146730,0.989177,0.000000
-14.634107,-11.879928,-2.774428,0.000000,-0.000000,-1.000000
-8.780531,-12.150201,-2.774428,0.000000,-0.000000,-1.000000
-12.856328,2.126190,2.774428,0.000000,0.000000,1.000000
-20.112032,-1.531756,2.773299,-0.998795,-0.049068,0.000000
-4.014562,11.441913,-2.774428,-0.000000,0.000000,-1.000000
-9.293411,-3.008163,1.436679,0.941544,0.336890,0.000000
9.557609,8.147361,-2.774428,0.000000,0.000000,-1.000000
10.943786,-1.094043,2.774428,-0.000000,-0.000000,1.000000
6.223867,-11.176000,2.774428,0.000000,-0.000000,1.000000
-12.684805,-4.443309,-2.774428,0.000000,-0.000000,-1.000000
6.370188,11.352712,2.774428,0.000000,-0.000000,1.000000
5.985535,17.936514,2.774428,0.000000,0.000000,1.000000
18.682110,7.637322,2.678946,0.941544,0.336890,-0.000000
16.637559,2.242330,2.774428,0.000000,0.000000,1.000000
2.040233,-14.087819,2.774428,0.000000,-0.000000,1.000000
-17.700608,9.688042,-0.533224,-0.857729,0.514103,0.000000
9.155453,-3.393730,-0.777048,-0.941544,0.336890,0.000000
-6.214803,-15.331987,-2.774428,0.000000,-0.000000,-1.000000
-19.482974,-3.180727,-2.774428,0.000000,-0.000000,-1.000000
-14.358144,11.073430,-2.774428,-0.000000,-0.000000,-1.000000
-13.190690,-10.117584,-2.774428,0.000000,-0.000000,-1.000000
5.234884,13.623465,-2.774428,0.000000,0.000000,-1.000000
13.570649,13.825092,-2.774428,-0.000000,0.000000,-1.000000
-10.353030,10.006683,2.774428,0.000000,0.000000,1.000000
-10.876283,6.067657,-2.774428,-0.000000,-0.000000,-1.000000
-4.316817,-16.050119,2.774428,-0.000000,0.000000,1.000000
4.887645,19.423813,-2.774428,-0.000000,0.000000,-1.000000
13.981587,-14.540104,-1.879239,0.671559,-0.740951,0.000000
5.751198,-7.890353,-2.134919,-0.595699,0.803208,0.000000
20.006502,2.542104,2.088738,0.989177,0.146730,-0.000000
18.790043,3.100881,2.774428,0.000000,0.000000,1.000000
19.876260,3.420128,0.336240,0.989177,0.146730,-0.000000
-9.481281,-5.486017,2.774428,-0.000000,0.000000,1.000000
-1.074614,-15.681301,-2.774428,0.000000,-0.000000,-1.000000
-1.543496,9.641452,1.588831,0.146730,-0.989177,0.000000
9.841526,14.748950,-2.774428,0.000000,0.000000,-1.000000
-12.481686,-10.536570,2.774428,-0.000000,0.000000,1.000000
14.239619,-10.506004,-2.774428,0.000000,0.000000,-1.000000
2.518377,9.434397,1.038484,-0.242980,-0.970031,0.000000
6.789755,15.135948,2.774428,0.000000,0.000000,1.000000
8.815683,-10.910021,2.774428,-0.000000,-0.000000,1.000000
-11.179018,14.995515,2.774428,0.000000,0.000000,1.000000
-13.403227,-11.872555,-2.774428,0.000000,-0.000000,-1.000000
13.950006,-3.873063,-2.774428,0.000000,0.000000,-1.000000
4.951962,11.747394,2.774428,0.000000,-0.000000,1.000000
10.693820,-5.356469,-2.774428,0.000000,0.000000,-1.000000
-5.632560,14.916516,-2.774428,-0.000000,-0.000000,-1.000000
15.343806,-8.510074,-2.774428,0.000000,0.000000,-1.000000
7.057033,18.889741,2.201933,0.336890,0.941544,-0.000000
-4.792202,-8.510724,-1.626488,0.514103,0.857729,0.000000
20.146404,0.832114,1.116784,0.998795,0.049068,-0.000000
-3.845713,19.761292,2.774428,0.000000,0.000000,1.000000
-15.986771,4.852352,-2.774428,-0.000000,-0.000000,-1.000000
-19.231499,2.869677,2.774428,0.000000,0.000000,1.000000
6.527001,18.033407,2.774428,0.000000,0.000000,1.000000
-0.995287,17.691914,2.774428,0.000000,0.000000,1.000000
-4.784688,-16.357320,-2.774428,0.000000,-0.000000,-1.000000
-12.803644,15.607230,2.592082,-0.595699,0.803208,0.000000
3.968092,-19.791938,1.521295,0.242980,-0.970031,0.000000
-9.325516,17.893790,1.180211,-0.427555,0.903989,0.000000
3.059002,19.793151,-2.774428,-0.000000,0.000000,-1.000000
-7.616602,-12.406561,2.774428,-0.000000,0.000000,1.000000
10.889706,2.761991,2.774428,0.000000,-0.000000,1.000000
5.660383,-13.281296,2.774428,0.000000,-0.000000,1.000000
-1.361345,-9.668471,-2.054721,0.146730,0.989177,0.000000
-7.349241,-6.430034,1.485142,0.740951,0.671559,0.000000
-17.554359,-9.049196,2.774428,-0.000000,0.000000,1.000000
3.538492,15.223828,2.774428,0.000000,0.000000,1.000000
7.768560,5.915416,1.185842,-0.803208,-0.595699,0.000000
14.646952,13.863698,2.447865,0.740951,0.671559,-0.000000
2.573010,15.135249,-2.774428,0.000000,0.000000,-1.000000
15.567208,12.848352,-0.974711,0.740951,0.671559,0.000000
17.304771,5.970908,2.774428,0.000000,0.000000,1.000000
19.547731,3.185529,-2.774428,-0.000000,0.000000,-1.000000
-16.423242,11.703379,-1.553564,-0.803208,0.595699,0.000000
9.499289,17.811601,-1.230177,0.427555,0.903989,0.000000
-6.284040,-13.237997,-2.774428,0.000000,-0.000000,-1.000000
18.252225,8.567669,2.037100,0.903989,0.427555,-0.000000
13.936736,13.707895,-2.774428,-0.000000,0.000000,-1.000000
-4.543119,-19.302716,-2.774428,0.000000,-0.000000,-1.000000
0.671102,-11.067366,2.774428,-0.000000,-0.000000,1.000000
19.887778,3.342479,1.340304,0.989177,0.146730,-0.000000
-6.682619,-19.023708,1.096798,-0.336890,-0.941544,0.000000
-11.532265,-16.550149,-1.075873,-0.595699,-0.803208,0.000000
1.294513,-19.771275,2.774428,0.000000,-0.000000,1.000000
-13.110523,-0.282320,2.774428,-0.000000,0.000000,1.000000
-9.791028,6.131169,2.774428,0.000000,0.000000,1.000000
-13.493113,-2.461474,-2.774428,0.000000,-0.000000,-1.000000
8.397672,14.165842,2.774428,0.000000,0.000000,1.000000
16.185039,-12.024558,-0.788676,0.803208,-0.595699,0.000000
7.841894,-18.595491,1.826218,0.427555,-0.903989,0.000000
3.767429,-9.018682,2.296136,-0.427555,0.903989,0.000000
20.143146,-0.898416,0.125078,0.998795,-0.049068,0.000000
19.874347,3.433022,-1.339401,0.989177,0.146730,-0.000000
-17.621181,9.820557,0.455215,-0.857729,0.514103,0.000000
9.355766,16.445214,-2.774428,-0.000000,0.000000,-1.000000
-9.143299,-15.154463,2.774428,-0.000000,0.000000,1.000000
2.810198,-19.966734,1.776112,0.146730,-0.989177,0.000000
-14.017617,-10.877380,2.774428,-0.000000,0.000000,1.000000
10.723267,-17.080118,1.934337,0.514103,-0.857729,0.000000
12.810700,-10.200477,-2.774428,0.000000,0.000000,-1.000000
-8.914625,6.845831,-2.774428,-0.000000,0.000000,-1.000000
1.242473,-10.636144,-2.774428,0.000000,0.000000,-1.000000
18.867435,6.529133,2.774428,0.000000,0.000000,1.000000
-12.805339,-3.471746,-2.774428,0.000000,-0.000000,-1.000000
-11.431769,15.799274,-2.774428,-0.000000,-0.000000,-1.000000
19.097854,-3.595101,2.774428,0.000000,-0.000000,1.000000
19.438346,5.379712,-2.038465,0.970031,0.242980,0.000000
-18.640124,4.272783,2.774428,0.000000,0.000000,1.000000
8.130610,-7.642627,2.774428,-0.000000,-0.000000,1.000000
-8.079598,-7.924318,-2.774428,0.000000,-0.000000,-1.000000
-11.933625,4.391501,-2.774428,-0.000000,0.000000,-1.000000
-11.581710,-9.932833,-2.774428,0.000000,-0.000000,-1.000000
16.176381,1.490392,-2.774428,0.000000,0.000000,-1.000000
-18.411429,-2.580732,-2.774428,0.000000,-0.000000,-1.000000
-2.475056,-9.445248,2.060084,0.242980,0.970031,0.000000
9.133825,-3.454176,0.673701,-0.941544,0.336890,0.000000
3.071503,-16.474249,2.774428,-0.000000,-0.000000,1.000000
8.370084,5.026845,-1.310275,-0.857729,-0.514103,-0.000000
-20.092177,-1.935913,2.506505,-0.998795,-0.049068,0.000000
-14.227228,5.409518,2.774428,0.000000,0.000000,1.000000
-4.627329,-11.590968,-2.774428,0.000000,-0.000000,-1.000000
6.939061,16.398482,-2.774428,-0.000000,0.000000,-1.000000
-7.485831,-6.279331,-2.578927,0.740951,0.671559,0.000000
-9.755798,-0.397993,-1.322869,0.998795,0.049068,0.000000
-8.939545,-11.594638,-2.774428,0.000000,-0.000000,-1.000000
-18.243336,8.586464,-2.183556,-0.903989,0.427555,0.000000
-20.099477,1.787331,1.733690,-0.998795,0.049068,0.000000
-14.147496,5.655748,-2.774428,-0.000000,0.000000,-1.000000
-12.154269,-1.320174,2.774428,-0.000000,0.000000,1.000000
3.884781,12.738261,-2.774428,-0.000000,0.000000,-1.000000
-3.578563,-9.089318,0.811073,0.336890,0.941544,0.000000
-1.632346,18.506196,-2.774428,-0.000000,0.000000,-1.000000
-2.188895,13.866242,2.774428,0.000000,0.000000,1.000000
5.146663,-17.521091,2.774428,-0.000000,-0.000000,1.000000
-0.231613,-20.175904,-1.017722,-0.049068,-0.998795,0.000000
-7.019452,6.793901,-1.091754,0.740951,-0.671559,0.000000
-10.507152,8.762321,-2.774428,-0.000000,-0.000000,-1.000000
-19.482844,5.202065,-2.749130,-0.970031,0.242980,0.000000
0.979911,20.139143,-0.765131,0.049068,0.998795,0.000000
-10.756028,5.086419,2.774428,0.000000,0.000000,1.000000
-6.954403,6.953845,-2.774428,-0.000000,0.000000,-1.000000
14.710856,-3.848620,-2.774428,0.000000,0.000000,-1.000000
-14.399654,-13.485891,-2.774428,0.000000,-0.000000,-1.000000
1.823912,10.619328,2.774428,0.000000,-0.000000,1.000000
-7.165853,-18.551528,-2.774428,0.000000,-0.000000,-1.000000
