x,y,z,nx,ny,nz
0.071455,-0.096261,-0.003338,0.000000,-1.000000,0.000000
0.047835,0.040495,-0.316725,-0.000000,0.000000,-1.000000
-0.138661,-0.106660,-0.003167,-0.999739,0.000000,-0.022832
-0.182873,0.045709,0.316705,-0.866025,0.000000,0.500000
-0.131314,-0.256992,0.044649,-0.946768,0.000000,0.321915
-0.028300,-0.363109,0.135779,-0.204041,0.000000,0.978962
0.106066,-0.608290,-0.055616,0.822291,0.371391,-0.431169
-0.270708,-0.038332,-0.164570,-0.866025,0.000000,-0.500000
0.127030,-0.149962,-0.055680,0.915879,0.000000,-0.401453
-0.055636,-0.220987,0.127050,-0.401129,0.000000,0.916022
0.096097,-0.221386,-0.100012,0.692854,0.000000,-0.721078
-0.040533,-0.642219,0.060357,-0.517636,0.371391,0.770793
-0.118853,-0.595548,0.069009,-0.802943,0.371391,0.466210
-0.297279,0.047647,-0.118549,-0.866025,0.000000,-0.500000
0.047760,-0.659141,-0.011952,0.900700,0.371391,-0.225407
-0.119372,-0.330747,0.070621,-0.860664,0.000000,0.509173
0.121823,-0.423542,0.066303,0.878336,0.000000,0.478045
-0.226756,0.013648,-0.240697,-0.866025,0.000000,-0.500000
-0.073295,-0.493290,0.117749,-0.528451,0.000000,0.848964
-0.131848,-0.247652,0.043048,-0.950616,0.000000,0.310370
-0.279874,0.050721,0.148695,-0.866025,0.000000,0.500000
0.354953,-0.003803,-0.018653,0.866025,0.000000,-0.500000
-0.056673,-0.096261,-0.010930,0.000000,-1.000000,0.000000
-0.067420,-0.363806,0.121209,-0.486092,0.000000,0.873908
-0.069923,-0.427623,-0.119782,-0.504144,0.000000,-0.863620
0.007550,-0.099631,-0.138492,0.054437,0.000000,-0.998517
0.298574,0.044655,-0.116305,0.866025,0.000000,-0.500000
0.098007,-0.606740,0.072508,0.746410,0.371391,0.552215
0.122291,-0.568396,0.065435,0.881713,0.000000,0.471786
0.136347,-0.414828,0.025423,0.983057,0.000000,0.183298
-0.037349,0.007227,0.316725,0.000000,0.000000,1.000000
-0.135674,-0.471266,-0.028801,-0.978203,0.000000,-0.207651
0.073294,-0.636112,0.034890,0.838337,0.371391,0.399074
0.030223,0.096261,-0.011976,0.000000,1.000000,0.000000
0.138694,-0.412104,-0.000918,0.999978,0.000000,-0.006620
-0.158710,0.053472,0.316725,0.000000,0.000000,1.000000
-0.132513,-0.306855,0.040954,-0.955413,0.000000,0.295273
-0.124223,-0.411023,0.061690,-0.895640,0.000000,0.444780
0.309230,-0.040666,-0.097848,0.866025,0.000000,-0.500000
-0.223476,-0.038508,0.246378,-0.866025,0.000000,0.500000
-0.077364,-0.167266,-0.115116,-0.557793,0.000000,-0.829980
0.036482,-0.668025,-0.005616,0.917668,0.371391,-0.141260
-0.049442,-0.290888,-0.129585,-0.356477,0.000000,-0.934304
0.054564,-0.655293,0.000812,0.928374,0.371391,0.013821
-0.056588,-0.198223,-0.126628,-0.407997,0.000000,-0.912983
-0.060128,-0.166603,0.124986,-0.433521,0.000000,0.901143
0.005196,-0.659385,-0.048618,0.098675,0.371391,-0.923218
0.211077,0.037076,0.267854,0.866025,0.000000,0.500000
-0.012860,-0.273858,0.138100,-0.092716,0.000000,0.995693
-0.033274,-0.586921,-0.134647,-0.239903,0.000000,-0.970797
0.290036,-0.037059,0.131094,0.866025,0.000000,0.500000
0.025713,-0.635988,0.077175,0.293481,0.371391,0.880873
-0.163187,-0.086133,0.316725,0.000000,0.000000,1.000000
0.053636,0.083054,0.316725,0.000000,0.000000,1.000000
0.034865,0.059132,0.316725,0.000000,0.000000,1.000000
-0.185013,-0.096261,-0.009180,0.000000,-1.000000,0.000000
-0.249781,-0.042547,-0.200817,-0.866025,0.000000,-0.500000
-0.134261,-0.525400,-0.034798,-0.968014,0.000000,-0.250895
0.001737,0.096261,-0.294661,0.000000,1.000000,0.000000
-0.320422,-0.003665,-0.078463,-0.866025,0.000000,-0.500000
-0.213787,0.085489,-0.263161,-0.866025,0.000000,-0.500000
0.130886,-0.335858,-0.045889,0.943682,0.000000,-0.330854
-0.006136,-0.317888,0.138562,-0.044240,0.000000,0.999021
0.071202,-0.322595,-0.119026,0.513363,0.000000,-0.858171
0.316458,-0.049819,0.085330,0.866025,0.000000,0.500000
-0.098559,-0.616733,-0.044288,-0.846902,0.371391,-0.380561
-0.364087,-0.007583,-0.002834,-0.866025,0.000000,-0.500000
-0.026499,-0.619493,-0.100800,-0.236068,0.371391,-0.897965
-0.277708,0.088383,0.152447,-0.866025,0.000000,0.500000
-0.338292,-0.063365,-0.047511,-0.866025,0.000000,-0.500000
0.056410,-0.647535,0.032954,0.801697,0.371391,0.468348
0.136844,-0.320901,0.022597,0.986638,0.000000,0.162925
-0.351520,0.069088,0.024600,-0.866025,0.000000,0.500000
-0.126065,-0.318404,-0.057833,-0.908918,0.000000,-0.416974
0.072588,-0.507554,-0.118186,0.523355,0.000000,-0.852115
0.209427,-0.014177,0.270712,0.866025,0.000000,0.500000
-0.057974,-0.649882,0.022189,-0.867132,0.371391,0.331889
0.000045,0.096261,-0.000021,0.000000,1.000000,0.000000
-0.001534,-0.096261,0.008164,0.000000,-1.000000,0.000000
-0.138409,-0.533175,0.008938,-0.997921,0.000000,0.064445
0.162152,0.096261,0.008244,0.000000,1.000000,0.000000
-0.130999,-0.096261,-0.071226,0.000000,-1.000000,0.000000
0.038943,-0.647425,-0.052645,0.552168,0.371391,-0.746445
0.027629,-0.646030,-0.061497,0.380509,0.371391,-0.846925
0.014271,-0.646150,0.065720,0.197021,0.371391,0.907332
-0.036631,-0.032632,0.316725,0.000000,0.000000,1.000000
0.041405,-0.025126,-0.316725,-0.000000,0.000000,-1.000000
-0.061263,-0.538270,0.124434,-0.441703,0.000000,0.897161
-0.067327,-0.253977,0.121260,-0.485425,0.000000,0.874278
-0.095722,-0.624676,-0.015910,-0.915912,0.371391,-0.152232
-0.126584,-0.381381,-0.056688,-0.912662,0.000000,-0.408715
-0.287320,-0.008479,0.135798,-0.866025,0.000000,0.500000
0.126168,-0.162311,0.057606,0.909667,0.000000,0.415337
0.137238,-0.408876,-0.020065,0.989480,0.000000,-0.144669
0.094726,-0.551995,0.101311,0.682966,0.000000,0.730450
-0.363833,0.041929,-0.003273,-0.866025,0.000000,-0.500000
-0.061545,-0.024929,-0.316725,-0.000000,0.000000,-1.000000
0.079671,-0.635389,0.020138,0.900167,0.371391,0.227528
0.240372,-0.038473,-0.217115,0.866025,0.000000,-0.500000
-0.118841,-0.271036,-0.071510,-0.856839,0.000000,-0.515584
-0.046323,-0.096261,-0.071208,0.000000,-1.000000,0.000000
0.035345,0.051112,-0.316725,-0.000000,0.000000,-1.000000
-0.130666,-0.264653,-0.046512,-0.942094,0.000000,-0.335349
-0.138299,-0.096261,-0.211655,0.000000,-1.000000,0.000000
0.093432,-0.423700,0.102505,0.673642,0.000000,0.739058
0.131129,-0.308252,-0.045191,0.945429,0.000000,-0.325827
0.072597,-0.429846,0.118180,0.523423,0.000000,0.852073
-0.093739,0.096261,0.082428,0.000000,1.000000,0.000000
-0.011922,-0.263581,-0.138184,-0.085960,0.000000,-0.996299
0.341777,0.039127,-0.041476,0.866025,0.000000,-0.500000
-0.101842,-0.110697,0.094155,-0.734273,0.000000,0.678854
0.296573,-0.039882,-0.119771,0.866025,0.000000,-0.500000
0.085061,-0.093662,-0.316725,-0.000000,0.000000,-1.000000
-0.023602,-0.650685,0.056207,-0.359469,0.371391,0.856067
0.301725,-0.050048,0.110847,0.866025,0.000000,0.500000
-0.011818,-0.470009,0.138193,-0.085206,0.000000,0.996363
0.314675,-0.011325,-0.088418,0.866025,0.000000,-0.500000
-0.099441,-0.096261,0.009030,0.000000,-1.000000,0.000000
-0.136434,-0.312191,0.024952,-0.983684,0.000000,0.179903
-0.116272,-0.460159,0.075616,-0.838314,0.000000,0.545188
0.130277,-0.574529,-0.047591,0.939289,0.000000,-0.343128
0.013916,-0.662909,0.041749,0.293603,0.371391,0.880833
-0.080814,-0.022104,0.316725,0.000000,0.000000,1.000000
0.105890,-0.607148,0.059265,0.810210,0.371391,0.453464
-0.348276,-0.078765,0.030219,-0.866025,0.000000,0.500000
0.007972,-0.618921,0.104714,0.070480,0.371391,0.925798
-0.131184,-0.466774,-0.045029,-0.945833,0.000000,-0.324655
0.073235,-0.300652,-0.117786,0.528019,0.000000,-0.849233
0.320416,0.007239,-0.078474,0.866025,0.000000,-0.500000
0.113615,-0.197439,-0.079553,0.819157,0.000000,-0.573570
-0.215147,-0.096261,-0.023232,0.000000,-1.000000,0.000000
0.135131,-0.286453,0.031248,0.974290,0.000000,0.225298
-0.315929,0.039222,-0.086245,-0.866025,0.000000,-0.500000
0.040348,0.064747,-0.316725,-0.000000,0.000000,-1.000000
0.019797,-0.623559,-0.096577,0.186447,0.371391,-0.909564
0.076405,-0.422197,-0.115755,0.550875,0.000000,-0.834588
-0.038879,-0.087239,0.316725,0.000000,0.000000,1.000000
-0.133501,-0.484595,0.037609,-0.962535,0.000000,0.271157
0.100464,-0.498694,-0.095624,0.724339,0.000000,-0.689444
0.068590,-0.449239,-0.120550,0.494532,0.000000,-0.869159
-0.017584,-0.603981,0.124504,-0.129842,0.371391,0.919353
-0.095929,-0.392527,-0.100173,-0.691644,0.000000,-0.722239
0.353140,-0.095673,-0.021794,0.866025,0.000000,-0.500000
0.186039,0.015000,-0.311221,0.866025,0.000000,-0.500000
0.202101,-0.077870,0.283401,0.866025,0.000000,0.500000
0.087454,-0.100816,-0.107651,0.630537,0.000000,-0.776159
-0.325428,0.072122,-0.069792,-0.866025,0.000000,-0.500000
-0.287935,-0.027709,0.134732,-0.866025,0.000000,0.500000
-0.222412,-0.012369,-0.248222,-0.866025,0.000000,-0.500000
0.033959,-0.665242,0.022564,0.773330,0.371391,0.513839
0.150402,-0.095578,-0.316725,-0.000000,0.000000,-1.000000
0.107009,-0.600480,-0.074861,0.760790,0.371391,-0.532229
-0.028958,-0.672921,0.008289,-0.892629,0.371391,0.255505
-0.030920,-0.397698,0.135207,-0.222933,0.000000,0.974834
-0.059955,-0.083737,0.316725,0.000000,0.000000,1.000000
0.003961,-0.658497,-0.049970,0.073375,0.371391,-0.925573
-0.148372,-0.020860,-0.316725,-0.000000,0.000000,-1.000000
-0.046256,-0.568084,0.130757,-0.333505,0.000000,0.942748
-0.011141,-0.096261,0.093639,0.000000,-1.000000,0.000000
-0.099122,-0.096261,-0.099790,0.000000,-1.000000,0.000000
-0.029750,-0.028256,-0.316725,-0.000000,0.000000,-1.000000
0.052232,-0.096261,0.206501,0.000000,-1.000000,0.000000
0.361983,-0.089661,0.006478,0.866025,0.000000,0.500000
0.118082,-0.526363,0.072757,0.851365,0.000000,0.524573
-0.121825,-0.402079,0.066299,-0.878353,0.000000,0.478013
0.301595,-0.026767,-0.111072,0.866025,0.000000,-0.500000
0.085159,-0.314670,0.109476,0.613989,0.000000,0.789315
0.030737,-0.401290,-0.135249,0.221610,0.000000,-0.975135
0.135171,-0.096261,0.192000,0.000000,-1.000000,0.000000
0.011805,0.072795,-0.316725,-0.000000,0.000000,-1.000000
0.115059,-0.480961,-0.077449,0.829572,0.000000,-0.558400
-0.135748,-0.512937,0.028450,-0.978736,0.000000,0.205122
-0.003791,-0.486501,-0.138645,-0.027336,0.000000,-0.999626
-0.131639,-0.096261,0.227075,0.000000,-1.000000,0.000000
0.248599,-0.021682,-0.202865,0.866025,0.000000,-0.500000
-0.019768,-0.096261,-0.063396,0.000000,-1.000000,0.000000
0.109620,-0.297399,0.084973,0.790353,0.000000,0.612652
0.299177,-0.089456,-0.115260,0.866025,0.000000,-0.500000
-0.265293,-0.075072,-0.173950,-0.866025,0.000000,-0.500000
0.125484,-0.096261,-0.189734,0.000000,-1.000000,0.000000
0.308694,-0.068662,-0.098776,0.866025,0.000000,-0.500000
0.228072,-0.032834,-0.238418,0.866025,0.000000,-0.500000
0.106547,-0.076013,0.316725,0.000000,0.000000,1.000000
0.008546,-0.096261,0.040249,0.000000,-1.000000,0.000000
0.137032,-0.573901,-0.021427,0.987994,0.000000,-0.154491
0.132268,-0.022756,0.316725,0.000000,0.000000,1.000000
0.004011,-0.110153,0.138639,0.028919,0.000000,0.999582
-0.329996,0.075769,0.061881,-0.866025,0.000000,0.500000
0.048108,-0.647840,0.043574,0.688159,0.371391,0.623303
-0.137890,-0.289978,0.014942,-0.994180,0.000000,0.107734
0.223135,-0.073079,0.246969,0.866025,0.000000,0.500000
-0.307392,0.094463,0.101033,-0.866025,0.000000,0.500000
0.070767,-0.096261,0.042860,0.000000,-1.000000,0.000000
0.297576,-0.042036,0.118034,0.866025,0.000000,0.500000
0.049667,-0.633981,-0.067903,0.548144,0.371391,-0.749405
-0.053968,-0.069525,-0.316725,-0.000000,0.000000,-1.000000
-0.046902,-0.650453,-0.039443,-0.710605,0.371391,-0.597587
0.085517,-0.247278,-0.109196,0.616573,0.000000,-0.787297
0.125127,-0.210062,0.059834,0.902159,0.000000,0.431403
0.013632,0.096261,-0.002404,0.000000,1.000000,0.000000
-0.084354,-0.623475,0.051248,-0.793511,0.371391,0.482088
-0.034347,-0.604640,0.120006,-0.255480,0.371391,0.892636
-0.202116,-0.015784,-0.283375,-0.866025,0.000000,-0.500000
-0.204369,0.020941,0.279473,-0.866025,0.000000,0.500000
-0.002094,-0.205477,-0.138682,-0.015100,0.000000,-0.999886
-0.116337,-0.067894,0.316725,0.000000,0.000000,1.000000
0.279974,-0.040327,-0.148522,0.866025,0.000000,-0.500000
0.001927,0.072701,-0.316725,-0.000000,0.000000,-1.000000
0.121950,-0.223164,-0.066069,0.879254,0.000000,-0.476353
0.282132,-0.029645,-0.144783,0.866025,0.000000,-0.500000
-0.345623,-0.052098,-0.034814,-0.866025,0.000000,-0.500000
0.015592,-0.100669,-0.137818,0.112418,0.000000,-0.993661
0.002632,-0.189208,0.138672,0.018980,0.000000,0.999820
-0.310232,-0.038024,0.096114,-0.866025,0.000000,0.500000
0.059630,-0.286602,0.125225,0.429926,0.000000,0.902864
-0.136981,-0.505605,0.021753,-0.987624,0.000000,0.156840
0.064718,-0.595988,0.120551,0.439166,0.371391,0.818048
-0.085522,-0.613918,-0.072251,-0.709250,0.371391,-0.599195
0.286429,0.096261,-0.076442,0.000000,1.000000,0.000000
-0.137301,-0.152360,-0.019632,-0.989932,0.000000,-0.141544
-0.074466,0.057621,-0.316725,-0.000000,0.000000,-1.000000
-0.124063,-0.237120,0.062010,-0.894489,0.000000,0.447089
-0.058127,-0.251001,-0.125929,-0.419093,0.000000,-0.907943
0.162601,-0.094835,0.316725,0.000000,0.000000,1.000000
-0.001990,0.096261,-0.004517,0.000000,1.000000,0.000000
-0.242897,-0.064292,-0.212741,-0.866025,0.000000,-0.500000
0.049444,-0.652652,0.030766,0.788323,0.371391,0.490525
0.140441,-0.044126,-0.316725,-0.000000,0.000000,-1.000000
-0.069983,-0.112554,0.119747,-0.504575,0.000000,0.863368
0.138392,-0.427786,0.009198,0.997799,0.000000,0.066315
-0.097283,-0.236664,0.098858,-0.701405,0.000000,0.712763
0.115178,-0.277500,0.077272,0.830426,0.000000,0.557129
0.012012,-0.062372,-0.316725,-0.000000,0.000000,-1.000000
-0.303286,0.065504,-0.108144,-0.866025,0.000000,-0.500000
0.042981,-0.663389,-0.005585,0.920737,0.371391,-0.119638
0.042080,-0.599065,-0.125701,0.294743,0.371391,-0.880452
-0.320019,-0.067420,-0.079161,-0.866025,0.000000,-0.500000
0.127839,0.080762,0.316725,0.000000,0.000000,1.000000
-0.150290,-0.037082,-0.316725,-0.000000,0.000000,-1.000000
0.032396,0.096261,-0.266336,0.000000,1.000000,0.000000
0.135538,-0.316153,0.029434,0.977223,0.000000,0.212215
0.083773,-0.632057,-0.022717,0.896112,0.371391,-0.243005
-0.263451,0.077444,-0.177139,-0.866025,0.000000,-0.500000
0.336621,-0.092676,0.050406,0.866025,0.000000,0.500000
-0.174646,0.005432,0.316725,0.000000,0.000000,1.000000
0.109229,-0.133684,0.085475,0.787535,0.000000,0.616271
0.339074,0.010205,0.046156,0.866025,0.000000,0.500000
0.035579,0.096261,-0.014030,0.000000,1.000000,0.000000
0.361692,-0.064924,0.006981,0.866025,0.000000,0.500000
-0.188584,0.007543,0.306814,-0.866025,0.000000,0.500000
0.063500,-0.209104,-0.123307,0.457834,0.000000,-0.889038
-0.078908,-0.133492,-0.114064,-0.568920,0.000000,-0.822393
-0.070344,-0.615245,-0.084719,-0.593123,0.371391,-0.714334
-0.018408,-0.408044,-0.137470,-0.132723,0.000000,-0.991153
0.127983,-0.511418,-0.053454,0.922749,0.000000,-0.385402
0.021077,0.051586,0.316725,0.000000,0.000000,1.000000
0.032901,-0.178366,-0.134739,0.237214,0.000000,-0.971457
0.035138,-0.144398,-0.134173,0.253342,0.000000,-0.967377
0.071550,-0.561399,-0.118817,0.515872,0.000000,-0.856666
-0.099370,-0.320972,-0.096761,-0.716450,0.000000,-0.697638
0.063188,-0.648998,0.003783,0.926817,0.371391,0.055489
0.049102,-0.648059,0.041983,0.705690,0.371391,0.603382
-0.132368,-0.590621,-0.041420,-0.954368,0.000000,-0.298635
0.119445,-0.563841,0.070496,0.861195,0.000000,0.508275
-0.328776,-0.021812,0.063994,-0.866025,0.000000,0.500000
-0.115388,-0.403962,0.076958,-0.831941,0.000000,0.554865
-0.093824,0.003039,-0.316725,-0.000000,0.000000,-1.000000
-0.232630,-0.059894,-0.230524,-0.866025,0.000000,-0.500000
0.077657,-0.268945,0.114919,0.559904,0.000000,0.828557
0.192899,-0.096261,0.026496,0.000000,-1.000000,0.000000
-0.122681,-0.218792,0.064703,-0.884520,0.000000,0.466503
0.058354,-0.649710,-0.021859,0.869475,0.371391,-0.325703
-0.138399,-0.275174,0.009095,-0.997848,0.000000,0.065572
-0.117598,-0.293855,0.073537,-0.847873,0.000000,0.530199
0.121165,-0.290005,-0.067497,0.873596,0.000000,-0.486652
0.120091,-0.197991,-0.069390,0.865853,0.000000,-0.500299
0.307744,-0.081239,-0.100423,0.866025,0.000000,-0.500000
0.055949,-0.483194,-0.126912,0.403392,0.000000,-0.915027
-0.099564,-0.363719,0.096561,-0.717851,0.000000,0.696197
-0.067932,0.096261,0.041639,0.000000,1.000000,0.000000
-0.092880,-0.607510,-0.077307,-0.713626,0.371391,-0.593975
0.017755,-0.096261,-0.110129,0.000000,-1.000000,0.000000
0.059622,-0.395957,0.125229,0.429869,0.000000,0.902891
-0.206326,-0.025299,0.276084,-0.866025,0.000000,0.500000
-0.189234,-0.057228,0.305688,-0.866025,0.000000,0.500000
0.015071,-0.650986,0.058638,0.231122,0.371391,0.899251
-0.115350,-0.171370,-0.077015,-0.831669,0.000000,-0.555272
-0.137118,-0.264488,0.020873,-0.988611,0.000000,0.150493
-0.108772,-0.096261,0.055638,0.000000,-1.000000,0.000000
0.190222,-0.028824,-0.303976,0.866025,0.000000,-0.500000
0.203887,0.086554,0.280308,0.866025,0.000000,0.500000
0.138631,-0.569074,0.004274,0.999525,0.000000,0.030813
-0.137162,-0.295939,0.020577,-0.988934,0.000000,0.148358
0.091398,-0.391762,-0.104323,0.658975,0.000000,-0.752165
0.031003,-0.136929,-0.135188,0.223532,0.000000,-0.974696
0.268207,0.003784,0.168902,0.866025,0.000000,0.500000
-0.113356,-0.180764,-0.079922,-0.817287,0.000000,-0.576230
-0.307306,0.063170,0.101181,-0.866025,0.000000,0.500000
-0.207394,0.096261,0.047858,0.000000,1.000000,0.000000
-0.104394,-0.266617,-0.091317,-0.752677,0.000000,-0.658390
0.112321,-0.111216,0.081369,0.809830,0.000000,0.586664
0.137396,-0.192707,0.018953,0.990619,0.000000,0.136650
-0.123431,-0.521937,-0.063259,-0.889933,0.000000,-0.456091
-0.047901,-0.316832,0.130163,-0.345366,0.000000,0.938468
0.006647,-0.579127,0.138538,0.047921,0.000000,0.998851
0.096093,0.096261,-0.242998,0.000000,1.000000,0.000000
0.091347,-0.110914,0.104368,0.658604,0.000000,0.752490
-0.020807,-0.404724,-0.137128,-0.150016,0.000000,-0.988684
-0.044874,-0.235134,-0.131238,-0.323537,0.000000,-0.946216
0.357148,-0.061977,0.014852,0.866025,0.000000,0.500000
0.194096,-0.015986,-0.297266,0.866025,0.000000,-0.500000
0.207207,-0.091381,-0.274558,0.866025,0.000000,-0.500000
0.099074,-0.364603,-0.097064,0.714315,0.000000,-0.699825
-0.081873,-0.315261,0.111954,-0.590298,0.000000,0.807186
-0.100289,-0.618580,0.032714,-0.882701,0.371391,0.287936
0.207523,-0.029113,0.274010,0.866025,0.000000,0.500000
-0.301105,0.035381,-0.111922,-0.866025,0.000000,-0.500000
-0.088060,-0.467427,-0.107156,-0.634905,0.000000,-0.772590
0.029368,-0.202476,-0.135552,0.211744,0.000000,-0.977325
0.026373,0.056243,0.316725,0.000000,0.000000,1.000000
-0.081575,0.096261,-0.036547,0.000000,1.000000,0.000000
-0.223364,-0.096261,0.074297,0.000000,-1.000000,0.000000
-0.108184,-0.145318,-0.086794,-0.780000,0.000000,-0.625780
0.294027,-0.002308,0.124180,0.866025,0.000000,0.500000
0.070404,-0.015767,0.316725,0.000000,0.000000,1.000000
0.154663,-0.038310,-0.316725,-0.000000,0.000000,-1.000000
0.140551,-0.096261,0.190411,0.000000,-1.000000,0.000000
-0.036445,-0.637954,-0.069661,-0.430415,0.371391,-0.822686
-0.028645,-0.031813,0.316725,0.000000,0.000000,1.000000
-0.082566,-0.322833,-0.111444,-0.595297,0.000000,-0.803506
0.079786,-0.391651,-0.113451,0.575251,0.000000,-0.817977
0.046561,-0.361438,0.130648,0.335704,0.000000,0.941968
-0.054331,-0.355681,-0.127613,-0.391722,0.000000,-0.920084
0.299836,-0.075756,0.114119,0.866025,0.000000,0.500000
-0.133172,-0.377445,0.038758,-0.960163,0.000000,0.279440
-0.007274,-0.057379,0.316725,0.000000,0.000000,1.000000
-0.002395,-0.217698,0.138677,-0.017267,0.000000,0.999851
-0.138659,-0.244907,-0.003280,-0.999720,0.000000,-0.023645
-0.138696,-0.451406,0.000690,-0.999988,0.000000,0.004975
0.219574,-0.023588,-0.253136,0.866025,0.000000,-0.500000
-0.029226,0.023259,0.316725,0.000000,0.000000,1.000000
-0.262418,-0.050849,0.178928,-0.866025,0.000000,0.500000
-0.121075,-0.331844,-0.067660,-0.872943,0.000000,-0.487822
0.093946,-0.626863,-0.003251,0.927921,0.371391,-0.032109
0.058096,-0.455546,-0.125944,0.418871,0.000000,-0.908046
0.034056,-0.081168,-0.316725,-0.000000,0.000000,-1.000000
0.226350,-0.096261,-0.059150,0.000000,-1.000000,0.000000
0.029148,0.096261,0.070598,0.000000,1.000000,0.000000
0.015209,-0.304104,0.137861,0.109654,0.000000,0.993970
0.187816,-0.019009,0.308144,0.866025,0.000000,0.500000
0.120526,-0.572441,-0.068633,0.868984,0.000000,-0.494840
0.120633,-0.474787,-0.068444,0.869758,0.000000,-0.493478
-0.088188,-0.461509,0.107050,-0.635833,0.000000,0.771827
0.124966,-0.162305,-0.060170,0.900997,0.000000,-0.433825
-0.186090,0.096261,-0.091260,0.000000,1.000000,0.000000
0.007927,-0.067896,-0.316725,-0.000000,0.000000,-1.000000
-0.081146,-0.461959,0.112482,-0.585060,0.000000,0.810990
0.230563,-0.032542,0.234104,0.866025,0.000000,0.500000
-0.058461,-0.652426,-0.003152,-0.927130,0.371391,-0.049984
0.123074,-0.317049,-0.063952,0.887353,0.000000,-0.461090
0.166374,0.009205,-0.316725,-0.000000,0.000000,-1.000000
-0.059573,-0.651438,-0.006410,-0.923148,0.371391,-0.099328
-0.269752,0.045732,0.166227,-0.866025,0.000000,0.500000
-0.125351,-0.432622,0.059364,-0.903772,0.000000,0.428014
0.085156,-0.112241,0.109478,0.613967,0.000000,0.789332
-0.104088,-0.026347,0.316725,0.000000,0.000000,1.000000
-0.058797,0.023141,0.316725,0.000000,0.000000,1.000000
-0.178125,-0.009998,0.316725,0.000000,0.000000,1.000000
-0.025488,-0.261710,-0.136335,-0.183764,0.000000,-0.982970
0.124278,-0.551846,0.061579,0.896036,0.000000,0.443981
0.133218,-0.310183,0.038598,0.960498,0.000000,0.278288
0.024386,0.075849,-0.316725,-0.000000,0.000000,-1.000000
0.075007,0.074849,0.316725,0.000000,0.000000,1.000000
-0.042823,-0.115495,-0.131921,-0.308750,0.000000,-0.951143
-0.274802,0.058561,-0.157480,-0.866025,0.000000,-0.500000
0.126432,-0.314202,0.057026,0.911566,0.000000,0.411153
0.202923,0.016931,0.281978,0.866025,0.000000,0.500000
0.026336,-0.484223,-0.136174,0.189878,0.000000,-0.981808
-0.127964,-0.375106,-0.053499,-0.922613,0.000000,-0.385726
-0.064514,-0.251099,0.122780,-0.465142,0.000000,0.885236
0.095473,-0.388328,-0.100608,0.688352,0.000000,-0.725377
-0.053036,-0.630111,-0.072090,-0.550214,0.371391,-0.747886
0.041872,-0.407498,-0.132226,0.301895,0.000000,-0.953341
0.146437,-0.096261,-0.004393,0.000000,-1.000000,0.000000
0.138025,-0.359497,0.013639,0.995154,0.000000,0.098333
-0.080637,-0.435073,0.112848,-0.581386,0.000000,0.813628
0.134701,-0.026141,0.316725,0.000000,0.000000,1.000000
-0.127675,-0.199013,0.054186,-0.920526,0.000000,0.390681
0.075917,0.018302,0.316725,0.000000,0.000000,1.000000
-0.009681,0.096261,0.152960,0.000000,1.000000,0.000000
-0.301161,-0.017916,0.111824,-0.866025,0.000000,0.500000
0.026418,-0.116636,-0.136158,0.190474,0.000000,-0.981692
0.171320,-0.044351,-0.316725,-0.000000,0.000000,-1.000000
0.263923,-0.079567,-0.176323,0.866025,0.000000,-0.500000
-0.003816,-0.096261,0.031411,0.000000,-1.000000,0.000000
0.129342,-0.028301,0.316725,0.000000,0.000000,1.000000
-0.029227,-0.673556,0.000866,-0.928069,0.371391,0.027501
-0.044067,-0.351499,0.131511,-0.317721,0.000000,0.948184
-0.260651,0.014818,-0.181989,-0.866025,0.000000,-0.500000
0.285248,0.014601,0.139387,0.866025,0.000000,0.500000
0.052891,-0.090171,-0.316725,-0.000000,0.000000,-1.000000
-0.305504,-0.031282,0.104302,-0.866025,0.000000,0.500000
-0.031763,-0.054699,0.316725,0.000000,0.000000,1.000000
0.216043,-0.093385,-0.259253,0.866025,0.000000,-0.500000
0.346864,-0.064414,-0.032665,0.866025,0.000000,-0.500000
-0.297145,0.096261,-0.002760,0.000000,1.000000,0.000000
-0.078661,-0.396591,0.114234,-0.567141,0.000000,0.823621
-0.210918,0.062914,0.268130,-0.866025,0.000000,0.500000
0.114940,-0.319280,-0.077625,0.828713,0.000000,-0.559674
0.301670,-0.096261,-0.073042,0.000000,-1.000000,0.000000
0.136386,-0.224143,-0.025215,0.983336,0.000000,-0.181796
-0.095656,-0.096827,-0.100433,-0.689678,0.000000,-0.724116
-0.128855,-0.351254,0.051316,-0.929037,0.000000,0.369988
-0.064875,-0.096261,-0.229281,0.000000,-1.000000,0.000000
0.331903,-0.060785,0.058578,0.866025,0.000000,0.500000
0.054476,-0.495581,0.127551,0.392767,0.000000,0.919638
-0.008987,-0.640764,-0.074180,-0.111665,0.371391,-0.921737
-0.097187,-0.543933,-0.098953,-0.700710,0.000000,-0.713446
0.283140,-0.051370,0.143037,0.866025,0.000000,0.500000
-0.086691,-0.629472,-0.025571,-0.890543,0.371391,-0.262682
0.327227,0.093943,-0.066678,0.866025,0.000000,-0.500000
0.132316,-0.189717,0.041588,0.953988,0.000000,0.299845
0.042037,-0.658391,-0.027574,0.776363,0.371391,-0.509244
-0.085949,-0.605766,0.088354,-0.647410,0.371391,0.665529
0.030601,-0.362600,-0.135279,0.220631,0.000000,-0.975357
-0.114015,-0.476403,-0.078978,-0.822041,0.000000,-0.569428
-0.054224,-0.634923,-0.062606,-0.607865,0.371391,-0.701833
-0.269930,-0.031369,0.165918,-0.866025,0.000000,0.500000
0.238297,-0.059969,-0.220707,0.866025,0.000000,-0.500000
0.138091,-0.167405,0.012958,0.995626,0.000000,0.093426
-0.134843,-0.509111,0.032472,-0.972207,0.000000,0.234121
0.117261,-0.291638,0.074073,0.845443,0.000000,0.534066
-0.093645,-0.181019,-0.102311,-0.675174,0.000000,-0.737659
0.303466,0.065254,0.107833,0.866025,0.000000,0.500000
0.138323,-0.451572,0.010185,0.997300,0.000000,0.073436
-0.028757,-0.665699,0.028000,-0.665231,0.371391,0.647717
0.084118,0.096261,-0.104975,0.000000,1.000000,0.000000
0.009356,0.096261,-0.002323,0.000000,1.000000,0.000000
0.028684,-0.672784,0.009797,0.878638,0.371391,0.300108
-0.137817,-0.354749,0.015599,-0.993656,0.000000,0.112465
0.116159,-0.070161,0.316725,0.000000,0.000000,1.000000
0.301991,0.052111,0.110386,0.866025,0.000000,0.500000
0.138410,-0.251625,-0.008924,0.997928,0.000000,-0.064345
-0.003481,-0.298291,0.138654,-0.025101,0.000000,0.999685
-0.115127,-0.385171,-0.077347,-0.830062,0.000000,-0.557671
0.091925,-0.441031,0.103859,0.662774,0.000000,0.748819
-0.138508,-0.476444,-0.007236,-0.998638,0.000000,-0.052174
-0.032183,-0.508690,-0.134912,-0.232041,0.000000,-0.972706
-0.131513,-0.375641,-0.044060,-0.948201,0.000000,-0.317672
0.030767,-0.072602,-0.316725,-0.000000,0.000000,-1.000000
0.089675,-0.628430,0.019771,0.906701,0.371391,0.199904
0.075130,0.096261,0.083038,0.000000,1.000000,0.000000
0.108050,-0.443767,-0.086961,0.779032,0.000000,-0.626984
0.218487,0.072967,0.255019,0.866025,0.000000,0.500000
-0.087635,0.041176,-0.316725,-0.000000,0.000000,-1.000000
0.063034,-0.649191,0.000016,0.928477,0.371391,0.000240
0.062684,-0.284209,0.123724,0.451946,0.000000,0.892045
-0.132666,-0.309421,0.040456,-0.956515,0.000000,0.291684
0.095386,-0.558078,-0.100690,0.687730,0.000000,-0.725966
-0.098395,-0.209864,-0.097752,-0.709420,0.000000,-0.704786
0.136855,-0.256461,0.022529,0.986720,0.000000,0.162433
0.306747,0.083812,0.102150,0.866025,0.000000,0.500000
-0.170907,0.096261,-0.102637,0.000000,1.000000,0.000000
0.013737,-0.635313,-0.081127,0.155006,0.371391,-0.915446
0.256551,0.008307,0.189091,0.866025,0.000000,0.500000
-0.214655,0.030299,0.261658,-0.866025,0.000000,0.500000
-0.066246,-0.096261,0.206519,0.000000,-1.000000,0.000000
0.186633,-0.075259,-0.310192,0.866025,0.000000,-0.500000
0.279827,-0.004370,0.148776,0.866025,0.000000,0.500000
-0.100718,-0.618522,0.031638,-0.885801,0.371391,0.278254
0.304384,-0.017164,0.106241,0.866025,0.000000,0.500000
0.006127,-0.537814,0.138562,0.044173,0.000000,0.999024
0.283414,-0.025820,0.142563,0.866025,0.000000,0.500000
0.134825,-0.452800,0.032545,0.972080,0.000000,0.234648
-0.072735,-0.064621,-0.316725,-0.000000,0.000000,-1.000000
-0.055523,0.096261,-0.016862,0.000000,1.000000,0.000000
-0.060946,-0.276956,-0.124589,-0.439419,0.000000,-0.898282
-0.104917,-0.325726,0.090716,-0.756447,0.000000,0.654055
0.101771,0.096261,0.031644,0.000000,1.000000,0.000000
0.079925,-0.096261,0.120561,0.000000,-1.000000,0.000000
0.054147,0.096261,0.041815,0.000000,1.000000,0.000000
0.096137,-0.085199,0.316725,0.000000,0.000000,1.000000
0.075986,-0.639849,0.000826,0.928422,0.371391,0.010095
-0.132934,-0.137540,-0.039566,-0.958448,0.000000,-0.285267
0.126457,-0.418495,-0.056970,0.911747,0.000000,-0.410753
-0.122882,-0.403442,-0.064319,-0.885973,0.000000,-0.463737
0.137757,-0.163178,0.016124,0.993220,0.000000,0.116254
0.039956,-0.529058,0.132817,0.288080,0.000000,0.957606
-0.041231,-0.537859,0.132427,-0.297276,0.000000,0.954792
0.213953,0.059918,-0.262874,0.866025,0.000000,-0.500000
-0.345313,0.012944,0.035351,-0.866025,0.000000,0.500000
-0.019009,-0.459463,-0.137388,-0.137057,0.000000,-0.990563
0.110405,-0.116240,-0.083951,0.796013,0.000000,-0.605279
0.361132,0.061623,0.007951,0.866025,0.000000,0.500000
0.160083,0.089262,-0.316725,-0.000000,0.000000,-1.000000
0.145171,-0.079954,0.316725,0.000000,0.000000,1.000000
-0.138696,-0.388766,-0.000604,-0.999991,0.000000,-0.004353
-0.110657,-0.611462,0.032614,-0.890601,0.371391,0.262485
-0.026323,-0.576614,-0.136177,-0.189784,0.000000,-0.981826
-0.131575,-0.246777,-0.043873,-0.948651,0.000000,-0.316325
-0.000854,-0.655175,-0.054728,-0.014488,0.371391,-0.928364
0.072415,-0.608592,-0.094862,0.563379,0.371391,-0.738019
-0.057294,-0.074801,0.316725,0.000000,0.000000,1.000000
0.123004,-0.604157,-0.024881,0.910046,0.371391,-0.184081
0.037702,-0.630294,-0.080889,0.392241,0.371391,-0.841556
-0.115108,0.057517,0.316725,0.000000,0.000000,1.000000
0.003281,-0.096261,0.015216,0.000000,-1.000000,0.000000
-0.032057,-0.659503,-0.036702,-0.610781,0.371391,-0.699297
-0.105057,-0.598760,0.081527,-0.733516,0.371391,0.569230
0.111075,0.088792,0.316725,0.000000,0.000000,1.000000
-0.156999,-0.096261,-0.023472,0.000000,-1.000000,0.000000
-0.004190,-0.044850,0.316725,0.000000,0.000000,1.000000
-0.303429,-0.006946,0.107895,-0.866025,0.000000,0.500000
0.009955,-0.365116,0.138340,0.071772,0.000000,0.997421
0.076985,-0.259826,-0.115370,0.555061,0.000000,-0.831810
0.045868,-0.645270,-0.050838,0.621971,0.371391,-0.689363
-0.038669,-0.556479,-0.133198,-0.278804,0.000000,-0.960348
0.126938,-0.202647,0.055890,0.915215,0.000000,0.402966
0.018651,-0.611565,-0.113701,0.150297,0.371391,-0.916231
-0.131106,-0.585705,-0.045257,-0.945266,0.000000,-0.326300
0.112893,-0.096261,0.057527,0.000000,-1.000000,0.000000
-0.005211,-0.096261,-0.115470,0.000000,-1.000000,0.000000
0.353537,0.003066,0.021107,0.866025,0.000000,0.500000
-0.085958,0.096261,-0.029615,0.000000,1.000000,0.000000
-0.127494,-0.408376,-0.054609,-0.919227,0.000000,-0.393729
-0.203679,-0.051212,0.280668,-0.866025,0.000000,0.500000
0.003598,-0.096261,0.210818,0.000000,-1.000000,0.000000
-0.222210,-0.096261,-0.050685,0.000000,-1.000000,0.000000
-0.053821,0.021148,0.316725,0.000000,0.000000,1.000000
-0.237289,0.077127,-0.222455,-0.866025,0.000000,-0.500000
0.138697,-0.221734,-0.000436,0.999995,0.000000,-0.003141
-0.248162,-0.043686,0.203621,-0.866025,0.000000,0.500000
-0.282365,-0.000077,0.144381,-0.866025,0.000000,0.500000
0.071744,-0.398250,0.118700,0.517268,0.000000,0.855823
0.289187,-0.006248,0.132564,0.866025,0.000000,0.500000
-0.239123,-0.077573,-0.219278,-0.866025,0.000000,-0.500000
-0.214603,-0.070089,0.261747,-0.866025,0.000000,0.500000
0.061545,-0.228146,-0.124295,0.443734,0.000000,-0.896159
0.189857,-0.096261,0.041783,0.000000,-1.000000,0.000000
0.084069,-0.527951,-0.110315,0.606135,0.000000,-0.795362
-0.255648,0.026461,-0.190655,-0.866025,0.000000,-0.500000
0.002468,-0.669110,-0.035320,0.064707,0.371391,-0.926219
-0.181634,0.096261,-0.152577,0.000000,1.000000,0.000000
0.058034,-0.075020,0.316725,0.000000,0.000000,1.000000
-0.014086,-0.643012,-0.070205,-0.182646,0.371391,-0.910335
-0.029406,-0.096261,-0.125948,0.000000,-1.000000,0.000000
0.253669,-0.022861,-0.194083,0.866025,0.000000,-0.500000
-0.062795,-0.131507,0.123668,-0.452748,0.000000,0.891639
0.011257,0.046621,-0.316725,-0.000000,0.000000,-1.000000
-0.271835,0.050917,0.162619,-0.866025,0.000000,0.500000
0.282845,-0.083184,0.143548,0.866025,0.000000,0.500000
0.035950,-0.652593,0.045915,0.572393,0.371391,0.731051
0.365261,0.011451,0.000800,0.866025,0.000000,0.500000
-0.138363,-0.162794,-0.009623,-0.997590,0.000000,-0.069383
-0.016446,-0.647075,-0.063885,-0.231469,0.371391,-0.899161
-0.263365,-0.022380,0.177289,-0.866025,0.000000,0.500000
0.128223,-0.429565,-0.052875,0.924481,0.000000,-0.381229
0.244817,-0.015924,-0.209415,0.866025,0.000000,-0.500000
0.263864,0.087601,-0.176424,0.866025,0.000000,-0.500000
0.001989,-0.149593,0.138683,0.014337,0.000000,0.999897
0.042629,-0.654732,0.035300,0.715120,0.371391,0.592176
0.118769,-0.495605,0.071630,0.856317,0.000000,0.516450
-0.031654,-0.666771,0.022178,-0.760402,0.371391,0.532783
-0.106948,-0.168499,-0.088312,-0.771091,0.000000,-0.636725
0.059389,-0.146552,0.125339,0.428191,0.000000,0.903688
0.124891,0.076970,0.316725,0.000000,0.000000,1.000000
0.215022,0.016276,0.261022,0.866025,0.000000,0.500000
-0.026481,-0.482690,0.136146,-0.190930,0.000000,0.981604
-0.028776,-0.309544,0.135679,-0.207473,0.000000,0.978241
-0.246488,0.066218,-0.206521,-0.866025,0.000000,-0.500000
-0.117836,-0.198663,-0.073154,-0.849594,0.000000,-0.527438
0.138425,-0.477545,0.008690,0.998035,0.000000,0.062652
0.014086,-0.633719,-0.083310,0.154787,0.371391,-0.915484
-0.336227,0.029298,-0.051089,-0.866025,0.000000,-0.500000
0.084613,-0.631192,0.024171,0.892766,0.371391,0.255027
-0.124680,-0.269499,-0.060760,-0.898936,0.000000,-0.438080
-0.059922,-0.369513,0.125085,-0.432035,0.000000,0.901857
0.111881,0.088530,0.316725,0.000000,0.000000,1.000000
-0.173230,0.000997,0.316725,0.000000,0.000000,1.000000
0.114461,-0.219216,0.078330,0.825257,0.000000,0.564757
-0.082892,0.091904,0.316725,0.000000,0.000000,1.000000
-0.309671,-0.082703,0.097084,-0.866025,0.000000,0.500000
-0.101376,-0.096261,-0.060859,0.000000,-1.000000,0.000000
0.122886,-0.597558,0.055037,0.847373,0.371391,0.379510
-0.085455,-0.625213,0.044378,-0.823993,0.371391,0.427906
0.023250,-0.608189,0.117626,0.180040,0.371391,0.910854
0.048589,-0.535307,-0.129908,0.350324,0.000000,-0.936629
0.138675,-0.266021,-0.002505,0.999837,0.000000,-0.018058
-0.268754,0.096261,-0.077953,0.000000,1.000000,0.000000
-0.136672,-0.475413,-0.023616,-0.985397,0.000000,-0.170270
0.135878,-0.403658,-0.027822,0.979675,0.000000,-0.200592
-0.249416,0.031983,-0.201450,-0.866025,0.000000,-0.500000
0.315057,0.081391,-0.087756,0.866025,0.000000,-0.500000
0.038434,0.096261,-0.020231,0.000000,1.000000,0.000000
-0.104179,-0.202925,0.091562,-0.751125,0.000000,0.660160
0.134270,-0.354813,0.034765,0.968078,0.000000,0.250651
-0.123690,-0.446063,0.062752,-0.891796,0.000000,0.452437
-0.244752,0.061078,-0.209528,-0.866025,0.000000,-0.500000
-0.218802,-0.046954,-0.254475,-0.866025,0.000000,-0.500000
0.046965,-0.645257,0.049851,0.636678,0.371391,0.675803
0.246725,0.007705,-0.206110,0.866025,0.000000,-0.500000
-0.004674,-0.598773,-0.132880,-0.032638,0.371391,-0.927903
0.057552,-0.620424,-0.085339,0.519137,0.371391,-0.769783
-0.011436,-0.524853,0.138225,-0.082451,0.000000,0.996595
0.004835,-0.395194,-0.138613,0.034860,0.000000,-0.999392
0.208811,0.077079,0.271779,0.866025,0.000000,0.500000
-0.280866,0.009320,0.146976,-0.866025,0.000000,0.500000
-0.194631,-0.010459,0.296340,-0.866025,0.000000,0.500000
0.035182,-0.202733,0.134161,0.253662,0.000000,0.967293
0.037483,-0.630871,-0.080108,0.393498,0.371391,-0.840969
0.240889,0.065479,0.216219,0.866025,0.000000,0.500000
-0.122186,-0.581768,-0.065632,-0.880952,0.000000,-0.473206
0.086754,-0.438589,0.108216,0.625494,0.000000,0.780229
-0.064808,-0.201719,-0.122625,-0.467260,0.000000,-0.884120
-0.183167,0.054464,0.316196,-0.866025,0.000000,0.500000
0.037773,-0.483062,-0.133455,0.272343,0.000000,-0.962200
0.136827,-0.069504,-0.316725,-0.000000,0.000000,-1.000000
0.053362,-0.184595,-0.128021,0.384738,0.000000,-0.923026
-0.067651,-0.645844,-0.001833,-0.928136,0.371391,-0.025147
-0.046385,0.096261,0.003615,0.000000,1.000000,0.000000
-0.012894,-0.500482,0.138097,-0.092969,0.000000,0.995669
-0.124019,-0.071298,-0.316725,-0.000000,0.000000,-1.000000
0.115153,-0.543768,-0.077309,0.830246,0.000000,-0.557397
-0.128996,-0.324005,0.050960,-0.930055,0.000000,0.367419
0.257593,-0.063029,0.187287,0.866025,0.000000,0.500000
-0.127525,-0.320601,0.054538,-0.919447,0.000000,0.393213
-0.138684,-0.270992,0.001888,-0.999907,0.000000,0.013613
-0.087187,0.041490,0.316725,0.000000,0.000000,1.000000
-0.033536,-0.181359,-0.134582,-0.241796,0.000000,-0.970327
0.288242,-0.077317,-0.134200,0.866025,0.000000,-0.500000
-0.324976,0.031092,0.070575,-0.866025,0.000000,0.500000
-0.024184,-0.214628,-0.136573,-0.174363,0.000000,-0.984681
-0.252558,-0.010896,-0.196007,-0.866025,0.000000,-0.500000
-0.056716,-0.438035,-0.126571,-0.408921,0.000000,-0.912570
0.042655,-0.356772,-0.131975,0.307541,0.000000,-0.951535
-0.032959,-0.411999,-0.134724,-0.237633,0.000000,-0.971355
-0.071946,-0.336270,-0.118578,-0.518729,0.000000,-0.854938
0.323201,0.032045,-0.073649,0.866025,0.000000,-0.500000
0.301342,-0.074283,0.111511,0.866025,0.000000,0.500000
-0.002545,0.096261,-0.012971,0.000000,1.000000,0.000000
-0.270205,0.083767,0.165441,-0.866025,0.000000,0.500000
-0.032198,-0.060844,-0.316725,-0.000000,0.000000,-1.000000
0.093124,-0.096261,0.053003,0.000000,-1.000000,0.000000
-0.155681,-0.063526,-0.316725,-0.000000,0.000000,-1.000000
0.236979,0.065293,0.222991,0.866025,0.000000,0.500000
0.046638,-0.639457,-0.060683,0.565787,0.371391,-0.736175
0.094051,-0.626058,0.014211,0.918056,0.371391,0.138715
0.133841,-0.484484,-0.036379,0.964990,0.000000,-0.262288
0.278100,0.035162,-0.151768,0.866025,0.000000,-0.500000
-0.323370,-0.038079,-0.073357,-0.866025,0.000000,-0.500000
0.273192,-0.025493,-0.160268,0.866025,0.000000,-0.500000
0.154135,0.069433,0.316725,0.000000,0.000000,1.000000
0.082069,-0.265708,0.111811,0.591710,0.000000,0.806151
-0.097868,-0.623680,0.010376,-0.923302,0.371391,0.097890
0.124523,-0.534370,-0.061082,0.897804,0.000000,-0.440395
-0.137111,-0.371439,0.020919,-0.988561,0.000000,0.150824
0.046447,-0.173824,-0.130689,0.334883,0.000000,-0.942260
0.200612,0.090181,-0.285980,0.866025,0.000000,-0.500000
-0.076109,-0.629317,0.049146,-0.779992,0.371391,0.503667
0.136169,-0.227373,-0.026360,0.981773,0.000000,-0.190056
-0.122700,-0.337958,-0.064665,-0.884663,0.000000,-0.466231
0.046867,-0.258998,0.130539,0.337908,0.000000,0.941179
-0.129635,-0.506098,-0.049313,-0.934659,0.000000,-0.355545
-0.303368,0.077290,0.108003,-0.866025,0.000000,0.500000
0.050553,-0.377289,0.129156,0.364481,0.000000,0.931211
-0.060170,0.000704,0.316725,0.000000,0.000000,1.000000
0.043246,-0.252648,0.131783,0.311799,0.000000,0.950148
0.130880,0.096261,-0.004867,0.000000,1.000000,0.000000
-0.047888,-0.625003,-0.083873,-0.460369,0.371391,-0.806306
-0.000128,0.096261,-0.002915,0.000000,1.000000,0.000000
-0.124792,-0.520669,0.060529,-0.899747,0.000000,0.436413
0.286544,0.091591,0.137142,0.866025,0.000000,0.500000
-0.036050,-0.096261,0.157226,0.000000,-1.000000,0.000000
0.034900,-0.654542,-0.043298,0.582670,0.371391,-0.722886
-0.042701,-0.618803,-0.096124,-0.376937,0.371391,-0.848521
-0.310307,0.055258,0.095983,-0.866025,0.000000,0.500000
0.218076,0.036610,0.255731,0.866025,0.000000,0.500000
0.211337,-0.078366,0.267403,0.866025,0.000000,0.500000
0.115704,-0.346064,-0.076482,0.834219,0.000000,-0.551434
-0.354752,0.060831,-0.019002,-0.866025,0.000000,-0.500000
-0.028341,-0.659383,-0.039846,-0.538150,0.371391,-0.756613
0.310191,0.004213,-0.096184,0.866025,0.000000,-0.500000
0.100433,-0.244432,0.095656,0.724120,0.000000,0.689674
-0.035294,-0.523090,0.134132,-0.254468,0.000000,0.967081
0.128790,0.041087,-0.316725,-0.000000,0.000000,-1.000000
0.104405,-0.573949,0.091305,0.752755,0.000000,0.658301
-0.073529,-0.641561,-0.003570,-0.927384,0.371391,-0.045027
0.137538,-0.543910,-0.017894,0.991643,0.000000,-0.129014
0.027612,-0.665066,-0.030328,0.625071,0.371391,-0.686553
-0.259691,-0.055496,-0.183652,-0.866025,0.000000,-0.500000
-0.063901,-0.644512,-0.027390,-0.853384,0.371391,-0.365793
0.062039,-0.093587,-0.316725,-0.000000,0.000000,-1.000000
-0.151888,-0.096261,0.139803,0.000000,-1.000000,0.000000
0.034021,-0.667193,0.017076,0.829811,0.371391,0.416512
-0.137319,-0.156278,-0.019507,-0.990060,0.000000,-0.140643
-0.051637,-0.539908,0.128727,-0.372300,0.000000,0.928112
-0.112394,-0.563512,0.081268,-0.810358,0.000000,0.585936
0.207421,0.028094,-0.274187,0.866025,0.000000,-0.500000
0.180289,-0.096261,0.232360,0.000000,-1.000000,0.000000
-0.115607,-0.397387,0.076629,-0.833520,0.000000,0.552489
-0.133538,-0.142933,-0.037478,-0.962799,0.000000,-0.270217
-0.055548,-0.130928,0.127088,-0.400496,0.000000,0.916299
0.126793,-0.333546,0.056219,0.914168,0.000000,0.405336
-0.023659,-0.668132,0.028138,-0.597523,0.371391,0.710658
0.309904,0.045395,0.096681,0.866025,0.000000,0.500000
0.046894,-0.060708,-0.316725,-0.000000,0.000000,-1.000000
0.183710,0.033765,-0.315256,0.866025,0.000000,-0.500000
0.199969,-0.066388,-0.287094,0.866025,0.000000,-0.500000
-0.055074,-0.012321,-0.316725,-0.000000,0.000000,-1.000000
-0.031841,0.096261,-0.139033,0.000000,1.000000,0.000000
0.032237,-0.301936,-0.134899,0.232428,0.000000,-0.972614
0.354470,0.028800,0.019491,0.866025,0.000000,0.500000
0.071018,-0.574145,-0.119136,0.512039,0.000000,-0.858962
-0.119751,-0.136081,-0.069976,-0.863398,0.000000,-0.504523
-0.030708,-0.289279,0.135255,-0.221404,0.000000,0.975182
-0.125469,-0.358116,-0.059115,-0.904622,0.000000,-0.426214
0.194480,0.046737,-0.296601,0.866025,0.000000,-0.500000
-0.039624,-0.664086,0.015019,-0.868205,0.371391,0.329073
0.108052,-0.090415,0.316725,0.000000,0.000000,1.000000
0.112195,-0.539862,-0.081543,0.808920,0.000000,-0.587919
-0.188765,0.043890,0.306500,-0.866025,0.000000,0.500000
-0.130495,-0.320100,0.046990,-0.940860,0.000000,0.338797
0.196713,0.054040,-0.292734,0.866025,0.000000,-0.500000
0.001232,-0.291399,-0.138692,0.008883,0.000000,-0.999961
-0.019943,0.013042,-0.316725,-0.000000,0.000000,-1.000000
-0.010057,-0.112924,-0.138332,-0.072507,0.000000,-0.997368
-0.026157,-0.663452,-0.034449,-0.561475,0.371391,-0.739469
-0.006872,0.096261,0.049892,0.000000,1.000000,0.000000
0.125250,-0.590156,-0.059577,0.903046,0.000000,-0.429544
0.053452,0.096261,0.142271,0.000000,1.000000,0.000000
0.331167,0.056454,0.059852,0.866025,0.000000,0.500000
-0.159735,-0.078602,-0.316725,-0.000000,0.000000,-1.000000
0.120999,-0.604539,-0.031235,0.899005,0.371391,-0.232073
0.013919,0.024143,0.316725,0.000000,0.000000,1.000000
0.029687,0.096261,-0.035469,0.000000,1.000000,0.000000
-0.005062,-0.307451,0.138605,-0.036497,0.000000,0.999334
-0.008128,0.074026,0.316725,0.000000,0.000000,1.000000
0.126630,0.096261,-0.057639,0.000000,1.000000,0.000000
0.041074,-0.632449,-0.075846,0.442140,0.371391,-0.816444
-0.090774,-0.204499,-0.104867,-0.654473,0.000000,-0.756085
-0.067119,-0.297877,0.121376,-0.483921,0.000000,0.875112
0.135396,-0.532549,0.030083,0.976195,0.000000,0.216894
-0.135313,-0.421454,-0.030453,-0.975597,0.000000,-0.219567
-0.016090,0.092391,0.316725,0.000000,0.000000,1.000000
0.124918,0.049438,0.316725,0.000000,0.000000,1.000000
0.097963,-0.372625,-0.098184,0.706309,0.000000,-0.707904
-0.050925,-0.498553,-0.129010,-0.367168,0.000000,-0.930155
-0.035482,-0.635876,0.073372,-0.404212,0.371391,0.835872
0.194001,0.027905,-0.297432,0.866025,0.000000,-0.500000
0.007025,-0.652581,-0.057908,0.111814,0.371391,-0.921719
0.023491,-0.329911,0.136693,0.169370,0.000000,0.985553
0.084518,0.078574,-0.316725,-0.000000,0.000000,-1.000000
-0.146355,-0.013966,0.316725,0.000000,0.000000,1.000000
-0.138638,-0.188305,-0.004059,-0.999572,0.000000,-0.029266
-0.290463,-0.074470,0.130353,-0.866025,0.000000,0.500000
0.120436,-0.502763,0.068791,0.868336,0.000000,0.495976
-0.233076,-0.024772,-0.229752,-0.866025,0.000000,-0.500000
0.168065,0.053914,0.316725,0.000000,0.000000,1.000000
0.316763,0.045489,-0.084801,0.866025,0.000000,-0.500000
-0.291531,0.025695,-0.128503,-0.866025,0.000000,-0.500000
-0.279739,-0.044186,-0.148928,-0.866025,0.000000,-0.500000
0.000552,-0.667916,0.037059,0.013839,0.371391,0.928374
0.067827,-0.641288,-0.029578,0.851075,0.371391,-0.371133
-0.022068,-0.174483,0.136930,-0.159107,0.000000,0.987261
0.115966,-0.338179,-0.076085,0.836107,0.000000,-0.548566
-0.362660,0.048818,-0.005306,-0.866025,0.000000,-0.500000
0.118504,-0.263751,0.072067,0.854409,0.000000,0.519601
-0.193624,-0.012070,-0.298084,-0.866025,0.000000,-0.500000
-0.062243,-0.628121,-0.068097,-0.626414,0.371391,-0.685328
0.012675,-0.096261,-0.116703,0.000000,-1.000000,0.000000
-0.241558,-0.048307,-0.215060,-0.866025,0.000000,-0.500000
-0.068112,-0.314297,-0.120821,-0.491083,0.000000,-0.871113
-0.011761,-0.587911,0.138198,-0.084796,0.000000,0.996398
-0.267569,-0.081227,0.170008,-0.866025,0.000000,0.500000
-0.287076,-0.045216,-0.136221,-0.866025,0.000000,-0.500000
-0.138587,-0.141875,0.005535,-0.999203,0.000000,0.039907
0.108626,-0.152421,0.086240,0.783188,0.000000,0.621784
-0.268879,0.052343,0.167739,-0.866025,0.000000,0.500000
0.266726,0.092610,0.171468,0.866025,0.000000,0.500000
0.188801,0.056430,0.306438,0.866025,0.000000,0.500000
-0.120031,-0.175654,-0.069494,-0.865420,0.000000,-0.501046
-0.041174,-0.215122,0.132445,-0.296862,0.000000,0.954921
0.125671,-0.439267,-0.058683,0.906084,0.000000,-0.423098
0.321417,-0.022355,0.076740,0.866025,0.000000,0.500000
0.035164,-0.656251,0.039977,0.613223,0.371391,0.697156
-0.053654,-0.572136,0.127899,-0.386844,0.000000,0.922145
0.100262,-0.612663,-0.053614,0.818766,0.371391,-0.437826
-0.042594,-0.241019,0.131995,-0.307100,0.000000,0.951677
-0.061841,-0.647378,0.021733,-0.875960,0.371391,0.307835
-0.186326,-0.076815,0.310724,-0.866025,0.000000,0.500000
-0.009135,-0.596262,0.136139,-0.062161,0.371391,0.926394
0.060830,-0.649336,0.015736,0.898886,0.371391,0.232537
0.103146,-0.616688,-0.032397,0.885810,0.371391,-0.278225
-0.107458,-0.482803,-0.087692,-0.774763,0.000000,-0.632252
-0.159178,-0.006061,-0.316725,-0.000000,0.000000,-1.000000
0.138697,-0.431989,-0.000340,0.999997,0.000000,-0.002454
0.026049,-0.664361,-0.032938,0.575937,0.371391,-0.728262
0.242962,-0.011459,-0.212628,0.866025,0.000000,-0.500000
0.043232,-0.475071,0.131787,0.311704,0.000000,0.950179
-0.243301,-0.031627,0.212042,-0.866025,0.000000,0.500000
0.022967,-0.165362,0.136782,0.165593,0.000000,0.986194
0.032074,-0.393141,0.134938,0.231253,0.000000,0.972894
0.101627,-0.565864,0.094387,0.732727,0.000000,0.680523
-0.057923,-0.250899,0.126023,-0.417624,0.000000,0.908620
-0.127535,0.090240,0.316725,0.000000,0.000000,1.000000
0.094233,-0.479301,-0.101770,0.679413,0.000000,-0.733756
0.069226,-0.404055,0.120186,0.499117,0.000000,0.866534
-0.017276,0.009823,-0.316725,-0.000000,0.000000,-1.000000
-0.175703,0.016833,0.316725,0.000000,0.000000,1.000000
-0.135729,-0.368796,-0.028541,-0.978599,0.000000,-0.205777
0.080825,-0.158131,0.112713,0.582743,0.000000,0.812657
-0.011388,0.013111,-0.316725,-0.000000,0.000000,-1.000000
0.127824,-0.306511,-0.053833,0.921603,0.000000,-0.388135
0.042780,-0.644307,0.055163,0.569000,0.371391,0.733695
-0.271452,0.054719,0.163281,-0.866025,0.000000,0.500000
0.000253,-0.651554,-0.059756,0.003929,0.371391,-0.928468
0.107135,-0.498258,-0.088086,0.772435,0.000000,-0.635094
-0.068155,-0.448448,0.120797,-0.491393,0.000000,0.870938
0.134036,-0.294718,0.035654,0.966395,0.000000,0.257060
-0.114269,-0.415047,-0.078609,-0.823877,0.000000,-0.566769
0.009138,0.070385,-0.316725,-0.000000,0.000000,-1.000000
-0.133251,-0.127621,-0.038484,-0.960734,0.000000,-0.277470
0.216337,0.033528,0.258744,0.866025,0.000000,0.500000
-0.250773,0.096261,-0.120161,0.000000,1.000000,0.000000
0.050120,-0.632746,-0.069692,0.542100,0.371391,-0.753788
-0.035625,-0.431047,-0.134044,-0.256854,0.000000,-0.966450
0.331623,-0.001412,0.059063,0.866025,0.000000,0.500000
-0.003665,-0.530830,-0.138649,-0.026425,0.000000,-0.999651
-0.069126,-0.180743,0.120244,-0.498393,0.000000,0.866951
-0.127526,0.055030,0.316725,0.000000,0.000000,1.000000
-0.069688,-0.621279,0.074135,-0.635926,0.371391,0.676511
-0.112849,-0.146908,0.080635,-0.813637,0.000000,0.581373
0.012979,-0.096261,-0.073931,0.000000,-1.000000,0.000000
-0.033646,-0.069338,-0.316725,-0.000000,0.000000,-1.000000
0.043135,-0.620215,0.093778,0.387994,0.371391,0.843522
-0.135517,-0.029537,0.316725,0.000000,0.000000,1.000000
0.336940,0.061902,-0.049854,0.866025,0.000000,-0.500000
0.117766,-0.325402,0.073268,0.849084,0.000000,0.528258
0.355175,-0.088879,0.018269,0.866025,0.000000,0.500000
0.105295,-0.159525,0.090276,0.759174,0.000000,0.650887
0.105333,-0.404453,0.090232,0.759445,0.000000,0.650571
0.231312,0.096261,-0.172492,0.000000,1.000000,0.000000
0.109364,0.063668,0.316725,0.000000,0.000000,1.000000
-0.067789,-0.443056,0.121003,-0.488753,0.000000,0.872422
0.087717,-0.631061,0.009020,0.923607,0.371391,0.094971
0.127943,-0.480617,0.053549,0.922464,0.000000,0.386083
