x,y,z,nx,ny,nz
0.335092,-0.019198,-0.037677,0.000000,-1.000000,0.000000
0.050355,-0.019198,0.202453,0.000000,-1.000000,0.000000
-0.048418,-0.019198,0.121558,0.000000,-1.000000,0.000000
0.066478,0.019198,0.173489,0.000000,1.000000,0.000000
-0.147353,0.019198,0.332815,0.000000,1.000000,0.000000
-0.294572,0.012533,0.303340,-0.696663,0.000000,0.717399
0.360743,-0.019198,0.184760,0.000000,-1.000000,0.000000
-0.210577,0.019198,0.340179,0.000000,1.000000,0.000000
-0.140337,0.019198,-0.182313,0.000000,1.000000,0.000000
0.133876,-0.019198,-0.332505,0.000000,-1.000000,0.000000
-0.343167,0.019198,-0.143936,0.000000,1.000000,0.000000
-0.077119,-0.019198,0.177610,0.000000,-1.000000,0.000000
-0.279613,0.019198,-0.115788,0.000000,1.000000,0.000000
0.029107,0.019198,0.173596,0.000000,1.000000,0.000000
0.129135,-0.019198,-0.260500,0.000000,-1.000000,0.000000
0.367937,-0.019198,0.034718,0.000000,-1.000000,0.000000
-0.085905,0.015479,0.084474,0.713021,0.000000,-0.701143
-0.282548,-0.019198,0.155722,0.000000,-1.000000,0.000000
-0.173905,0.019198,-0.194292,0.000000,1.000000,0.000000
-0.150063,-0.019198,0.162035,0.000000,-1.000000,0.000000
0.137264,0.019198,0.146672,0.000000,1.000000,0.000000
-0.079566,-0.019198,0.095207,0.000000,-1.000000,0.000000
0.400162,-0.019198,-0.013831,0.000000,-1.000000,0.000000
0.181493,-0.016118,-0.381901,0.429230,0.000000,-0.903195
0.191706,-0.016146,0.376878,0.453383,0.000000,0.891316
0.170169,0.019198,-0.038907,0.000000,1.000000,0.000000
-0.044185,0.019198,0.164012,0.000000,1.000000,0.000000
-0.181764,0.019198,-0.148682,0.000000,1.000000,0.000000
0.040745,-0.019198,-0.237750,0.000000,-1.000000,0.000000
0.257780,-0.019198,-0.251191,0.000000,-1.000000,0.000000
0.250729,-0.019198,-0.197469,0.000000,-1.000000,0.000000
-0.200778,-0.019198,0.334388,0.000000,-1.000000,0.000000
0.023489,0.019198,0.314372,0.000000,1.000000,0.000000
0.115436,-0.019198,0.110644,0.000000,-1.000000,0.000000
0.095401,-0.019198,-0.092444,0.000000,-1.000000,0.000000
-0.001940,0.016541,0.422829,-0.004587,0.000000,0.999989
-0.301028,-0.019198,-0.206649,0.000000,-1.000000,0.000000
-0.049940,-0.019198,-0.316759,0.000000,-1.000000,0.000000
-0.403317,0.019198,-0.081470,0.000000,1.000000,0.000000
-0.195226,-0.019198,0.175742,0.000000,-1.000000,0.000000
0.047210,0.019198,-0.195773,0.000000,1.000000,0.000000
0.076924,0.019198,-0.112749,0.000000,1.000000,0.000000
-0.064195,0.019198,0.313399,0.000000,1.000000,0.000000
-0.059497,0.015472,-0.104765,0.493834,0.000000,0.869556
-0.170079,0.019198,-0.068861,0.000000,1.000000,0.000000
-0.013156,-0.019198,0.187210,0.000000,-1.000000,0.000000
0.143709,0.019198,0.016048,0.000000,1.000000,0.000000
0.240733,-0.019198,-0.003547,0.000000,-1.000000,0.000000
-0.003428,-0.019198,0.249834,0.000000,-1.000000,0.000000
-0.101029,0.019198,0.190317,0.000000,1.000000,0.000000
-0.270172,-0.002541,-0.325262,-0.638957,0.000000,-0.769243
0.048032,0.019198,0.238705,0.000000,1.000000,0.000000
0.296785,-0.019198,0.021377,0.000000,-1.000000,0.000000
0.020286,0.019198,-0.197361,0.000000,1.000000,0.000000
-0.326079,0.019198,0.160543,0.000000,1.000000,0.000000
-0.115684,0.019198,0.150416,0.000000,1.000000,0.000000
-0.196351,-0.019198,0.161322,0.000000,-1.000000,0.000000
0.283580,0.019198,0.156155,0.000000,1.000000,0.000000
0.208706,-0.019198,-0.142093,0.000000,-1.000000,0.000000
0.373168,0.004340,0.198831,0.882541,0.000000,0.470235
-0.225432,-0.019198,0.083180,0.000000,-1.000000,0.000000
-0.219736,-0.019198,0.183408,0.000000,-1.000000,0.000000
-0.161125,-0.019198,-0.097073,0.000000,-1.000000,0.000000
-0.210160,-0.019198,0.041788,0.000000,-1.000000,0.000000
0.391657,-0.019198,0.153392,0.000000,-1.000000,0.000000
0.217481,-0.019198,0.067124,0.000000,-1.000000,0.000000
0.330815,0.019198,0.247322,0.000000,1.000000,0.000000
0.324484,-0.019198,-0.044379,0.000000,-1.000000,0.000000
-0.262217,-0.019198,0.270973,0.000000,-1.000000,0.000000
0.049894,0.019198,-0.390410,0.000000,1.000000,0.000000
0.137957,-0.019198,-0.098168,0.000000,-1.000000,0.000000
0.325611,-0.019198,0.185208,0.000000,-1.000000,0.000000
-0.378378,-0.019198,-0.169004,0.000000,-1.000000,0.000000
-0.410123,-0.019198,0.049459,0.000000,-1.000000,0.000000
-0.019787,-0.019198,0.295352,0.000000,-1.000000,0.000000
-0.060930,-0.019198,0.248262,0.000000,-1.000000,0.000000
-0.012333,-0.019198,-0.217597,0.000000,-1.000000,0.000000
-0.076450,-0.019198,0.142112,0.000000,-1.000000,0.000000
0.021039,0.019198,0.225496,0.000000,1.000000,0.000000
-0.088668,0.003460,0.081569,0.735955,0.000000,-0.677030
-0.161073,-0.019198,-0.089124,0.000000,-1.000000,0.000000
0.360743,-0.019198,0.184760,0.000000,-1.000000,0.000000
-0.110695,0.019198,-0.403683,0.000000,1.000000,0.000000
0.209270,0.019198,-0.345082,0.000000,1.000000,0.000000
-0.059111,-0.019198,-0.184161,0.000000,-1.000000,0.000000
0.088061,-0.019198,-0.178794,0.000000,-1.000000,0.000000
-0.271833,0.019198,-0.011142,0.000000,1.000000,0.000000
0.028167,0.019198,-0.139292,0.000000,1.000000,0.000000
-0.349971,0.019198,0.084118,0.000000,1.000000,0.000000
0.118626,-0.019198,-0.229368,0.000000,-1.000000,0.000000
-0.082739,0.019198,0.265594,0.000000,1.000000,0.000000
0.078475,-0.019198,-0.243277,0.000000,-1.000000,0.000000
0.052305,0.011774,-0.108535,-0.434137,0.000000,0.900847
0.254245,-0.019198,0.177566,0.000000,-1.000000,0.000000
0.123437,0.019198,-0.282835,0.000000,1.000000,0.000000
0.047210,0.019198,-0.195773,0.000000,1.000000,0.000000
-0.368283,0.012790,-0.207739,-0.870989,0.000000,-0.491303
0.261777,0.019198,-0.048926,0.000000,1.000000,0.000000
-0.061594,-0.019198,0.109982,0.000000,-1.000000,0.000000
0.097051,0.004583,-0.071391,-0.805531,0.000000,0.592553
0.366800,-0.019198,0.014631,0.000000,-1.000000,0.000000
0.254478,-0.019198,-0.040502,0.000000,-1.000000,0.000000
-0.150168,-0.019198,0.215225,0.000000,-1.000000,0.000000
0.102278,-0.019198,0.112383,0.000000,-1.000000,0.000000
-0.149003,-0.019198,0.188750,0.000000,-1.000000,0.000000
-0.144174,-0.019198,0.083881,0.000000,-1.000000,0.000000
0.279554,-0.019198,-0.081443,0.000000,-1.000000,0.000000
-0.233138,-0.019198,0.056490,0.000000,-1.000000,0.000000
-0.333303,0.019198,-0.049025,0.000000,1.000000,0.000000
0.350937,0.019198,-0.235427,0.000000,1.000000,0.000000
-0.362197,-0.019198,-0.111131,0.000000,-1.000000,0.000000
-0.085530,-0.002014,0.084854,0.709903,0.000000,-0.704299
0.293312,-0.019198,-0.202483,0.000000,-1.000000,0.000000
-0.109797,-0.010666,-0.049600,0.911325,0.000000,0.411688
-0.217567,-0.019198,0.147803,0.000000,-1.000000,0.000000
-0.161505,-0.019198,-0.266166,0.000000,-1.000000,0.000000
-0.003969,-0.019198,-0.224373,0.000000,-1.000000,0.000000
-0.052524,0.019198,-0.356959,0.000000,1.000000,0.000000
0.129135,-0.019198,-0.260500,0.000000,-1.000000,0.000000
-0.164216,0.019198,-0.112233,0.000000,1.000000,0.000000
-0.371625,0.019198,0.027843,0.000000,1.000000,0.000000
-0.113947,0.019198,-0.306981,0.000000,1.000000,0.000000
-0.064195,0.019198,0.313399,0.000000,1.000000,0.000000
-0.032135,-0.019198,0.116289,0.000000,-1.000000,0.000000
-0.211661,-0.019198,0.219544,0.000000,-1.000000,0.000000
-0.009369,0.019198,-0.152205,0.000000,1.000000,0.000000
0.162277,-0.019198,0.260077,0.000000,-1.000000,0.000000
-0.301028,-0.019198,-0.206649,0.000000,-1.000000,0.000000
0.160002,0.019198,0.209349,0.000000,1.000000,0.000000
-0.114375,0.019198,0.080951,0.000000,1.000000,0.000000
0.180034,0.019198,-0.279931,0.000000,1.000000,0.000000
0.099466,-0.002953,0.410968,0.235237,0.000000,0.971938
0.088368,0.019198,0.170445,0.000000,1.000000,0.000000
-0.121108,-0.019198,0.207389,0.000000,-1.000000,0.000000
-0.022753,-0.019198,-0.258291,0.000000,-1.000000,0.000000
0.118730,0.019198,-0.183067,0.000000,1.000000,0.000000
0.072549,-0.019198,-0.251784,0.000000,-1.000000,0.000000
-0.294179,0.019198,0.256677,0.000000,1.000000,0.000000
0.073539,0.019198,-0.147981,0.000000,1.000000,0.000000
-0.139081,0.019198,-0.289456,0.000000,1.000000,0.000000
0.255999,0.019198,-0.183641,0.000000,1.000000,0.000000
0.146644,-0.019198,-0.054656,0.000000,-1.000000,0.000000
-0.361264,0.019198,0.089190,0.000000,1.000000,0.000000
0.262496,0.019198,0.202160,0.000000,1.000000,0.000000
-0.354867,0.019198,0.149924,0.000000,1.000000,0.000000
0.092532,-0.019198,0.342299,0.000000,-1.000000,0.000000
-0.219086,-0.019198,0.129745,0.000000,-1.000000,0.000000
-0.389106,-0.019198,-0.017363,0.000000,-1.000000,0.000000
-0.218908,-0.019198,0.056728,0.000000,-1.000000,0.000000
0.347173,-0.019198,0.005889,0.000000,-1.000000,0.000000
-0.093170,0.019198,0.175804,0.000000,1.000000,0.000000
0.042113,0.008222,0.112881,-0.349540,0.000000,-0.936921
0.237572,-0.019198,-0.049005,0.000000,-1.000000,0.000000
-0.146741,-0.019198,-0.315567,0.000000,-1.000000,0.000000
-0.079381,-0.019198,-0.209940,0.000000,-1.000000,0.000000
-0.155536,-0.019198,0.202574,0.000000,-1.000000,0.000000
0.106173,0.017985,0.056947,-0.881241,0.000000,-0.472667
-0.052524,0.019198,-0.356959,0.000000,1.000000,0.000000
-0.181653,0.019198,-0.039677,0.000000,1.000000,0.000000
-0.413657,0.007036,0.087615,-0.978296,0.000000,0.207210
0.270683,0.019198,0.263501,0.000000,1.000000,0.000000
0.033359,0.019198,0.134369,0.000000,1.000000,0.000000
-0.010929,0.019198,-0.360240,0.000000,1.000000,0.000000
-0.080646,0.019198,0.318070,0.000000,1.000000,0.000000
0.192057,-0.019198,-0.372412,0.000000,-1.000000,0.000000
-0.155492,-0.019198,0.162003,0.000000,-1.000000,0.000000
-0.058189,0.019198,0.345688,0.000000,1.000000,0.000000
-0.127590,-0.019198,-0.054109,0.000000,-1.000000,0.000000
-0.312539,0.009172,0.284794,-0.739154,0.000000,0.673536
-0.183194,-0.017962,0.381088,-0.433253,0.000000,0.901273
-0.113178,-0.019198,0.083656,0.000000,-1.000000,0.000000
0.083411,0.019198,-0.225280,0.000000,1.000000,0.000000
0.243045,0.019198,0.304329,0.000000,1.000000,0.000000
0.111574,-0.019198,0.187712,0.000000,-1.000000,0.000000
-0.276135,-0.019198,-0.258615,0.000000,-1.000000,0.000000
-0.043204,0.019198,0.238802,0.000000,1.000000,0.000000
0.119966,0.010899,-0.011130,-0.995724,0.000000,0.092376
0.223889,0.019198,-0.164134,0.000000,1.000000,0.000000
-0.217017,0.019198,0.023254,0.000000,1.000000,0.000000
0.095733,-0.019198,-0.380262,0.000000,-1.000000,0.000000
-0.403317,0.019198,-0.081470,0.000000,1.000000,0.000000
-0.362197,-0.019198,-0.111131,0.000000,-1.000000,0.000000
0.290377,0.019198,0.076709,0.000000,1.000000,0.000000
-0.363142,-0.019198,0.196797,0.000000,-1.000000,0.000000
-0.131903,-0.019198,0.131003,0.000000,-1.000000,0.000000
-0.354483,-0.019198,-0.199323,0.000000,-1.000000,0.000000
0.401718,-0.019198,-0.106308,0.000000,-1.000000,0.000000
-0.001940,0.016541,0.422829,-0.004587,0.000000,0.999989
-0.222875,0.019198,0.088355,0.000000,1.000000,0.000000
0.184796,-0.019198,0.017514,0.000000,-1.000000,0.000000
0.279554,-0.019198,-0.081443,0.000000,-1.000000,0.000000
-0.120881,-0.019198,-0.006201,0.000000,-1.000000,0.000000
0.047210,0.019198,-0.195773,0.000000,1.000000,0.000000
0.329406,-0.019198,-0.162776,0.000000,-1.000000,0.000000
-0.060253,-0.019198,-0.263723,0.000000,-1.000000,0.000000
-0.326079,0.019198,0.160543,0.000000,1.000000,0.000000
0.387174,0.019198,-0.026979,0.000000,1.000000,0.000000
0.069693,-0.019198,0.114355,0.000000,-1.000000,0.000000
-0.083259,-0.019198,0.265412,0.000000,-1.000000,0.000000
-0.043089,-0.002436,0.420632,-0.101907,0.000000,0.994794
-0.204305,0.019198,-0.074257,0.000000,1.000000,0.000000
-0.420830,0.005463,-0.041116,-0.995261,0.000000,-0.097239
-0.119720,-0.007295,-0.013518,0.993686,0.000000,0.112199
0.254478,-0.019198,-0.040502,0.000000,-1.000000,0.000000
-0.055063,0.019198,0.117256,0.000000,1.000000,0.000000
-0.137093,-0.019198,-0.182821,0.000000,-1.000000,0.000000
0.011038,-0.014021,0.422689,0.026105,0.000000,0.999659
0.059082,-0.019198,0.263417,0.000000,-1.000000,0.000000
0.319872,0.019198,-0.116555,0.000000,1.000000,0.000000
-0.164216,0.019198,-0.112233,0.000000,1.000000,0.000000
-0.311917,-0.019198,-0.063637,0.000000,-1.000000,0.000000
0.205385,0.019198,-0.177644,0.000000,1.000000,0.000000
0.024095,-0.019198,0.120388,0.000000,-1.000000,0.000000
0.205385,0.019198,-0.177644,0.000000,1.000000,0.000000
0.023828,0.019198,-0.207213,0.000000,1.000000,0.000000
-0.225361,0.019198,0.206212,0.000000,1.000000,0.000000
0.061147,0.005798,0.103811,-0.507526,0.000000,-0.861636
-0.371616,-0.019198,-0.150371,0.000000,-1.000000,0.000000
0.149328,0.019198,0.240484,0.000000,1.000000,0.000000
0.197738,-0.019198,0.000728,0.000000,-1.000000,0.000000
-0.160893,-0.019198,-0.179423,0.000000,-1.000000,0.000000
-0.275148,-0.019198,-0.076965,0.000000,-1.000000,0.000000
-0.410123,-0.019198,0.049459,0.000000,-1.000000,0.000000
-0.004828,0.019198,0.145891,0.000000,1.000000,0.000000
-0.233648,0.019198,-0.080416,0.000000,1.000000,0.000000
0.149690,0.019198,0.264368,0.000000,1.000000,0.000000
0.097874,-0.019198,0.147812,0.000000,-1.000000,0.000000
-0.055984,0.019198,-0.418081,0.000000,1.000000,0.000000
-0.160310,0.019198,-0.020492,0.000000,1.000000,0.000000
-0.092862,0.019198,0.109812,0.000000,1.000000,0.000000
-0.233648,0.019198,-0.080416,0.000000,1.000000,0.000000
-0.020327,-0.019198,0.287540,0.000000,-1.000000,0.000000
-0.003790,0.019198,-0.227630,0.000000,1.000000,0.000000
0.113429,0.019198,-0.346055,0.000000,1.000000,0.000000
0.061750,-0.010654,0.103453,-0.512531,0.000000,-0.858669
-0.408019,-0.019198,0.013799,0.000000,-1.000000,0.000000
0.145208,0.019198,0.062378,0.000000,1.000000,0.000000
0.026843,-0.013163,0.117452,-0.222795,0.000000,-0.974865
-0.063388,0.019198,0.157325,0.000000,1.000000,0.000000
0.077826,0.019198,0.107124,0.000000,1.000000,0.000000
0.240972,0.019198,-0.237727,0.000000,1.000000,0.000000
-0.233138,-0.019198,0.056490,0.000000,-1.000000,0.000000
-0.238228,-0.019198,-0.026490,0.000000,-1.000000,0.000000
0.237572,-0.019198,-0.049005,0.000000,-1.000000,0.000000
0.097051,0.004583,-0.071391,-0.805531,0.000000,0.592553
-0.055066,-0.019198,-0.220873,0.000000,-1.000000,0.000000
-0.329893,-0.019198,-0.013495,0.000000,-1.000000,0.000000
0.120820,0.019198,-0.198600,0.000000,1.000000,0.000000
0.051378,-0.019198,0.411721,0.000000,-1.000000,0.000000
0.112649,-0.019198,0.077855,0.000000,-1.000000,0.000000
0.329617,0.019198,-0.092578,0.000000,1.000000,0.000000
0.073193,0.019198,-0.266078,0.000000,1.000000,0.000000
-0.400844,-0.019198,-0.051286,0.000000,-1.000000,0.000000
-0.075920,-0.008037,-0.093550,0.630145,0.000000,0.776477
-0.304629,-0.019198,0.273913,0.000000,-1.000000,0.000000
0.082531,-0.019198,0.109919,0.000000,-1.000000,0.000000
0.252036,0.019198,-0.108695,0.000000,1.000000,0.000000
0.067656,0.019198,0.134655,0.000000,1.000000,0.000000
0.110381,-0.007139,0.048287,-0.916173,0.000000,-0.400784
-0.037303,0.009927,0.114560,0.309618,0.000000,-0.950861
-0.015125,0.010688,0.119528,0.125537,0.000000,-0.992089
0.071227,0.019198,0.098865,0.000000,1.000000,0.000000
0.132847,0.019198,-0.373599,0.000000,1.000000,0.000000
0.110230,0.019198,-0.365855,0.000000,1.000000,0.000000
-0.002231,0.019198,0.142027,0.000000,1.000000,0.000000
0.312376,0.019198,0.147563,0.000000,1.000000,0.000000
-0.001199,-0.002194,-0.120475,0.009955,0.000000,0.999950
0.005392,-0.019198,-0.152049,0.000000,-1.000000,0.000000
-0.109383,-0.019198,-0.166598,0.000000,-1.000000,0.000000
-0.225459,-0.019198,0.157196,0.000000,-1.000000,0.000000
0.068773,0.019198,-0.244002,0.000000,1.000000,0.000000
0.139670,0.019198,-0.279092,0.000000,1.000000,0.000000
0.092519,-0.015987,0.077175,-0.767912,0.000000,-0.640556
-0.174015,0.019198,0.090608,0.000000,1.000000,0.000000
-0.064981,0.019198,-0.104606,0.000000,1.000000,0.000000
-0.093170,0.019198,0.175804,0.000000,1.000000,0.000000
0.422832,0.003108,0.001009,0.999997,0.000000,0.002385
0.252036,0.019198,-0.108695,0.000000,1.000000,0.000000
-0.008180,-0.019198,-0.181812,0.000000,-1.000000,0.000000
-0.363868,-0.014563,-0.215379,-0.860547,0.000000,-0.509371
0.323936,0.019198,-0.096239,0.000000,1.000000,0.000000
0.202415,0.019198,-0.057023,0.000000,1.000000,0.000000
-0.174918,0.019198,-0.199172,0.000000,1.000000,0.000000
0.251856,-0.019198,0.199175,0.000000,-1.000000,0.000000
-0.181764,0.019198,-0.148682,0.000000,1.000000,0.000000
-0.167693,-0.019198,0.028992,0.000000,-1.000000,0.000000
-0.029107,0.019198,-0.421385,0.000000,1.000000,0.000000
0.038684,-0.019198,0.123523,0.000000,-1.000000,0.000000
-0.143763,-0.019198,-0.087892,0.000000,-1.000000,0.000000
-0.228327,-0.019198,0.175564,0.000000,-1.000000,0.000000
-0.120015,-0.019198,0.311555,0.000000,-1.000000,0.000000
0.053368,-0.019198,-0.114124,0.000000,-1.000000,0.000000
-0.303340,0.019198,0.212246,0.000000,1.000000,0.000000
-0.347024,-0.019198,-0.012582,0.000000,-1.000000,0.000000
-0.078014,-0.019198,-0.305660,0.000000,-1.000000,0.000000
0.116127,0.019198,-0.145010,0.000000,1.000000,0.000000
0.113854,0.005783,-0.039407,-0.944997,0.000000,0.327080
-0.240091,-0.019198,-0.059911,0.000000,-1.000000,0.000000
0.327666,0.019198,-0.251654,0.000000,1.000000,0.000000
-0.233040,-0.019198,0.303624,0.000000,-1.000000,0.000000
-0.229175,0.019198,-0.071680,0.000000,1.000000,0.000000
-0.015125,0.010688,0.119528,0.125537,0.000000,-0.992089
-0.409148,0.019198,-0.053147,0.000000,1.000000,0.000000
-0.127766,-0.019198,-0.064882,0.000000,-1.000000,0.000000
-0.262108,-0.019198,0.192773,0.000000,-1.000000,0.000000
-0.002445,-0.019198,0.267186,0.000000,-1.000000,0.000000
-0.208466,-0.019198,-0.179611,0.000000,-1.000000,0.000000
-0.060253,-0.019198,-0.263723,0.000000,-1.000000,0.000000
-0.022850,0.019198,0.330722,0.000000,1.000000,0.000000
-0.298947,0.016322,0.299030,-0.707008,0.000000,0.707206
0.144681,0.019198,0.008568,0.000000,1.000000,0.000000
-0.273112,0.019198,0.150128,0.000000,1.000000,0.000000
-0.375635,0.019198,-0.080505,0.000000,1.000000,0.000000
-0.060097,0.019198,-0.152437,0.000000,1.000000,0.000000
0.374841,0.019198,0.096975,0.000000,1.000000,0.000000
0.275995,-0.019198,-0.287657,0.000000,-1.000000,0.000000
-0.260846,0.019198,-0.315968,0.000000,1.000000,0.000000
-0.144723,-0.019198,0.053136,0.000000,-1.000000,0.000000
-0.099840,-0.018904,-0.067436,0.828681,0.000000,0.559721
0.244346,-0.019198,0.188069,0.000000,-1.000000,0.000000
-0.339076,-0.019198,0.067561,0.000000,-1.000000,0.000000
0.122005,0.019198,0.306998,0.000000,1.000000,0.000000
-0.260846,0.019198,-0.315968,0.000000,1.000000,0.000000
-0.294455,-0.019198,-0.139281,0.000000,-1.000000,0.000000
-0.155492,-0.019198,0.162003,0.000000,-1.000000,0.000000
-0.031185,-0.019198,-0.375086,0.000000,-1.000000,0.000000
-0.109064,0.019198,0.222004,0.000000,1.000000,0.000000
-0.135586,-0.019198,0.177745,0.000000,-1.000000,0.000000
0.093563,-0.019198,-0.369740,0.000000,-1.000000,0.000000
-0.043204,0.019198,0.238802,0.000000,1.000000,0.000000
-0.173954,-0.019198,-0.005970,0.000000,-1.000000,0.000000
-0.304629,-0.019198,0.273913,0.000000,-1.000000,0.000000
0.005741,-0.016983,0.120344,-0.047649,0.000000,-0.998864
-0.073492,0.019198,-0.123576,0.000000,1.000000,0.000000
0.066478,0.019198,0.173489,0.000000,1.000000,0.000000
-0.059897,0.019198,-0.156932,0.000000,1.000000,0.000000
-0.110263,-0.019198,0.087966,0.000000,-1.000000,0.000000
0.189883,-0.015300,0.377799,0.449074,0.000000,0.893495
-0.020327,-0.019198,0.287540,0.000000,-1.000000,0.000000
-0.097245,0.019198,0.072774,0.000000,1.000000,0.000000
-0.363197,-0.019198,-0.200565,0.000000,-1.000000,0.000000
0.323936,0.019198,-0.096239,0.000000,1.000000,0.000000
0.092891,-0.019198,-0.262324,0.000000,-1.000000,0.000000
0.103306,-0.019198,-0.394553,0.000000,-1.000000,0.000000
0.201422,-0.019198,-0.282242,0.000000,-1.000000,0.000000
0.016602,0.019198,-0.163366,0.000000,1.000000,0.000000
0.115838,-0.007535,0.033124,-0.961464,0.000000,-0.274930
-0.096071,0.019198,0.087084,0.000000,1.000000,0.000000
-0.238228,-0.019198,-0.026490,0.000000,-1.000000,0.000000
0.075139,-0.019198,0.360321,0.000000,-1.000000,0.000000
0.141643,0.019198,-0.115639,0.000000,1.000000,0.000000
0.063885,-0.019198,-0.186592,0.000000,-1.000000,0.000000
0.419694,0.002120,0.051428,0.992576,0.000000,0.121627
-0.099840,-0.018904,-0.067436,0.828681,0.000000,0.559721
-0.196620,-0.019198,-0.142584,0.000000,-1.000000,0.000000
-0.242285,0.019198,0.198208,0.000000,1.000000,0.000000
-0.064085,0.019198,-0.316992,0.000000,1.000000,0.000000
0.012105,0.019198,-0.378841,0.000000,1.000000,0.000000
0.238458,0.014412,-0.349179,0.563953,0.000000,-0.825807
-0.363142,-0.019198,0.196797,0.000000,-1.000000,0.000000
-0.192247,0.019198,-0.159346,0.000000,1.000000,0.000000
0.173748,0.019198,0.048781,0.000000,1.000000,0.000000
0.052761,-0.019198,0.110648,0.000000,-1.000000,0.000000
0.069636,-0.019198,0.407973,0.000000,-1.000000,0.000000
0.230034,0.019198,-0.151144,0.000000,1.000000,0.000000
0.107675,-0.019198,0.172747,0.000000,-1.000000,0.000000
0.091713,0.019198,0.229182,0.000000,1.000000,0.000000
0.285049,-0.019198,0.239817,0.000000,-1.000000,0.000000
0.162394,-0.019198,0.139255,0.000000,-1.000000,0.000000
-0.313858,-0.019198,0.209046,0.000000,-1.000000,0.000000
0.040310,-0.019198,0.180095,0.000000,-1.000000,0.000000
-0.184430,-0.019198,0.214193,0.000000,-1.000000,0.000000
-0.032135,-0.019198,0.116289,0.000000,-1.000000,0.000000
-0.179961,-0.019198,-0.096190,0.000000,-1.000000,0.000000
-0.122135,-0.019198,0.225267,0.000000,-1.000000,0.000000
0.300498,-0.019198,-0.043429,0.000000,-1.000000,0.000000
0.214879,-0.019198,-0.140173,0.000000,-1.000000,0.000000
0.204727,0.019198,0.019028,0.000000,1.000000,0.000000
0.061147,0.005798,0.103811,-0.507526,0.000000,-0.861636
0.105649,-0.019198,-0.264133,0.000000,-1.000000,0.000000
-0.000248,-0.019198,0.274438,0.000000,-1.000000,0.000000
-0.082739,0.019198,0.265594,0.000000,1.000000,0.000000
-0.165922,0.019198,-0.017903,0.000000,1.000000,0.000000
0.003865,0.019198,0.282208,0.000000,1.000000,0.000000
0.026239,-0.019198,-0.224139,0.000000,-1.000000,0.000000
-0.100173,0.019198,0.149028,0.000000,1.000000,0.000000
0.046424,-0.019198,-0.146029,0.000000,-1.000000,0.000000
0.156854,-0.019198,0.357620,0.000000,-1.000000,0.000000
-0.306492,0.019198,0.275618,0.000000,1.000000,0.000000
0.235436,-0.018981,-0.351223,0.556806,0.000000,-0.830642
0.198705,-0.019198,0.008833,0.000000,-1.000000,0.000000
0.366007,-0.019198,0.016423,0.000000,-1.000000,0.000000
-0.095937,-0.019198,-0.096490,0.000000,-1.000000,0.000000
-0.390271,0.019198,-0.144486,0.000000,1.000000,0.000000
0.056101,0.019198,0.181229,0.000000,1.000000,0.000000
0.093651,0.019198,0.226617,0.000000,1.000000,0.000000
0.087339,0.019198,-0.358944,0.000000,1.000000,0.000000
-0.296770,-0.019198,-0.039028,0.000000,-1.000000,0.000000
-0.178079,0.019198,-0.059712,0.000000,1.000000,0.000000
-0.259963,0.019198,-0.197655,0.000000,1.000000,0.000000
0.112711,-0.019198,0.119240,0.000000,-1.000000,0.000000
-0.361609,-0.019198,0.042846,0.000000,-1.000000,0.000000
0.419694,0.002120,0.051428,0.992576,0.000000,0.121627
0.350366,-0.013689,0.236710,0.828615,0.000000,0.559819
-0.113021,-0.000396,-0.407449,-0.267295,0.000000,-0.963615
0.025935,-0.019198,-0.216481,0.000000,-1.000000,0.000000
-0.016858,-0.007662,-0.119295,0.139922,0.000000,0.990163
0.107675,-0.019198,0.172747,0.000000,-1.000000,0.000000
-0.140337,0.019198,-0.182313,0.000000,1.000000,0.000000
-0.110695,0.019198,-0.403683,0.000000,1.000000,0.000000
0.190785,0.019198,0.161546,0.000000,1.000000,0.000000
0.043766,-0.019198,0.394201,0.000000,-1.000000,0.000000
-0.180749,0.019198,-0.128829,0.000000,1.000000,0.000000
-0.055174,-0.019198,-0.112722,0.000000,-1.000000,0.000000
0.252036,0.019198,-0.108695,0.000000,1.000000,0.000000
-0.138538,0.019198,0.032419,0.000000,1.000000,0.000000
0.299083,0.019198,-0.152390,0.000000,1.000000,0.000000
-0.313998,-0.019198,-0.068897,0.000000,-1.000000,0.000000
0.247003,-0.019198,0.063922,0.000000,-1.000000,0.000000
0.051271,-0.019198,-0.180661,0.000000,-1.000000,0.000000
-0.012862,-0.019198,-0.198814,0.000000,-1.000000,0.000000
0.074603,-0.019198,-0.134774,0.000000,-1.000000,0.000000
-0.003969,-0.019198,-0.224373,0.000000,-1.000000,0.000000
-0.112447,-0.019198,-0.163284,0.000000,-1.000000,0.000000
0.152139,-0.019198,0.154630,0.000000,-1.000000,0.000000
0.250851,-0.019198,0.017997,0.000000,-1.000000,0.000000
0.096667,0.019198,-0.106815,0.000000,1.000000,0.000000
-0.091316,-0.019198,0.124490,0.000000,-1.000000,0.000000
-0.160305,0.017789,-0.391268,-0.379121,0.000000,-0.925347
-0.420830,0.005463,-0.041116,-0.995261,0.000000,-0.097239
-0.098530,0.019198,-0.386265,0.000000,1.000000,0.000000
-0.131466,0.019198,0.245838,0.000000,1.000000,0.000000
-0.045108,-0.004412,0.111718,0.374401,0.000000,-0.927267
0.224075,0.019198,0.055963,0.000000,1.000000,0.000000
-0.074989,0.019198,-0.195493,0.000000,1.000000,0.000000
0.077826,0.019198,0.107124,0.000000,1.000000,0.000000
-0.064981,0.019198,-0.104606,0.000000,1.000000,0.000000
-0.420830,0.005463,-0.041116,-0.995261,0.000000,-0.097239
0.096317,0.019198,-0.149140,0.000000,1.000000,0.000000
-0.355504,0.019198,0.017992,0.000000,1.000000,0.000000
0.141198,0.019198,0.059458,0.000000,1.000000,0.000000
0.157853,0.019198,0.257249,0.000000,1.000000,0.000000
-0.108566,-0.019198,0.210233,0.000000,-1.000000,0.000000
-0.113178,-0.019198,0.083656,0.000000,-1.000000,0.000000
0.222865,-0.019198,-0.011827,0.000000,-1.000000,0.000000
0.407157,0.009163,0.114068,0.962925,0.000000,0.269770
-0.177999,-0.019198,-0.283514,0.000000,-1.000000,0.000000
0.107623,-0.019198,-0.155947,0.000000,-1.000000,0.000000
0.217551,0.019198,-0.272488,0.000000,1.000000,0.000000
0.337567,0.019198,-0.066516,0.000000,1.000000,0.000000
-0.135586,-0.019198,0.177745,0.000000,-1.000000,0.000000
-0.122308,0.019198,0.183385,0.000000,1.000000,0.000000
-0.273944,0.019198,0.073310,0.000000,1.000000,0.000000
0.194889,0.019198,0.221504,0.000000,1.000000,0.000000
-0.056919,-0.010251,-0.106188,0.472431,0.000000,0.881368
0.177336,-0.019198,-0.123476,0.000000,-1.000000,0.000000
0.310778,0.019198,-0.219417,0.000000,1.000000,0.000000
-0.039466,-0.019198,0.200062,0.000000,-1.000000,0.000000
-0.367773,0.019198,-0.114843,0.000000,1.000000,0.000000
0.383526,0.019198,-0.024226,0.000000,1.000000,0.000000
-0.240091,-0.019198,-0.059911,0.000000,-1.000000,0.000000
-0.223806,0.019198,0.166087,0.000000,1.000000,0.000000
0.116127,0.019198,-0.145010,0.000000,1.000000,0.000000
-0.215547,-0.019198,0.214035,0.000000,-1.000000,0.000000
0.215305,-0.019198,-0.187161,0.000000,-1.000000,0.000000
0.161259,-0.019198,0.235312,0.000000,-1.000000,0.000000
-0.079381,-0.019198,-0.209940,0.000000,-1.000000,0.000000
-0.087760,-0.019198,0.308169,0.000000,-1.000000,0.000000
0.117927,0.000792,-0.406056,0.278898,0.000000,-0.960321
0.028167,0.019198,-0.139292,0.000000,1.000000,0.000000
0.059784,-0.019198,-0.187106,0.000000,-1.000000,0.000000
0.062791,-0.008966,0.102824,-0.521174,0.000000,-0.853450
0.387855,-0.019198,-0.000451,0.000000,-1.000000,0.000000
-0.228327,-0.019198,0.175564,0.000000,-1.000000,0.000000
0.161259,-0.019198,0.235312,0.000000,-1.000000,0.000000
-0.262108,-0.019198,0.192773,0.000000,-1.000000,0.000000
-0.227611,0.019198,0.200892,0.000000,1.000000,0.000000
0.004244,0.019198,-0.125492,0.000000,1.000000,0.000000
0.038684,-0.019198,0.123523,0.000000,-1.000000,0.000000
0.058667,0.005317,0.418744,0.138747,0.000000,0.990328
-0.281713,-0.019198,-0.108892,0.000000,-1.000000,0.000000
-0.014017,-0.019198,-0.319959,0.000000,-1.000000,0.000000
0.376874,0.019198,0.054389,0.000000,1.000000,0.000000
0.116127,0.019198,-0.145010,0.000000,1.000000,0.000000
-0.277593,0.019198,-0.270015,0.000000,1.000000,0.000000
0.210355,0.019198,0.094515,0.000000,1.000000,0.000000
-0.104253,-0.004904,0.060389,0.865310,0.000000,-0.501236
-0.118867,-0.019198,0.042462,0.000000,-1.000000,0.000000
-0.003428,-0.019198,0.249834,0.000000,-1.000000,0.000000
0.029203,-0.019198,0.124421,0.000000,-1.000000,0.000000
0.122845,-0.019198,0.218194,0.000000,-1.000000,0.000000
0.139670,0.019198,-0.279092,0.000000,1.000000,0.000000
0.000701,0.019198,0.121661,0.000000,1.000000,0.000000
-0.369966,0.019198,0.197810,0.000000,1.000000,0.000000
0.401718,-0.019198,-0.106308,0.000000,-1.000000,0.000000
-0.160893,-0.019198,-0.179423,0.000000,-1.000000,0.000000
0.082497,-0.019198,0.121746,0.000000,-1.000000,0.000000
-0.126784,0.019198,0.296661,0.000000,1.000000,0.000000
0.282561,0.019198,-0.136119,0.000000,1.000000,0.000000
0.122518,-0.019198,-0.045234,0.000000,-1.000000,0.000000
0.061147,0.005798,0.103811,-0.507526,0.000000,-0.861636
-0.281713,-0.019198,-0.108892,0.000000,-1.000000,0.000000
-0.208092,-0.019198,0.158968,0.000000,-1.000000,0.000000
0.132651,0.007851,0.401487,0.313720,0.000000,0.949515
-0.099840,-0.018904,-0.067436,0.828681,0.000000,0.559721
0.226773,0.019198,-0.344890,0.000000,1.000000,0.000000
-0.158690,0.019198,-0.152387,0.000000,1.000000,0.000000
-0.094319,0.019198,-0.258996,0.000000,1.000000,0.000000
0.227961,-0.019198,-0.159608,0.000000,-1.000000,0.000000
-0.003790,0.019198,-0.227630,0.000000,1.000000,0.000000
-0.190566,-0.019198,-0.152021,0.000000,-1.000000,0.000000
-0.347895,-0.019198,-0.101968,0.000000,-1.000000,0.000000
0.413783,-0.015327,-0.087015,0.978596,0.000000,-0.205789
0.260809,0.019198,-0.235744,0.000000,1.000000,0.000000
0.142110,-0.019198,-0.034490,0.000000,-1.000000,0.000000
-0.414079,0.019198,0.018168,0.000000,1.000000,0.000000
0.234178,-0.019198,0.328975,0.000000,-1.000000,0.000000
-0.049932,-0.019198,0.376436,0.000000,-1.000000,0.000000
0.053434,-0.009690,-0.107983,-0.443504,0.000000,0.896272
-0.087130,-0.019198,-0.108397,0.000000,-1.000000,0.000000
0.270165,-0.019198,-0.095864,0.000000,-1.000000,0.000000
-0.126638,0.019198,-0.220695,0.000000,1.000000,0.000000
0.307526,0.019198,-0.182926,0.000000,1.000000,0.000000
0.032225,-0.019198,0.363684,0.000000,-1.000000,0.000000
-0.294455,-0.019198,-0.139281,0.000000,-1.000000,0.000000
0.115846,-0.007252,0.033097,-0.961529,0.000000,-0.274705
-0.264135,0.019198,-0.044603,0.000000,1.000000,0.000000
-0.088032,0.019198,0.196665,0.000000,1.000000,0.000000
0.270151,-0.019198,0.009746,0.000000,-1.000000,0.000000
0.050766,-0.019198,-0.263962,0.000000,-1.000000,0.000000
0.158462,-0.019198,0.117445,0.000000,-1.000000,0.000000
0.209002,-0.019198,0.224240,0.000000,-1.000000,0.000000
-0.052119,0.019198,0.172067,0.000000,1.000000,0.000000
-0.133423,0.019198,-0.059130,0.000000,1.000000,0.000000
0.118730,0.019198,-0.183067,0.000000,1.000000,0.000000
-0.088668,0.003460,0.081569,0.735955,0.000000,-0.677030
0.148660,-0.019198,-0.166845,0.000000,-1.000000,0.000000
0.185075,-0.019198,0.182367,0.000000,-1.000000,0.000000
-0.178079,0.019198,-0.059712,0.000000,1.000000,0.000000
-0.241627,0.019198,-0.203422,0.000000,1.000000,0.000000
-0.288685,0.019198,0.156147,0.000000,1.000000,0.000000
-0.104356,-0.003041,-0.060211,0.866168,0.000000,0.499753
-0.346841,0.019198,-0.141564,0.000000,1.000000,0.000000
-0.399690,0.019198,0.023719,0.000000,1.000000,0.000000
-0.166958,-0.019198,-0.077290,0.000000,-1.000000,0.000000
-0.060641,-0.019198,-0.106157,0.000000,-1.000000,0.000000
-0.167693,-0.019198,0.028992,0.000000,-1.000000,0.000000
-0.070442,-0.019198,-0.197255,0.000000,-1.000000,0.000000
0.340879,-0.018585,0.250179,0.806178,0.000000,0.591673
0.072881,-0.019198,-0.228598,0.000000,-1.000000,0.000000
-0.106216,0.019198,-0.289561,0.000000,1.000000,0.000000
0.123881,-0.019198,-0.201333,0.000000,-1.000000,0.000000
0.413783,-0.015327,-0.087015,0.978596,0.000000,-0.205789
-0.126668,0.019198,0.387386,0.000000,1.000000,0.000000
-0.074879,-0.019198,0.304228,0.000000,-1.000000,0.000000
-0.076705,0.017321,-0.092908,0.636657,0.000000,0.771147
-0.077748,0.019198,0.143007,0.000000,1.000000,0.000000
0.350937,0.019198,-0.235427,0.000000,1.000000,0.000000
0.106173,0.017985,0.056947,-0.881241,0.000000,-0.472667
-0.082510,0.019198,-0.360837,0.000000,1.000000,0.000000
0.100264,-0.019198,0.220173,0.000000,-1.000000,0.000000
-0.050013,-0.013158,0.109610,0.415115,0.000000,-0.909769
0.071987,-0.009634,-0.096610,-0.597494,0.000000,0.801873
-0.029198,0.019198,0.187381,0.000000,1.000000,0.000000
-0.083506,0.018926,0.086846,0.693111,0.000000,-0.720831
-0.072892,-0.019198,0.225534,0.000000,-1.000000,0.000000
-0.204408,-0.019198,-0.087046,0.000000,-1.000000,0.000000
-0.113733,0.019198,-0.267815,0.000000,1.000000,0.000000
0.163754,-0.019198,-0.275053,0.000000,-1.000000,0.000000
0.153177,-0.019198,-0.388877,0.000000,-1.000000,0.000000
-0.131627,-0.019198,-0.025702,0.000000,-1.000000,0.000000
-0.374507,0.019198,-0.117041,0.000000,1.000000,0.000000
-0.255467,-0.019198,-0.066097,0.000000,-1.000000,0.000000
0.197294,-0.019198,0.057771,0.000000,-1.000000,0.000000
0.128957,0.019198,0.215321,0.000000,1.000000,0.000000
0.123796,0.019198,0.151565,0.000000,1.000000,0.000000
-0.153370,-0.019198,-0.198385,0.000000,-1.000000,0.000000
0.367914,0.019198,-0.004181,0.000000,1.000000,0.000000
-0.094273,-0.019198,-0.084108,0.000000,-1.000000,0.000000
0.039140,0.000051,-0.113946,-0.324863,0.000000,0.945761
0.409104,0.005724,0.106874,0.967530,0.000000,0.252757
0.284594,0.019198,0.167227,0.000000,1.000000,0.000000
0.142417,0.019198,-0.033386,0.000000,1.000000,0.000000
0.335312,0.019198,-0.229609,0.000000,1.000000,0.000000
-0.162474,-0.019198,-0.096592,0.000000,-1.000000,0.000000
-0.016884,-0.019198,0.127653,0.000000,-1.000000,0.000000
0.189883,-0.015300,0.377799,0.449074,0.000000,0.893495
0.056649,-0.019198,0.318725,0.000000,-1.000000,0.000000
0.152139,-0.019198,0.154630,0.000000,-1.000000,0.000000
-0.143360,0.019198,-0.321459,0.000000,1.000000,0.000000
-0.228957,0.019198,-0.087379,0.000000,1.000000,0.000000
-0.093070,0.019198,0.079193,0.000000,1.000000,0.000000
-0.304011,-0.019198,-0.205786,0.000000,-1.000000,0.000000
-0.162726,-0.019198,-0.062269,0.000000,-1.000000,0.000000
0.335140,-0.019198,0.003540,0.000000,-1.000000,0.000000
-0.061719,0.014724,-0.103471,0.512274,0.000000,0.858822
0.090219,0.019198,0.091765,0.000000,1.000000,0.000000
-0.208092,-0.019198,0.158968,0.000000,-1.000000,0.000000
-0.221150,0.019198,0.131657,0.000000,1.000000,0.000000
0.288712,-0.019198,0.039755,0.000000,-1.000000,0.000000
-0.064085,0.019198,-0.316992,0.000000,1.000000,0.000000
-0.069582,0.019198,-0.126696,0.000000,1.000000,0.000000
-0.040326,-0.019198,-0.137247,0.000000,-1.000000,0.000000
0.149734,-0.019198,-0.016961,0.000000,-1.000000,0.000000
0.379499,0.002709,0.186464,0.897514,0.000000,0.440986
-0.286806,-0.019198,-0.102056,0.000000,-1.000000,0.000000
0.113036,-0.019198,0.150053,0.000000,-1.000000,0.000000
0.248611,-0.019198,-0.068795,0.000000,-1.000000,0.000000
0.292827,-0.019198,-0.222781,0.000000,-1.000000,0.000000
-0.170276,0.019198,-0.281268,0.000000,1.000000,0.000000
0.274048,-0.019198,0.243505,0.000000,-1.000000,0.000000
0.050355,-0.019198,0.202453,0.000000,-1.000000,0.000000
0.147841,0.019198,0.094997,0.000000,1.000000,0.000000
-0.053665,-0.019198,-0.214621,0.000000,-1.000000,0.000000
-0.124272,0.019198,-0.357327,0.000000,1.000000,0.000000
0.165439,-0.019198,-0.085436,0.000000,-1.000000,0.000000
-0.100440,0.019198,-0.122571,0.000000,1.000000,0.000000
0.291989,0.019198,-0.007516,0.000000,1.000000,0.000000
-0.052188,0.019198,-0.127628,0.000000,1.000000,0.000000
-0.192821,-0.019198,0.047165,0.000000,-1.000000,0.000000
-0.115132,0.019198,-0.130284,0.000000,1.000000,0.000000
0.360743,-0.019198,0.184760,0.000000,-1.000000,0.000000
-0.246575,0.019198,0.247784,0.000000,1.000000,0.000000
0.160287,-0.019198,0.036469,0.000000,-1.000000,0.000000
-0.143763,-0.019198,-0.087892,0.000000,-1.000000,0.000000
0.159014,-0.019198,-0.100560,0.000000,-1.000000,0.000000
0.304577,-0.019198,-0.135202,0.000000,-1.000000,0.000000
0.419694,0.002120,0.051428,0.992576,0.000000,0.121627
0.124426,0.019198,0.035207,0.000000,1.000000,0.000000
0.156826,-0.019198,-0.139765,0.000000,-1.000000,0.000000
0.240733,-0.019198,-0.003547,0.000000,-1.000000,0.000000
-0.055638,0.019198,-0.186752,0.000000,1.000000,0.000000
0.373495,-0.003551,-0.198216,0.883315,0.000000,-0.468780
0.159847,-0.019198,-0.011998,0.000000,-1.000000,0.000000
-0.342633,0.005831,0.247772,-0.810326,0.000000,0.585980
0.137564,-0.019198,0.016927,0.000000,-1.000000,0.000000
-0.287092,0.006122,-0.310429,-0.678972,0.000000,-0.734164
-0.319670,-0.019198,-0.003790,0.000000,-1.000000,0.000000
-0.356772,0.019198,-0.093614,0.000000,1.000000,0.000000
0.327930,0.019198,-0.205583,0.000000,1.000000,0.000000
0.229540,-0.019198,0.332067,0.000000,-1.000000,0.000000
0.037288,-0.007915,0.114565,-0.309498,0.000000,-0.950900
0.046424,-0.019198,-0.146029,0.000000,-1.000000,0.000000
-0.308978,0.019198,-0.157447,0.000000,1.000000,0.000000
-0.324279,0.019198,-0.052730,0.000000,1.000000,0.000000
0.035781,0.019198,0.209835,0.000000,1.000000,0.000000
0.240893,0.019198,0.080569,0.000000,1.000000,0.000000
-0.132098,0.019198,0.068181,0.000000,1.000000,0.000000
-0.052556,-0.019198,-0.178828,0.000000,-1.000000,0.000000
-0.193146,-0.019198,-0.067354,0.000000,-1.000000,0.000000
-0.271833,0.019198,-0.011142,0.000000,1.000000,0.000000
0.236250,-0.019198,-0.060823,0.000000,-1.000000,0.000000
-0.313584,-0.019198,0.132468,0.000000,-1.000000,0.000000
0.018298,0.019198,-0.209952,0.000000,1.000000,0.000000
0.240972,0.019198,-0.237727,0.000000,1.000000,0.000000
-0.323018,0.019198,-0.093820,0.000000,1.000000,0.000000
-0.060641,-0.019198,-0.106157,0.000000,-1.000000,0.000000
0.262496,0.019198,0.202160,0.000000,1.000000,0.000000
-0.361609,-0.019198,0.042846,0.000000,-1.000000,0.000000
0.191706,-0.016146,0.376878,0.453383,0.000000,0.891316
-0.209102,-0.019198,-0.104612,0.000000,-1.000000,0.000000
-0.313258,0.019198,-0.046057,0.000000,1.000000,0.000000
-0.144246,-0.013327,0.397469,-0.341142,0.000000,0.940012
-0.140337,0.019198,-0.182313,0.000000,1.000000,0.000000
0.115838,-0.007535,0.033124,-0.961464,0.000000,-0.274930
-0.156618,0.019198,-0.342098,0.000000,1.000000,0.000000
-0.384926,0.019198,0.048699,0.000000,1.000000,0.000000
-0.380786,-0.019198,-0.071109,0.000000,-1.000000,0.000000
0.170169,0.019198,-0.038907,0.000000,1.000000,0.000000
-0.275060,-0.019198,0.122494,0.000000,-1.000000,0.000000
-0.394957,0.019198,-0.073562,0.000000,1.000000,0.000000
0.337879,0.000976,0.254216,0.799083,0.000000,0.601221
-0.287092,0.006122,-0.310429,-0.678972,0.000000,-0.734164
0.090219,0.019198,0.091765,0.000000,1.000000,0.000000
-0.033522,-0.019198,0.180447,0.000000,-1.000000,0.000000
0.248611,-0.019198,-0.068795,0.000000,-1.000000,0.000000
-0.189205,-0.019198,0.008737,0.000000,-1.000000,0.000000
-0.032084,0.019198,0.238556,0.000000,1.000000,0.000000
0.051151,0.019198,0.138489,0.000000,1.000000,0.000000
-0.406867,-0.019198,0.064079,0.000000,-1.000000,0.000000
-0.120941,0.019198,-0.098408,0.000000,1.000000,0.000000
0.119196,0.014950,-0.017545,-0.989340,0.000000,0.145624
-0.168456,0.019198,-0.060947,0.000000,1.000000,0.000000
-0.271833,0.019198,-0.011142,0.000000,1.000000,0.000000
-0.114375,0.019198,0.080951,0.000000,1.000000,0.000000
-0.215547,-0.019198,0.214035,0.000000,-1.000000,0.000000
0.117530,0.019198,-0.405836,0.000000,1.000000,0.000000
0.076924,0.019198,-0.112749,0.000000,1.000000,0.000000
-0.188937,-0.019198,0.086270,0.000000,-1.000000,0.000000
0.136617,-0.019198,0.096141,0.000000,-1.000000,0.000000
0.088686,0.019198,-0.088195,0.000000,1.000000,0.000000
0.229283,0.019198,-0.285725,0.000000,1.000000,0.000000
0.130884,-0.019198,0.339833,0.000000,-1.000000,0.000000
-0.135241,0.019198,0.102527,0.000000,1.000000,0.000000
0.172396,-0.019198,0.166620,0.000000,-1.000000,0.000000
-0.209709,0.019198,-0.185552,0.000000,1.000000,0.000000
-0.086861,0.019198,0.263160,0.000000,1.000000,0.000000
0.318640,0.019198,-0.188948,0.000000,1.000000,0.000000
0.202415,0.019198,-0.057023,0.000000,1.000000,0.000000
0.053329,-0.019198,-0.131159,0.000000,-1.000000,0.000000
-0.010929,0.019198,-0.360240,0.000000,1.000000,0.000000
-0.112053,0.019198,0.081346,0.000000,1.000000,0.000000
0.217894,-0.019198,0.290207,0.000000,-1.000000,0.000000
-0.207714,-0.019198,0.219126,0.000000,-1.000000,0.000000
-0.054840,0.019198,-0.231851,0.000000,1.000000,0.000000
0.310778,0.019198,-0.219417,0.000000,1.000000,0.000000
0.294326,0.019198,0.094854,0.000000,1.000000,0.000000
0.206273,-0.019198,0.062720,0.000000,-1.000000,0.000000
0.015214,0.019198,-0.139365,0.000000,1.000000,0.000000
0.175283,0.019198,-0.001065,0.000000,1.000000,0.000000
0.303613,0.019198,0.279914,0.000000,1.000000,0.000000
-0.113178,-0.019198,0.083656,0.000000,-1.000000,0.000000
0.137957,-0.019198,-0.098168,0.000000,-1.000000,0.000000
-0.140337,0.019198,-0.182313,0.000000,1.000000,0.000000
0.122518,-0.019198,-0.045234,0.000000,-1.000000,0.000000
0.133734,-0.019198,-0.129363,0.000000,-1.000000,0.000000
-0.315323,-0.019198,-0.080833,0.000000,-1.000000,0.000000
0.252636,0.019198,0.051690,0.000000,1.000000,0.000000
0.035676,-0.019198,0.248976,0.000000,-1.000000,0.000000
-0.006420,-0.014527,0.120309,0.053289,0.000000,-0.998579
0.337937,0.019198,-0.079493,0.000000,1.000000,0.000000
0.251856,-0.019198,0.199175,0.000000,-1.000000,0.000000
-0.127766,-0.019198,-0.064882,0.000000,-1.000000,0.000000
-0.274782,0.019198,-0.130217,0.000000,1.000000,0.000000
-0.085196,0.019198,-0.133564,0.000000,1.000000,0.000000
0.196678,-0.019198,-0.340189,0.000000,-1.000000,0.000000
0.242988,-0.019198,0.306970,0.000000,-1.000000,0.000000
0.036648,0.017313,-0.114772,-0.304183,0.000000,0.952614
-0.211661,-0.019198,0.219544,0.000000,-1.000000,0.000000
0.290377,0.019198,0.076709,0.000000,1.000000,0.000000
0.251409,0.019198,-0.057290,0.000000,1.000000,0.000000
-0.329588,-0.019198,0.030030,0.000000,-1.000000,0.000000
-0.096472,-0.019198,-0.106407,0.000000,-1.000000,0.000000
-0.150168,-0.019198,0.215225,0.000000,-1.000000,0.000000
0.077998,-0.019198,-0.360955,0.000000,-1.000000,0.000000
-0.150791,0.019198,0.383009,0.000000,1.000000,0.000000
0.374279,-0.002404,0.196731,0.885170,0.000000,0.465268
0.017841,0.019198,0.293918,0.000000,1.000000,0.000000
-0.158617,0.019198,-0.172277,0.000000,1.000000,0.000000
0.073193,0.019198,-0.266078,0.000000,1.000000,0.000000
-0.001199,-0.002194,-0.120475,0.009955,0.000000,0.999950
-0.349083,0.019198,0.174777,0.000000,1.000000,0.000000
0.185541,0.019198,0.158292,0.000000,1.000000,0.000000
-0.186135,0.019198,0.093987,0.000000,1.000000,0.000000
0.146227,0.019198,0.047194,0.000000,1.000000,0.000000
0.037461,-0.019198,-0.203295,0.000000,-1.000000,0.000000
-0.181203,-0.019198,0.320283,0.000000,-1.000000,0.000000
0.003951,0.019198,0.323611,0.000000,1.000000,0.000000
-0.218679,-0.019198,0.097863,0.000000,-1.000000,0.000000
-0.160893,-0.019198,-0.179423,0.000000,-1.000000,0.000000
0.176671,-0.019198,0.002504,0.000000,-1.000000,0.000000
-0.216218,0.019198,-0.229448,0.000000,1.000000,0.000000
0.325611,-0.019198,0.185208,0.000000,-1.000000,0.000000
-0.137839,-0.019198,0.359738,0.000000,-1.000000,0.000000
0.240287,0.019198,-0.209147,0.000000,1.000000,0.000000
0.106101,0.019198,-0.078812,0.000000,1.000000,0.000000
-0.411300,0.005533,0.098085,-0.972723,0.000000,0.231970
0.417932,-0.017580,0.064197,0.988407,0.000000,0.151826
-0.106015,-0.000635,-0.057239,0.879937,0.000000,0.475091
0.329406,-0.019198,-0.162776,0.000000,-1.000000,0.000000
0.105274,-0.019198,0.155998,0.000000,-1.000000,0.000000
-0.003969,-0.019198,-0.224373,0.000000,-1.000000,0.000000
-0.003100,0.019198,0.264428,0.000000,1.000000,0.000000
0.260171,-0.019198,0.018714,0.000000,-1.000000,0.000000
-0.202829,-0.019198,0.323215,0.000000,-1.000000,0.000000
-0.319670,-0.019198,-0.003790,0.000000,-1.000000,0.000000
-0.335682,-0.012124,-0.257110,-0.793887,0.000000,-0.608065
-0.361264,0.019198,0.089190,0.000000,1.000000,0.000000
-0.201658,-0.019198,0.113827,0.000000,-1.000000,0.000000
-0.095993,-0.019198,0.357707,0.000000,-1.000000,0.000000
-0.368283,0.012790,-0.207739,-0.870989,0.000000,-0.491303
0.150192,0.019198,-0.017566,0.000000,1.000000,0.000000
-0.130117,-0.019198,-0.010874,0.000000,-1.000000,0.000000
-0.106015,-0.000635,-0.057239,0.879937,0.000000,0.475091
-0.094319,0.019198,-0.258996,0.000000,1.000000,0.000000
0.129135,-0.019198,-0.260500,0.000000,-1.000000,0.000000
-0.400888,0.018940,0.134451,-0.948098,0.000000,0.317977
-0.007218,-0.019198,-0.287933,0.000000,-1.000000,0.000000
-0.209102,-0.019198,-0.104612,0.000000,-1.000000,0.000000
0.270683,0.019198,0.263501,0.000000,1.000000,0.000000
-0.026660,0.019198,-0.329378,0.000000,1.000000,0.000000
0.021794,0.019198,-0.365648,0.000000,1.000000,0.000000
-0.077831,0.019198,-0.180660,0.000000,1.000000,0.000000
0.214110,-0.019198,-0.139839,0.000000,-1.000000,0.000000
0.118316,0.019198,0.063105,0.000000,1.000000,0.000000
-0.220337,-0.019198,-0.331036,0.000000,-1.000000,0.000000
-0.146229,-0.019198,0.126543,0.000000,-1.000000,0.000000
-0.072809,-0.000804,-0.095992,0.604317,0.000000,0.796744
-0.277593,0.019198,-0.270015,0.000000,1.000000,0.000000
-0.069290,0.007691,0.098562,0.575111,0.000000,-0.818075
0.138330,0.019198,0.013177,0.000000,1.000000,0.000000
0.130155,0.019198,0.187321,0.000000,1.000000,0.000000
-0.359949,0.007390,0.221867,-0.851278,0.000000,0.524716
-0.101988,-0.019198,-0.152089,0.000000,-1.000000,0.000000
-0.170079,0.019198,-0.068861,0.000000,1.000000,0.000000
-0.120941,0.019198,-0.098408,0.000000,1.000000,0.000000
0.000089,-0.017913,0.120481,-0.000737,0.000000,-1.000000
-0.109064,0.019198,0.222004,0.000000,1.000000,0.000000
-0.060930,-0.019198,0.248262,0.000000,-1.000000,0.000000
0.051922,-0.019198,-0.165338,0.000000,-1.000000,0.000000
-0.078814,0.019198,-0.297479,0.000000,1.000000,0.000000
-0.054840,0.019198,-0.231851,0.000000,1.000000,0.000000
-0.061594,-0.019198,0.109982,0.000000,-1.000000,0.000000
-0.187014,-0.019198,0.349707,0.000000,-1.000000,0.000000
0.091713,0.019198,0.229182,0.000000,1.000000,0.000000
0.254934,0.019198,-0.122638,0.000000,1.000000,0.000000
-0.245670,0.019198,-0.105590,0.000000,1.000000,0.000000
-0.144174,-0.019198,0.083881,0.000000,-1.000000,0.000000
-0.091316,-0.019198,0.124490,0.000000,-1.000000,0.000000
-0.092862,0.019198,0.109812,0.000000,1.000000,0.000000
0.075548,-0.018880,-0.416030,0.178670,0.000000,-0.983909
0.042274,-0.005319,0.420715,0.099977,0.000000,0.994990
-0.232024,-0.010118,0.353487,-0.548736,0.000000,0.835996
-0.307104,0.019198,0.039543,0.000000,1.000000,0.000000
-0.114469,-0.012593,0.037583,0.950101,0.000000,-0.311943
0.373168,0.004340,0.198831,0.882541,0.000000,0.470235
0.350064,0.019198,-0.085463,0.000000,1.000000,0.000000
-0.208281,0.019198,0.254272,0.000000,1.000000,0.000000
0.040745,-0.019198,-0.237750,0.000000,-1.000000,0.000000
-0.034609,0.019198,0.348695,0.000000,1.000000,0.000000
-0.226463,0.019198,-0.197521,0.000000,1.000000,0.000000
0.109086,-0.019198,-0.287486,0.000000,-1.000000,0.000000
0.176533,0.019198,0.257315,0.000000,1.000000,0.000000
-0.131627,-0.019198,-0.025702,0.000000,-1.000000,0.000000
-0.193146,-0.019198,-0.067354,0.000000,-1.000000,0.000000
0.140609,-0.019198,-0.313521,0.000000,-1.000000,0.000000
-0.068965,0.019198,0.364762,0.000000,1.000000,0.000000
-0.240548,0.019198,-0.334431,0.000000,1.000000,0.000000
0.050355,-0.019198,0.202453,0.000000,-1.000000,0.000000
0.281906,-0.019198,0.002695,0.000000,-1.000000,0.000000
0.369879,0.019198,0.054820,0.000000,1.000000,0.000000
0.017626,-0.019198,0.177353,0.000000,-1.000000,0.000000
-0.095613,0.019198,-0.098975,0.000000,1.000000,0.000000
0.113362,0.019198,0.185392,0.000000,1.000000,0.000000
0.261777,0.019198,-0.048926,0.000000,1.000000,0.000000
0.279554,-0.019198,-0.081443,0.000000,-1.000000,0.000000
-0.015617,-0.019198,0.158113,0.000000,-1.000000,0.000000
-0.242316,-0.019198,0.070634,0.000000,-1.000000,0.000000
0.101315,-0.019198,-0.080237,0.000000,-1.000000,0.000000
0.247622,-0.019198,-0.230054,0.000000,-1.000000,0.000000
-0.197248,-0.019198,-0.074218,0.000000,-1.000000,0.000000
0.251409,0.019198,-0.057290,0.000000,1.000000,0.000000
0.099990,0.019198,0.225466,0.000000,1.000000,0.000000
0.137259,-0.019198,0.048789,0.000000,-1.000000,0.000000
0.184418,0.019198,-0.292638,0.000000,1.000000,0.000000
-0.201199,-0.019198,-0.005358,0.000000,-1.000000,0.000000
-0.308978,0.019198,-0.157447,0.000000,1.000000,0.000000
0.149399,-0.019198,0.256410,0.000000,-1.000000,0.000000
-0.042954,0.019198,-0.238463,0.000000,1.000000,0.000000
0.133231,0.019198,-0.165250,0.000000,1.000000,0.000000
-0.228957,0.019198,-0.087379,0.000000,1.000000,0.000000
0.111978,0.006235,-0.044458,-0.929426,0.000000,0.369009
0.015746,0.019198,0.261105,0.000000,1.000000,0.000000
0.303581,0.019198,0.006989,0.000000,1.000000,0.000000
