x,y,z,nx,ny,nz
25.031194,-20.856245,-0.489095,0.000000,-1.000000,0.000000
-40.494555,-20.856245,-12.809951,0.000000,-1.000000,0.000000
5.988496,18.626888,13.197365,0.000000,0.000000,1.000000
-19.572116,1.686025,-13.197365,0.000000,0.000000,-1.000000
-6.963804,-14.379862,-8.839532,0.000000,-0.000000,1.000000
-31.362654,-16.498413,-4.582194,-0.000000,1.000000,0.000000
17.405286,-20.856245,-2.541039,0.000000,-1.000000,0.000000
-2.864212,-16.498413,0.857415,-0.000000,1.000000,0.000000
46.413243,-14.322451,-8.839532,-0.000000,0.000000,1.000000
-1.108411,20.856245,-4.593223,-0.000000,1.000000,0.000000
-8.560334,16.498413,-3.038482,0.000000,-1.000000,0.000000
40.707736,-20.522150,-13.197365,0.000000,0.000000,-1.000000
18.939223,20.856245,-3.689277,-0.000000,1.000000,0.000000
46.571743,-18.806412,-12.796939,1.000000,0.000000,-0.000000
-32.253885,-18.821867,-13.197365,0.000000,0.000000,-1.000000
29.099608,16.498413,-2.163480,0.000000,-1.000000,0.000000
-6.705636,16.498413,-7.200068,0.000000,-1.000000,0.000000
23.940720,16.498413,-3.051379,0.000000,-1.000000,0.000000
16.478750,16.343952,-8.839532,-0.000000,0.000000,1.000000
18.678199,20.856245,5.764158,0.000000,1.000000,0.000000
-11.371142,-16.498413,0.610326,-0.000000,1.000000,0.000000
9.778441,-13.348470,-8.839532,0.000000,-0.000000,1.000000
-32.492234,20.856245,0.313459,-0.000000,1.000000,0.000000
16.572470,1.284671,-13.197365,0.000000,0.000000,-1.000000
34.043143,1.317343,-8.839532,-0.000000,0.000000,1.000000
-33.286703,16.498413,3.438950,0.000000,-1.000000,0.000000
20.183084,-13.478278,-13.197365,0.000000,0.000000,-1.000000
44.741136,2.875495,-8.839532,-0.000000,0.000000,1.000000
-8.663788,-20.856245,-4.613632,0.000000,-1.000000,0.000000
-25.804392,16.498413,6.086294,0.000000,-1.000000,0.000000
41.214017,-16.498413,11.687908,0.000000,1.000000,-0.000000
4.926958,-4.257946,-13.197365,0.000000,0.000000,-1.000000
-38.342464,16.498413,-0.686887,0.000000,-1.000000,0.000000
7.993623,-16.498413,6.691867,-0.000000,1.000000,0.000000
-42.507696,-16.498413,13.011858,-0.000000,1.000000,0.000000
38.932542,4.423481,-8.839532,-0.000000,0.000000,1.000000
-26.490838,-8.110423,-8.839532,0.000000,-0.000000,1.000000
13.632193,-12.145042,-8.839532,0.000000,-0.000000,1.000000
46.571743,12.729584,-11.428637,1.000000,-0.000000,-0.000000
-16.488983,-5.228518,-13.197365,0.000000,0.000000,-1.000000
-33.492711,7.733628,-13.197365,0.000000,0.000000,-1.000000
21.014554,-2.729575,-8.839532,-0.000000,0.000000,1.000000
22.765930,20.856245,-8.490845,-0.000000,1.000000,0.000000
17.343004,-1.812655,-13.197365,0.000000,0.000000,-1.000000
2.113847,-14.693752,-8.839532,0.000000,-0.000000,1.000000
33.599053,-20.574055,-13.197365,0.000000,0.000000,-1.000000
-37.080364,16.498413,8.157131,0.000000,-1.000000,0.000000
31.298774,20.856245,7.872656,-0.000000,1.000000,0.000000
-41.912873,3.959632,-13.197365,0.000000,0.000000,-1.000000
-21.325994,-8.488300,-8.839532,0.000000,-0.000000,1.000000
0.335138,12.140237,-13.197365,0.000000,0.000000,-1.000000
-10.044397,20.856245,5.584673,-0.000000,1.000000,0.000000
-37.777697,-7.867757,-13.197365,0.000000,0.000000,-1.000000
-41.350047,-16.498413,11.058981,-0.000000,1.000000,0.000000
-14.207094,-16.498413,4.440626,-0.000000,1.000000,0.000000
-37.189267,-16.498413,2.130674,-0.000000,1.000000,0.000000
-22.312454,20.856245,-3.703931,-0.000000,1.000000,0.000000
-27.005290,-20.856245,-6.140554,0.000000,-1.000000,0.000000
-3.772852,20.856245,7.721371,-0.000000,1.000000,0.000000
26.139146,11.060166,-8.839532,-0.000000,0.000000,1.000000
1.815805,-18.330554,-13.197365,0.000000,0.000000,-1.000000
8.725022,-3.704243,-13.197365,0.000000,0.000000,-1.000000
42.077412,-16.498413,-1.484889,0.000000,1.000000,-0.000000
42.892171,-20.856245,-13.114700,0.000000,-1.000000,0.000000
-20.450658,-20.856245,-10.449761,0.000000,-1.000000,0.000000
-5.359820,-19.161983,-13.197365,0.000000,0.000000,-1.000000
37.609307,-3.247192,-8.839532,-0.000000,0.000000,1.000000
36.084723,16.498413,-5.346946,0.000000,-1.000000,0.000000
12.954973,-20.856245,-12.961805,0.000000,-1.000000,0.000000
42.256186,20.856245,-7.888836,-0.000000,1.000000,0.000000
-42.315717,20.856245,-0.815112,-0.000000,1.000000,0.000000
-24.440848,-20.856245,5.779623,0.000000,-1.000000,0.000000
5.279527,-16.498413,3.201887,-0.000000,1.000000,0.000000
-25.728402,-11.045333,-8.839532,0.000000,-0.000000,1.000000
1.571180,-15.321585,-13.197365,0.000000,0.000000,-1.000000
14.889986,-20.701002,13.197365,0.000000,0.000000,1.000000
45.185820,8.801953,-13.197365,0.000000,0.000000,-1.000000
-44.557592,-20.856245,-5.997284,0.000000,-1.000000,0.000000
36.754490,-17.266533,12.070608,-0.956941,0.000000,-0.290281
11.523506,16.498413,12.909695,0.000000,-1.000000,0.000000
-18.307395,-17.380228,-13.197365,0.000000,0.000000,-1.000000
-6.970881,-16.498413,8.227577,-0.000000,1.000000,0.000000
-42.628013,11.931837,-8.839532,0.000000,-0.000000,1.000000
-11.073207,-16.498413,11.017636,-0.000000,1.000000,0.000000
15.534148,-16.568824,10.338607,0.956940,0.000000,0.290284
-40.990990,-7.919946,-13.197365,0.000000,0.000000,-1.000000
-41.163559,-15.599376,-8.839532,0.000000,-0.000000,1.000000
13.161406,-20.856245,3.088486,0.000000,-1.000000,0.000000
-5.724439,15.451340,-13.197365,0.000000,0.000000,-1.000000
45.779035,19.059480,-13.197365,0.000000,0.000000,-1.000000
-38.406589,-9.275182,-8.839532,0.000000,-0.000000,1.000000
-40.937297,10.540703,-8.839532,0.000000,-0.000000,1.000000
-3.787961,8.200079,-13.197365,0.000000,0.000000,-1.000000
-37.831285,-16.498413,6.983727,-0.000000,1.000000,0.000000
10.609777,-16.498413,9.993336,-0.000000,1.000000,0.000000
33.692069,-16.581700,7.737369,-0.098017,0.000000,0.995185
26.565861,4.975655,-8.839532,-0.000000,0.000000,1.000000
-9.741043,-20.856245,-4.135183,0.000000,-1.000000,0.000000
-1.710240,16.447509,-8.839532,-0.000000,0.000000,1.000000
-25.333130,2.576488,-13.197365,0.000000,0.000000,-1.000000
-25.177665,-16.498413,10.868485,-0.000000,1.000000,0.000000
-30.175915,8.280955,-8.839532,0.000000,-0.000000,1.000000
42.447410,20.856245,-11.817023,-0.000000,1.000000,0.000000
-2.819299,-7.250255,-13.197365,0.000000,0.000000,-1.000000
10.709485,-20.856245,9.217650,0.000000,-1.000000,0.000000
-16.878815,-20.856245,2.222780,0.000000,-1.000000,0.000000
26.065189,-20.856245,-9.182219,0.000000,-1.000000,0.000000
6.883304,6.897534,-8.839532,-0.000000,0.000000,1.000000
38.910222,20.856245,-2.322978,-0.000000,1.000000,0.000000
-9.062350,-5.601559,-8.839532,0.000000,-0.000000,1.000000
32.069488,-16.099055,-13.197365,0.000000,0.000000,-1.000000
9.208440,-16.498413,6.267529,-0.000000,1.000000,0.000000
17.052767,-17.521658,-13.197365,0.000000,0.000000,-1.000000
-9.292305,-13.291384,-13.197365,0.000000,0.000000,-1.000000
-30.523189,-17.725146,13.197365,0.000000,-0.000000,1.000000
3.543451,16.498413,-3.884509,0.000000,-1.000000,0.000000
-2.717406,-20.856245,-1.390743,0.000000,-1.000000,0.000000
43.220393,-16.498413,11.053872,0.000000,1.000000,-0.000000
8.324301,4.583669,-13.197365,0.000000,0.000000,-1.000000
-35.106238,2.181137,-13.197365,0.000000,0.000000,-1.000000
46.282220,-20.856245,-10.576903,-0.000000,-1.000000,0.000000
41.943677,-20.856245,11.288061,-0.000000,-1.000000,0.000000
45.072353,20.856245,-8.445435,0.000000,1.000000,-0.000000
13.062845,16.498413,-7.216398,0.000000,-1.000000,0.000000
20.112569,-2.734110,-13.197365,0.000000,0.000000,-1.000000
-0.214842,-16.498413,8.576637,-0.000000,1.000000,0.000000
37.053835,11.225375,-8.839532,-0.000000,0.000000,1.000000
-34.617325,17.555502,13.197365,0.000000,-0.000000,1.000000
33.080713,20.856245,-9.749954,-0.000000,1.000000,0.000000
38.779177,16.498413,5.993641,-0.000000,-1.000000,0.000000
0.928310,-20.856245,-7.528108,0.000000,-1.000000,0.000000
37.910956,-16.498413,-3.498137,-0.000000,1.000000,0.000000
23.852088,13.845759,-13.197365,0.000000,0.000000,-1.000000
-40.777740,-20.856245,1.920780,0.000000,-1.000000,0.000000
-16.386956,-16.498413,10.694093,-0.000000,1.000000,0.000000
-10.741651,20.856245,13.085957,-0.000000,1.000000,0.000000
-9.946705,-20.856245,-5.166178,0.000000,-1.000000,0.000000
27.403648,19.298866,10.225221,-0.956940,0.000000,0.290287
-46.571743,-4.760789,-10.911857,-1.000000,0.000000,0.000000
-17.013603,-20.856245,9.439550,0.000000,-1.000000,0.000000
4.451140,-20.856245,0.708874,0.000000,-1.000000,0.000000
-12.941530,-13.591578,-13.197365,0.000000,0.000000,-1.000000
21.171837,-10.782413,-13.197365,0.000000,0.000000,-1.000000
35.670900,-16.498413,-5.608252,-0.000000,1.000000,0.000000
40.369308,3.401311,-13.197365,0.000000,0.000000,-1.000000
46.571743,-4.199399,-12.793803,1.000000,0.000000,-0.000000
32.819449,17.099926,-13.197365,0.000000,0.000000,-1.000000
-33.973082,16.498413,-6.468766,0.000000,-1.000000,0.000000
35.901129,-20.856245,2.096151,0.000000,-1.000000,0.000000
23.382124,-20.004221,-13.197365,0.000000,0.000000,-1.000000
-18.123564,-16.498413,9.849406,-0.000000,1.000000,0.000000
-33.264997,16.498413,9.093233,0.000000,-1.000000,0.000000
-18.246846,-0.619480,-13.197365,0.000000,0.000000,-1.000000
42.900642,-14.355632,-8.839532,-0.000000,0.000000,1.000000
-17.824774,16.498413,12.920614,0.000000,-1.000000,0.000000
33.997510,-16.863404,-13.197365,0.000000,0.000000,-1.000000
29.893080,16.498413,-0.996812,0.000000,-1.000000,0.000000
-1.902340,-7.749285,-13.197365,0.000000,0.000000,-1.000000
43.994563,16.498413,10.809224,-0.000000,-1.000000,0.000000
-0.919390,4.124029,-13.197365,0.000000,0.000000,-1.000000
7.520842,-18.929698,-13.197365,0.000000,0.000000,-1.000000
25.769740,-16.498413,-1.599302,-0.000000,1.000000,0.000000
-27.023962,-16.498413,1.667699,-0.000000,1.000000,0.000000
-27.453531,0.106942,-8.839532,0.000000,-0.000000,1.000000
23.808055,18.806919,-13.197365,0.000000,0.000000,-1.000000
-3.305306,20.856245,-8.955575,-0.000000,1.000000,0.000000
10.525311,20.856245,13.143186,-0.000000,1.000000,0.000000
-29.799584,20.856245,3.054668,-0.000000,1.000000,0.000000
-18.937009,-16.498413,-4.200197,-0.000000,1.000000,0.000000
19.001741,-20.856245,7.405064,0.000000,-1.000000,0.000000
-26.551914,-16.498413,2.751532,-0.000000,1.000000,0.000000
-10.472831,5.491641,-13.197365,0.000000,0.000000,-1.000000
16.190048,-20.856245,6.110966,0.000000,-1.000000,0.000000
-16.362941,16.498413,-5.823550,0.000000,-1.000000,0.000000
18.094404,-16.900428,7.799684,0.290285,-0.000000,0.956940
44.120860,-20.752574,13.197365,0.000000,0.000000,1.000000
-14.135564,-20.856245,5.186541,0.000000,-1.000000,0.000000
-41.312821,-18.009642,13.197365,0.000000,-0.000000,1.000000
38.843674,20.856245,8.841336,0.000000,1.000000,-0.000000
-0.378212,-20.856245,2.200092,0.000000,-1.000000,0.000000
-46.077503,19.122575,13.197365,0.000000,-0.000000,1.000000
20.611152,-16.498413,1.086663,-0.000000,1.000000,0.000000
-6.697891,20.856245,5.810858,-0.000000,1.000000,0.000000
24.390763,-6.633210,-13.197365,0.000000,0.000000,-1.000000
-23.813288,13.786064,-13.197365,0.000000,0.000000,-1.000000
-12.955156,-16.498413,-0.046613,-0.000000,1.000000,0.000000
-37.556116,-16.498413,10.635459,-0.000000,1.000000,0.000000
-39.771425,-2.114469,-13.197365,0.000000,0.000000,-1.000000
-40.232480,-20.856245,5.073401,0.000000,-1.000000,0.000000
24.732967,-20.856245,0.585013,0.000000,-1.000000,0.000000
-30.200788,-8.457197,-8.839532,0.000000,-0.000000,1.000000
26.668654,12.811693,-8.839532,-0.000000,0.000000,1.000000
-11.938625,20.856245,13.092261,-0.000000,1.000000,0.000000
14.047897,20.856245,5.337559,0.000000,1.000000,0.000000
22.553351,-12.556839,-13.197365,0.000000,0.000000,-1.000000
41.738959,-10.717838,-8.839532,-0.000000,0.000000,1.000000
-3.649234,16.498413,-0.081043,0.000000,-1.000000,0.000000
-34.641507,20.856245,12.738144,-0.000000,1.000000,0.000000
28.505424,20.856245,-6.485972,-0.000000,1.000000,0.000000
2.296259,-10.705050,-13.197365,0.000000,0.000000,-1.000000
-32.183892,-16.498413,-1.925060,-0.000000,1.000000,0.000000
-35.561958,-9.292010,-8.839532,0.000000,-0.000000,1.000000
34.554583,-4.871796,-8.839532,-0.000000,0.000000,1.000000
37.564941,-20.856245,-12.166022,0.000000,-1.000000,0.000000
15.702986,-20.856245,-5.226877,0.000000,-1.000000,0.000000
-29.894846,20.856245,-3.700972,-0.000000,1.000000,0.000000
7.720366,20.856245,1.758392,-0.000000,1.000000,0.000000
45.901302,-16.498413,-2.371968,0.000000,1.000000,-0.000000
-46.571743,-18.114256,-13.043175,-1.000000,0.000000,0.000000
-2.910778,-20.856245,-2.748434,0.000000,-1.000000,0.000000
15.466122,-20.603970,11.088883,0.995185,0.000000,-0.098017
-0.356102,14.830061,-8.839532,-0.000000,0.000000,1.000000
-23.696254,16.498413,-3.975802,0.000000,-1.000000,0.000000
25.760253,-11.891674,-8.839532,0.000000,-0.000000,1.000000
29.780834,0.452260,-8.839532,-0.000000,0.000000,1.000000
-46.302974,20.856245,-2.920738,-0.000000,1.000000,0.000000
11.069307,-16.498413,4.601151,0.000000,1.000000,0.000000
-7.352891,-20.856245,-0.563753,0.000000,-1.000000,0.000000
-31.351943,-20.856245,-11.003008,0.000000,-1.000000,0.000000
-27.838687,16.498413,9.609082,0.000000,-1.000000,0.000000
39.651206,20.856245,-4.204439,-0.000000,1.000000,0.000000
43.266766,12.744141,-13.197365,0.000000,0.000000,-1.000000
42.947681,13.702883,-13.197365,0.000000,0.000000,-1.000000
29.857728,-12.802499,-13.197365,0.000000,0.000000,-1.000000
21.305406,6.124192,-13.197365,0.000000,0.000000,-1.000000
-42.268388,-6.472783,-13.197365,0.000000,0.000000,-1.000000
11.526099,5.301378,-13.197365,0.000000,0.000000,-1.000000
36.656686,-7.647651,-13.197365,0.000000,0.000000,-1.000000
-18.669635,20.856245,-9.508871,-0.000000,1.000000,0.000000
-39.616109,-20.856245,-11.460427,0.000000,-1.000000,0.000000
-1.595171,-1.766311,-13.197365,0.000000,0.000000,-1.000000
-46.571743,15.355152,-9.089188,-1.000000,0.000000,0.000000
-27.375676,-20.856245,13.036808,0.000000,-1.000000,0.000000
38.650528,-20.856245,10.309156,-0.000000,-1.000000,0.000000
21.076640,-2.468832,-13.197365,0.000000,0.000000,-1.000000
8.923597,-20.856245,8.488754,0.000000,-1.000000,0.000000
-20.651727,19.846839,13.197365,0.000000,-0.000000,1.000000
24.225358,-16.498413,0.604547,-0.000000,1.000000,0.000000
36.843404,13.449254,-13.197365,0.000000,0.000000,-1.000000
10.056288,2.905867,-8.839532,-0.000000,0.000000,1.000000
-40.580561,20.856245,8.800976,-0.000000,1.000000,0.000000
-21.738275,16.498413,7.853305,0.000000,-1.000000,0.000000
-2.355705,-7.439846,-13.197365,0.000000,0.000000,-1.000000
-36.149200,-11.407901,-8.839532,0.000000,-0.000000,1.000000
42.151900,20.856245,-7.906404,-0.000000,1.000000,0.000000
-31.346393,16.498413,12.006218,0.000000,-1.000000,0.000000
12.248551,14.821591,-13.197365,0.000000,0.000000,-1.000000
4.210545,-16.498413,-1.845350,-0.000000,1.000000,0.000000
-16.145606,-2.506251,-8.839532,0.000000,-0.000000,1.000000
21.811261,16.498413,7.447266,-0.000000,-1.000000,0.000000
41.889238,-20.856245,-10.889248,0.000000,-1.000000,0.000000
-8.744319,17.802911,13.197365,0.000000,0.000000,1.000000
-9.595346,20.856245,-0.275823,-0.000000,1.000000,0.000000
-7.191031,-20.856245,6.956473,0.000000,-1.000000,0.000000
23.333091,-13.202196,-8.839532,0.000000,-0.000000,1.000000
-24.963057,20.856245,-3.134485,-0.000000,1.000000,0.000000
-29.121392,-18.984185,13.197365,0.000000,-0.000000,1.000000
-21.827113,20.856245,-0.820561,-0.000000,1.000000,0.000000
37.562339,11.248833,-13.197365,0.000000,0.000000,-1.000000
-19.240082,-16.973143,13.197365,0.000000,-0.000000,1.000000
46.571743,-19.991549,-8.732558,1.000000,0.000000,-0.000000
-1.863069,-1.315640,-13.197365,0.000000,0.000000,-1.000000
15.622104,-2.423301,-13.197365,0.000000,0.000000,-1.000000
44.721239,10.771217,-13.197365,0.000000,0.000000,-1.000000
-25.882182,-1.329961,-8.839532,0.000000,-0.000000,1.000000
37.470726,20.856245,-11.608907,-0.000000,1.000000,0.000000
5.767391,7.482158,-8.839532,-0.000000,0.000000,1.000000
36.734043,0.500237,-13.197365,0.000000,0.000000,-1.000000
-41.333848,-20.856245,-7.909755,0.000000,-1.000000,0.000000
-46.571743,-10.400832,-10.523790,-1.000000,0.000000,0.000000
15.491144,16.498413,-0.752110,0.000000,-1.000000,0.000000
-25.251831,-20.856245,1.966972,0.000000,-1.000000,0.000000
11.267104,20.856245,9.077970,-0.000000,1.000000,0.000000
-42.815640,-16.498413,2.796956,-0.000000,1.000000,0.000000
-14.701678,-12.175155,-8.839532,0.000000,-0.000000,1.000000
32.328829,-9.448080,-8.839532,-0.000000,0.000000,1.000000
39.393599,-13.600037,-13.197365,0.000000,0.000000,-1.000000
7.935305,-7.434150,-13.197365,0.000000,0.000000,-1.000000
-7.958757,20.856245,-11.351294,-0.000000,1.000000,0.000000
-39.722101,-16.498413,-0.912815,-0.000000,1.000000,0.000000
-6.710122,3.717217,-8.839532,-0.000000,0.000000,1.000000
37.369622,3.809191,-13.197365,0.000000,0.000000,-1.000000
-31.480666,-9.614556,-8.839532,0.000000,-0.000000,1.000000
45.235755,-16.498413,2.347720,0.000000,1.000000,-0.000000
46.571743,-0.702405,-9.310219,1.000000,-0.000000,-0.000000
23.435721,20.856245,-10.326531,-0.000000,1.000000,0.000000
-46.176204,-9.119334,-8.839532,0.000000,-0.000000,1.000000
-23.087510,0.416895,-13.197365,0.000000,0.000000,-1.000000
29.503003,-4.234734,-8.839532,-0.000000,0.000000,1.000000
39.690490,20.856245,-3.317708,-0.000000,1.000000,0.000000
-18.038642,16.498413,3.713015,0.000000,-1.000000,0.000000
46.400436,20.856245,-4.923539,0.000000,1.000000,-0.000000
-30.475832,20.856245,1.971747,-0.000000,1.000000,0.000000
-20.851457,-16.498413,-3.889368,-0.000000,1.000000,0.000000
29.984313,-14.766412,-13.197365,0.000000,0.000000,-1.000000
-7.466994,20.856245,-6.894905,-0.000000,1.000000,0.000000
40.488729,-16.498413,13.106946,-0.000000,1.000000,0.000000
42.442330,-16.498413,6.997835,0.000000,1.000000,-0.000000
3.665673,16.862713,13.197365,0.000000,0.000000,1.000000
26.852041,-3.513783,-8.839532,-0.000000,0.000000,1.000000
28.376412,-5.866546,-13.197365,0.000000,0.000000,-1.000000
-38.167328,-16.498413,-7.646392,-0.000000,1.000000,0.000000
30.495823,20.856245,6.023158,-0.000000,1.000000,0.000000
23.189693,20.856245,-10.520952,-0.000000,1.000000,0.000000
33.277457,8.380028,-8.839532,-0.000000,0.000000,1.000000
19.942317,20.856245,-6.083966,-0.000000,1.000000,0.000000
-23.555400,20.856245,-2.366886,-0.000000,1.000000,0.000000
13.759552,16.387464,-8.839532,-0.000000,0.000000,1.000000
2.000140,-3.538026,-8.839532,0.000000,-0.000000,1.000000
31.543500,16.498413,-4.170691,0.000000,-1.000000,0.000000
44.180760,-20.856245,-5.265671,-0.000000,-1.000000,0.000000
5.177948,-8.811335,-8.839532,0.000000,-0.000000,1.000000
-27.361628,20.856245,-1.199268,-0.000000,1.000000,0.000000
35.522906,16.498413,1.029313,0.000000,-1.000000,0.000000
29.321696,7.226588,-8.839532,-0.000000,0.000000,1.000000
46.103688,17.642185,-13.197365,0.000000,0.000000,-1.000000
20.715034,0.142373,-13.197365,0.000000,0.000000,-1.000000
44.960037,-16.498413,10.185066,0.000000,1.000000,-0.000000
-3.945237,-17.078807,13.197365,0.000000,-0.000000,1.000000
-10.669972,-8.736661,-8.839532,0.000000,-0.000000,1.000000
-6.172488,-20.856245,-0.187909,0.000000,-1.000000,0.000000
-46.571743,20.595018,7.170048,-1.000000,0.000000,0.000000
-14.621684,-18.789900,13.197365,0.000000,0.000000,1.000000
-13.850078,-16.498413,-5.153402,-0.000000,1.000000,0.000000
-23.288621,20.856245,10.319173,-0.000000,1.000000,0.000000
16.723267,-16.068239,-8.839532,0.000000,-0.000000,1.000000
31.369728,-20.856245,-3.165310,0.000000,-1.000000,0.000000
-34.713481,-20.856245,-0.299303,0.000000,-1.000000,0.000000
-37.670697,-6.978694,-13.197365,0.000000,0.000000,-1.000000
-26.539465,-18.182832,-13.197365,0.000000,0.000000,-1.000000
44.089850,10.787113,-8.839532,-0.000000,0.000000,1.000000
8.093157,16.498413,0.435713,0.000000,-1.000000,0.000000
7.101299,20.856245,-11.848183,-0.000000,1.000000,0.000000
32.588005,0.539762,-13.197365,0.000000,0.000000,-1.000000
-17.127086,-16.498413,11.875629,-0.000000,1.000000,0.000000
43.279792,-5.699682,-13.197365,0.000000,0.000000,-1.000000
-4.156503,-1.091565,-13.197365,0.000000,0.000000,-1.000000
-0.392509,-16.498413,8.314494,-0.000000,1.000000,0.000000
43.319869,20.856245,-0.237346,0.000000,1.000000,-0.000000
-46.571743,-18.671775,11.790089,-1.000000,0.000000,0.000000
-46.571743,19.252714,-4.158928,-1.000000,0.000000,0.000000
23.280736,-9.239767,-13.197365,0.000000,0.000000,-1.000000
46.571743,-7.652630,-11.998372,1.000000,0.000000,-0.000000
21.977740,20.856245,8.417277,-0.000000,1.000000,0.000000
-26.047618,-20.856245,-8.951268,0.000000,-1.000000,0.000000
3.208237,-16.498413,-6.430008,-0.000000,1.000000,0.000000
-6.875223,-18.870624,-13.197365,0.000000,0.000000,-1.000000
38.438056,20.856245,-7.955486,-0.000000,1.000000,0.000000
35.114211,13.407054,-8.839532,-0.000000,0.000000,1.000000
-4.108656,16.498413,4.063314,0.000000,-1.000000,0.000000
38.262498,20.856245,10.234078,0.000000,1.000000,-0.000000
-10.933711,-16.498413,3.789670,-0.000000,1.000000,0.000000
-34.751622,-16.494763,-13.197365,0.000000,0.000000,-1.000000
11.895648,20.856245,-11.167763,-0.000000,1.000000,0.000000
34.448054,20.856245,-1.616615,-0.000000,1.000000,0.000000
-4.475353,-3.892889,-13.197365,0.000000,0.000000,-1.000000
-28.351540,-8.610584,-13.197365,0.000000,0.000000,-1.000000
21.131631,-13.660077,-13.197365,0.000000,0.000000,-1.000000
33.521532,14.588236,-13.197365,0.000000,0.000000,-1.000000
-24.680202,16.498413,2.339710,0.000000,-1.000000,0.000000
-9.947414,-20.856245,-4.801742,0.000000,-1.000000,0.000000
31.381614,-20.856245,-10.707533,0.000000,-1.000000,0.000000
25.692552,-7.128649,-8.839532,-0.000000,0.000000,1.000000
-45.431785,-14.509286,-8.839532,0.000000,-0.000000,1.000000
-46.571743,20.694121,8.884082,-1.000000,0.000000,0.000000
-34.391464,-9.514273,-13.197365,0.000000,0.000000,-1.000000
-29.518718,14.376090,-8.839532,-0.000000,0.000000,1.000000
-18.178062,18.345677,-13.197365,0.000000,0.000000,-1.000000
-28.424314,-16.147523,-8.839532,0.000000,-0.000000,1.000000
-38.179202,7.512206,-13.197365,0.000000,0.000000,-1.000000
27.753524,20.856245,7.266263,-0.000000,1.000000,0.000000
-43.397461,-16.498413,5.231635,-0.000000,1.000000,0.000000
36.795753,-20.856245,-0.447750,0.000000,-1.000000,0.000000
-7.820621,16.498413,9.588494,0.000000,-1.000000,0.000000
37.060592,-20.856245,7.091218,-0.000000,-1.000000,0.000000
-3.028569,-10.285888,-13.197365,0.000000,0.000000,-1.000000
20.401328,2.195357,-8.839532,-0.000000,0.000000,1.000000
15.948601,20.856245,0.493243,-0.000000,1.000000,0.000000
4.844592,-20.856245,3.354336,0.000000,-1.000000,0.000000
32.288022,-16.498413,-8.462734,-0.000000,1.000000,0.000000
-27.769670,-12.124108,-8.839532,0.000000,-0.000000,1.000000
8.936311,20.856245,-2.223338,-0.000000,1.000000,0.000000
-25.309519,-14.949297,-13.197365,0.000000,0.000000,-1.000000
0.763848,-16.498413,7.385940,-0.000000,1.000000,0.000000
-32.745725,-16.498413,12.929169,0.000000,1.000000,0.000000
-34.106819,16.498413,0.853260,0.000000,-1.000000,0.000000
25.706844,15.463294,-13.197365,0.000000,0.000000,-1.000000
21.409841,-20.396092,9.114882,-0.773010,0.000000,0.634394
9.117642,-20.856245,8.494452,0.000000,-1.000000,0.000000
-28.509320,0.032441,-13.197365,0.000000,0.000000,-1.000000
-29.119310,16.498413,3.390931,0.000000,-1.000000,0.000000
-35.823919,16.498413,-4.763528,0.000000,-1.000000,0.000000
-16.281495,20.856245,0.073976,-0.000000,1.000000,0.000000
-36.367512,-1.518774,-8.839532,0.000000,-0.000000,1.000000
26.762355,-20.856245,-2.129237,0.000000,-1.000000,0.000000
25.832819,20.856245,4.510488,-0.000000,1.000000,0.000000
-27.885142,-16.498413,0.331958,-0.000000,1.000000,0.000000
39.504623,-16.498413,2.041188,0.000000,1.000000,-0.000000
-14.525205,-20.856245,6.005135,0.000000,-1.000000,0.000000
-29.821789,-16.498413,2.853205,-0.000000,1.000000,0.000000
5.540937,-9.593045,-13.197365,0.000000,0.000000,-1.000000
30.267025,-10.218989,-8.839532,-0.000000,0.000000,1.000000
-43.412826,-5.057604,-13.197365,0.000000,0.000000,-1.000000
-1.055473,20.856245,-5.369656,-0.000000,1.000000,0.000000
17.672502,-16.498413,-0.263759,-0.000000,1.000000,0.000000
18.959771,20.856245,-0.225669,-0.000000,1.000000,0.000000
-5.938477,-6.029103,-13.197365,0.000000,0.000000,-1.000000
-39.768834,-20.856245,1.756842,0.000000,-1.000000,0.000000
-4.030729,20.856245,-12.532379,-0.000000,1.000000,0.000000
-41.704786,-20.856245,-4.805953,0.000000,-1.000000,0.000000
-40.621325,10.752888,-13.197365,0.000000,0.000000,-1.000000
13.439709,4.395453,-8.839532,-0.000000,0.000000,1.000000
9.287861,-16.498413,-1.332608,-0.000000,1.000000,0.000000
-46.571743,17.475995,-11.471433,-1.000000,0.000000,0.000000
40.792615,20.856245,-1.621243,0.000000,1.000000,-0.000000
17.782189,9.474944,-8.839532,-0.000000,0.000000,1.000000
-19.175487,0.116574,-13.197365,0.000000,0.000000,-1.000000
-2.762087,20.856245,-5.832525,-0.000000,1.000000,0.000000
41.570127,-20.856245,1.674818,-0.000000,-1.000000,0.000000
-29.559363,16.498413,-0.810038,0.000000,-1.000000,0.000000
-9.981622,9.689009,-13.197365,0.000000,0.000000,-1.000000
-42.999334,-16.498413,-4.163205,-0.000000,1.000000,0.000000
-20.962334,6.869125,-13.197365,0.000000,0.000000,-1.000000
-25.259350,0.897026,-8.839532,0.000000,-0.000000,1.000000
7.010313,16.498413,6.545587,0.000000,-1.000000,0.000000
-6.897085,16.498413,9.059796,0.000000,-1.000000,0.000000
-28.927508,16.498413,7.340633,0.000000,-1.000000,0.000000
-41.162103,-3.093493,-13.197365,0.000000,0.000000,-1.000000
-44.820362,13.269770,-13.197365,0.000000,0.000000,-1.000000
-45.781246,-20.856245,-9.558915,0.000000,-1.000000,0.000000
-32.462140,-20.856245,-0.383697,0.000000,-1.000000,0.000000
2.276111,3.963497,-8.839532,-0.000000,0.000000,1.000000
36.761007,-20.856245,8.607299,-0.000000,-1.000000,0.000000
-21.478041,16.498413,-0.629221,0.000000,-1.000000,0.000000
-40.860982,16.498413,-6.655181,0.000000,-1.000000,0.000000
-27.035983,-0.396909,-13.197365,0.000000,0.000000,-1.000000
-42.723824,20.856245,-5.906287,-0.000000,1.000000,0.000000
-8.669846,16.498413,-0.143569,0.000000,-1.000000,0.000000
18.919315,16.498413,0.829333,0.000000,-1.000000,0.000000
40.734701,20.856245,-0.469804,0.000000,1.000000,-0.000000
7.759233,-20.856245,10.662293,0.000000,-1.000000,0.000000
-42.165220,-20.168723,13.197365,0.000000,-0.000000,1.000000
2.324666,-16.498413,1.699090,-0.000000,1.000000,0.000000
36.614702,16.498413,-7.268075,0.000000,-1.000000,0.000000
-14.971367,14.338990,-13.197365,0.000000,0.000000,-1.000000
-41.729688,16.498413,-1.226171,0.000000,-1.000000,0.000000
46.571743,20.204476,-8.052628,1.000000,0.000000,-0.000000
-4.270919,-20.856245,3.232204,0.000000,-1.000000,0.000000
-38.001808,-3.078103,-13.197365,0.000000,0.000000,-1.000000
22.244462,14.117405,-8.839532,-0.000000,0.000000,1.000000
3.553583,-16.498413,2.589600,-0.000000,1.000000,0.000000
-46.571743,20.769026,-0.265656,-1.000000,0.000000,0.000000
-39.914888,-20.856245,-5.640685,0.000000,-1.000000,0.000000
9.794181,16.498413,10.043749,0.000000,-1.000000,0.000000
-2.210489,-16.498413,-5.921664,-0.000000,1.000000,0.000000
-3.552178,-10.024736,-8.839532,0.000000,-0.000000,1.000000
-41.154190,16.538574,13.197365,0.000000,0.000000,1.000000
-2.236729,3.337171,-13.197365,0.000000,0.000000,-1.000000
10.667153,-16.498413,-5.012148,-0.000000,1.000000,0.000000
39.729982,-16.498413,6.826209,0.000000,1.000000,-0.000000
-8.345407,16.498413,12.372270,0.000000,-1.000000,0.000000
30.564920,-13.064096,-8.839532,0.000000,-0.000000,1.000000
-17.411954,-18.891121,-13.197365,0.000000,0.000000,-1.000000
43.775672,12.096121,-8.839532,-0.000000,0.000000,1.000000
11.158998,-2.760472,-13.197365,0.000000,0.000000,-1.000000
-25.155680,-20.856245,0.458580,0.000000,-1.000000,0.000000
16.563611,20.856245,-12.069864,-0.000000,1.000000,0.000000
-46.465895,20.856245,2.128529,-0.000000,1.000000,0.000000
15.532541,5.814247,-8.839532,-0.000000,0.000000,1.000000
5.761295,16.498413,6.014102,0.000000,-1.000000,0.000000
-43.443095,9.010895,-8.839532,0.000000,-0.000000,1.000000
-27.403987,16.498413,11.284640,0.000000,-1.000000,0.000000
-46.571743,11.059934,-10.079897,-1.000000,0.000000,0.000000
0.816288,8.772919,-8.839532,-0.000000,0.000000,1.000000
34.079015,-12.515198,-13.197365,0.000000,0.000000,-1.000000
-11.874551,20.856245,-9.422397,-0.000000,1.000000,0.000000
37.428709,-5.102713,-13.197365,0.000000,0.000000,-1.000000
-38.644446,-20.856245,-10.463357,0.000000,-1.000000,0.000000
13.682294,20.856245,-8.504598,-0.000000,1.000000,0.000000
-0.020514,-3.929529,-8.839532,0.000000,-0.000000,1.000000
27.427423,-17.399613,10.303597,-0.956940,0.000000,0.290287
40.601435,19.777667,13.197365,0.000000,-0.000000,1.000000
16.936392,20.856245,-6.992357,-0.000000,1.000000,0.000000
27.657473,20.856245,6.779366,-0.000000,1.000000,0.000000
-41.342152,-5.784851,-8.839532,0.000000,-0.000000,1.000000
46.571743,-18.745802,3.811546,1.000000,0.000000,-0.000000
-10.975463,-20.856245,-11.230223,0.000000,-1.000000,0.000000
11.385322,-16.498413,-3.669389,-0.000000,1.000000,0.000000
-12.028293,-12.445329,-13.197365,0.000000,0.000000,-1.000000
-45.444321,1.580032,-8.839532,0.000000,-0.000000,1.000000
10.788272,2.283494,-13.197365,0.000000,0.000000,-1.000000
19.216551,16.498413,-2.622262,0.000000,-1.000000,0.000000
43.477538,1.016347,-8.839532,-0.000000,0.000000,1.000000
5.038348,-20.856245,3.705331,0.000000,-1.000000,0.000000
46.571743,18.226503,-8.993753,1.000000,0.000000,-0.000000
-0.145229,17.219597,13.197365,0.000000,0.000000,1.000000
-9.492142,20.292567,13.197365,0.000000,-0.000000,1.000000
29.242029,-2.239608,-8.839532,-0.000000,0.000000,1.000000
-5.052095,20.856245,3.771028,-0.000000,1.000000,0.000000
-25.734922,6.359829,-13.197365,0.000000,0.000000,-1.000000
21.121224,-20.856245,-12.762434,0.000000,-1.000000,0.000000
29.146684,-16.498413,-6.419776,-0.000000,1.000000,0.000000
0.660216,20.856245,10.996962,-0.000000,1.000000,0.000000
-43.082348,-10.476743,-13.197365,0.000000,0.000000,-1.000000
-29.646643,-16.498413,1.112594,-0.000000,1.000000,0.000000
-0.926664,-19.774301,-13.197365,0.000000,0.000000,-1.000000
37.788894,20.540236,-13.197365,0.000000,0.000000,-1.000000
-46.571743,16.851532,10.800614,-1.000000,0.000000,0.000000
10.321221,20.856245,-10.537672,-0.000000,1.000000,0.000000
-12.314300,16.498413,5.034060,0.000000,-1.000000,0.000000
46.571743,-16.520734,4.316294,1.000000,0.000000,-0.000000
-6.187712,9.635623,-13.197365,0.000000,0.000000,-1.000000
-3.416775,-9.535894,-13.197365,0.000000,0.000000,-1.000000
31.288918,-12.480852,-13.197365,0.000000,0.000000,-1.000000
46.571743,-17.088318,12.936770,1.000000,0.000000,-0.000000
35.235564,-16.498413,-4.740711,-0.000000,1.000000,0.000000
42.030750,-20.856245,3.583544,-0.000000,-1.000000,0.000000
-43.841893,5.091889,-8.839532,0.000000,-0.000000,1.000000
19.567892,-20.856245,-11.011539,0.000000,-1.000000,0.000000
-21.936892,-1.641222,-13.197365,0.000000,0.000000,-1.000000
-30.946691,16.498413,-0.752912,0.000000,-1.000000,0.000000
13.639649,20.856245,-10.269982,-0.000000,1.000000,0.000000
20.871094,10.144028,-8.839532,-0.000000,0.000000,1.000000
-26.732482,16.498413,-0.145132,0.000000,-1.000000,0.000000
-6.068205,-8.574331,-8.839532,0.000000,-0.000000,1.000000
-29.438091,16.677387,13.197365,0.000000,0.000000,1.000000
-33.447656,20.856245,-8.365660,-0.000000,1.000000,0.000000
-24.988077,14.013329,-13.197365,0.000000,0.000000,-1.000000
39.316353,-12.924545,-13.197365,0.000000,0.000000,-1.000000
11.158224,16.498413,0.413761,0.000000,-1.000000,0.000000
15.317925,-9.841261,-13.197365,0.000000,0.000000,-1.000000
-18.169864,0.038911,-13.197365,0.000000,0.000000,-1.000000
26.262517,3.767075,-13.197365,0.000000,0.000000,-1.000000
7.517474,19.707761,-13.197365,0.000000,0.000000,-1.000000
-6.173663,16.498413,7.298535,0.000000,-1.000000,0.000000
7.879090,16.498413,-7.442876,0.000000,-1.000000,0.000000
34.873685,8.714164,-13.197365,0.000000,0.000000,-1.000000
22.974802,20.856245,4.038863,-0.000000,1.000000,0.000000
40.295431,20.856245,1.491148,0.000000,1.000000,-0.000000
8.392224,-16.498413,7.013764,-0.000000,1.000000,0.000000
-25.155397,-11.931962,-13.197365,0.000000,0.000000,-1.000000
-12.851158,-20.856245,12.724765,0.000000,-1.000000,0.000000
4.405791,-16.498413,-4.948032,-0.000000,1.000000,0.000000
46.449826,-16.498413,-3.167879,0.000000,1.000000,-0.000000
-8.396396,20.856245,-11.585768,-0.000000,1.000000,0.000000
-19.968894,-19.298722,13.197365,0.000000,0.000000,1.000000
-37.030620,-5.939232,-8.839532,0.000000,-0.000000,1.000000
-36.701471,-12.822992,-13.197365,0.000000,0.000000,-1.000000
-41.793173,-0.914271,-8.839532,0.000000,-0.000000,1.000000
46.571743,-16.775553,10.923846,1.000000,0.000000,-0.000000
-15.889426,20.856245,4.772661,-0.000000,1.000000,0.000000
1.255685,20.856245,-9.010423,-0.000000,1.000000,0.000000
-45.011925,-5.677517,-13.197365,0.000000,0.000000,-1.000000
18.569699,-13.736890,-8.839532,0.000000,-0.000000,1.000000
7.609564,-16.498413,13.183982,-0.000000,1.000000,0.000000
23.041854,-16.498413,7.089871,-0.000000,1.000000,0.000000
-4.477794,20.856245,11.645180,-0.000000,1.000000,0.000000
14.917594,16.498413,-6.847206,0.000000,-1.000000,0.000000
-12.352318,5.773508,-13.197365,0.000000,0.000000,-1.000000
0.439094,16.498413,-6.764890,0.000000,-1.000000,0.000000
17.432975,-14.425614,-13.197365,0.000000,0.000000,-1.000000
-9.620100,-12.948507,-8.839532,0.000000,-0.000000,1.000000
1.442954,1.220411,-8.839532,-0.000000,0.000000,1.000000
5.159195,-12.018963,-13.197365,0.000000,0.000000,-1.000000
37.412309,16.498413,10.258240,-0.000000,-1.000000,0.000000
22.065207,-16.498413,-8.598520,-0.000000,1.000000,0.000000
14.649461,16.498413,5.981527,0.000000,-1.000000,0.000000
-6.002940,17.093024,-13.197365,0.000000,0.000000,-1.000000
-36.306621,20.856245,8.190659,-0.000000,1.000000,0.000000
45.129161,20.856245,3.561052,0.000000,1.000000,-0.000000
-19.295608,15.481324,-13.197365,0.000000,0.000000,-1.000000
-42.206970,16.498413,1.090662,0.000000,-1.000000,0.000000
-12.159579,-20.856245,6.837599,0.000000,-1.000000,0.000000
3.125685,-12.284227,-13.197365,0.000000,0.000000,-1.000000
-40.970092,-13.692946,-8.839532,0.000000,-0.000000,1.000000
9.599510,6.855082,-13.197365,0.000000,0.000000,-1.000000
-39.809415,0.422120,-13.197365,0.000000,0.000000,-1.000000
-22.943503,16.498413,4.724418,0.000000,-1.000000,0.000000
18.098527,-4.752896,-8.839532,-0.000000,0.000000,1.000000
14.688047,20.856245,6.916185,-0.000000,1.000000,0.000000
10.800426,17.101800,-13.197365,0.000000,0.000000,-1.000000
-45.465526,20.856245,12.490885,-0.000000,1.000000,0.000000
30.160192,17.346977,13.197365,0.000000,-0.000000,1.000000
44.923535,-20.856245,9.255399,-0.000000,-1.000000,0.000000
-3.621424,-12.675435,-8.839532,0.000000,-0.000000,1.000000
46.571743,-1.987348,-12.781117,1.000000,0.000000,-0.000000
33.508933,20.856245,-1.301693,-0.000000,1.000000,0.000000
-27.190283,-9.665790,-13.197365,0.000000,0.000000,-1.000000
27.620863,20.162002,13.197365,0.000000,0.000000,1.000000
32.529888,2.598634,-8.839532,-0.000000,0.000000,1.000000
42.239312,-20.856245,3.130036,-0.000000,-1.000000,0.000000
5.746084,-6.507560,-13.197365,0.000000,0.000000,-1.000000
19.146133,-17.321924,7.773652,-0.098017,0.000000,0.995185
-21.104432,-16.498413,3.009018,-0.000000,1.000000,0.000000
29.726901,7.525898,-13.197365,0.000000,0.000000,-1.000000
37.194519,5.468719,-8.839532,-0.000000,0.000000,1.000000
-39.532826,12.288950,-8.839532,0.000000,-0.000000,1.000000
7.544417,19.376315,13.197365,0.000000,0.000000,1.000000
42.565197,-20.856245,-9.065168,-0.000000,-1.000000,0.000000
-12.462757,19.390174,13.197365,0.000000,-0.000000,1.000000
-37.181922,-8.503301,-13.197365,0.000000,0.000000,-1.000000
31.639455,20.856245,0.871689,-0.000000,1.000000,0.000000
30.143278,20.856245,-7.268668,-0.000000,1.000000,0.000000
-46.571743,18.603695,-6.259946,-1.000000,0.000000,0.000000
35.170526,-7.938466,-13.197365,0.000000,0.000000,-1.000000
33.722294,-17.318821,7.740346,-0.098017,0.000000,0.995185
-44.087225,-20.856245,11.464743,0.000000,-1.000000,0.000000
-1.562990,15.169555,-8.839532,-0.000000,0.000000,1.000000
-29.402937,-20.856245,-8.442498,0.000000,-1.000000,0.000000
-13.261814,19.110483,13.197365,0.000000,-0.000000,1.000000
-33.341085,16.498413,8.688453,0.000000,-1.000000,0.000000
26.779544,12.247761,-8.839532,-0.000000,0.000000,1.000000
-0.247013,-19.726960,13.197365,0.000000,0.000000,1.000000
-12.280132,20.856245,-12.215636,-0.000000,1.000000,0.000000
-33.593005,20.856245,-4.466212,-0.000000,1.000000,0.000000
41.057280,3.664189,-13.197365,0.000000,0.000000,-1.000000
13.431775,6.113702,-8.839532,-0.000000,0.000000,1.000000
-20.074450,16.498413,-4.503273,0.000000,-1.000000,0.000000
15.204497,-16.498116,-13.197365,0.000000,0.000000,-1.000000
-30.456414,-16.498413,2.510094,-0.000000,1.000000,0.000000
-26.209874,-20.809441,13.197365,0.000000,0.000000,1.000000
-38.168903,-7.687286,-8.839532,0.000000,-0.000000,1.000000
39.384632,-20.856245,-6.989630,0.000000,-1.000000,0.000000
-7.967735,20.856245,8.089630,-0.000000,1.000000,0.000000
36.764934,18.758373,10.000719,-0.956941,0.000000,0.290282
39.408209,19.301001,-13.197365,0.000000,0.000000,-1.000000
18.136582,5.153988,-8.839532,-0.000000,0.000000,1.000000
5.532471,15.883521,-8.839532,-0.000000,0.000000,1.000000
-6.757649,19.637170,-13.197365,0.000000,0.000000,-1.000000
-19.464917,16.498413,-7.578076,0.000000,-1.000000,0.000000
44.457647,-20.856245,5.260586,-0.000000,-1.000000,0.000000
-8.839354,-16.498413,3.361822,-0.000000,1.000000,0.000000
-35.329032,20.856245,-2.271928,-0.000000,1.000000,0.000000
25.749789,-20.856245,7.020122,-0.000000,-1.000000,0.000000
-43.987515,-16.498413,-4.221234,-0.000000,1.000000,0.000000
-32.429937,-2.018875,-13.197365,0.000000,0.000000,-1.000000
18.508600,16.498413,5.060848,0.000000,-1.000000,0.000000
11.676200,-12.899082,-13.197365,0.000000,0.000000,-1.000000
34.437303,-20.856245,-2.270861,0.000000,-1.000000,0.000000
-0.930653,-20.856245,0.959727,0.000000,-1.000000,0.000000
13.257357,20.856245,-6.869753,-0.000000,1.000000,0.000000
-29.496692,19.597094,-13.197365,0.000000,0.000000,-1.000000
34.636227,20.856245,-10.977069,-0.000000,1.000000,0.000000
-7.564553,-16.498413,-6.289509,-0.000000,1.000000,0.000000
44.535271,-20.856245,-11.205909,-0.000000,-1.000000,0.000000
12.739033,-20.856245,-9.403681,0.000000,-1.000000,0.000000
12.904306,-20.856245,6.047999,0.000000,-1.000000,0.000000
15.987111,-20.856245,-0.607317,0.000000,-1.000000,0.000000
12.774530,-18.141646,13.197365,0.000000,0.000000,1.000000
21.185951,20.856245,5.436945,-0.000000,1.000000,0.000000
-42.452418,-16.498413,-8.469276,-0.000000,1.000000,0.000000
39.783894,-19.555216,13.197365,0.000000,0.000000,1.000000
-46.571743,18.227735,-3.698261,-1.000000,0.000000,0.000000
-28.479073,16.498413,9.515726,0.000000,-1.000000,0.000000
35.297608,-16.498413,3.056928,-0.000000,1.000000,0.000000
22.545805,20.856245,0.182918,-0.000000,1.000000,0.000000
36.343794,20.856245,-2.293524,-0.000000,1.000000,0.000000
-45.216105,20.856245,1.879069,-0.000000,1.000000,0.000000
-4.294333,-20.856245,-13.044893,0.000000,-1.000000,0.000000
-10.850675,16.498413,3.425311,0.000000,-1.000000,0.000000
27.088436,-1.271428,-8.839532,-0.000000,0.000000,1.000000
-34.028105,-20.856245,-3.582031,0.000000,-1.000000,0.000000
-25.739046,-20.856245,-9.609046,0.000000,-1.000000,0.000000
34.463311,13.493949,-13.197365,0.000000,0.000000,-1.000000
-31.788726,-8.294794,-8.839532,0.000000,-0.000000,1.000000
21.047549,16.498413,0.671795,0.000000,-1.000000,0.000000
23.625756,-20.856245,2.665238,0.000000,-1.000000,0.000000
-0.710248,-16.498413,-1.756701,-0.000000,1.000000,0.000000
46.092864,9.783062,-13.197365,0.000000,0.000000,-1.000000
1.652523,-20.856245,-10.131148,0.000000,-1.000000,0.000000
-12.677839,-16.498413,-4.044352,-0.000000,1.000000,0.000000
-17.536070,20.856245,8.931929,-0.000000,1.000000,0.000000
-13.710566,9.382769,-8.839532,-0.000000,0.000000,1.000000
-41.594742,-16.498413,11.723887,-0.000000,1.000000,0.000000
-5.488485,20.856245,-7.114557,-0.000000,1.000000,0.000000
38.131136,16.009360,-13.197365,0.000000,0.000000,-1.000000
46.571743,16.715164,-11.284738,1.000000,-0.000000,-0.000000
-46.571743,19.246725,10.726454,-1.000000,0.000000,0.000000
20.234623,-11.590471,-8.839532,0.000000,-0.000000,1.000000
6.467388,-20.856245,9.037508,0.000000,-1.000000,0.000000
-29.236306,11.063631,-8.839532,-0.000000,0.000000,1.000000
39.078547,-2.594670,-13.197365,0.000000,0.000000,-1.000000
42.595506,-20.856245,0.609685,-0.000000,-1.000000,0.000000
30.370494,-2.301476,-13.197365,0.000000,0.000000,-1.000000
16.898059,-13.817787,-13.197365,0.000000,0.000000,-1.000000
1.726788,-3.976705,-8.839532,0.000000,-0.000000,1.000000
3.671154,0.115494,-13.197365,0.000000,0.000000,-1.000000
-37.932133,-20.856245,2.986038,0.000000,-1.000000,0.000000
41.988946,12.671124,-13.197365,0.000000,0.000000,-1.000000
34.310137,-12.291223,-13.197365,0.000000,0.000000,-1.000000
-10.147574,-20.856245,7.671586,0.000000,-1.000000,0.000000
46.571743,6.124073,-10.583405,1.000000,-0.000000,-0.000000
-27.853800,-16.498413,-4.081017,-0.000000,1.000000,0.000000
20.087912,18.190185,8.030731,-0.471397,0.000000,0.881921
31.602497,-20.856245,-6.022383,0.000000,-1.000000,0.000000
22.091467,-20.856245,-4.199747,0.000000,-1.000000,0.000000
-18.355286,8.198710,-13.197365,0.000000,0.000000,-1.000000
-2.593299,-20.856245,11.782609,0.000000,-1.000000,0.000000
3.279167,20.856245,12.552986,0.000000,1.000000,0.000000
-27.201463,-1.104483,-8.839532,0.000000,-0.000000,1.000000
-4.657463,-20.856245,0.631454,0.000000,-1.000000,0.000000
13.630154,3.360863,-13.197365,0.000000,0.000000,-1.000000
5.960037,20.856245,8.829262,-0.000000,1.000000,0.000000
8.593053,-18.121540,13.197365,0.000000,0.000000,1.000000
-23.372918,20.856245,11.360827,-0.000000,1.000000,0.000000
22.721910,6.214061,-13.197365,0.000000,0.000000,-1.000000
44.064765,20.856245,-11.537763,-0.000000,1.000000,0.000000
-36.036411,-17.034963,13.197365,0.000000,-0.000000,1.000000
-20.222606,20.856245,11.017773,-0.000000,1.000000,0.000000
26.756969,16.498413,-3.160950,0.000000,-1.000000,0.000000
15.568946,-20.209211,11.813001,0.956941,0.000000,-0.290284
-42.743904,9.957397,-13.197365,0.000000,0.000000,-1.000000
-44.083145,13.788047,-8.839532,0.000000,-0.000000,1.000000
-23.471083,20.856245,5.452474,-0.000000,1.000000,0.000000
2.814952,-20.725787,-13.197365,0.000000,0.000000,-1.000000
19.951253,-19.786703,-13.197365,0.000000,0.000000,-1.000000
-27.370853,-16.498413,0.516513,-0.000000,1.000000,0.000000
43.354174,20.856245,12.464176,0.000000,1.000000,-0.000000
-18.725457,-10.069390,-13.197365,0.000000,0.000000,-1.000000
17.021830,20.856245,-1.648864,-0.000000,1.000000,0.000000
20.253027,-20.568171,8.118987,-0.471397,0.000000,0.881921
-14.044709,-20.856245,-4.771731,0.000000,-1.000000,0.000000
4.426292,-20.856245,-4.134818,0.000000,-1.000000,0.000000
-21.543693,-1.546128,-13.197365,0.000000,0.000000,-1.000000
-7.628797,-16.498413,6.517279,-0.000000,1.000000,0.000000
4.872413,-5.395773,-13.197365,0.000000,0.000000,-1.000000
-25.814934,-20.856245,-5.432008,0.000000,-1.000000,0.000000
19.647177,-10.309189,-13.197365,0.000000,0.000000,-1.000000
44.387796,16.498413,5.414860,-0.000000,-1.000000,0.000000
36.612643,-13.807376,-8.839532,0.000000,-0.000000,1.000000
40.601643,20.856245,11.679544,0.000000,1.000000,-0.000000
8.544968,16.498413,-3.921754,0.000000,-1.000000,0.000000
-38.444275,4.465507,-13.197365,0.000000,0.000000,-1.000000
-41.043747,-9.894306,-13.197365,0.000000,0.000000,-1.000000
45.898853,-16.498413,-5.661808,0.000000,1.000000,-0.000000
3.539543,-16.498413,11.805984,0.000000,1.000000,0.000000
24.988249,14.744027,-8.839532,-0.000000,0.000000,1.000000
7.172091,11.934945,-13.197365,0.000000,0.000000,-1.000000
-38.640758,-16.498413,11.338880,-0.000000,1.000000,0.000000
16.652070,20.856245,-10.546378,-0.000000,1.000000,0.000000
30.391444,-18.676530,11.200476,0.995185,0.000000,-0.098015
-36.839939,0.085934,-13.197365,0.000000,0.000000,-1.000000
-20.737860,-20.856245,0.482453,0.000000,-1.000000,0.000000
-14.205676,-20.856245,-11.409535,0.000000,-1.000000,0.000000
-44.987045,-16.498413,10.741971,-0.000000,1.000000,0.000000
16.659786,16.498413,-0.392400,0.000000,-1.000000,0.000000
-39.668353,20.856245,5.440938,-0.000000,1.000000,0.000000
36.866926,17.049066,-13.197365,0.000000,0.000000,-1.000000
-16.849701,-3.511002,-13.197365,0.000000,0.000000,-1.000000
-46.236284,-20.173930,-13.197365,0.000000,0.000000,-1.000000
28.255829,16.498413,9.987538,-0.000000,-1.000000,0.000000
46.571743,2.191568,-12.776208,1.000000,0.000000,-0.000000
23.642088,-20.856245,4.205189,-0.000000,-1.000000,0.000000
-21.020784,-16.498413,4.880232,-0.000000,1.000000,0.000000
-18.693959,16.498413,3.466103,0.000000,-1.000000,0.000000
-36.488855,6.487950,-13.197365,0.000000,0.000000,-1.000000
-0.548899,-16.498413,12.171120,0.000000,1.000000,0.000000
-18.129629,-16.498413,8.285653,-0.000000,1.000000,0.000000
4.789464,16.498413,-6.523506,0.000000,-1.000000,0.000000
-6.480529,16.498413,9.059500,0.000000,-1.000000,0.000000
4.267286,-14.309724,-13.197365,0.000000,0.000000,-1.000000
-13.241896,-14.589734,-8.839532,0.000000,-0.000000,1.000000
-36.259242,20.856245,-13.120250,-0.000000,1.000000,0.000000
-32.682712,-12.606850,-13.197365,0.000000,0.000000,-1.000000
44.155279,-16.498413,-0.093017,0.000000,1.000000,-0.000000
46.571743,18.611637,-0.779323,1.000000,0.000000,-0.000000
-0.052642,-20.856245,12.193294,0.000000,-1.000000,0.000000
-15.077306,16.192955,-13.197365,0.000000,0.000000,-1.000000
-15.973001,20.856245,6.145147,-0.000000,1.000000,0.000000
35.257108,-20.856245,-4.433828,-0.000000,-1.000000,0.000000
-19.551359,10.621099,-13.197365,0.000000,0.000000,-1.000000
22.892070,-3.812988,-8.839532,-0.000000,0.000000,1.000000
43.447107,16.212079,-8.839532,-0.000000,0.000000,1.000000
15.408338,18.399477,13.197365,0.000000,0.000000,1.000000
17.721959,-20.856245,-4.182232,0.000000,-1.000000,0.000000
-46.571743,17.992234,5.874462,-1.000000,0.000000,0.000000
28.804426,16.498413,-6.165088,0.000000,-1.000000,0.000000
17.404531,4.930882,-13.197365,0.000000,0.000000,-1.000000
31.350569,-17.960106,-13.197365,0.000000,0.000000,-1.000000
10.331817,0.611092,-13.197365,0.000000,0.000000,-1.000000
-45.195622,15.695984,-8.839532,0.000000,-0.000000,1.000000
-41.831617,-20.856245,-1.099272,0.000000,-1.000000,0.000000
-16.970840,-20.856245,12.005899,0.000000,-1.000000,0.000000
38.196773,-1.889387,-8.839532,-0.000000,0.000000,1.000000
28.377092,-20.856245,2.144764,-0.000000,-1.000000,0.000000
3.745487,-10.688680,-8.839532,0.000000,-0.000000,1.000000
-35.532053,1.359261,-13.197365,0.000000,0.000000,-1.000000
-11.561066,-5.131072,-13.197365,0.000000,0.000000,-1.000000
42.727356,12.254569,-13.197365,0.000000,0.000000,-1.000000
38.686382,16.692929,13.197365,0.000000,0.000000,1.000000
-39.286744,-12.929596,-8.839532,0.000000,-0.000000,1.000000
24.190416,16.498413,0.519856,0.000000,-1.000000,0.000000
-46.571743,16.670952,-3.739265,-1.000000,0.000000,0.000000
-6.992283,-20.856245,-0.881432,0.000000,-1.000000,0.000000
-5.567409,17.427444,13.197365,0.000000,0.000000,1.000000
39.387705,5.683353,-13.197365,0.000000,0.000000,-1.000000
35.918456,18.644732,8.645160,-0.634395,0.000000,0.773009
-2.910354,16.498413,11.096101,0.000000,-1.000000,0.000000
-11.746554,20.856245,-8.701461,-0.000000,1.000000,0.000000
-27.092615,-18.822649,-13.197365,0.000000,0.000000,-1.000000
-16.868767,14.767103,-13.197365,0.000000,0.000000,-1.000000
-34.520287,15.480277,-8.839532,-0.000000,0.000000,1.000000
1.164248,-20.856245,-2.941159,0.000000,-1.000000,0.000000
-44.692054,-20.856245,11.979429,0.000000,-1.000000,0.000000
-19.812036,20.856245,3.221537,-0.000000,1.000000,0.000000
34.989332,4.533403,-13.197365,0.000000,0.000000,-1.000000
1.619130,-20.856245,7.554500,0.000000,-1.000000,0.000000
38.638476,-3.752217,-8.839532,-0.000000,0.000000,1.000000
32.803761,20.856245,7.142531,-0.000000,1.000000,0.000000
3.851376,20.856245,-0.018487,-0.000000,1.000000,0.000000
-13.151572,-19.431764,-13.197365,0.000000,0.000000,-1.000000
-3.054549,-19.993421,13.197365,0.000000,0.000000,1.000000
-35.560862,-20.856245,-8.374679,0.000000,-1.000000,0.000000
-34.714300,-16.498413,8.100291,-0.000000,1.000000,0.000000
-8.179535,-3.477441,-8.839532,0.000000,-0.000000,1.000000
16.515356,-13.678014,-8.839532,0.000000,-0.000000,1.000000
41.913468,-16.498413,-2.668601,-0.000000,1.000000,0.000000
