x,y,z,nx,ny,nz
14.483493,-1.180299,-1.152486,0.000000,0.000000,-1.000000
-9.882487,9.526260,1.152486,0.000000,0.000000,1.000000
-3.307692,10.024602,1.152486,0.000000,0.000000,1.000000
-7.116167,-10.261348,-1.152486,0.000000,-0.000000,-1.000000
-1.623580,-14.496184,-1.000019,-0.146730,-0.989177,0.000000
-4.571437,10.469806,-1.152486,-0.000000,0.000000,-1.000000
9.538694,-11.028687,0.148209,0.671559,-0.740951,0.000000
5.456140,-11.481860,-1.152486,0.000000,0.000000,-1.000000
-7.959642,-1.967488,-0.638725,0.970031,0.242980,0.000000
-10.697230,-6.381453,-1.152486,0.000000,-0.000000,-1.000000
-6.292566,-13.149597,0.285971,-0.427555,-0.903989,0.000000
12.667238,-5.097900,-1.152486,0.000000,0.000000,-1.000000
13.004145,5.169258,1.152486,0.000000,0.000000,1.000000
-1.741688,10.228488,1.152486,0.000000,0.000000,1.000000
-8.607369,7.188646,1.152486,0.000000,0.000000,1.000000
4.382264,-12.293480,1.152486,0.000000,-0.000000,1.000000
4.045112,-7.397493,1.152486,-0.000000,-0.000000,1.000000
-8.909851,0.402904,-1.152486,-0.000000,0.000000,-1.000000
4.824627,-9.146339,-1.152486,0.000000,0.000000,-1.000000
5.783068,-5.824258,0.159854,-0.671559,0.740951,0.000000
-3.170897,12.719517,1.152486,0.000000,0.000000,1.000000
-11.598492,-3.370277,-1.152486,0.000000,-0.000000,-1.000000
-11.096092,-8.761970,1.152486,-0.000000,0.000000,1.000000
-11.620402,-1.355344,-1.152486,-0.000000,-0.000000,-1.000000
14.206164,3.280474,-0.151076,0.970031,0.242980,0.000000
6.577180,-12.180328,-1.152486,0.000000,0.000000,-1.000000
10.388507,8.805884,1.152486,0.000000,0.000000,1.000000
-5.207018,6.346237,0.668877,0.595699,-0.803208,0.000000
-3.049170,-12.806679,-1.152486,0.000000,-0.000000,-1.000000
9.247973,4.575431,1.152486,0.000000,-0.000000,1.000000
-10.403265,-10.228741,0.656987,-0.740951,-0.671559,0.000000
13.932878,0.567704,-1.152486,0.000000,0.000000,-1.000000
-5.369570,12.178630,1.152486,0.000000,0.000000,1.000000
-5.867277,5.735605,1.056887,0.740951,-0.671559,0.000000
-6.425356,5.100337,-0.435677,0.803208,-0.595699,0.000000
1.654049,-14.491665,-0.226194,0.146730,-0.989177,0.000000
10.741953,3.904666,-1.152486,-0.000000,0.000000,-1.000000
-8.903919,-11.545528,-0.217687,-0.595699,-0.803208,0.000000
-7.712012,2.784183,0.728136,0.941544,-0.336890,0.000000
3.497587,-8.621328,-1.152486,0.000000,0.000000,-1.000000
5.145051,6.392194,-0.290203,-0.595699,-0.803208,0.000000
10.297680,-1.475939,-1.152486,0.000000,0.000000,-1.000000
-11.198108,5.725437,-1.152486,-0.000000,0.000000,-1.000000
5.782769,11.830141,1.152486,0.000000,0.000000,1.000000
10.757686,3.240905,1.152486,0.000000,-0.000000,1.000000
5.615688,5.975963,-0.909127,-0.671559,-0.740951,-0.000000
-11.201375,-1.666678,-1.152486,0.000000,-0.000000,-1.000000
5.122373,-6.409014,0.490379,-0.595699,0.803208,0.000000
-4.613119,-7.433443,1.152486,-0.000000,0.000000,1.000000
-3.306947,9.812650,-1.152486,-0.000000,0.000000,-1.000000
10.428318,9.528394,-1.152486,-0.000000,0.000000,-1.000000
8.831057,2.719351,1.152486,0.000000,0.000000,1.000000
14.312954,1.007886,-1.152486,0.000000,0.000000,-1.000000
-10.700258,9.513925,1.152486,0.000000,0.000000,1.000000
9.657994,-0.405237,-1.152486,0.000000,0.000000,-1.000000
-11.070708,-4.223684,1.152486,-0.000000,0.000000,1.000000
-2.503324,-8.772562,-1.152486,0.000000,-0.000000,-1.000000
14.047361,3.914453,-0.571222,0.970031,0.242980,-0.000000
-8.892648,-0.738185,1.152486,-0.000000,0.000000,1.000000
-4.492775,12.747757,1.152486,0.000000,0.000000,1.000000
-12.521874,-7.463768,-1.082058,-0.857729,-0.514103,0.000000
8.585017,0.678280,1.152486,0.000000,-0.000000,1.000000
1.361731,-12.734697,-1.152486,0.000000,-0.000000,-1.000000
1.663238,-13.390179,-1.152486,0.000000,0.000000,-1.000000
-6.114263,13.233928,0.333181,-0.427555,0.903989,0.000000
-11.936033,-2.646622,1.152486,-0.000000,0.000000,1.000000
7.707561,-7.199653,1.152486,0.000000,-0.000000,1.000000
-4.380627,-13.508404,1.152486,-0.000000,0.000000,1.000000
-8.482330,-1.052055,-1.152486,-0.000000,-0.000000,-1.000000
-0.711842,14.560123,-0.207873,-0.049068,0.998795,0.000000
-12.536059,7.148872,1.152486,0.000000,0.000000,1.000000
-12.662062,5.412120,1.152486,0.000000,0.000000,1.000000
-3.702400,14.100477,-0.201967,-0.242980,0.970031,0.000000
-13.069652,2.121346,1.152486,-0.000000,0.000000,1.000000
10.792503,-7.852443,-1.152486,0.000000,0.000000,-1.000000
-10.936666,2.663501,1.152486,0.000000,0.000000,1.000000
-10.994948,9.182964,-1.152486,-0.000000,-0.000000,-1.000000
-6.274827,13.157987,0.582068,-0.427555,0.903989,0.000000
-4.913080,6.564236,0.006191,0.595699,-0.803208,0.000000
-10.933812,-2.986370,-1.152486,0.000000,-0.000000,-1.000000
1.802221,-8.001039,-0.724601,-0.242980,0.970031,0.000000
-2.208315,-9.844906,-1.152486,0.000000,-0.000000,-1.000000
12.728111,-7.119683,-0.391965,0.857729,-0.514103,0.000000
-4.450333,13.890207,1.151537,-0.336890,0.941544,0.000000
13.560647,5.371391,1.011991,0.941544,0.336890,-0.000000
10.705026,-3.899402,-1.152486,0.000000,0.000000,-1.000000
-14.563065,-0.044610,-1.152486,0.000000,-0.000000,-1.000000
10.154736,-6.002625,1.152486,0.000000,-0.000000,1.000000
2.631426,-13.115425,-1.152486,0.000000,0.000000,-1.000000
-0.501423,-8.886403,1.152486,-0.000000,0.000000,1.000000
-10.189998,5.271807,-1.152486,-0.000000,0.000000,-1.000000
0.051415,11.055405,-1.152486,-0.000000,0.000000,-1.000000
-12.113188,2.560773,1.152486,0.000000,0.000000,1.000000
14.012392,-2.984372,1.152486,0.000000,-0.000000,1.000000
13.397871,5.767636,-0.235679,0.903989,0.427555,0.000000
13.012708,-2.172890,-1.152486,0.000000,0.000000,-1.000000
-2.419743,14.378085,1.101907,-0.146730,0.989177,0.000000
-10.065383,4.797604,-1.152486,-0.000000,-0.000000,-1.000000
-8.881537,11.562128,-0.855851,-0.595699,0.803208,0.000000
-0.711726,12.635490,-1.152486,-0.000000,0.000000,-1.000000
-8.673373,-7.920009,1.152486,-0.000000,0.000000,1.000000
6.787263,12.915623,0.511344,0.427555,0.903989,0.000000
-7.681956,-8.124651,-1.152486,0.000000,-0.000000,-1.000000
14.225147,3.204691,-0.386185,0.970031,0.242980,0.000000
-11.349096,-4.469639,-1.152486,0.000000,-0.000000,-1.000000
-0.403318,14.470522,-1.152486,-0.000000,0.000000,-1.000000
12.145710,-8.091361,-0.807275,0.857729,-0.514103,0.000000
-7.921986,8.731530,-1.152486,-0.000000,-0.000000,-1.000000
-11.230784,-7.846519,1.152486,-0.000000,0.000000,1.000000
-9.187474,7.866678,-1.152486,-0.000000,-0.000000,-1.000000
9.393877,5.178632,-1.152486,0.000000,0.000000,-1.000000
-8.737278,-6.787106,-1.152486,0.000000,-0.000000,-1.000000
7.700162,-8.133819,1.152486,-0.000000,-0.000000,1.000000
-13.154970,1.779049,-1.152486,-0.000000,-0.000000,-1.000000
7.851820,4.750908,1.152486,0.000000,-0.000000,1.000000
-6.299141,-5.605820,1.152486,-0.000000,0.000000,1.000000
5.142186,-11.124960,-1.152486,0.000000,0.000000,-1.000000
7.643570,4.444799,1.152486,0.000000,-0.000000,1.000000
-2.910884,11.611966,-1.152486,-0.000000,-0.000000,-1.000000
-13.513773,-5.502394,0.089651,-0.941544,-0.336890,0.000000
5.807378,-12.480256,-1.152486,0.000000,0.000000,-1.000000
-13.587605,-5.296046,0.869507,-0.941544,-0.336890,0.000000
11.505210,-2.768315,1.152486,0.000000,-0.000000,1.000000
-8.736898,10.713535,1.152486,0.000000,0.000000,1.000000
-11.331440,-0.784903,-1.152486,0.000000,-0.000000,-1.000000
-13.476012,-5.602420,0.286050,-0.903989,-0.427555,0.000000
8.025224,1.705671,-0.610683,-0.970031,-0.242980,0.000000
-10.745846,0.758086,-1.152486,-0.000000,0.000000,-1.000000
12.479795,0.462731,-1.152486,0.000000,0.000000,-1.000000
-12.724375,-7.125916,0.923881,-0.857729,-0.514103,0.000000
3.026582,-7.625280,0.416222,-0.336890,0.941544,0.000000
-2.030935,8.464808,1.152486,0.000000,0.000000,1.000000
10.531351,10.087420,-0.280174,0.740951,0.671559,-0.000000
-7.356291,-4.094293,-1.152486,0.000000,-0.000000,-1.000000
-0.112713,14.426520,1.152486,0.000000,0.000000,1.000000
10.402206,4.801979,-1.152486,-0.000000,0.000000,-1.000000
10.039090,-5.798858,1.152486,0.000000,-0.000000,1.000000
9.970999,10.636869,-0.916372,0.671559,0.740951,0.000000
-6.444654,13.077665,0.771600,-0.427555,0.903989,0.000000
2.083402,-13.314128,-1.152486,0.000000,0.000000,-1.000000
-6.373707,5.735728,-1.152486,-0.000000,0.000000,-1.000000
-8.608136,-11.764896,-0.445552,-0.595699,-0.803208,0.000000
-7.751137,-2.674835,0.226884,0.941544,0.336890,0.000000
5.289983,-12.647114,-1.152486,0.000000,0.000000,-1.000000
-11.255105,-7.243100,-1.152486,0.000000,-0.000000,-1.000000
1.898856,8.997348,1.152486,0.000000,-0.000000,1.000000
13.136360,0.948313,-1.152486,0.000000,0.000000,-1.000000
-1.224372,-8.107258,-0.317436,0.146730,0.989177,0.000000
9.666094,10.913219,-0.501663,0.671559,0.740951,0.000000
-13.960239,-0.244069,1.152486,-0.000000,0.000000,1.000000
6.644960,12.982927,-1.151698,0.427555,0.903989,0.000000
-9.412822,-0.741747,1.152486,-0.000000,0.000000,1.000000
12.211153,-4.073048,-1.152486,0.000000,0.000000,-1.000000
8.966922,-5.899247,1.152486,0.000000,-0.000000,1.000000
14.560452,-0.705163,-0.127693,0.998795,-0.049068,0.000000
-7.686477,-11.398132,-1.152486,0.000000,-0.000000,-1.000000
5.525996,-6.057255,-0.956057,-0.671559,0.740951,0.000000
6.545284,-4.938634,-0.338802,-0.803208,0.595699,0.000000
6.062557,-12.269731,1.152486,0.000000,-0.000000,1.000000
-13.232086,-6.118158,0.372915,-0.903989,-0.427555,0.000000
5.510435,-10.165813,-1.152486,0.000000,0.000000,-1.000000
-2.538819,7.883008,1.152486,0.000000,0.000000,1.000000
5.747061,12.055886,1.152486,0.000000,0.000000,1.000000
-10.147639,3.064461,-1.152486,-0.000000,0.000000,-1.000000
6.677522,12.685960,-1.152486,-0.000000,0.000000,-1.000000
4.518496,6.850874,0.283844,-0.514103,-0.857729,0.000000
-0.700919,-12.771539,1.152486,-0.000000,-0.000000,1.000000
-11.230824,-5.758312,1.152486,-0.000000,0.000000,1.000000
-10.306912,-8.377906,-1.152486,0.000000,-0.000000,-1.000000
-1.482537,11.280603,1.152486,0.000000,0.000000,1.000000
-11.705782,0.439062,1.152486,-0.000000,0.000000,1.000000
-2.252889,-8.941985,1.152486,-0.000000,0.000000,1.000000
2.321053,7.871079,1.065948,-0.242980,-0.970031,0.000000
2.597308,-7.973412,1.152486,-0.000000,-0.000000,1.000000
4.486158,-12.204426,-1.152486,0.000000,0.000000,-1.000000
5.280261,-12.303015,1.152486,0.000000,-0.000000,1.000000
11.440763,3.493690,1.152486,0.000000,0.000000,1.000000
9.902524,-0.077700,1.152486,0.000000,-0.000000,1.000000
-3.617962,7.358808,-0.103212,0.427555,-0.903989,0.000000
11.828821,-2.334396,1.152486,0.000000,-0.000000,1.000000
-13.221456,6.140634,-0.275041,-0.903989,0.427555,0.000000
2.717985,11.953857,1.152486,0.000000,0.000000,1.000000
4.763923,13.778002,0.516563,0.336890,0.941544,-0.000000
7.533580,3.776237,-1.152486,0.000000,0.000000,-1.000000
-9.028525,7.746689,1.152486,0.000000,0.000000,1.000000
7.289540,3.764418,-0.327748,-0.903989,-0.427555,-0.000000
5.258148,6.300018,-0.712003,-0.671559,-0.740951,-0.000000
-0.124509,-10.221805,1.152486,-0.000000,0.000000,1.000000
6.226202,-12.622900,1.152486,0.000000,-0.000000,1.000000
0.607120,8.179224,0.688526,-0.049068,-0.998795,0.000000
13.823701,-3.500532,-1.152486,0.000000,0.000000,-1.000000
10.745884,-7.360693,1.152486,-0.000000,-0.000000,1.000000
-11.300822,1.495957,1.152486,0.000000,0.000000,1.000000
12.684572,-2.395344,-1.152486,0.000000,0.000000,-1.000000
-3.602341,8.862672,1.152486,0.000000,0.000000,1.000000
11.108208,-8.067638,1.152486,0.000000,-0.000000,1.000000
11.425805,-2.324328,1.152486,-0.000000,-0.000000,1.000000
14.064657,3.845401,-0.732504,0.970031,0.242980,0.000000
-11.969020,6.493442,-1.152486,-0.000000,-0.000000,-1.000000
-13.435238,4.799459,1.152486,0.000000,0.000000,1.000000
8.977533,1.913704,-1.152486,0.000000,0.000000,-1.000000
-11.195551,-9.354588,1.035257,-0.740951,-0.671559,0.000000
-10.610260,-8.340488,-1.152486,0.000000,-0.000000,-1.000000
-7.733456,-7.113245,1.152486,-0.000000,0.000000,1.000000
-11.276305,0.731226,-1.152486,-0.000000,0.000000,-1.000000
-11.295734,2.178336,1.152486,-0.000000,0.000000,1.000000
1.940962,13.958516,1.152486,0.000000,0.000000,1.000000
-8.810354,11.614921,-0.478550,-0.595699,0.803208,0.000000
-14.262040,-1.806853,1.152486,-0.000000,0.000000,1.000000
-8.495864,-4.010008,1.152486,-0.000000,0.000000,1.000000
8.288293,0.752596,1.152486,0.000000,-0.000000,1.000000
-14.272747,3.014660,-0.238419,-0.970031,0.242980,0.000000
-1.426234,-8.077315,0.067147,0.146730,0.989177,0.000000
-11.629241,-0.384409,-1.152486,0.000000,-0.000000,-1.000000
3.412122,-13.473351,-1.152486,0.000000,0.000000,-1.000000
1.980496,10.032346,-1.152486,0.000000,0.000000,-1.000000
-8.295256,-7.670944,-1.152486,0.000000,-0.000000,-1.000000
10.606357,7.374182,1.152486,0.000000,0.000000,1.000000
-7.333540,11.910450,1.152486,0.000000,0.000000,1.000000
-7.711149,2.922478,1.152486,0.000000,0.000000,1.000000
0.741963,-8.172600,-0.030921,-0.049068,0.998795,0.000000
13.583227,-2.422718,1.152486,0.000000,-0.000000,1.000000
-9.948539,3.682030,-1.152486,-0.000000,0.000000,-1.000000
-2.087591,-8.886193,-1.152486,0.000000,-0.000000,-1.000000
-5.460343,-8.370418,1.152486,-0.000000,0.000000,1.000000
-1.919247,14.452326,0.292968,-0.146730,0.989177,0.000000
-8.257933,-0.387041,1.152486,-0.000000,0.000000,1.000000
-11.920582,-2.776897,1.152486,-0.000000,0.000000,1.000000
7.410712,11.600155,1.152486,0.000000,0.000000,1.000000
4.579360,6.811739,0.242520,-0.595699,-0.803208,-0.000000
-13.391020,-4.712455,1.152486,-0.000000,0.000000,1.000000
-13.640947,-4.610270,-1.152486,0.000000,-0.000000,-1.000000
12.013729,5.598807,1.152486,0.000000,0.000000,1.000000
-7.535240,-8.609063,1.152486,-0.000000,0.000000,1.000000
8.917596,3.171470,1.152486,0.000000,-0.000000,1.000000
-8.565254,-4.657349,-1.152486,0.000000,-0.000000,-1.000000
-7.775148,-11.072032,1.152486,-0.000000,0.000000,1.000000
7.501075,-3.317164,0.664435,-0.903989,0.427555,0.000000
-7.698786,-12.381010,-1.073163,-0.514103,-0.857729,0.000000
8.334785,7.575778,1.152486,0.000000,0.000000,1.000000
-1.027258,-8.136497,-0.533040,0.146730,0.989177,0.000000
-8.452119,-0.536486,-1.152486,-0.000000,-0.000000,-1.000000
14.190070,3.344726,0.645074,0.970031,0.242980,-0.000000
-2.546277,9.775535,-1.152486,-0.000000,-0.000000,-1.000000
-4.855554,8.576569,-1.152486,-0.000000,0.000000,-1.000000
14.377948,2.420661,-0.777839,0.989177,0.146730,0.000000
5.137099,11.838484,-1.152486,-0.000000,0.000000,-1.000000
-0.942541,14.391457,-1.152486,-0.000000,0.000000,-1.000000
-0.221434,14.178703,1.152486,0.000000,0.000000,1.000000
-6.090405,-5.489421,-1.044583,0.740951,0.671559,0.000000
12.922036,-2.385448,-1.152486,0.000000,0.000000,-1.000000
-3.670441,11.625557,1.152486,0.000000,0.000000,1.000000
-7.424738,-9.058249,1.152486,-0.000000,0.000000,1.000000
10.251479,-3.089066,1.152486,0.000000,-0.000000,1.000000
-1.904410,-14.017828,-1.152486,0.000000,-0.000000,-1.000000
5.795500,-6.609167,1.152486,-0.000000,-0.000000,1.000000
-3.963991,-11.974912,1.152486,-0.000000,0.000000,1.000000
-10.189554,-4.028137,1.152486,-0.000000,0.000000,1.000000
-11.387327,9.117228,-0.721673,-0.803208,0.595699,0.000000
-4.586697,-6.806298,0.746314,0.595699,0.803208,0.000000
-7.225377,3.893676,-0.941438,0.857729,-0.514103,0.000000
11.759836,2.047260,-1.152486,0.000000,0.000000,-1.000000
8.065107,-4.794921,1.152486,-0.000000,-0.000000,1.000000
9.113606,-1.919117,-1.152486,0.000000,0.000000,-1.000000
-8.029854,5.106359,-1.152486,-0.000000,0.000000,-1.000000
2.913802,7.665633,-1.003497,-0.336890,-0.941544,-0.000000
12.216696,-6.152737,-1.152486,0.000000,0.000000,-1.000000
-1.388569,14.399815,1.152486,0.000000,0.000000,1.000000
2.063132,-8.337663,1.152486,-0.000000,-0.000000,1.000000
8.289739,4.854938,1.152486,0.000000,-0.000000,1.000000
2.349704,11.241041,-1.152486,-0.000000,0.000000,-1.000000
-3.466680,-7.769293,1.152486,-0.000000,0.000000,1.000000
2.120188,-11.519233,-1.152486,0.000000,0.000000,-1.000000
5.828903,-8.360056,1.152486,0.000000,-0.000000,1.000000
-13.705791,4.965741,-0.374974,-0.941544,0.336890,0.000000
-5.822211,6.956562,1.152486,0.000000,0.000000,1.000000
5.075374,-7.291762,-1.152486,0.000000,0.000000,-1.000000
-9.451584,4.421683,1.152486,0.000000,0.000000,1.000000
-13.473770,-3.115703,-1.152486,0.000000,-0.000000,-1.000000
-12.393700,5.353204,-1.152486,-0.000000,-0.000000,-1.000000
10.935218,-9.641822,0.808717,0.740951,-0.671559,0.000000
12.052122,-7.311538,1.152486,0.000000,-0.000000,1.000000
-10.660825,0.716669,-1.152486,-0.000000,0.000000,-1.000000
8.650965,8.915656,1.152486,0.000000,0.000000,1.000000
-9.244600,-4.463743,1.152486,-0.000000,0.000000,1.000000
0.806595,8.169230,-0.804183,-0.146730,-0.989177,-0.000000
4.149554,8.285683,-1.152486,0.000000,0.000000,-1.000000
-11.033960,3.895974,1.152486,0.000000,0.000000,1.000000
-7.031082,-8.162127,1.152486,-0.000000,0.000000,1.000000
14.411885,-2.191879,-0.484970,0.989177,-0.146730,0.000000
-8.654888,1.571589,1.152486,0.000000,0.000000,1.000000
9.765352,-2.739717,-1.152486,0.000000,0.000000,-1.000000
-12.490992,-6.914305,-1.152486,0.000000,-0.000000,-1.000000
8.731837,2.042576,1.152486,0.000000,-0.000000,1.000000
-12.589751,-7.350523,1.080251,-0.857729,-0.514103,0.000000
-7.836038,-3.841065,1.152486,-0.000000,0.000000,1.000000
9.263623,6.627062,-1.152486,0.000000,0.000000,-1.000000
-14.327417,2.761319,-0.517125,-0.989177,0.146730,0.000000
-4.043502,-14.015036,1.104755,-0.242980,-0.970031,0.000000
-13.718382,-0.675708,-1.152486,0.000000,-0.000000,-1.000000
9.031078,-5.119946,1.152486,-0.000000,-0.000000,1.000000
1.769101,-13.708638,1.152486,0.000000,-0.000000,1.000000
-14.391849,2.326950,0.470522,-0.989177,0.146730,0.000000
-12.468028,7.553605,0.543477,-0.857729,0.514103,0.000000
-11.869856,-3.183091,1.152486,-0.000000,0.000000,1.000000
13.012569,5.301847,-1.152486,-0.000000,0.000000,-1.000000
-4.021395,9.622489,-1.152486,-0.000000,0.000000,-1.000000
-2.596321,9.383561,1.152486,0.000000,0.000000,1.000000
11.599506,3.832005,-1.152486,-0.000000,0.000000,-1.000000
-14.340680,2.671907,-0.953484,-0.989177,0.146730,0.000000
-0.471863,14.571913,1.128688,-0.049068,0.998795,0.000000
2.407906,-7.846646,0.067348,-0.336890,0.941544,0.000000
-7.919989,7.876330,1.152486,0.000000,0.000000,1.000000
-5.902555,8.781255,1.152486,0.000000,0.000000,1.000000
-7.358146,-7.839739,-1.152486,0.000000,-0.000000,-1.000000
10.580498,10.033195,-0.545262,0.740951,0.671559,0.000000
0.037914,-11.074608,1.152486,0.000000,-0.000000,1.000000
13.989968,4.143580,0.738201,0.970031,0.242980,-0.000000
11.820245,-8.533506,-0.247927,0.803208,-0.595699,0.000000
-8.335874,-1.268837,1.152486,-0.000000,0.000000,1.000000
12.487074,3.209726,1.152486,0.000000,0.000000,1.000000
-8.092428,-1.324352,0.515401,0.989177,0.146730,0.000000
5.276482,-8.351538,1.152486,-0.000000,-0.000000,1.000000
11.321148,8.630407,-1.152486,-0.000000,0.000000,-1.000000
-13.870939,-3.525865,-1.152486,0.000000,-0.000000,-1.000000
-4.888995,-7.814092,-1.152486,0.000000,-0.000000,-1.000000
9.928516,9.186824,1.152486,0.000000,0.000000,1.000000
-7.957826,-12.225747,0.056428,-0.514103,-0.857729,0.000000
-8.091677,1.329410,-1.138811,0.989177,-0.146730,0.000000
12.189158,8.018872,0.713920,0.857729,0.514103,-0.000000
-11.377917,7.871890,1.152486,0.000000,0.000000,1.000000
-6.084505,-8.228833,1.152486,-0.000000,0.000000,1.000000
-3.425480,13.374478,1.152486,0.000000,0.000000,1.000000
8.189800,-0.391846,-0.671429,-0.998795,0.049068,0.000000
-1.283720,-12.597436,1.152486,-0.000000,0.000000,1.000000
10.047403,8.673245,1.152486,0.000000,0.000000,1.000000
-0.386507,13.627568,1.152486,0.000000,0.000000,1.000000
10.513925,2.230248,-1.152486,0.000000,0.000000,-1.000000
-1.946409,11.610398,1.152486,0.000000,0.000000,1.000000
-6.880274,12.871607,0.777189,-0.514103,0.857729,0.000000
14.517664,1.478775,-1.050362,0.989177,0.146730,0.000000
3.801804,-12.631957,1.152486,-0.000000,-0.000000,1.000000
4.891200,-8.499465,-1.152486,0.000000,0.000000,-1.000000
-4.230501,13.673737,1.152486,0.000000,0.000000,1.000000
-8.547790,11.809652,0.038962,-0.595699,0.803208,0.000000
-3.315368,-13.001257,-1.152486,0.000000,-0.000000,-1.000000
-6.280042,6.712935,1.152486,0.000000,0.000000,1.000000
9.441480,-8.673253,-1.152486,0.000000,0.000000,-1.000000
10.849675,-9.076775,1.152486,0.000000,-0.000000,1.000000
-10.287270,-6.793506,-1.152486,0.000000,-0.000000,-1.000000
-7.623282,10.925843,1.152486,0.000000,0.000000,1.000000
10.797199,9.794102,-0.229111,0.740951,0.671559,0.000000
-9.470729,1.165583,-1.152486,-0.000000,-0.000000,-1.000000
2.769269,7.717348,-0.669081,-0.336890,-0.941544,-0.000000
4.688567,-8.287087,1.152486,0.000000,-0.000000,1.000000
-5.080476,11.651220,-1.152486,-0.000000,0.000000,-1.000000
-8.061809,1.530769,0.852725,0.989177,-0.146730,0.000000
10.785721,-1.350665,-1.152486,0.000000,0.000000,-1.000000
-3.523163,11.592308,-1.152486,-0.000000,0.000000,-1.000000
-7.828232,2.459370,-0.016701,0.941544,-0.336890,0.000000
-12.194018,4.701588,1.152486,0.000000,0.000000,1.000000
6.814096,-7.299707,1.152486,-0.000000,-0.000000,1.000000
14.085364,-3.762735,0.236341,0.970031,-0.242980,0.000000
13.009605,6.588555,-0.648847,0.903989,0.427555,0.000000
-9.064964,10.467077,-1.152486,-0.000000,-0.000000,-1.000000
9.128787,-10.285013,-1.152486,0.000000,0.000000,-1.000000
-14.096290,-3.719118,1.109039,-0.970031,-0.242980,0.000000
-10.144896,-10.479257,-1.116636,-0.671559,-0.740951,0.000000
-14.172777,-1.176483,-1.152486,0.000000,-0.000000,-1.000000
6.278675,-5.433263,-1.152486,0.000000,0.000000,-1.000000
9.721216,-1.316796,1.152486,0.000000,-0.000000,1.000000
1.483219,14.517005,0.427313,0.146730,0.989177,-0.000000
1.001215,-11.609461,-1.152486,0.000000,0.000000,-1.000000
5.564435,13.491574,0.590079,0.336890,0.941544,0.000000
-8.510229,-1.157715,1.152486,-0.000000,0.000000,1.000000
2.427823,14.376886,0.598223,0.146730,0.989177,-0.000000
0.103893,14.182334,1.152486,0.000000,0.000000,1.000000
2.309404,-14.394452,-0.089202,0.146730,-0.989177,0.000000
6.865212,-5.510229,-1.152486,0.000000,0.000000,-1.000000
13.039953,5.831117,1.152486,0.000000,0.000000,1.000000
0.173796,-14.586556,0.007825,0.049068,-0.998795,0.000000
7.179183,3.970746,-0.560412,-0.857729,-0.514103,0.000000
-13.093973,0.190549,1.152486,-0.000000,0.000000,1.000000
-5.435276,10.419134,-1.152486,-0.000000,-0.000000,-1.000000
14.567697,-0.557679,-0.916539,0.998795,-0.049068,0.000000
12.439933,-1.985431,-1.152486,0.000000,0.000000,-1.000000
2.517027,10.029472,-1.152486,0.000000,0.000000,-1.000000
-10.689896,7.817081,1.152486,0.000000,0.000000,1.000000
-14.469084,1.806277,-0.295682,-0.989177,0.146730,0.000000
3.775203,-7.646037,1.152486,-0.000000,-0.000000,1.000000
8.348122,4.865454,1.152486,0.000000,-0.000000,1.000000
9.584125,7.655347,-1.152486,-0.000000,0.000000,-1.000000
-4.094160,-13.586241,-1.152486,0.000000,-0.000000,-1.000000
7.999772,-1.807280,-0.692679,-0.970031,0.242980,0.000000
8.015703,-1.743681,0.711709,-0.970031,0.242980,0.000000
-4.950187,-12.940821,-1.152486,0.000000,-0.000000,-1.000000
9.904159,-8.485570,1.152486,0.000000,-0.000000,1.000000
9.886596,-2.283792,-1.152486,0.000000,0.000000,-1.000000
0.021154,-13.608288,1.152486,0.000000,-0.000000,1.000000
-2.432455,8.466660,1.152486,0.000000,0.000000,1.000000
8.666865,-6.976599,-1.152486,0.000000,0.000000,-1.000000
9.513625,2.194000,-1.152486,0.000000,0.000000,-1.000000
7.541251,-10.828115,1.152486,0.000000,-0.000000,1.000000
3.151181,12.306600,-1.152486,-0.000000,0.000000,-1.000000
12.758925,0.501802,-1.152486,0.000000,0.000000,-1.000000
-6.474910,-13.063355,-0.294821,-0.427555,-0.903989,0.000000
7.801144,2.535075,0.219574,-0.941544,-0.336890,0.000000
12.065084,7.819379,-1.152486,-0.000000,0.000000,-1.000000
-3.582684,10.957200,1.152486,0.000000,0.000000,1.000000
-10.240615,-6.953391,1.152486,-0.000000,0.000000,1.000000
0.868232,12.934122,1.152486,0.000000,0.000000,1.000000
4.100756,-13.821454,-1.152486,0.000000,0.000000,-1.000000
6.257370,-7.827606,1.152486,-0.000000,-0.000000,1.000000
-8.402034,3.449024,-1.152486,-0.000000,0.000000,-1.000000
-7.898998,-2.209591,-0.756357,0.970031,0.242980,0.000000
5.072313,-9.290113,1.152486,0.000000,-0.000000,1.000000
-7.910626,-8.306604,-1.152486,0.000000,-0.000000,-1.000000
10.168390,-0.095055,-1.152486,0.000000,0.000000,-1.000000
-7.973876,2.211657,-1.152486,-0.000000,0.000000,-1.000000
9.033221,10.674165,1.152486,0.000000,0.000000,1.000000
4.198192,-12.575476,1.152486,0.000000,-0.000000,1.000000
7.361828,9.073196,1.152486,0.000000,0.000000,1.000000
10.630755,0.808061,1.152486,0.000000,-0.000000,1.000000
0.862401,13.857539,-1.152486,-0.000000,0.000000,-1.000000
-8.355790,-9.544824,1.152486,-0.000000,0.000000,1.000000
-4.241496,-11.290456,1.152486,-0.000000,0.000000,1.000000
3.297093,-10.587344,1.152486,0.000000,-0.000000,1.000000
4.461657,6.884942,-0.230503,-0.514103,-0.857729,0.000000
-8.277041,-4.177959,-1.152486,0.000000,-0.000000,-1.000000
-4.885270,9.528531,1.152486,0.000000,0.000000,1.000000
5.098476,-6.426737,-0.181497,-0.595699,0.803208,0.000000
-1.861166,13.839464,-1.152486,-0.000000,0.000000,-1.000000
-11.763560,7.914265,1.152486,0.000000,0.000000,1.000000
9.871942,-6.371524,1.152486,0.000000,-0.000000,1.000000
11.351825,-9.165098,0.259881,0.803208,-0.595699,0.000000
-9.861531,10.736084,0.581026,-0.671559,0.740951,0.000000
12.307976,6.264426,-1.152486,-0.000000,0.000000,-1.000000
-12.635806,0.491082,-1.152486,-0.000000,-0.000000,-1.000000
-13.062395,6.476939,-0.553949,-0.903989,0.427555,0.000000
9.229261,-11.124258,1.152486,0.000000,-0.000000,1.000000
4.042259,-7.136320,1.097027,-0.514103,0.857729,0.000000
13.258392,-2.957902,1.152486,0.000000,-0.000000,1.000000
-12.244040,-3.106199,1.152486,-0.000000,0.000000,1.000000
7.289067,-3.995972,-1.152486,0.000000,0.000000,-1.000000
-14.312546,2.855775,-1.124994,-0.970031,0.242980,0.000000
-11.821873,8.007964,-1.152486,-0.000000,-0.000000,-1.000000
7.747277,-9.684709,1.152486,-0.000000,-0.000000,1.000000
0.759074,8.171759,0.914008,-0.049068,-0.998795,0.000000
7.591539,3.120882,1.086543,-0.941544,-0.336890,-0.000000
5.538640,10.050325,1.152486,0.000000,-0.000000,1.000000
-2.997057,-12.038281,1.152486,-0.000000,0.000000,1.000000
-5.540131,10.210570,-1.152486,-0.000000,0.000000,-1.000000
-6.970990,-4.711598,-1.152486,0.000000,-0.000000,-1.000000
-9.626912,10.948731,-0.499390,-0.671559,0.740951,0.000000
-11.512452,5.705617,1.152486,0.000000,0.000000,1.000000
11.570331,6.566372,-1.152486,-0.000000,0.000000,-1.000000
7.786320,9.641135,-1.152486,0.000000,0.000000,-1.000000
-1.153614,8.937439,1.152486,0.000000,0.000000,1.000000
-8.194230,0.301679,-0.272402,0.998795,-0.049068,0.000000
-1.123375,14.299083,1.152486,0.000000,0.000000,1.000000
-1.886104,-8.662802,1.152486,-0.000000,0.000000,1.000000
-6.546584,-13.029456,-0.133690,-0.427555,-0.903989,0.000000
-4.363785,6.943604,0.798517,0.514103,-0.857729,0.000000
-8.825557,4.378010,-1.152486,-0.000000,0.000000,-1.000000
-1.574381,8.688777,-1.152486,-0.000000,0.000000,-1.000000
5.422531,-6.981010,1.152486,-0.000000,-0.000000,1.000000
-5.868363,5.734407,-0.366506,0.740951,-0.671559,0.000000
3.910933,9.474741,1.152486,0.000000,0.000000,1.000000
-11.241065,8.507388,1.152486,0.000000,0.000000,1.000000
14.128412,0.338851,-1.152486,0.000000,0.000000,-1.000000
-10.174541,-4.705182,-1.152486,0.000000,-0.000000,-1.000000
0.566639,14.567257,1.019761,0.049068,0.998795,-0.000000
3.880401,-11.834637,1.152486,0.000000,-0.000000,1.000000
-9.991527,6.014300,-1.152486,-0.000000,-0.000000,-1.000000
-12.843825,0.248013,-1.152486,-0.000000,-0.000000,-1.000000
-13.918439,4.371430,0.097152,-0.941544,0.336890,0.000000
-13.509428,0.729433,-1.152486,-0.000000,-0.000000,-1.000000
12.614405,3.949492,1.152486,0.000000,0.000000,1.000000
-8.040292,12.176319,-0.967916,-0.514103,0.857729,0.000000
-10.962800,7.389153,-1.152486,-0.000000,-0.000000,-1.000000
-13.878690,-2.992233,1.152486,-0.000000,0.000000,1.000000
3.306950,-9.718097,-1.152486,0.000000,0.000000,-1.000000
-8.085113,-1.373664,-0.977281,0.989177,0.146730,0.000000
6.629915,4.824522,0.038796,-0.803208,-0.595699,0.000000
-12.403922,4.187292,1.152486,0.000000,0.000000,1.000000
-14.088890,-2.096993,1.152486,-0.000000,0.000000,1.000000
-6.950318,10.448687,1.152486,0.000000,0.000000,1.000000
13.496874,-1.550557,1.152486,0.000000,-0.000000,1.000000
-3.906080,-12.865329,1.152486,-0.000000,0.000000,1.000000
10.233657,1.126180,-1.152486,0.000000,0.000000,-1.000000
8.755037,1.524969,1.152486,0.000000,-0.000000,1.000000
-4.095072,-7.104665,0.492418,0.514103,0.857729,0.000000
5.461519,-12.281079,1.152486,0.000000,-0.000000,1.000000
9.139239,9.000835,-1.152486,-0.000000,0.000000,-1.000000
6.338473,7.322402,-1.152486,-0.000000,0.000000,-1.000000
4.393522,9.146976,1.152486,0.000000,-0.000000,1.000000
-3.789235,14.078726,0.879196,-0.242980,0.970031,0.000000
4.617500,-6.783453,-0.186673,-0.595699,0.803208,0.000000
6.349445,10.706635,-1.152486,-0.000000,0.000000,-1.000000
4.477166,-12.614931,-1.152486,0.000000,0.000000,-1.000000
-4.038499,-9.997723,1.152486,-0.000000,0.000000,1.000000
5.190683,6.447605,-1.152486,0.000000,0.000000,-1.000000
-6.596691,11.777875,1.152486,0.000000,0.000000,1.000000
-7.861411,7.672357,1.152486,0.000000,0.000000,1.000000
6.610383,-7.116438,1.152486,-0.000000,-0.000000,1.000000
-2.343483,-7.865460,0.334051,0.242980,0.970031,0.000000
10.293861,1.414590,-1.152486,0.000000,0.000000,-1.000000
8.853356,11.583029,-0.782255,0.595699,0.803208,0.000000
-5.547397,-6.037858,0.255188,0.671559,0.740951,0.000000
-11.854287,1.247824,-1.152486,-0.000000,-0.000000,-1.000000
0.260202,-8.813395,-1.152486,0.000000,-0.000000,-1.000000
-0.226768,-8.831884,1.152486,-0.000000,0.000000,1.000000
8.280994,12.007521,-0.845211,0.595699,0.803208,0.000000
6.445972,13.077041,-0.497802,0.427555,0.903989,0.000000
-2.833739,-9.383244,1.152486,-0.000000,0.000000,1.000000
-6.859445,-7.982427,-1.152486,0.000000,-0.000000,-1.000000
3.622265,-7.356773,-0.490875,-0.427555,0.903989,0.000000
10.911355,0.020539,-1.152486,0.000000,0.000000,-1.000000
14.377500,-2.423686,0.034344,0.989177,-0.146730,0.000000
-14.551984,0.877522,-0.424805,-0.998795,0.049068,0.000000
4.717278,11.132068,1.152486,0.000000,-0.000000,1.000000
-2.884701,7.935733,1.152486,0.000000,0.000000,1.000000
-12.219818,7.967718,-0.159088,-0.857729,0.514103,0.000000
0.608255,14.565212,0.495934,0.049068,0.998795,-0.000000
-9.322618,-1.244608,1.152486,-0.000000,0.000000,1.000000
7.816136,5.242243,1.152486,0.000000,0.000000,1.000000
9.635543,-7.910030,-1.152486,0.000000,0.000000,-1.000000
11.278724,-0.514556,1.152486,0.000000,-0.000000,1.000000
-7.943240,8.400545,1.152486,0.000000,0.000000,1.000000
12.748131,0.517128,1.152486,0.000000,0.000000,1.000000
-2.975007,12.252717,1.152486,0.000000,0.000000,1.000000
-7.971394,-1.920570,0.892273,0.970031,0.242980,0.000000
8.385728,9.450186,1.152486,0.000000,0.000000,1.000000
-7.836960,-2.434977,-0.526222,0.941544,0.336890,0.000000
-10.716608,-8.906899,1.152486,-0.000000,0.000000,1.000000
7.438201,7.141287,-1.152486,-0.000000,0.000000,-1.000000
13.147807,3.337433,1.152486,0.000000,0.000000,1.000000
9.217205,-5.341871,-1.152486,0.000000,0.000000,-1.000000
9.897591,-7.231693,1.152486,0.000000,-0.000000,1.000000
8.377291,1.049152,1.152486,0.000000,-0.000000,1.000000
8.328725,-6.144196,-1.152486,0.000000,0.000000,-1.000000
-4.213973,-13.972335,0.381116,-0.242980,-0.970031,0.000000
3.061413,7.612817,0.269292,-0.336890,-0.941544,0.000000
8.748457,-6.811620,-1.152486,0.000000,0.000000,-1.000000
-7.364895,10.878506,1.152486,0.000000,0.000000,1.000000
-3.625804,-8.348994,-1.152486,0.000000,-0.000000,-1.000000
8.621838,1.298141,1.152486,0.000000,-0.000000,1.000000
-13.404192,-3.161563,-1.152486,0.000000,-0.000000,-1.000000
-14.029012,3.987705,-0.042553,-0.970031,0.242980,0.000000
2.948197,-14.289395,-0.621957,0.242980,-0.970031,0.000000
4.389023,-12.834769,1.152486,0.000000,-0.000000,1.000000
-13.448687,3.682327,1.152486,0.000000,0.000000,1.000000
-0.560920,14.567538,0.159227,-0.049068,0.998795,0.000000
14.439187,-2.007825,-0.372556,0.989177,-0.146730,0.000000
-1.153471,13.739036,-1.152486,-0.000000,0.000000,-1.000000
8.372769,6.078298,-1.152486,0.000000,0.000000,-1.000000
-6.533187,8.816596,1.152486,0.000000,0.000000,1.000000
-6.102360,11.224279,1.152486,0.000000,0.000000,1.000000
-5.619902,-5.972144,-0.983934,0.671559,0.740951,0.000000
-10.634369,9.973757,-0.458221,-0.740951,0.671559,0.000000
-5.905741,11.449481,-1.152486,-0.000000,-0.000000,-1.000000
-7.656663,12.406258,0.811158,-0.514103,0.857729,0.000000
-4.590934,7.602439,-1.152486,-0.000000,0.000000,-1.000000
-5.573067,8.151387,1.152486,0.000000,0.000000,1.000000
-9.071727,-1.383458,1.152486,-0.000000,0.000000,1.000000
-3.797895,8.604211,1.152486,0.000000,0.000000,1.000000
0.292820,14.221492,-1.152486,-0.000000,0.000000,-1.000000
-2.877852,-7.678497,1.113339,0.336890,0.941544,0.000000
7.206114,12.676306,0.144145,0.514103,0.857729,-0.000000
7.649757,-2.958174,-0.710114,-0.941544,0.336890,0.000000
5.627580,-6.742318,-1.152486,0.000000,0.000000,-1.000000
7.447546,3.996737,1.152486,0.000000,0.000000,1.000000
10.891613,-9.689932,-0.158640,0.740951,-0.671559,0.000000
4.393678,13.910478,-0.181577,0.336890,0.941544,-0.000000
11.304479,8.456350,-1.152486,-0.000000,0.000000,-1.000000
9.256720,-4.886888,-1.152486,0.000000,0.000000,-1.000000
-8.964105,-6.474710,1.152486,-0.000000,0.000000,1.000000
-4.625915,-8.009302,1.152486,-0.000000,0.000000,1.000000
5.613863,9.097074,-1.152486,0.000000,0.000000,-1.000000
-11.969937,-6.110365,1.152486,-0.000000,0.000000,1.000000
6.559926,13.023145,1.010480,0.427555,0.903989,-0.000000
-7.359989,5.799714,-1.152486,-0.000000,0.000000,-1.000000
-8.367491,11.305778,1.152486,0.000000,0.000000,1.000000
-9.177081,-9.598974,1.152486,-0.000000,0.000000,1.000000
7.684503,-2.861064,0.530413,-0.941544,0.336890,0.000000
-4.809946,-6.640726,0.526079,0.595699,0.803208,0.000000
-3.163225,12.479393,-1.152486,-0.000000,-0.000000,-1.000000
-12.542139,2.587357,1.152486,0.000000,0.000000,1.000000
2.112482,-7.923323,0.679424,-0.242980,0.970031,0.000000
9.290777,3.467579,1.152486,0.000000,-0.000000,1.000000
-9.989942,-3.813622,1.152486,-0.000000,0.000000,1.000000
-1.453246,-11.366758,-1.152486,0.000000,-0.000000,-1.000000
3.887270,14.054170,-0.545794,0.242980,0.970031,0.000000
12.542600,-6.272559,-1.152486,0.000000,0.000000,-1.000000
7.760431,8.214639,-1.152486,0.000000,0.000000,-1.000000
-11.229274,-1.969838,1.152486,-0.000000,0.000000,1.000000
-2.631405,-7.766677,1.050129,0.336890,0.941544,0.000000
-9.092745,-11.405485,-0.980577,-0.595699,-0.803208,0.000000
10.719559,3.123847,1.152486,0.000000,-0.000000,1.000000
-7.041370,-8.119120,-1.152486,0.000000,-0.000000,-1.000000
-6.929434,-4.615128,1.152486,-0.000000,0.000000,1.000000
9.849584,9.043219,1.152486,0.000000,0.000000,1.000000
4.854339,-11.429623,1.152486,0.000000,-0.000000,1.000000
-12.798347,-3.939342,-1.152486,0.000000,-0.000000,-1.000000
-4.504200,11.656260,-1.152486,-0.000000,-0.000000,-1.000000
-14.492463,1.648664,-0.938211,-0.989177,0.146730,0.000000
6.995675,-5.190731,-1.152486,0.000000,0.000000,-1.000000
3.354769,-8.234706,1.152486,-0.000000,-0.000000,1.000000
7.414526,-9.386182,1.152486,-0.000000,-0.000000,1.000000
13.114738,-1.225798,1.152486,0.000000,-0.000000,1.000000
-4.974920,-6.518372,-0.967911,0.595699,0.803208,0.000000
-0.266176,14.582018,0.383631,-0.049068,0.998795,0.000000
7.685685,-5.376990,1.152486,-0.000000,-0.000000,1.000000
-14.042911,3.932218,0.194266,-0.970031,0.242980,0.000000
5.279131,-8.961985,1.152486,0.000000,-0.000000,1.000000
-14.566133,-0.589505,1.043613,-0.998795,-0.049068,0.000000
7.702615,-2.810445,-0.666515,-0.941544,0.336890,0.000000
-8.490417,3.317381,1.152486,0.000000,0.000000,1.000000
-12.671339,1.092722,-1.152486,-0.000000,0.000000,-1.000000
-2.647869,8.294680,1.152486,0.000000,0.000000,1.000000
-11.952942,-1.991874,-1.152486,0.000000,-0.000000,-1.000000
-13.974825,-2.140452,-1.152486,0.000000,-0.000000,-1.000000
5.378645,-6.449425,-1.152486,0.000000,0.000000,-1.000000
-3.152673,14.238177,0.621299,-0.242980,0.970031,0.000000
-12.570968,2.017485,-1.152486,-0.000000,-0.000000,-1.000000
6.796478,-8.977703,1.152486,0.000000,-0.000000,1.000000
-1.932195,14.450405,-0.828352,-0.146730,0.989177,0.000000
12.648904,-4.617026,-1.152486,0.000000,0.000000,-1.000000
-0.713911,-8.939341,1.152486,-0.000000,-0.000000,1.000000
-12.277057,-6.203429,1.152486,-0.000000,0.000000,1.000000
1.454927,-12.196791,1.152486,0.000000,-0.000000,1.000000
-7.504219,11.814206,-1.152486,-0.000000,-0.000000,-1.000000
-1.359140,-13.147589,-1.152486,0.000000,-0.000000,-1.000000
-1.185290,10.044843,-1.152486,-0.000000,0.000000,-1.000000
0.589978,-9.416215,-1.152486,0.000000,-0.000000,-1.000000
13.394150,5.775501,-0.481424,0.903989,0.427555,0.000000
13.489702,-5.569669,0.977579,0.941544,-0.336890,0.000000
5.445093,8.457790,-1.152486,0.000000,0.000000,-1.000000
-1.244328,-13.728119,1.152486,-0.000000,-0.000000,1.000000
-9.528727,1.646106,-1.152486,-0.000000,0.000000,-1.000000
0.517650,11.915152,1.152486,0.000000,0.000000,1.000000
-14.086499,-3.758206,0.002964,-0.970031,-0.242980,0.000000
-5.989260,-9.261411,-1.152486,0.000000,-0.000000,-1.000000
-7.240232,-3.868670,-0.368515,0.903989,0.427555,0.000000
-1.923684,10.927929,1.152486,0.000000,0.000000,1.000000
-13.164946,-5.333910,-1.152486,0.000000,-0.000000,-1.000000
-4.848209,11.343744,1.152486,0.000000,0.000000,1.000000
-1.236534,-8.105454,0.934277,0.146730,0.989177,0.000000
-2.608263,11.522009,1.152486,0.000000,0.000000,1.000000
-9.927223,7.209478,1.152486,0.000000,0.000000,1.000000
7.142674,4.530013,-1.152486,0.000000,0.000000,-1.000000
10.340998,10.297442,1.050306,0.740951,0.671559,-0.000000
-7.736094,2.745650,1.152486,0.000000,0.000000,1.000000
11.964238,-7.618375,-1.152486,0.000000,0.000000,-1.000000
6.637378,-12.949136,1.152486,0.000000,-0.000000,1.000000
-11.429988,2.907172,-1.152486,-0.000000,-0.000000,-1.000000
-1.066714,-13.549750,-1.152486,0.000000,-0.000000,-1.000000
-8.045853,-3.149195,-1.152486,0.000000,-0.000000,-1.000000
8.389670,-8.436084,1.152486,-0.000000,-0.000000,1.000000
-6.687446,4.746950,-0.215591,0.803208,-0.595699,0.000000
-4.060761,10.195584,-1.152486,-0.000000,-0.000000,-1.000000
-2.474150,-12.697576,1.152486,-0.000000,-0.000000,1.000000
-9.232864,6.388855,1.152486,0.000000,0.000000,1.000000
-1.120077,-13.551074,1.152486,-0.000000,-0.000000,1.000000
14.444340,1.973087,-0.883902,0.989177,0.146730,0.000000
3.222398,11.499477,-1.152486,0.000000,0.000000,-1.000000
9.682257,-4.199487,-1.152486,0.000000,0.000000,-1.000000
4.563881,7.942909,-1.152486,0.000000,0.000000,-1.000000
-12.349857,-1.202520,-1.152486,0.000000,-0.000000,-1.000000
-7.893506,6.808626,1.152486,0.000000,0.000000,1.000000
0.918708,-12.093199,1.152486,-0.000000,-0.000000,1.000000
-5.136927,12.048894,-1.152486,-0.000000,0.000000,-1.000000
-5.346048,-13.150930,1.152486,-0.000000,0.000000,1.000000
11.306888,1.448564,1.152486,0.000000,0.000000,1.000000
-2.726522,8.708833,-1.152486,-0.000000,0.000000,-1.000000
-6.291257,10.197082,-1.152486,-0.000000,-0.000000,-1.000000
3.280865,-9.784653,1.152486,0.000000,-0.000000,1.000000
-0.507533,8.402012,-1.152486,-0.000000,0.000000,-1.000000
12.120047,-0.520250,-1.152486,0.000000,0.000000,-1.000000
-5.980753,7.019298,1.152486,0.000000,0.000000,1.000000
-4.445713,11.163545,-1.152486,-0.000000,-0.000000,-1.000000
-5.408161,10.830217,-1.152486,-0.000000,-0.000000,-1.000000
11.950778,2.255092,1.152486,0.000000,-0.000000,1.000000
8.996966,-5.517051,-1.152486,0.000000,0.000000,-1.000000
-13.569600,2.264983,-1.152486,-0.000000,-0.000000,-1.000000
-7.273787,-3.797724,0.386823,0.903989,0.427555,0.000000
-1.950252,-7.963959,-0.827776,0.242980,0.970031,0.000000
7.460430,-7.505631,-1.152486,0.000000,0.000000,-1.000000
-5.065259,12.677608,-1.152486,-0.000000,-0.000000,-1.000000
-13.159990,4.779945,1.152486,0.000000,0.000000,1.000000
1.863313,8.385496,1.152486,0.000000,-0.000000,1.000000
-5.017397,6.486869,-0.616311,0.595699,-0.803208,0.000000
9.433285,1.624533,1.152486,0.000000,-0.000000,1.000000
10.522045,-1.144896,-1.152486,0.000000,0.000000,-1.000000
2.127804,10.436259,-1.152486,-0.000000,0.000000,-1.000000
1.589518,12.124220,1.152486,0.000000,0.000000,1.000000
-3.319169,12.339119,1.152486,0.000000,0.000000,1.000000
-9.479451,-11.082382,-0.409507,-0.671559,-0.740951,0.000000
13.351859,5.338509,1.152486,0.000000,0.000000,1.000000
-0.726669,10.949124,1.152486,0.000000,0.000000,1.000000
-0.231387,-13.316143,-1.152486,0.000000,-0.000000,-1.000000
-7.346499,-6.229956,1.152486,-0.000000,0.000000,1.000000
9.577430,7.881213,-1.152486,0.000000,0.000000,-1.000000
0.984971,-13.654371,1.152486,0.000000,-0.000000,1.000000
-6.957512,-9.131011,-1.152486,0.000000,-0.000000,-1.000000
4.969005,-7.860374,-1.152486,0.000000,0.000000,-1.000000
-4.501368,13.053257,-1.152486,-0.000000,-0.000000,-1.000000
7.252032,6.492936,-1.152486,0.000000,0.000000,-1.000000
3.336660,10.749603,1.152486,0.000000,-0.000000,1.000000
8.186683,-0.455302,-0.360196,-0.998795,0.049068,0.000000
13.047560,0.803808,1.152486,0.000000,0.000000,1.000000
10.547232,10.069898,0.803218,0.740951,0.671559,-0.000000
6.650247,-4.797108,1.068540,-0.803208,0.595699,0.000000
-2.077146,-14.126901,-1.152486,0.000000,-0.000000,-1.000000
-13.508864,-2.263999,1.152486,-0.000000,0.000000,1.000000
8.704910,-1.554964,1.152486,0.000000,-0.000000,1.000000
-13.072525,-3.319979,-1.152486,0.000000,-0.000000,-1.000000
9.107218,0.497719,-1.152486,0.000000,0.000000,-1.000000
-7.772689,11.818542,1.152486,0.000000,0.000000,1.000000
-11.952072,2.108781,1.152486,-0.000000,0.000000,1.000000
-10.395101,10.237748,-0.065379,-0.740951,0.671559,0.000000
-2.139202,-8.158103,-1.152486,0.000000,-0.000000,-1.000000
-6.810299,7.569028,-1.152486,-0.000000,0.000000,-1.000000
-14.139822,-2.015784,1.152486,-0.000000,0.000000,1.000000
0.195778,12.152705,1.152486,0.000000,0.000000,1.000000
-7.634591,-3.000559,-0.977210,0.941544,0.336890,0.000000
13.207920,-0.611058,1.152486,0.000000,-0.000000,1.000000
-5.465200,-13.527081,-0.930606,-0.336890,-0.941544,0.000000
1.265169,14.532940,-0.214153,0.049068,0.998795,0.000000
7.470352,10.400045,-1.152486,-0.000000,0.000000,-1.000000
12.235390,-2.585285,1.152486,-0.000000,-0.000000,1.000000
11.955059,-4.444366,1.152486,0.000000,-0.000000,1.000000
-7.074016,8.935964,-1.152486,-0.000000,-0.000000,-1.000000
-8.233997,-5.077773,-1.152486,0.000000,-0.000000,-1.000000
-8.464393,-11.415252,1.152486,-0.000000,0.000000,1.000000
9.644446,8.012117,1.152486,0.000000,0.000000,1.000000
2.175811,14.414268,-0.830346,0.146730,0.989177,0.000000
-4.025526,14.019539,-0.727601,-0.242980,0.970031,0.000000
-6.248517,10.025773,1.152486,0.000000,0.000000,1.000000
-0.656035,-8.176821,0.825720,0.049068,0.998795,0.000000
0.293479,8.194633,-0.638677,-0.049068,-0.998795,-0.000000
7.127452,12.723455,0.529319,0.514103,0.857729,-0.000000
-4.081495,-12.857095,1.152486,-0.000000,0.000000,1.000000
4.257280,-9.023270,-1.152486,0.000000,0.000000,-1.000000
-1.961115,9.850800,-1.152486,-0.000000,0.000000,-1.000000
2.573067,-11.276038,-1.152486,0.000000,0.000000,-1.000000
12.534170,6.401491,-1.152486,-0.000000,0.000000,-1.000000
13.765207,-4.152771,1.152486,0.000000,-0.000000,1.000000
7.897012,11.287056,-1.152486,-0.000000,0.000000,-1.000000
-0.211129,10.713654,-1.152486,-0.000000,0.000000,-1.000000
-6.505864,-13.048715,0.262348,-0.427555,-0.903989,0.000000
8.176276,-3.211116,1.152486,-0.000000,-0.000000,1.000000
-1.817546,-9.510791,1.152486,-0.000000,-0.000000,1.000000
-8.136317,1.028475,-0.847034,0.989177,-0.146730,0.000000
10.441785,1.330532,1.152486,0.000000,0.000000,1.000000
-13.914427,-4.382642,-1.069924,-0.941544,-0.336890,0.000000
12.028485,0.245461,1.152486,0.000000,0.000000,1.000000
-2.408946,9.820801,1.152486,0.000000,0.000000,1.000000
0.837965,-9.471934,1.152486,-0.000000,-0.000000,1.000000
7.115216,-7.512717,1.152486,-0.000000,-0.000000,1.000000
-7.561750,-8.979061,1.152486,-0.000000,0.000000,1.000000
11.301858,-9.232470,0.852816,0.803208,-0.595699,0.000000
10.570835,-7.134999,1.152486,-0.000000,-0.000000,1.000000
-6.462624,-12.149498,1.152486,-0.000000,0.000000,1.000000
-11.884416,3.939776,-1.152486,-0.000000,-0.000000,-1.000000
-7.786686,-9.761864,1.152486,-0.000000,0.000000,1.000000
-4.845753,7.936111,-1.152486,-0.000000,0.000000,-1.000000
8.242620,9.047840,-1.152486,-0.000000,0.000000,-1.000000
-8.116235,-1.343200,-1.152486,-0.000000,-0.000000,-1.000000
-11.047385,7.293612,-1.152486,-0.000000,0.000000,-1.000000
-4.286699,9.258014,-1.152486,-0.000000,0.000000,-1.000000
6.073831,-5.552159,1.152486,-0.000000,-0.000000,1.000000
-3.760337,7.291470,-0.477347,0.427555,-0.903989,0.000000
-3.070955,14.258646,1.136895,-0.242980,0.970031,0.000000
10.825243,6.817940,1.152486,0.000000,0.000000,1.000000
0.166276,12.035571,-1.152486,-0.000000,0.000000,-1.000000
-14.590580,0.091889,0.372924,-0.998795,0.049068,0.000000
4.028150,8.671298,-1.152486,0.000000,0.000000,-1.000000
10.043150,-10.571475,-0.949038,0.671559,-0.740951,0.000000
-7.701956,-5.935946,-1.152486,0.000000,-0.000000,-1.000000
-2.490373,11.444955,-1.152486,-0.000000,0.000000,-1.000000
-6.011357,-5.576637,0.784002,0.740951,0.671559,0.000000
7.649243,-2.959611,0.237934,-0.941544,0.336890,0.000000
9.642803,-0.188869,-1.152486,0.000000,0.000000,-1.000000
9.138787,7.879258,1.152486,0.000000,0.000000,1.000000
-6.018735,5.568496,-1.000930,0.740951,-0.671559,0.000000
8.733598,-6.437166,1.152486,0.000000,-0.000000,1.000000
-7.316926,5.704148,1.152486,0.000000,0.000000,1.000000
-9.739963,-3.408794,-1.152486,0.000000,-0.000000,-1.000000
13.093145,2.981507,-1.152486,-0.000000,0.000000,-1.000000
14.409076,2.210815,0.475506,0.989177,0.146730,-0.000000
-5.885590,10.370134,1.152486,0.000000,0.000000,1.000000
9.806099,1.111780,-1.152486,0.000000,0.000000,-1.000000
10.828968,-9.081256,1.152486,0.000000,-0.000000,1.000000
-8.972932,-11.494345,-1.063389,-0.595699,-0.803208,0.000000
10.285137,10.343837,-1.152486,-0.000000,0.000000,-1.000000
-13.622881,4.496708,-1.152486,-0.000000,-0.000000,-1.000000
7.115258,-5.862965,1.152486,-0.000000,-0.000000,1.000000
-2.400494,14.074306,1.152486,0.000000,0.000000,1.000000
-7.315150,-9.361142,-1.152486,0.000000,-0.000000,-1.000000
-7.839168,12.296868,1.063429,-0.514103,0.857729,0.000000
13.917346,-0.598306,1.152486,0.000000,-0.000000,1.000000
-13.651012,-5.118837,-0.905731,-0.941544,-0.336890,0.000000
0.163139,13.150007,-1.152486,-0.000000,0.000000,-1.000000
1.531305,-14.509872,-0.314515,0.146730,-0.989177,0.000000
1.860187,-7.986520,0.714700,-0.242980,0.970031,0.000000
-7.287338,-5.854770,1.152486,-0.000000,0.000000,1.000000
-12.675081,6.585960,1.152486,0.000000,0.000000,1.000000
8.108432,-9.392831,1.152486,0.000000,-0.000000,1.000000
7.090875,5.875456,-1.152486,0.000000,0.000000,-1.000000
-12.521129,-5.015090,-1.152486,0.000000,-0.000000,-1.000000
-8.326825,-8.988695,-1.152486,0.000000,-0.000000,-1.000000
-3.845603,-9.659123,1.152486,-0.000000,0.000000,1.000000
3.326050,7.496872,0.188026,-0.427555,-0.903989,-0.000000
-7.904660,-2.186989,-0.014161,0.970031,0.242980,0.000000
0.290255,-10.349957,-1.152486,0.000000,-0.000000,-1.000000
-4.498139,-8.464072,1.152486,-0.000000,0.000000,1.000000
6.229191,5.336294,-0.648932,-0.740951,-0.671559,0.000000
-9.512796,-5.811166,1.152486,-0.000000,0.000000,1.000000
-9.712552,-8.226010,1.152486,-0.000000,0.000000,1.000000
-4.890443,6.581025,1.073717,0.595699,-0.803208,0.000000
11.572443,-8.867628,-0.279225,0.803208,-0.595699,0.000000
6.911737,-12.852749,0.759056,0.514103,-0.857729,0.000000
9.679933,4.453489,-1.152486,0.000000,0.000000,-1.000000
-9.142134,0.973537,-1.152486,-0.000000,-0.000000,-1.000000
-11.105181,-6.858468,-1.152486,0.000000,-0.000000,-1.000000
8.499567,-2.624722,1.152486,-0.000000,-0.000000,1.000000
-11.405620,-5.511315,1.152486,-0.000000,0.000000,1.000000
11.631688,3.679317,1.152486,0.000000,0.000000,1.000000
13.941615,-2.566936,-1.152486,0.000000,0.000000,-1.000000
-6.722638,-12.946188,-0.861389,-0.427555,-0.903989,0.000000
-12.945530,-6.724028,-0.437577,-0.903989,-0.427555,0.000000
7.757358,-11.911737,-1.152486,0.000000,0.000000,-1.000000
-6.502503,-4.996317,0.500056,0.803208,0.595699,0.000000
7.794309,2.554179,0.079709,-0.941544,-0.336890,0.000000
4.593069,-6.801572,0.343232,-0.595699,0.803208,0.000000
4.966201,10.549343,-1.152486,-0.000000,0.000000,-1.000000
