x,y,z,nx,ny,nz
28.910551,-15.933668,3.359928,-0.000000,0.000000,1.000000
27.017926,-0.493510,-3.359928,0.000000,0.000000,-1.000000
-12.994543,-17.627982,3.359928,0.000000,-0.000000,1.000000
-17.474343,7.343196,3.359928,-0.000000,-0.000000,1.000000
4.766556,10.664147,-1.217745,-0.471397,-0.881921,0.000000
13.122275,-32.260477,-3.359928,0.000000,0.000000,-1.000000
14.867230,27.930559,-3.359928,0.000000,0.000000,-1.000000
29.970395,3.593424,3.359928,0.000000,-0.000000,1.000000
37.105439,-10.668186,-3.359928,0.000000,-0.000000,-1.000000
-4.018447,34.545699,-3.359928,0.000000,0.000000,-1.000000
-7.353834,-29.122088,-3.359928,0.000000,-0.000000,-1.000000
2.394589,-12.683879,3.359928,0.000000,-0.000000,1.000000
7.133425,-9.219125,-3.027909,-0.634393,0.773010,0.000000
-0.171327,11.691382,-2.387526,0.098017,-0.995185,-0.000000
-8.399393,-9.950618,3.359928,0.000000,-0.000000,1.000000
-17.381158,12.300255,3.359928,-0.000000,0.000000,1.000000
-15.660915,14.720904,3.359928,-0.000000,-0.000000,1.000000
-16.652823,9.868262,-3.359928,0.000000,0.000000,-1.000000
-10.826062,17.662343,3.359928,-0.000000,-0.000000,1.000000
-16.944268,13.845952,-3.359928,0.000000,-0.000000,-1.000000
-11.715571,30.633398,3.359928,0.000000,0.000000,1.000000
-29.824385,12.774227,-3.359928,0.000000,0.000000,-1.000000
7.862123,17.869566,-3.359928,0.000000,0.000000,-1.000000
-23.550597,-25.209731,-3.359928,0.000000,0.000000,-1.000000
5.505818,-12.605746,-3.359928,0.000000,0.000000,-1.000000
28.343724,28.344192,-2.027131,0.671559,0.740951,0.000000
-12.740835,-17.514973,3.359928,0.000000,-0.000000,1.000000
-3.310638,19.149660,3.359928,0.000000,0.000000,1.000000
13.797461,-25.018381,-3.359928,0.000000,0.000000,-1.000000
-31.378047,17.378275,3.359928,-0.000000,-0.000000,1.000000
-15.907024,-6.894486,-3.359928,0.000000,0.000000,-1.000000
-12.454880,-20.445858,3.359928,-0.000000,0.000000,1.000000
-14.073648,37.486161,0.197904,-0.336890,0.941544,0.000000
-15.963087,-31.466999,3.359928,-0.000000,0.000000,1.000000
22.649446,-33.047350,2.062858,0.595699,-0.803208,0.000000
-33.315580,7.781348,-3.359928,0.000000,0.000000,-1.000000
23.739254,24.655245,3.359928,0.000000,-0.000000,1.000000
-17.602822,24.385854,-3.359928,0.000000,0.000000,-1.000000
-13.494217,22.440017,-3.359928,0.000000,0.000000,-1.000000
-26.130338,-14.547891,-3.359928,0.000000,0.000000,-1.000000
35.816413,-6.371532,-3.359928,0.000000,-0.000000,-1.000000
-4.470739,39.811042,-2.062458,-0.146731,0.989176,0.000000
-14.957477,-3.397105,3.359928,0.000000,-0.000000,1.000000
-20.211146,-25.858892,-3.359928,0.000000,-0.000000,-1.000000
-13.698266,-37.620475,3.046522,-0.336890,-0.941544,0.000000
26.608686,-28.584936,3.359928,-0.000000,0.000000,1.000000
13.535349,-37.678767,0.961197,0.336890,-0.941544,0.000000
-19.358614,17.351510,3.359928,-0.000000,-0.000000,1.000000
26.634338,11.736471,3.359928,0.000000,-0.000000,1.000000
-6.948300,-17.185036,-3.359928,0.000000,0.000000,-1.000000
17.346040,-23.155347,-3.359928,0.000000,-0.000000,-1.000000
-2.457231,25.241025,-3.359928,0.000000,0.000000,-1.000000
-39.979055,-2.144840,0.983791,-0.998795,-0.049067,0.000000
40.034224,-1.021833,2.642986,0.998795,-0.049067,0.000000
-23.010782,16.236055,3.359928,-0.000000,0.000000,1.000000
1.014622,17.505948,3.359928,-0.000000,-0.000000,1.000000
-10.940880,38.226814,-3.359928,0.000000,0.000000,-1.000000
13.689963,-0.373937,3.359928,0.000000,-0.000000,1.000000
35.976719,-11.179613,3.359928,-0.000000,0.000000,1.000000
21.840474,33.586255,1.041473,0.514103,0.857728,0.000000
38.489422,-11.112833,-1.686578,0.970031,-0.242980,0.000000
-28.146434,6.796555,3.359928,-0.000000,-0.000000,1.000000
1.378193,-27.752418,2.954247,-0.471397,-0.881921,0.000000
-30.186807,4.204084,3.359928,-0.000000,-0.000000,1.000000
-21.766660,-26.096003,3.359928,0.000000,-0.000000,1.000000
1.122978,37.783206,-3.359928,0.000000,0.000000,-1.000000
32.787860,-21.551096,3.359928,-0.000000,0.000000,1.000000
-24.702491,25.369686,-3.359928,0.000000,0.000000,-1.000000
32.389317,10.303140,-3.359928,0.000000,0.000000,-1.000000
36.230190,-17.037425,-2.084767,0.903989,-0.427555,0.000000
30.725591,21.956997,-3.359928,0.000000,0.000000,-1.000000
-18.316606,35.625182,-1.625494,-0.427555,0.903989,0.000000
25.368578,-6.358724,-3.359928,0.000000,-0.000000,-1.000000
-40.007735,-1.561026,1.293470,-0.998795,-0.049067,0.000000
-22.495677,-27.382112,-3.359928,0.000000,0.000000,-1.000000
-3.465050,39.914197,2.527851,-0.049067,0.998795,0.000000
7.207772,-39.405041,-2.737908,0.146731,-0.989176,0.000000
17.965847,-27.148841,3.359928,0.000000,-0.000000,1.000000
-25.299457,31.081970,1.054912,-0.595699,0.803208,0.000000
11.994128,-31.407787,-3.359928,0.000000,0.000000,-1.000000
15.056817,9.521851,3.359928,0.000000,-0.000000,1.000000
-24.707681,21.578088,3.359928,-0.000000,-0.000000,1.000000
-28.866607,27.767327,-2.748641,-0.740951,0.671559,0.000000
22.097591,33.432145,-3.029633,0.514103,0.857728,0.000000
-11.846643,1.083962,-3.359928,0.000000,-0.000000,-1.000000
-13.280696,34.669477,-3.359928,0.000000,0.000000,-1.000000
-21.354651,16.548146,-3.359928,0.000000,0.000000,-1.000000
-6.576398,18.654321,3.359928,0.000000,-0.000000,1.000000
28.708568,6.166249,3.359928,0.000000,-0.000000,1.000000
12.847770,-10.007139,3.359928,-0.000000,-0.000000,1.000000
-29.915771,-26.609752,-3.321419,-0.740951,-0.671559,0.000000
6.814412,-31.840765,-3.359928,0.000000,0.000000,-1.000000
15.082621,-3.229315,-3.359928,0.000000,-0.000000,-1.000000
3.935761,-36.712658,-3.359928,0.000000,0.000000,-1.000000
25.266773,28.634698,-3.359928,0.000000,0.000000,-1.000000
-30.362095,-22.271502,-3.359928,0.000000,0.000000,-1.000000
-30.129085,-25.448309,-3.359928,0.000000,-0.000000,-1.000000
-4.857020,-18.966890,-3.359928,0.000000,-0.000000,-1.000000
-7.986208,24.516760,-3.359928,0.000000,0.000000,-1.000000
39.928940,3.164960,1.880936,0.998795,0.049067,-0.000000
-26.838127,24.928236,-3.359928,0.000000,0.000000,-1.000000
-0.619540,-27.442607,-1.760017,0.290285,-0.956940,0.000000
-22.589928,-9.156929,-3.359928,0.000000,0.000000,-1.000000
-26.438670,6.216290,-3.359928,0.000000,0.000000,-1.000000
6.711750,-37.890876,3.359928,0.000000,-0.000000,1.000000
1.483793,32.317775,-2.538929,-0.471397,-0.881921,0.000000
-1.857782,-24.716776,-3.359928,0.000000,0.000000,-1.000000
-28.451149,-6.250040,-3.359928,0.000000,0.000000,-1.000000
-14.905488,37.188524,1.216277,-0.336890,0.941544,0.000000
1.438120,12.407624,3.359928,-0.000000,-0.000000,1.000000
6.395989,24.449309,-3.359928,0.000000,0.000000,-1.000000
-19.958314,-34.714380,0.622774,-0.514103,-0.857728,0.000000
-26.609425,-29.916067,-1.615968,-0.671559,-0.740951,-0.000000
18.244863,-22.180855,-3.359928,0.000000,-0.000000,-1.000000
-39.852863,3.370335,-3.359928,0.000000,0.000000,-1.000000
16.812660,24.613164,-3.359928,0.000000,0.000000,-1.000000
-38.424455,11.372198,2.124383,-0.970031,0.242980,0.000000
24.114681,-0.971125,-3.359928,0.000000,0.000000,-1.000000
-2.241157,-35.135499,3.359928,0.000000,-0.000000,1.000000
-18.392554,-16.151178,-3.359928,0.000000,-0.000000,-1.000000
-40.029748,1.112935,-2.146515,-0.998795,0.049067,0.000000
26.202497,-21.630906,3.359928,-0.000000,0.000000,1.000000
-20.653800,25.413175,-3.359928,0.000000,0.000000,-1.000000
2.613137,25.768329,3.359928,0.000000,-0.000000,1.000000
-3.935720,-25.197401,-3.359928,0.000000,-0.000000,-1.000000
3.574604,-11.091835,0.100286,-0.290285,0.956940,0.000000
-38.504348,-11.053247,2.809209,-0.970031,-0.242980,0.000000
28.045450,-23.143368,3.359928,-0.000000,0.000000,1.000000
-18.967093,29.201466,-3.359928,0.000000,0.000000,-1.000000
-7.311709,18.332527,3.359928,0.000000,-0.000000,1.000000
-12.507066,-0.178772,-3.359928,0.000000,0.000000,-1.000000
-6.104519,20.138003,3.359928,0.000000,0.000000,1.000000
3.494343,-39.912758,-1.129514,0.049067,-0.998795,0.000000
31.970661,20.748006,3.359928,0.000000,-0.000000,1.000000
37.994160,-8.369714,-3.359928,0.000000,-0.000000,-1.000000
15.931180,2.866232,3.359928,0.000000,-0.000000,1.000000
-14.690742,34.476472,3.359928,0.000000,0.000000,1.000000
-7.884052,30.545043,-3.359928,0.000000,0.000000,-1.000000
9.969875,-37.574715,-3.359928,0.000000,0.000000,-1.000000
4.027405,-23.296367,3.359928,0.000000,-0.000000,1.000000
-31.442594,-3.998623,-3.359928,0.000000,0.000000,-1.000000
-36.306262,-15.329111,-3.359928,0.000000,0.000000,-1.000000
8.963194,-23.239935,3.359928,0.000000,0.000000,1.000000
11.376045,16.789062,-3.359928,0.000000,0.000000,-1.000000
26.854277,-27.253057,3.359928,-0.000000,0.000000,1.000000
10.476884,-38.648719,1.115689,0.242980,-0.970031,0.000000
24.742022,27.166318,-3.359928,0.000000,0.000000,-1.000000
20.717430,29.540065,3.359928,0.000000,-0.000000,1.000000
9.088014,-12.710120,-3.359928,0.000000,0.000000,-1.000000
-11.148574,20.111193,3.359928,0.000000,-0.000000,1.000000
4.022769,-11.317189,3.359928,0.000000,0.000000,1.000000
16.618780,26.030404,-3.359928,0.000000,0.000000,-1.000000
-38.528582,-7.687124,-3.359928,0.000000,0.000000,-1.000000
9.178495,-11.718153,3.359928,-0.000000,-0.000000,1.000000
23.948886,17.597151,3.359928,0.000000,-0.000000,1.000000
5.417531,10.316194,3.042442,-0.471397,-0.881921,0.000000
27.201083,-15.820192,3.359928,-0.000000,0.000000,1.000000
8.318809,12.169597,3.359928,-0.000000,0.000000,1.000000
-25.141612,20.946350,-3.359928,0.000000,-0.000000,-1.000000
21.653919,6.264268,-3.359928,0.000000,0.000000,-1.000000
4.539731,-35.636572,-3.359928,0.000000,0.000000,-1.000000
-15.024165,31.908946,-3.359928,0.000000,0.000000,-1.000000
27.083050,21.759088,3.359928,0.000000,-0.000000,1.000000
-18.492428,-29.722591,3.359928,-0.000000,0.000000,1.000000
5.944953,12.542197,3.359928,0.000000,-0.000000,1.000000
-8.092205,24.262507,-3.359928,0.000000,0.000000,-1.000000
-12.491622,38.052218,2.051968,-0.336890,0.941544,0.000000
38.478856,9.980737,-3.359928,0.000000,0.000000,-1.000000
33.575513,15.601797,-3.359928,0.000000,0.000000,-1.000000
-24.267200,-5.044991,3.359928,0.000000,-0.000000,1.000000
-29.125772,27.285301,3.359928,-0.000000,-0.000000,1.000000
4.164182,39.856515,-0.547723,0.146731,0.989176,-0.000000
28.151008,-22.112674,3.359928,-0.000000,0.000000,1.000000
-39.984171,0.992930,3.359928,-0.000000,-0.000000,1.000000
39.052774,8.863804,2.894494,0.970031,0.242980,-0.000000
-35.455234,5.729477,-3.359928,0.000000,0.000000,-1.000000
0.157869,18.120674,-3.359928,0.000000,0.000000,-1.000000
-39.563437,-6.139950,-0.485536,-0.989176,-0.146731,-0.000000
21.339320,-21.657617,3.359928,-0.000000,0.000000,1.000000
1.912480,-28.157024,-2.277065,-0.773010,-0.634394,0.000000
0.129254,-23.309895,-3.359928,-0.000000,-0.000000,-1.000000
18.167621,-28.906958,3.359928,0.000000,-0.000000,1.000000
36.794707,-12.751327,3.359928,-0.000000,0.000000,1.000000
-15.306774,3.023633,3.359928,-0.000000,-0.000000,1.000000
-10.151508,8.639594,3.359928,-0.000000,0.000000,1.000000
-18.462518,-22.057558,3.359928,-0.000000,0.000000,1.000000
15.573941,21.240887,-3.359928,0.000000,0.000000,-1.000000
0.276440,-38.764435,3.359928,0.000000,-0.000000,1.000000
25.437447,18.199541,-3.359928,0.000000,0.000000,-1.000000
-7.035936,16.382470,-3.359928,0.000000,0.000000,-1.000000
16.043774,23.950893,-3.359928,0.000000,0.000000,-1.000000
-34.678681,20.017874,-0.850115,-0.857728,0.514103,0.000000
-3.374909,-13.744595,-3.359928,0.000000,-0.000000,-1.000000
12.055537,-38.208252,-2.349639,0.336890,-0.941544,0.000000
-1.655298,-17.607923,-3.359928,0.000000,-0.000000,-1.000000
-16.103873,-7.962630,3.359928,0.000000,-0.000000,1.000000
-39.368040,-6.813965,3.359928,0.000000,-0.000000,1.000000
-1.649878,-32.186235,0.305064,0.634394,0.773010,0.000000
-20.575631,-2.888621,-3.359928,0.000000,0.000000,-1.000000
-17.571182,-3.982504,-3.359928,0.000000,0.000000,-1.000000
18.873249,14.616804,-3.359928,0.000000,0.000000,-1.000000
-18.804689,-9.151525,3.359928,0.000000,-0.000000,1.000000
-1.416748,-35.268767,-3.359928,0.000000,0.000000,-1.000000
-35.169951,11.178958,3.359928,-0.000000,-0.000000,1.000000
33.975677,21.190764,3.255970,0.857728,0.514103,-0.000000
-29.710690,6.579830,3.359928,-0.000000,0.000000,1.000000
9.709195,-35.004998,3.359928,0.000000,-0.000000,1.000000
3.392461,-20.886672,-3.359928,0.000000,0.000000,-1.000000
9.354591,25.044535,3.359928,0.000000,-0.000000,1.000000
-17.881982,8.168556,3.359928,-0.000000,-0.000000,1.000000
12.782148,-33.237649,-3.359928,0.000000,0.000000,-1.000000
39.800253,-4.543469,-0.947817,0.989176,-0.146731,0.000000
-11.780115,1.650178,-3.359928,0.000000,-0.000000,-1.000000
-5.949439,-10.579434,-3.359928,0.000000,0.000000,-1.000000
-28.427327,-28.210038,-3.359928,0.000000,-0.000000,-1.000000
3.724150,-27.643608,3.359928,0.000000,-0.000000,1.000000
-28.634386,16.358798,3.359928,-0.000000,-0.000000,1.000000
-38.384009,-11.533666,2.523614,-0.970031,-0.242980,0.000000
-0.002537,40.084298,1.888478,-0.049067,0.998795,0.000000
10.564194,-16.269937,3.359928,0.000000,-0.000000,1.000000
2.449751,31.181739,1.398363,-0.881921,-0.471397,0.000000
-35.397479,-11.004989,-3.359928,0.000000,0.000000,-1.000000
16.842509,22.037673,3.359928,0.000000,-0.000000,1.000000
23.084630,-30.142953,-3.359928,0.000000,-0.000000,-1.000000
32.754391,0.097871,-1.538631,-0.995184,-0.098020,0.000000
-25.510622,30.911963,-2.007325,-0.671559,0.740951,0.000000
-24.676114,-1.901235,3.359928,0.000000,-0.000000,1.000000
-4.219584,13.671330,-3.359928,0.000000,0.000000,-1.000000
-1.266018,27.558077,-3.359928,0.000000,0.000000,-1.000000
29.032215,-8.230128,-3.359928,0.000000,-0.000000,-1.000000
21.876042,-18.166840,3.359928,-0.000000,0.000000,1.000000
28.868723,-2.409035,-0.881226,0.471397,0.881921,0.000000
6.420824,-11.371945,-3.359928,0.000000,0.000000,-1.000000
6.884002,-14.082982,3.359928,0.000000,0.000000,1.000000
26.373033,-7.801601,3.359928,-0.000000,0.000000,1.000000
26.959842,16.755808,-3.359928,0.000000,0.000000,-1.000000
-28.892355,-15.568034,-3.359928,0.000000,0.000000,-1.000000
-27.697690,1.275802,-0.176320,-0.881921,-0.471397,0.000000
3.035467,-18.968644,3.359928,0.000000,-0.000000,1.000000
12.039041,29.103503,3.359928,0.000000,-0.000000,1.000000
-25.852308,13.818064,-3.359928,0.000000,-0.000000,-1.000000
-39.427003,7.059711,-0.410290,-0.989176,0.146731,0.000000
24.368421,7.528690,-3.359928,0.000000,0.000000,-1.000000
-20.513209,-9.215092,-3.359928,0.000000,0.000000,-1.000000
-5.302359,39.687682,-2.826079,-0.146731,0.989176,0.000000
-9.149302,-23.336606,-3.359928,0.000000,0.000000,-1.000000
-34.493856,-20.326235,0.526744,-0.857728,-0.514103,0.000000
37.038645,11.491808,-3.359928,0.000000,0.000000,-1.000000
-22.697247,-6.588398,3.359928,0.000000,-0.000000,1.000000
-9.307090,15.961571,-3.359928,0.000000,0.000000,-1.000000
-14.599803,-22.708766,3.359928,-0.000000,0.000000,1.000000
39.892872,-3.899146,-3.105369,0.998795,-0.049067,0.000000
4.754471,37.204811,3.359928,0.000000,-0.000000,1.000000
24.261625,-31.851678,-2.084198,0.595699,-0.803208,0.000000
1.375604,37.725059,3.359928,0.000000,-0.000000,1.000000
-39.883367,-3.983162,-3.025428,-0.989176,-0.146731,-0.000000
-37.287688,14.628343,3.172722,-0.941544,0.336890,0.000000
27.203670,-1.294251,3.359928,0.000000,0.000000,1.000000
12.162615,-2.512714,-3.359928,0.000000,-0.000000,-1.000000
-12.283457,-25.557694,3.359928,-0.000000,0.000000,1.000000
-4.807486,27.458813,-3.359928,0.000000,0.000000,-1.000000
29.307360,-5.149608,-3.359928,0.000000,-0.000000,-1.000000
-1.338156,40.018684,0.172249,-0.049067,0.998795,0.000000
7.287942,39.393149,-0.050404,0.146731,0.989176,0.000000
27.568308,14.442962,-3.359928,0.000000,-0.000000,-1.000000
9.519734,-26.047488,-3.359928,0.000000,0.000000,-1.000000
-17.501233,-17.563796,3.359928,0.000000,-0.000000,1.000000
-28.427682,-16.582858,3.359928,0.000000,-0.000000,1.000000
7.438025,23.061290,-3.359928,0.000000,0.000000,-1.000000
-28.640162,28.017170,2.540578,-0.740951,0.671559,0.000000
39.122710,-8.584605,3.338464,0.970031,-0.242980,0.000000
10.731643,-6.058331,3.359928,-0.000000,-0.000000,1.000000
40.013582,-1.442014,2.649092,0.998795,-0.049067,0.000000
-27.368928,-20.759012,3.359928,0.000000,-0.000000,1.000000
-13.922246,23.291349,-3.359928,0.000000,0.000000,-1.000000
-38.236632,-4.023778,3.359928,0.000000,-0.000000,1.000000
-37.339085,4.365108,3.359928,-0.000000,-0.000000,1.000000
-17.950492,24.319557,-3.359928,0.000000,0.000000,-1.000000
7.255174,-35.577279,-3.359928,0.000000,0.000000,-1.000000
-4.349970,35.331076,3.359928,0.000000,0.000000,1.000000
11.843682,2.727701,3.359928,0.000000,-0.000000,1.000000
36.666555,16.114809,0.408857,0.903989,0.427555,0.000000
-26.441618,26.873844,-3.359928,0.000000,0.000000,-1.000000
17.897320,19.071365,3.359928,0.000000,-0.000000,1.000000
35.708042,18.141414,1.069151,0.903989,0.427555,-0.000000
-13.250984,-31.444245,-3.359928,0.000000,-0.000000,-1.000000
13.850104,-3.017303,3.359928,-0.000000,-0.000000,1.000000
8.761618,-28.627292,-3.359928,0.000000,0.000000,-1.000000
-27.511877,16.888499,3.359928,-0.000000,-0.000000,1.000000
19.989116,13.679841,3.359928,0.000000,-0.000000,1.000000
-19.271785,-25.708996,3.359928,-0.000000,0.000000,1.000000
8.419083,-9.721732,-3.359928,0.000000,0.000000,-1.000000
4.863063,10.612563,1.143612,-0.471397,-0.881921,0.000000
34.285046,20.674613,0.584822,0.857728,0.514103,-0.000000
-13.985033,14.058728,3.359928,-0.000000,-0.000000,1.000000
-26.652594,18.710794,-3.359928,0.000000,0.000000,-1.000000
7.736492,-20.590743,3.359928,0.000000,0.000000,1.000000
-11.453308,-29.269961,3.359928,-0.000000,0.000000,1.000000
19.573309,4.332647,-3.359928,0.000000,0.000000,-1.000000
2.544912,29.193902,-0.511112,-0.956940,0.290284,0.000000
-19.809134,26.089730,3.359928,-0.000000,-0.000000,1.000000
9.513229,9.034640,-3.359928,0.000000,0.000000,-1.000000
32.064770,-13.461138,-3.359928,0.000000,-0.000000,-1.000000
2.553982,27.283595,3.359928,0.000000,-0.000000,1.000000
-34.657319,17.390417,-3.359928,0.000000,0.000000,-1.000000
6.738623,-9.543131,3.359016,-0.634393,0.773010,0.000000
-31.295874,-15.493966,3.359928,0.000000,-0.000000,1.000000
-24.066301,-20.902141,-3.359928,0.000000,-0.000000,-1.000000
35.516752,2.437780,-3.359928,0.000000,0.000000,-1.000000
13.853011,17.719842,3.359928,0.000000,-0.000000,1.000000
-32.723156,16.750897,3.359928,-0.000000,-0.000000,1.000000
39.870815,-4.067784,-2.241562,0.989176,-0.146731,0.000000
-39.499982,-6.567732,-0.039045,-0.989176,-0.146731,0.000000
0.576844,24.696215,3.359928,0.000000,-0.000000,1.000000
32.849211,14.170821,3.359928,0.000000,-0.000000,1.000000
-4.732141,-22.193043,-3.359928,0.000000,-0.000000,-1.000000
-30.739199,-20.501027,-3.359928,0.000000,0.000000,-1.000000
18.901814,25.658874,-3.359928,0.000000,0.000000,-1.000000
-35.071190,12.167566,3.359928,-0.000000,-0.000000,1.000000
-4.393509,-39.194341,3.359928,-0.000000,0.000000,1.000000
36.407090,-15.182682,3.359928,-0.000000,0.000000,1.000000
29.037528,-27.578745,-3.171948,0.740951,-0.671559,0.000000
14.643467,37.282276,3.186048,0.336890,0.941544,-0.000000
4.870507,-30.176935,-3.359928,0.000000,0.000000,-1.000000
-31.708886,-21.052900,-3.359928,0.000000,0.000000,-1.000000
37.284288,8.557123,3.359928,0.000000,-0.000000,1.000000
35.707158,-2.587948,-3.359928,0.000000,0.000000,-1.000000
7.601464,-39.346642,2.297737,0.146731,-0.989176,0.000000
-26.973046,-25.327202,-3.359928,0.000000,-0.000000,-1.000000
-5.390461,-26.443632,3.359928,0.000000,-0.000000,1.000000
-13.312212,-37.142855,-3.359928,0.000000,-0.000000,-1.000000
-21.520272,33.778177,-0.055567,-0.514103,0.857728,0.000000
10.067202,9.761067,3.359928,0.000000,-0.000000,1.000000
16.038817,16.800049,-3.359928,0.000000,0.000000,-1.000000
34.282953,-5.687705,3.359928,-0.000000,0.000000,1.000000
4.450079,-37.308281,-3.359928,0.000000,0.000000,-1.000000
-4.223470,-28.222097,3.359928,-0.000000,0.000000,1.000000
-5.042070,23.031523,-3.359928,0.000000,0.000000,-1.000000
-7.736549,-10.318986,-3.359928,0.000000,0.000000,-1.000000
1.645311,-40.003595,1.687062,0.049067,-0.998795,0.000000
-19.050344,-35.258597,1.584571,-0.514103,-0.857728,0.000000
2.940456,16.868741,-3.359928,0.000000,0.000000,-1.000000
-8.196624,-22.128990,-3.359928,0.000000,0.000000,-1.000000
-27.626024,-24.731896,-3.359928,0.000000,-0.000000,-1.000000
30.894193,-10.790371,-3.359928,0.000000,-0.000000,-1.000000
-2.083070,-18.034077,-3.359928,0.000000,-0.000000,-1.000000
-19.797147,29.667301,-3.359928,0.000000,0.000000,-1.000000
-30.542581,-2.653509,0.192137,0.098017,0.995185,-0.000000
5.478735,16.704896,3.359928,0.000000,-0.000000,1.000000
8.981253,38.457344,3.359928,0.000000,-0.000000,1.000000
28.384224,2.098938,1.734212,0.634394,-0.773010,0.000000
-9.798248,7.642317,3.359928,-0.000000,0.000000,1.000000
25.583247,-19.623721,-3.359928,0.000000,-0.000000,-1.000000
16.851515,-28.211415,-3.359928,0.000000,0.000000,-1.000000
0.659866,33.028607,3.359928,-0.000000,0.000000,1.000000
15.119151,-16.301576,3.359928,-0.000000,0.000000,1.000000
32.661444,5.356211,3.359928,0.000000,-0.000000,1.000000
11.407055,-10.858394,-3.359928,0.000000,-0.000000,-1.000000
-0.491294,40.060288,-1.626498,-0.049067,0.998795,0.000000
-35.408125,-3.772311,3.359928,0.000000,-0.000000,1.000000
35.574977,18.422756,-2.479597,0.903989,0.427555,0.000000
-18.907738,0.359232,3.359928,0.000000,0.000000,1.000000
-22.546365,-7.837911,-3.359928,0.000000,0.000000,-1.000000
-34.336345,-20.589027,2.569471,-0.857728,-0.514103,0.000000
9.301203,-7.033414,0.366595,-0.773010,0.634393,0.000000
30.134674,11.131260,3.359928,0.000000,-0.000000,1.000000
13.540990,-1.506711,-3.359928,0.000000,0.000000,-1.000000
8.913685,-7.505605,-2.730607,-0.773010,0.634393,0.000000
-22.873590,32.881113,1.473484,-0.595699,0.803208,0.000000
-19.434557,12.061376,3.359928,-0.000000,-0.000000,1.000000
26.787070,-8.951568,3.359928,-0.000000,0.000000,1.000000
-12.003353,-31.713952,3.359928,-0.000000,0.000000,1.000000
26.593088,-11.642976,3.359928,-0.000000,0.000000,1.000000
-19.007697,33.423624,-3.359928,0.000000,0.000000,-1.000000
1.984465,-11.782211,3.359928,-0.000000,-0.000000,1.000000
-13.406588,35.234318,3.359928,0.000000,0.000000,1.000000
20.009059,34.683964,-2.871037,0.514103,0.857728,0.000000
-5.450005,27.547829,-3.359928,0.000000,0.000000,-1.000000
-38.645094,-10.491356,0.113264,-0.970031,-0.242980,0.000000
22.898115,-3.168121,-3.359928,0.000000,-0.000000,-1.000000
2.069146,-11.504463,-0.302829,-0.098017,0.995185,0.000000
20.916627,-17.062818,-3.359928,0.000000,0.000000,-1.000000
31.595249,15.403101,3.359928,0.000000,-0.000000,1.000000
-7.131416,22.941573,-3.359928,0.000000,0.000000,-1.000000
33.870540,-19.687629,-3.359928,0.000000,-0.000000,-1.000000
-39.537529,-6.314611,0.862487,-0.989176,-0.146731,0.000000
4.557218,-17.055166,-3.359928,0.000000,0.000000,-1.000000
20.019217,10.093071,-3.359928,0.000000,-0.000000,-1.000000
34.624767,-4.046812,-3.359928,0.000000,-0.000000,-1.000000
-16.138096,-3.267166,3.359928,0.000000,-0.000000,1.000000
-21.347697,21.465180,-3.359928,0.000000,0.000000,-1.000000
-19.648505,27.629721,3.359928,-0.000000,-0.000000,1.000000
-28.316913,26.132117,-3.359928,0.000000,0.000000,-1.000000
31.203674,-4.017434,-3.359928,0.000000,-0.000000,-1.000000
-31.179989,-25.167293,-2.778026,-0.803208,-0.595699,0.000000
-5.981000,35.766517,-3.359928,0.000000,0.000000,-1.000000
14.499743,-36.877734,-3.359928,0.000000,0.000000,-1.000000
5.812106,-17.161410,3.359928,0.000000,0.000000,1.000000
-10.599554,-26.188759,-3.359928,0.000000,0.000000,-1.000000
19.216661,-35.024280,3.359928,0.000000,-0.000000,1.000000
26.798656,-6.013454,3.359928,-0.000000,-0.000000,1.000000
19.862534,-27.307584,3.359928,-0.000000,0.000000,1.000000
-31.428298,-13.885030,-3.359928,0.000000,0.000000,-1.000000
4.239660,27.355847,-3.359928,0.000000,0.000000,-1.000000
9.387648,13.397148,3.359928,-0.000000,0.000000,1.000000
8.523480,22.883134,-3.359928,0.000000,-0.000000,-1.000000
-34.667700,20.036195,-1.856631,-0.857728,0.514103,0.000000
-10.325731,-10.520824,3.359928,0.000000,-0.000000,1.000000
-3.070620,25.207612,-3.359928,0.000000,0.000000,-1.000000
13.050249,-10.001136,3.359928,-0.000000,-0.000000,1.000000
11.419027,31.893307,3.359928,0.000000,-0.000000,1.000000
11.681993,18.355087,3.359928,0.000000,-0.000000,1.000000
-11.275721,14.111046,-3.359928,0.000000,-0.000000,-1.000000
28.139745,-1.892776,-0.832283,0.773010,0.634394,0.000000
-1.116603,11.598280,1.942411,0.098017,-0.995185,0.000000
27.846869,-11.144838,3.359928,-0.000000,0.000000,1.000000
13.474232,-19.040649,3.359928,-0.000000,0.000000,1.000000
14.080099,22.202589,-3.359928,0.000000,0.000000,-1.000000
1.759238,-34.949784,3.359928,0.000000,0.000000,1.000000
13.135744,-23.939553,3.359928,0.000000,0.000000,1.000000
2.187923,-17.404225,3.359928,-0.000000,-0.000000,1.000000
-16.415094,-20.802363,3.359928,-0.000000,0.000000,1.000000
-17.602562,-31.429705,-3.359928,0.000000,-0.000000,-1.000000
30.340796,-5.431641,3.359928,-0.000000,0.000000,1.000000
-37.043999,10.370267,3.359928,-0.000000,-0.000000,1.000000
-20.099085,20.804966,3.359928,-0.000000,-0.000000,1.000000
0.291350,-27.391301,-0.385228,-0.098017,-0.995185,0.000000
24.342945,-31.791366,-2.670748,0.595699,-0.803208,0.000000
14.822274,1.742308,3.359928,0.000000,-0.000000,1.000000
0.689098,17.938271,-3.359928,0.000000,0.000000,-1.000000
36.054226,15.123059,-3.359928,0.000000,0.000000,-1.000000
38.961634,0.801412,-3.359928,0.000000,0.000000,-1.000000
-12.946694,27.987392,3.359928,0.000000,0.000000,1.000000
16.370790,-33.348399,-3.359928,0.000000,0.000000,-1.000000
-6.730121,9.550109,0.441998,0.634393,-0.773010,0.000000
-11.653213,22.727389,-3.359928,0.000000,0.000000,-1.000000
3.214308,-28.130564,-3.359928,0.000000,0.000000,-1.000000
5.156558,-32.630077,-3.359928,0.000000,0.000000,-1.000000
2.822295,-25.864262,-3.359928,0.000000,0.000000,-1.000000
-11.525711,32.400605,-3.359928,0.000000,0.000000,-1.000000
-22.999755,-4.095175,3.359928,0.000000,-0.000000,1.000000
-30.264579,16.641714,-3.359928,0.000000,0.000000,-1.000000
4.900847,-39.747241,2.449585,0.146731,-0.989176,0.000000
38.790956,-4.804756,3.359928,-0.000000,0.000000,1.000000
5.624935,-39.639833,-3.062962,0.146731,-0.989176,0.000000
26.153637,21.877440,-3.359928,0.000000,0.000000,-1.000000
-5.948650,-31.062898,-3.359928,0.000000,-0.000000,-1.000000
-24.901004,-31.377482,0.988837,-0.595699,-0.803208,0.000000
14.992399,-23.641791,-3.359928,0.000000,0.000000,-1.000000
36.375083,-16.731075,1.333249,0.903989,-0.427555,0.000000
13.890888,32.506580,-3.359928,0.000000,0.000000,-1.000000
33.968823,-11.786812,-3.359928,0.000000,-0.000000,-1.000000
9.098986,-10.002410,3.359928,-0.000000,-0.000000,1.000000
17.579963,18.937129,3.359928,0.000000,-0.000000,1.000000
3.092289,28.528004,-3.359928,0.000000,0.000000,-1.000000
-9.653215,-38.855037,1.224613,-0.242980,-0.970031,0.000000
18.458199,-13.506331,-3.359928,0.000000,-0.000000,-1.000000
39.327353,7.731500,-2.315292,0.989176,0.146731,-0.000000
-6.364649,14.199188,3.359928,0.000000,0.000000,1.000000
26.730791,27.470495,-3.359928,0.000000,0.000000,-1.000000
27.638022,-1.164171,-1.480145,0.881921,0.471397,-0.000000
34.529691,-13.133554,-3.359928,0.000000,-0.000000,-1.000000
-8.868054,32.291797,3.359928,0.000000,0.000000,1.000000
-19.304028,-17.144936,3.359928,-0.000000,0.000000,1.000000
15.364352,15.088514,3.359928,0.000000,-0.000000,1.000000
35.797712,-9.099801,3.359928,-0.000000,0.000000,1.000000
23.040460,7.245605,3.359928,0.000000,-0.000000,1.000000
-0.079212,-24.885172,3.359928,-0.000000,0.000000,1.000000
-0.458207,-32.718900,0.698380,0.098020,0.995184,-0.000000
-25.988058,-20.773088,3.359928,0.000000,-0.000000,1.000000
38.291495,-3.932311,-3.359928,0.000000,-0.000000,-1.000000
-18.232088,-30.942236,-3.359928,0.000000,-0.000000,-1.000000
34.708887,-0.606518,3.359928,0.000000,-0.000000,1.000000
16.481727,-36.493016,-0.599046,0.427555,-0.903989,0.000000
19.916865,34.739223,-2.242999,0.514103,0.857728,0.000000
-20.909438,34.144297,0.079834,-0.514103,0.857728,0.000000
23.636769,-32.315102,-0.732712,0.595699,-0.803208,0.000000
9.087739,14.082028,-3.359928,0.000000,0.000000,-1.000000
-33.480139,-3.753025,-3.359928,0.000000,0.000000,-1.000000
8.201012,-39.218795,1.616300,0.242980,-0.970031,0.000000
14.271296,23.158716,3.359928,0.000000,-0.000000,1.000000
-16.043877,-36.700103,2.823653,-0.427555,-0.903989,0.000000
-33.523893,-18.608404,3.359928,0.000000,-0.000000,1.000000
0.199554,14.152767,-3.359928,0.000000,0.000000,-1.000000
21.568499,-9.521028,-3.359928,0.000000,-0.000000,-1.000000
-17.046603,-4.772509,3.359928,0.000000,-0.000000,1.000000
0.136416,15.191222,3.359928,0.000000,-0.000000,1.000000
-23.434878,32.464835,-1.374345,-0.595699,0.803208,0.000000
-7.981877,-21.507834,-3.359928,0.000000,0.000000,-1.000000
1.463755,11.564088,1.418632,-0.098017,-0.995185,0.000000
-23.339885,-32.333689,-3.359928,0.000000,-0.000000,-1.000000
14.859604,27.545666,3.359928,0.000000,-0.000000,1.000000
-2.302337,-18.316669,-3.359928,0.000000,-0.000000,-1.000000
-4.075814,-39.869623,1.982056,-0.146731,-0.989176,0.000000
-33.128927,-22.539452,-0.803014,-0.803208,-0.595699,-0.000000
12.358901,-35.287039,3.359928,0.000000,-0.000000,1.000000
5.679252,21.693612,-3.359928,0.000000,0.000000,-1.000000
15.030684,-37.143728,-2.892086,0.336890,-0.941544,0.000000
29.303441,16.433219,3.359928,0.000000,-0.000000,1.000000
-22.544280,28.432595,3.359928,-0.000000,-0.000000,1.000000
25.330051,27.998006,3.359928,0.000000,-0.000000,1.000000
-20.225652,-27.899765,3.359928,-0.000000,0.000000,1.000000
33.748879,2.357970,-3.359928,0.000000,0.000000,-1.000000
-11.473430,2.316655,-2.320237,0.956940,-0.290285,0.000000
-21.482342,17.032168,-3.359928,0.000000,-0.000000,-1.000000
3.272838,20.853631,-3.359928,0.000000,0.000000,-1.000000
1.372912,27.749596,2.424609,-0.471397,0.881921,0.000000
-7.360803,-27.877388,-3.359928,0.000000,-0.000000,-1.000000
17.874099,27.823480,3.359928,0.000000,-0.000000,1.000000
-36.783731,4.669701,-3.359928,0.000000,0.000000,-1.000000
18.724405,-16.063142,-3.359928,0.000000,0.000000,-1.000000
38.563302,-10.817887,-2.148854,0.970031,-0.242980,0.000000
-30.394227,-19.571912,-3.359928,0.000000,0.000000,-1.000000
25.627917,30.805654,3.018544,0.671559,0.740951,-0.000000
18.079101,-15.561574,3.359928,-0.000000,0.000000,1.000000
-36.093603,-2.001959,-3.359928,0.000000,0.000000,-1.000000
35.170889,5.972737,3.359928,0.000000,-0.000000,1.000000
-13.999858,37.512563,0.105199,-0.336890,0.941544,0.000000
10.434703,21.169319,-3.359928,0.000000,0.000000,-1.000000
-16.889931,26.169940,3.359928,-0.000000,-0.000000,1.000000
33.284592,21.026985,3.359928,0.000000,-0.000000,1.000000
-11.059257,19.126761,-3.359928,0.000000,0.000000,-1.000000
-5.717429,19.284994,3.359928,0.000000,0.000000,1.000000
31.559502,2.247832,0.328077,-0.471397,-0.881921,0.000000
14.859289,-33.558034,-3.359928,0.000000,0.000000,-1.000000
23.564373,-22.347766,-3.359928,0.000000,-0.000000,-1.000000
-34.424942,9.238749,-3.359928,0.000000,0.000000,-1.000000
10.519548,12.051415,3.359928,0.000000,-0.000000,1.000000
5.749004,10.139018,-2.941975,-0.471397,-0.881921,0.000000
12.564074,-21.420224,-3.359928,0.000000,0.000000,-1.000000
-13.837710,18.872706,-3.359928,0.000000,-0.000000,-1.000000
16.873515,32.280645,3.359928,0.000000,-0.000000,1.000000
-17.751526,6.398553,-3.359928,0.000000,-0.000000,-1.000000
39.445264,6.907202,3.359928,0.000000,-0.000000,1.000000
-6.856544,-16.168820,3.359928,-0.000000,0.000000,1.000000
-7.415991,8.987230,0.205049,0.634393,-0.773010,0.000000
-36.796897,15.839224,3.000233,-0.903989,0.427555,0.000000
24.292539,13.376450,-3.359928,0.000000,-0.000000,-1.000000
19.361639,13.503217,3.359928,0.000000,-0.000000,1.000000
-25.753536,-12.002220,-3.359928,0.000000,0.000000,-1.000000
31.540924,20.359231,3.359928,0.000000,-0.000000,1.000000
19.992153,14.617569,3.359928,0.000000,-0.000000,1.000000
35.348593,-3.086198,-3.359928,0.000000,0.000000,-1.000000
2.766357,15.942378,-3.359928,0.000000,0.000000,-1.000000
-4.651341,34.099884,-3.359928,0.000000,0.000000,-1.000000
36.153412,-15.351225,-3.359928,0.000000,-0.000000,-1.000000
36.073218,17.369314,-1.309521,0.903989,0.427555,0.000000
18.768494,22.653008,3.359928,0.000000,-0.000000,1.000000
-10.874032,7.803049,-3.359928,0.000000,-0.000000,-1.000000
0.992116,-27.555627,3.047994,-0.290285,-0.956940,0.000000
-20.518231,-6.730569,-3.359928,0.000000,0.000000,-1.000000
11.586244,18.494827,-3.359928,0.000000,0.000000,-1.000000
17.053362,21.470223,3.359928,0.000000,-0.000000,1.000000
-10.386106,20.010419,3.359928,0.000000,-0.000000,1.000000
-39.477682,-3.271287,-3.359928,0.000000,0.000000,-1.000000
-27.770082,5.967779,3.359928,-0.000000,0.000000,1.000000
-14.430468,18.301158,-3.359928,0.000000,0.000000,-1.000000
26.956560,29.601443,-1.884169,0.671559,0.740951,0.000000
-28.248350,1.987429,0.927900,-0.634394,-0.773010,0.000000
-11.351006,2.720231,0.573212,0.956940,-0.290285,0.000000
20.757537,10.111387,-3.359928,0.000000,0.000000,-1.000000
3.216057,16.240258,-3.359928,0.000000,0.000000,-1.000000
-9.318037,11.949289,3.359928,-0.000000,0.000000,1.000000
29.352024,2.592878,2.244704,0.290284,-0.956940,0.000000
-13.601909,6.405346,-3.359928,0.000000,-0.000000,-1.000000
-36.682087,8.443820,-3.359928,0.000000,0.000000,-1.000000
7.681628,-24.364007,3.359928,0.000000,-0.000000,1.000000
28.958463,15.432849,3.359928,-0.000000,0.000000,1.000000
-32.543658,15.943805,3.359928,-0.000000,-0.000000,1.000000
-19.274594,-27.083383,-3.359928,0.000000,-0.000000,-1.000000
-4.900424,15.640874,3.359928,0.000000,-0.000000,1.000000
21.445100,-30.066860,3.359928,-0.000000,0.000000,1.000000
-17.909731,26.357385,-3.359928,0.000000,-0.000000,-1.000000
19.896881,-18.122832,3.359928,-0.000000,0.000000,1.000000
12.135803,24.441743,-3.359928,0.000000,0.000000,-1.000000
-16.431394,-1.583759,3.359928,0.000000,-0.000000,1.000000
24.335201,-27.647762,-3.359928,0.000000,-0.000000,-1.000000
-13.697711,22.189500,-3.359928,0.000000,0.000000,-1.000000
0.719372,27.472890,-3.003639,-0.290285,0.956940,0.000000
21.281017,-11.115219,-3.359928,0.000000,0.000000,-1.000000
-9.143678,36.814084,3.359928,0.000000,0.000000,1.000000
-14.905100,18.393858,-3.359928,0.000000,0.000000,-1.000000
13.402177,-27.506647,3.359928,0.000000,-0.000000,1.000000
-15.743244,18.981195,-3.359928,0.000000,0.000000,-1.000000
28.228175,1.970872,-2.874183,0.634394,-0.773010,0.000000
-7.992059,-39.271135,-3.280922,-0.242980,-0.970031,0.000000
-19.045381,-7.335346,3.359928,0.000000,-0.000000,1.000000
34.077045,21.021642,1.134039,0.857728,0.514103,-0.000000
7.214864,9.152290,-2.749124,-0.634393,-0.773010,0.000000
29.261886,-21.051039,3.359928,-0.000000,0.000000,1.000000
2.069884,-36.847477,3.359928,0.000000,-0.000000,1.000000
30.880451,25.545391,-1.811362,0.740951,0.671559,0.000000
-11.178242,-3.289760,-1.347343,0.956940,0.290285,-0.000000
16.328073,-19.582002,3.359928,-0.000000,-0.000000,1.000000
2.172174,28.473463,-2.183710,-0.773010,0.634394,0.000000
5.341413,-13.779536,3.359928,0.000000,0.000000,1.000000
11.423734,2.480480,-2.158513,-0.956940,-0.290285,0.000000
0.121779,-34.632048,3.359928,0.000000,-0.000000,1.000000
3.146079,39.929867,0.397442,0.049067,0.998795,0.000000
-28.705003,-15.171101,-3.359928,0.000000,0.000000,-1.000000
28.413075,-28.267723,0.326152,0.740951,-0.671559,0.000000
-28.517887,-2.208632,1.882698,-0.634394,0.773010,0.000000
7.252654,-13.156013,-3.359928,0.000000,0.000000,-1.000000
-2.953680,-23.366537,-3.359928,0.000000,-0.000000,-1.000000
-17.011417,21.526535,-3.359928,0.000000,0.000000,-1.000000
16.418742,-24.640609,3.359928,0.000000,-0.000000,1.000000
-7.318522,16.674499,3.359928,0.000000,0.000000,1.000000
12.885750,12.333321,3.359928,0.000000,-0.000000,1.000000
33.943704,21.244107,0.195111,0.857728,0.514103,-0.000000
-10.656224,30.889573,-3.359928,0.000000,0.000000,-1.000000
22.708806,28.535118,3.359928,0.000000,-0.000000,1.000000
-35.986102,17.553505,-2.611941,-0.903989,0.427555,0.000000
-1.254463,-39.361843,-3.359928,0.000000,-0.000000,-1.000000
-33.493635,-21.995002,2.670258,-0.857728,-0.514103,0.000000
21.261591,-13.278194,3.359928,-0.000000,0.000000,1.000000
10.334220,-36.940509,-3.359928,0.000000,0.000000,-1.000000
3.398644,-37.261723,3.359928,0.000000,0.000000,1.000000
-8.588567,29.479905,-3.359928,0.000000,0.000000,-1.000000
29.517977,2.900437,3.359928,0.000000,0.000000,1.000000
18.823288,26.148336,3.359928,0.000000,-0.000000,1.000000
1.607673,27.905766,-2.478421,-0.634394,0.773010,0.000000
-10.568341,-9.378309,3.359928,0.000000,-0.000000,1.000000
25.509800,-24.742625,-3.359928,0.000000,-0.000000,-1.000000
-26.706531,-29.828056,0.652931,-0.671559,-0.740951,0.000000
13.877715,33.485235,-3.359928,0.000000,0.000000,-1.000000
26.391108,14.910871,3.359928,0.000000,-0.000000,1.000000
28.603408,-27.793487,3.359928,-0.000000,0.000000,1.000000
26.822059,-15.125261,3.359928,-0.000000,0.000000,1.000000
-12.751434,-36.846710,-3.359928,0.000000,-0.000000,-1.000000
-23.235515,6.905845,3.359928,-0.000000,-0.000000,1.000000
13.127358,29.130110,-3.359928,0.000000,0.000000,-1.000000
-17.975477,-14.974304,3.359928,0.000000,-0.000000,1.000000
-10.544785,-30.963087,-3.359928,0.000000,-0.000000,-1.000000
-36.060332,-17.396560,1.632982,-0.903989,-0.427555,0.000000
-11.137383,11.999260,3.359928,-0.000000,-0.000000,1.000000
-19.566465,2.297441,3.359928,-0.000000,0.000000,1.000000
-24.023698,9.788423,3.359928,-0.000000,-0.000000,1.000000
35.608331,-5.584474,3.359928,-0.000000,0.000000,1.000000
34.096272,1.862147,3.359928,0.000000,-0.000000,1.000000
-0.392373,-40.065147,0.787669,-0.049067,-0.998795,0.000000
-14.219022,-3.242013,3.359928,0.000000,-0.000000,1.000000
31.223124,-21.037763,-3.359928,0.000000,-0.000000,-1.000000
-8.046224,39.257568,-2.407521,-0.242980,0.970031,0.000000
20.841286,12.742529,3.359928,0.000000,-0.000000,1.000000
7.976343,-32.219211,-3.359928,0.000000,0.000000,-1.000000
10.793446,-38.569424,1.429510,0.242980,-0.970031,0.000000
-10.804802,11.941163,3.359928,-0.000000,0.000000,1.000000
-35.805737,-7.968482,3.359928,0.000000,-0.000000,1.000000
39.916231,-3.423649,2.973195,0.998795,-0.049067,0.000000
-13.325372,24.932630,3.359928,0.000000,-0.000000,1.000000
-24.042102,27.557477,-3.359928,0.000000,0.000000,-1.000000
-15.122511,33.077053,3.359928,0.000000,0.000000,1.000000
-6.956753,-24.033396,3.359928,-0.000000,0.000000,1.000000
17.790131,-35.874187,1.660634,0.427555,-0.903989,0.000000
3.312967,11.171202,-0.227935,-0.290285,-0.956940,0.000000
7.591373,16.636096,-3.359928,0.000000,0.000000,-1.000000
14.435747,-23.558741,3.359928,0.000000,-0.000000,1.000000
-8.952363,22.467819,-3.359928,0.000000,0.000000,-1.000000
-2.711536,-31.610564,3.359928,0.000000,-0.000000,1.000000
-13.318561,11.576358,-3.359928,0.000000,-0.000000,-1.000000
-29.776805,-11.881565,-3.359928,0.000000,0.000000,-1.000000
-11.972505,-30.144565,3.359928,-0.000000,0.000000,1.000000
5.837680,-37.240632,3.359928,0.000000,-0.000000,1.000000
2.631924,-24.019362,3.359928,0.000000,0.000000,1.000000
28.334886,-2.058447,-0.603670,0.634394,0.773010,-0.000000
33.723230,7.304972,-3.359928,0.000000,0.000000,-1.000000
-25.248597,-31.119690,-1.519951,-0.595699,-0.803208,0.000000
-18.019199,16.622969,-3.359928,0.000000,0.000000,-1.000000
5.439836,-18.396013,3.359928,0.000000,-0.000000,1.000000
-18.667067,-30.395906,-3.359928,0.000000,-0.000000,-1.000000
-27.937534,-17.396933,-3.359928,0.000000,0.000000,-1.000000
17.677386,-16.156749,3.359928,-0.000000,0.000000,1.000000
9.617777,15.976719,3.359928,0.000000,-0.000000,1.000000
-14.811057,-19.794205,3.359928,-0.000000,0.000000,1.000000
-28.796689,-24.548968,3.359928,-0.000000,0.000000,1.000000
36.639627,-10.853298,-3.359928,0.000000,-0.000000,-1.000000
28.467105,12.540062,-3.359928,0.000000,0.000000,-1.000000
39.230403,-4.291072,-3.359928,0.000000,-0.000000,-1.000000
-6.233975,34.633860,3.359928,0.000000,0.000000,1.000000
-39.091294,-8.710025,0.184380,-0.970031,-0.242980,-0.000000
6.611748,9.647254,1.697194,-0.634393,-0.773010,0.000000
18.907887,-0.352525,3.359928,0.000000,0.000000,1.000000
-24.735001,6.685932,-3.359928,0.000000,0.000000,-1.000000
19.114891,18.953045,-3.359928,0.000000,0.000000,-1.000000
37.399551,5.655099,-3.359928,0.000000,0.000000,-1.000000
-29.890175,13.666151,3.359928,-0.000000,-0.000000,1.000000
18.478909,-19.854995,-3.359928,0.000000,-0.000000,-1.000000
6.528479,-10.194431,3.359928,0.000000,0.000000,1.000000
31.894357,-6.418350,-3.359928,0.000000,-0.000000,-1.000000
14.329489,21.722151,-3.359928,0.000000,0.000000,-1.000000
-18.022820,29.667822,3.359928,-0.000000,-0.000000,1.000000
-35.174686,2.029993,3.359928,-0.000000,0.000000,1.000000
-37.388746,-8.197076,-3.359928,0.000000,0.000000,-1.000000
7.357277,9.614429,3.359928,-0.000000,0.000000,1.000000
18.112847,0.539684,3.359928,0.000000,0.000000,1.000000
1.429828,-38.469976,3.359928,0.000000,-0.000000,1.000000
-31.998867,-24.063163,1.515534,-0.803208,-0.595699,0.000000
3.259761,-16.907219,3.359928,0.000000,-0.000000,1.000000
-31.731917,14.052683,-3.359928,0.000000,0.000000,-1.000000
15.532178,35.960079,-3.359928,0.000000,0.000000,-1.000000
25.927501,30.534127,-0.965610,0.671559,0.740951,-0.000000
14.594889,6.176121,-3.359928,0.000000,0.000000,-1.000000
-28.236390,27.332667,3.359928,-0.000000,-0.000000,1.000000
14.216203,36.287897,3.359928,0.000000,-0.000000,1.000000
-3.786818,19.924078,-3.359928,0.000000,0.000000,-1.000000
23.878230,23.710466,3.359928,0.000000,-0.000000,1.000000
0.714535,-27.471423,1.028193,-0.290285,-0.956940,0.000000
-15.462320,27.337246,3.359928,-0.000000,-0.000000,1.000000
-23.415331,-22.675043,3.359928,-0.000000,0.000000,1.000000
-7.131000,-9.221115,3.033278,0.634393,0.773010,0.000000
2.377083,22.805102,3.359928,0.000000,-0.000000,1.000000
0.656765,11.955490,3.359928,-0.000000,-0.000000,1.000000
-15.450991,-31.026390,3.359928,-0.000000,0.000000,1.000000
-35.698563,1.436071,-3.359928,0.000000,0.000000,-1.000000
33.162553,7.474850,3.359928,0.000000,-0.000000,1.000000
18.104068,-17.183874,-3.359928,0.000000,-0.000000,-1.000000
-18.931002,18.436552,3.359928,-0.000000,-0.000000,1.000000
-3.755168,39.899945,2.976731,-0.049067,0.998795,0.000000
29.719124,-10.821780,3.359928,-0.000000,0.000000,1.000000
-19.048275,-29.409999,3.359928,-0.000000,0.000000,1.000000
2.602072,-30.744306,-3.013182,-0.956940,0.290284,0.000000
-38.224562,12.009951,-0.691311,-0.941544,0.336890,0.000000
19.135534,8.154923,-3.359928,0.000000,0.000000,-1.000000
22.036847,-8.640424,3.359928,-0.000000,0.000000,1.000000
-32.696042,-11.903811,-3.359928,0.000000,0.000000,-1.000000
-36.673016,-16.101148,-0.797039,-0.903989,-0.427555,-0.000000
9.727922,6.513455,2.855591,-0.773010,-0.634393,0.000000
-27.770513,-7.197362,-3.359928,0.000000,0.000000,-1.000000
-19.681231,-13.764457,-3.359928,0.000000,0.000000,-1.000000
-7.916215,-34.087286,-3.359928,0.000000,-0.000000,-1.000000
37.837452,-13.091855,-2.654295,0.941544,-0.336890,0.000000
-18.603972,-24.272919,-3.359928,0.000000,-0.000000,-1.000000
27.622252,-16.613895,-3.359928,0.000000,-0.000000,-1.000000
-23.870067,32.142077,1.633439,-0.595699,0.803208,0.000000
6.977795,-35.134384,3.359928,0.000000,-0.000000,1.000000
-6.459896,-11.708706,-3.359928,0.000000,0.000000,-1.000000
25.231868,-30.779310,3.359928,-0.000000,0.000000,1.000000
-14.935032,-6.694953,-3.359928,0.000000,0.000000,-1.000000
-28.896909,9.815238,-3.359928,0.000000,0.000000,-1.000000
20.885302,15.974208,3.359928,0.000000,-0.000000,1.000000
36.675377,-16.096156,3.041835,0.903989,-0.427555,0.000000
-17.297788,1.606164,-3.359928,0.000000,-0.000000,-1.000000
-32.745028,-17.965032,-3.359928,0.000000,0.000000,-1.000000
-37.910987,2.097224,-3.359928,0.000000,0.000000,-1.000000
23.334962,-3.874298,-3.359928,0.000000,-0.000000,-1.000000
-20.966288,15.083821,-3.359928,0.000000,0.000000,-1.000000
31.473500,22.650427,3.359928,0.000000,-0.000000,1.000000
-33.928599,21.269309,-0.300220,-0.857728,0.514103,0.000000
31.063393,25.324505,-2.274978,0.803208,0.595699,-0.000000
16.697047,-19.542221,3.359928,-0.000000,-0.000000,1.000000
-11.137471,14.007417,3.359928,-0.000000,0.000000,1.000000
5.308676,10.988174,3.359928,0.000000,-0.000000,1.000000
-11.878063,-33.314742,-3.359928,0.000000,-0.000000,-1.000000
38.110872,12.327695,-1.866449,0.941544,0.336890,0.000000
5.483643,36.108448,3.359928,0.000000,-0.000000,1.000000
-25.434463,29.988141,-3.359928,0.000000,0.000000,-1.000000
-26.357912,-2.620493,-3.359928,0.000000,0.000000,-1.000000
4.076353,12.816818,-3.359928,0.000000,-0.000000,-1.000000
-10.415201,-11.764598,-3.359928,0.000000,0.000000,-1.000000
-29.428961,-27.146864,2.327543,-0.740951,-0.671559,0.000000
27.499351,-28.510088,-3.359928,0.000000,-0.000000,-1.000000
-13.369437,-32.741898,-3.359928,0.000000,0.000000,-1.000000
-8.518558,-10.586572,-3.359928,0.000000,0.000000,-1.000000
5.923396,-35.487858,3.359928,0.000000,-0.000000,1.000000
3.507804,15.464424,3.359928,-0.000000,0.000000,1.000000
6.498961,14.814850,-3.359928,0.000000,0.000000,-1.000000
13.614567,-37.062184,-3.359928,0.000000,0.000000,-1.000000
4.524851,10.793341,2.210465,-0.471397,-0.881921,0.000000
-39.914257,3.463840,3.133030,-0.998795,0.049067,0.000000
6.103680,23.195641,3.359928,0.000000,-0.000000,1.000000
-3.346951,15.328546,-3.359928,0.000000,0.000000,-1.000000
-13.257839,-16.008617,-3.359928,0.000000,0.000000,-1.000000
1.956719,-28.210930,3.031538,-0.773010,-0.634394,0.000000
17.943495,2.146387,-3.359928,0.000000,0.000000,-1.000000
-3.032197,39.935462,2.116420,-0.049067,0.998795,0.000000
2.237229,28.552732,-2.222190,-0.773010,0.634394,0.000000
-36.515189,-0.103274,3.359928,0.000000,-0.000000,1.000000
1.285187,-11.581676,-2.507911,-0.098017,0.995185,-0.000000
14.070576,-0.723164,3.359928,0.000000,-0.000000,1.000000
-15.359586,-6.719140,3.359928,0.000000,-0.000000,1.000000
14.792204,-28.353696,3.359928,0.000000,0.000000,1.000000
27.033571,-7.179123,-3.359928,0.000000,-0.000000,-1.000000
-16.756169,31.825004,-3.359928,0.000000,0.000000,-1.000000
14.815742,19.831358,3.359928,0.000000,-0.000000,1.000000
-9.804106,25.566981,-3.359928,0.000000,0.000000,-1.000000
33.975126,14.471161,3.359928,0.000000,-0.000000,1.000000
-17.845520,-5.960996,3.359928,0.000000,-0.000000,1.000000
13.356861,20.469361,-3.359928,0.000000,0.000000,-1.000000
35.141025,-14.282321,-3.359928,0.000000,-0.000000,-1.000000
-29.408318,-6.632983,3.359928,0.000000,-0.000000,1.000000
-4.114518,32.352514,-3.359928,0.000000,0.000000,-1.000000
-9.936479,6.127928,-2.015415,0.881921,-0.471397,0.000000
29.250651,-21.099079,3.359928,-0.000000,0.000000,1.000000
23.721818,-0.941094,3.359928,0.000000,0.000000,1.000000
38.976059,9.170068,-0.021968,0.970031,0.242980,0.000000
-0.297865,27.391943,1.986470,0.098017,0.995185,0.000000
39.322517,-7.764104,-2.853259,0.989176,-0.146731,0.000000
24.523266,-22.165853,3.359928,-0.000000,0.000000,1.000000
-25.412554,-8.503848,-3.359928,0.000000,0.000000,-1.000000
6.626197,-17.072445,-3.359928,0.000000,0.000000,-1.000000
-3.553713,-36.193209,-3.359928,0.000000,-0.000000,-1.000000
13.853544,-30.878228,-3.359928,0.000000,0.000000,-1.000000
38.368841,-11.594221,2.228143,0.970031,-0.242980,0.000000
-33.458508,22.053608,-2.119330,-0.857728,0.514103,0.000000
-9.019417,36.885344,-3.359928,0.000000,0.000000,-1.000000
23.071757,-17.289902,3.359928,-0.000000,0.000000,1.000000
5.247034,-21.555854,3.359928,0.000000,-0.000000,1.000000
34.090624,9.353175,3.359928,0.000000,-0.000000,1.000000
23.549956,15.567114,-3.359928,0.000000,0.000000,-1.000000
23.928901,-4.433933,-3.359928,0.000000,-0.000000,-1.000000
5.945914,38.266564,3.359928,0.000000,-0.000000,1.000000
-9.502520,16.406396,3.359928,0.000000,-0.000000,1.000000
15.550772,-26.686219,-3.359928,0.000000,0.000000,-1.000000
-17.641369,-24.667082,3.359928,-0.000000,0.000000,1.000000
-21.764361,6.516147,-3.359928,0.000000,0.000000,-1.000000
-20.332743,-34.489956,-2.106136,-0.514103,-0.857728,0.000000
22.909423,18.997513,-3.359928,0.000000,0.000000,-1.000000
-13.287627,32.448821,-3.359928,0.000000,0.000000,-1.000000
2.737456,36.011865,-3.359928,0.000000,-0.000000,-1.000000
28.239404,4.925984,-3.359928,0.000000,0.000000,-1.000000
-27.601308,-22.759626,3.359928,0.000000,-0.000000,1.000000
-0.533236,24.135738,-3.359928,-0.000000,-0.000000,-1.000000
-23.954597,15.442398,3.359928,-0.000000,-0.000000,1.000000
-1.568021,27.408041,-3.359928,0.000000,0.000000,-1.000000
-15.169381,-31.198432,3.359928,-0.000000,0.000000,1.000000
