x,y,z,nx,ny,nz
-19.987330,7.386190,-3.019047,0.000000,-0.000000,-1.000000
25.378974,-20.921064,-3.019047,0.000000,0.000000,-1.000000
38.573118,9.384447,1.779864,0.970031,0.242979,-0.000000
-25.028841,2.509961,3.019047,-0.000000,-0.000000,1.000000
-25.157379,30.765563,1.578900,-0.595699,0.803208,0.000000
39.465552,-4.491009,2.019310,0.989176,-0.146731,0.000000
-36.436962,8.637795,3.019047,-0.000000,-0.000000,1.000000
39.249467,-5.947728,0.934475,0.989176,-0.146731,0.000000
-30.378974,-20.331545,-3.019047,0.000000,0.000000,-1.000000
-0.593419,-26.601588,-2.456065,0.098018,-0.995185,0.000000
-34.688371,2.450867,-3.019047,0.000000,-0.000000,-1.000000
-1.699509,-27.032127,-2.199334,0.471398,-0.881921,0.000000
-31.944543,-20.022614,3.019047,0.000000,-0.000000,1.000000
16.554198,8.871156,3.019047,0.000000,-0.000000,1.000000
18.934743,34.645821,3.019047,0.000000,-0.000000,1.000000
22.699276,-32.588616,0.173026,0.595699,-0.803208,0.000000
-13.010597,0.526993,-3.019047,0.000000,-0.000000,-1.000000
20.529151,-2.883411,3.019047,-0.000000,0.000000,1.000000
-13.482541,35.988124,3.019047,0.000000,0.000000,1.000000
12.232986,13.386691,3.019047,0.000000,-0.000000,1.000000
1.616851,-11.611151,-0.490337,-0.098017,0.995185,0.000000
35.379301,-18.044123,-2.924066,0.903989,-0.427555,0.000000
28.442251,-27.422215,-3.019047,0.000000,-0.000000,-1.000000
-10.192576,6.787508,3.019047,-0.000000,-0.000000,1.000000
3.123242,-39.591805,-0.394691,0.049067,-0.998795,0.000000
-2.536781,32.262059,-3.019047,0.000000,0.000000,-1.000000
-29.094601,-19.990905,-3.019047,0.000000,0.000000,-1.000000
-26.538730,-17.596735,3.019047,0.000000,-0.000000,1.000000
-13.070636,19.144987,3.019047,-0.000000,-0.000000,1.000000
-14.909517,6.396004,-3.019047,0.000000,0.000000,-1.000000
32.674940,22.582881,-0.087891,0.803208,0.595699,0.000000
-21.434438,12.168012,3.019047,-0.000000,-0.000000,1.000000
-20.438104,18.670377,3.019047,-0.000000,-0.000000,1.000000
-9.926521,6.277746,1.682217,0.881921,-0.471397,0.000000
13.915566,-13.141205,-3.019047,0.000000,-0.000000,-1.000000
-27.764433,19.612499,3.019047,-0.000000,-0.000000,1.000000
-28.560969,16.444587,3.019047,-0.000000,-0.000000,1.000000
37.846908,-6.189415,-3.019047,0.000000,-0.000000,-1.000000
35.218948,-2.608072,-3.019047,0.000000,0.000000,-1.000000
-22.809006,1.848875,3.019047,-0.000000,0.000000,1.000000
24.809770,31.023367,-1.704526,0.595699,0.803208,0.000000
-32.779843,-19.504949,3.019047,0.000000,-0.000000,1.000000
2.887380,39.046257,3.019047,0.000000,-0.000000,1.000000
18.541200,35.144201,-2.501134,0.427555,0.903989,0.000000
-17.962968,19.980787,3.019047,-0.000000,-0.000000,1.000000
-13.796223,-37.225617,1.011965,-0.336890,-0.941544,0.000000
-38.690369,-8.916352,2.392967,-0.970031,-0.242979,0.000000
16.908608,33.187022,-3.019047,0.000000,0.000000,-1.000000
1.992637,32.378038,-2.967324,-0.634394,-0.773010,0.000000
32.861833,-5.184926,-3.019047,0.000000,-0.000000,-1.000000
-37.489196,-13.059570,0.870784,-0.941544,-0.336890,0.000000
36.584933,-7.735690,3.019047,-0.000000,0.000000,1.000000
3.455530,13.940979,-3.019047,0.000000,0.000000,-1.000000
9.758625,10.016001,-3.019047,0.000000,0.000000,-1.000000
10.959147,-8.131506,-3.019047,0.000000,0.000000,-1.000000
2.566224,25.238516,-3.019047,0.000000,0.000000,-1.000000
20.369279,-29.118533,-3.019047,0.000000,-0.000000,-1.000000
5.428652,-28.003392,3.019047,0.000000,-0.000000,1.000000
6.068724,-16.047879,3.019047,0.000000,0.000000,1.000000
21.659613,-17.441587,-3.019047,0.000000,0.000000,-1.000000
-17.113358,-25.300248,3.019047,-0.000000,0.000000,1.000000
-24.258004,-27.129224,-3.019047,0.000000,0.000000,-1.000000
12.898174,-20.646702,-3.019047,0.000000,0.000000,-1.000000
20.419299,-0.853379,-3.019047,-0.000000,-0.000000,-1.000000
-2.021341,-11.571313,1.248848,0.098017,0.995185,-0.000000
10.960829,34.188381,3.019047,0.000000,-0.000000,1.000000
-9.580522,19.059399,-3.019047,0.000000,0.000000,-1.000000
35.098510,-10.326667,-3.019047,0.000000,-0.000000,-1.000000
26.019827,29.993229,2.286224,0.671559,0.740951,-0.000000
17.401575,22.290476,3.019047,0.000000,-0.000000,1.000000
-4.721247,-10.758487,2.625434,0.471397,0.881921,0.000000
27.804254,-12.919436,3.019047,-0.000000,0.000000,1.000000
-16.059504,-23.848354,-3.019047,0.000000,-0.000000,-1.000000
-3.258773,-29.880172,0.156480,0.995185,0.098017,-0.000000
19.170344,-13.622982,3.019047,-0.000000,0.000000,1.000000
-3.522846,32.203379,-3.019047,0.000000,0.000000,-1.000000
9.760625,-21.185555,3.019047,0.000000,-0.000000,1.000000
15.853362,-31.105312,-3.019047,0.000000,0.000000,-1.000000
-26.624552,-15.137109,-3.019047,0.000000,0.000000,-1.000000
19.321926,-19.666286,-3.019047,0.000000,-0.000000,-1.000000
-21.919197,-10.840447,3.019047,0.000000,-0.000000,1.000000
-3.546698,-32.091363,3.019047,-0.000000,0.000000,1.000000
-22.014465,25.770551,3.019047,-0.000000,-0.000000,1.000000
35.364494,-18.075430,-1.971435,0.903989,-0.427555,0.000000
8.837723,30.795747,-3.019047,0.000000,0.000000,-1.000000
-20.423293,-21.011639,3.019047,0.000000,-0.000000,1.000000
28.363984,-23.951739,-3.019047,0.000000,-0.000000,-1.000000
30.658870,3.138482,0.228564,-0.290285,-0.956940,0.000000
19.420556,33.589606,3.019047,0.000000,-0.000000,1.000000
-8.876470,11.958875,-3.019047,0.000000,-0.000000,-1.000000
-9.005877,36.594128,-3.019047,0.000000,0.000000,-1.000000
14.135019,-11.925101,3.019047,-0.000000,-0.000000,1.000000
17.457045,-28.243421,3.019047,0.000000,-0.000000,1.000000
10.748359,27.393751,3.019047,0.000000,-0.000000,1.000000
-14.940371,-15.433469,3.019047,0.000000,-0.000000,1.000000
-11.024418,22.681059,-3.019047,0.000000,0.000000,-1.000000
9.608126,-35.885106,3.019047,0.000000,-0.000000,1.000000
29.705291,26.337518,-1.985276,0.740951,0.671559,0.000000
-8.758674,16.482030,3.019047,-0.000000,-0.000000,1.000000
13.707243,37.257454,1.199718,0.336890,0.941544,-0.000000
-12.014555,-8.233965,3.019047,0.000000,-0.000000,1.000000
-32.774420,6.172972,3.019047,-0.000000,-0.000000,1.000000
20.913997,-10.134502,-3.019047,0.000000,-0.000000,-1.000000
-19.585909,-34.542623,2.828674,-0.514103,-0.857728,0.000000
1.777893,-39.657897,2.519923,0.049067,-0.998795,0.000000
-18.713898,12.760492,3.019047,-0.000000,-0.000000,1.000000
17.060951,-0.498600,3.019047,0.000000,0.000000,1.000000
11.759332,36.875252,3.019047,0.000000,-0.000000,1.000000
-14.832751,28.001523,-3.019047,0.000000,0.000000,-1.000000
33.898015,5.805119,-3.019047,0.000000,0.000000,-1.000000
-6.787251,24.144815,-3.019047,0.000000,0.000000,-1.000000
-21.179736,-7.398949,-3.019047,0.000000,0.000000,-1.000000
-19.427633,-34.637491,-2.742434,-0.514103,-0.857728,0.000000
-3.482656,21.092358,-3.019047,0.000000,0.000000,-1.000000
-39.058316,7.236360,-2.181918,-0.989176,0.146731,0.000000
-21.903716,28.983720,-3.019047,0.000000,0.000000,-1.000000
-12.351901,35.366722,3.019047,0.000000,0.000000,1.000000
-15.528488,-6.166251,-3.019047,0.000000,0.000000,-1.000000
-20.083221,25.510640,3.019047,-0.000000,-0.000000,1.000000
-33.842863,3.390424,-3.019047,0.000000,-0.000000,-1.000000
-35.442340,5.900691,-3.019047,0.000000,0.000000,-1.000000
16.932834,-35.904901,1.533140,0.427555,-0.903989,0.000000
22.151457,10.539533,-3.019047,0.000000,0.000000,-1.000000
39.260933,5.870433,0.908047,0.989176,0.146731,-0.000000
-7.166651,17.712916,3.019047,0.000000,-0.000000,1.000000
25.120414,15.567693,3.019047,0.000000,-0.000000,1.000000
19.238692,-19.360441,3.019047,-0.000000,0.000000,1.000000
35.714008,-17.336445,-2.618007,0.903989,-0.427555,0.000000
28.222210,-27.494900,3.019047,-0.000000,0.000000,1.000000
-33.486320,-3.357888,3.019047,0.000000,-0.000000,1.000000
18.232914,-1.782310,3.019047,0.000000,-0.000000,1.000000
20.396634,-33.414939,-3.019047,0.000000,0.000000,-1.000000
23.141179,-20.760980,-3.019047,0.000000,-0.000000,-1.000000
-11.016565,-4.035775,-1.690399,0.956940,0.290285,0.000000
-3.775115,-13.379586,3.019047,0.000000,-0.000000,1.000000
-15.311468,-30.116970,-3.019047,0.000000,-0.000000,-1.000000
2.652587,13.685285,-3.019047,0.000000,0.000000,-1.000000
-10.262684,8.118613,-3.019047,0.000000,-0.000000,-1.000000
4.904401,-22.464343,3.019047,0.000000,-0.000000,1.000000
10.343762,9.767802,-3.019047,0.000000,0.000000,-1.000000
10.818411,-26.380243,-3.019047,0.000000,0.000000,-1.000000
21.216467,33.565304,0.279845,0.514103,0.857728,0.000000
-24.511516,-24.428465,3.019047,-0.000000,0.000000,1.000000
-34.447834,11.032318,-3.019047,0.000000,0.000000,-1.000000
-32.648813,22.618109,2.280597,-0.803208,0.595699,0.000000
7.068085,39.083278,1.117385,0.146731,0.989176,0.000000
25.911410,-10.779941,-3.019047,0.000000,-0.000000,-1.000000
-12.370226,-19.246665,-3.019047,0.000000,0.000000,-1.000000
-5.683376,-27.068670,-3.019047,0.000000,-0.000000,-1.000000
-7.894415,33.465823,-3.019047,0.000000,0.000000,-1.000000
9.736351,27.796519,3.019047,0.000000,-0.000000,1.000000
-20.598535,-24.663775,-3.019047,0.000000,0.000000,-1.000000
-39.672889,1.472733,-1.692202,-0.998795,0.049067,0.000000
5.637511,16.815756,-3.019047,0.000000,-0.000000,-1.000000
20.005905,-32.542835,3.019047,0.000000,-0.000000,1.000000
-36.372329,-15.944541,1.429954,-0.903989,-0.427555,-0.000000
5.194150,-18.664330,-3.019047,0.000000,0.000000,-1.000000
-5.126406,11.246624,3.019047,-0.000000,0.000000,1.000000
-16.762232,35.985590,1.980769,-0.427555,0.903989,0.000000
25.503208,-5.524991,-3.019047,0.000000,-0.000000,-1.000000
-17.700169,35.541979,-0.832808,-0.427555,0.903989,0.000000
25.316533,-7.449747,3.019047,-0.000000,0.000000,1.000000
0.948889,-32.917394,1.533971,-0.290282,0.956941,0.000000
-13.428807,29.514780,-3.019047,0.000000,0.000000,-1.000000
24.288497,-28.974046,3.019047,-0.000000,0.000000,1.000000
10.491942,36.631897,3.019047,0.000000,-0.000000,1.000000
1.825097,-26.807963,-3.019047,-0.000000,-0.000000,-1.000000
14.528870,36.963471,0.320210,0.336890,0.941544,0.000000
-8.501326,8.657773,3.019047,-0.000000,0.000000,1.000000
26.279065,6.056312,3.019047,0.000000,-0.000000,1.000000
-8.529235,13.204166,3.019047,-0.000000,0.000000,1.000000
-20.510167,24.778627,-3.019047,0.000000,-0.000000,-1.000000
33.677241,-12.385971,-3.019047,0.000000,-0.000000,-1.000000
-18.763942,10.495528,-3.019047,0.000000,0.000000,-1.000000
-20.509625,8.455127,-3.019047,0.000000,-0.000000,-1.000000
22.379985,29.572093,3.019047,0.000000,-0.000000,1.000000
-39.177661,-6.431806,-2.620404,-0.989176,-0.146731,-0.000000
-7.166573,-39.068668,2.707895,-0.146731,-0.989176,0.000000
9.455048,-38.202441,3.019047,0.000000,-0.000000,1.000000
35.147087,-0.978155,3.019047,-0.000000,0.000000,1.000000
-32.973107,7.670386,-3.019047,0.000000,0.000000,-1.000000
-33.546338,14.297707,-3.019047,0.000000,0.000000,-1.000000
20.036172,33.756878,3.019047,0.000000,-0.000000,1.000000
6.708389,15.077155,-3.019047,0.000000,0.000000,-1.000000
7.747985,-26.452473,-3.019047,0.000000,0.000000,-1.000000
-13.671581,-9.765309,-3.019047,0.000000,0.000000,-1.000000
7.544562,8.961716,-2.502961,-0.634393,-0.773011,0.000000
-9.444114,38.558172,2.114594,-0.242979,0.970031,0.000000
25.971036,-23.410246,3.019047,-0.000000,0.000000,1.000000
20.067425,17.859063,3.019047,0.000000,-0.000000,1.000000
-25.646244,20.535083,3.019047,-0.000000,-0.000000,1.000000
11.745191,-0.255920,-2.819879,-0.995185,0.098017,0.000000
-31.238558,20.039166,-3.019047,0.000000,0.000000,-1.000000
-32.864109,-20.087912,-3.019047,0.000000,0.000000,-1.000000
10.234233,-16.353232,3.019047,-0.000000,-0.000000,1.000000
-26.359494,-12.935450,3.019047,0.000000,-0.000000,1.000000
30.956242,3.048274,-2.550466,-0.290285,-0.956940,0.000000
-14.833187,-0.771330,-3.019047,0.000000,0.000000,-1.000000
-3.092678,30.809862,1.157251,0.956940,-0.290285,0.000000
12.176384,-8.612226,-3.019047,0.000000,-0.000000,-1.000000
23.705330,23.367358,-3.019047,0.000000,0.000000,-1.000000
30.233446,-7.887703,-3.019047,0.000000,-0.000000,-1.000000
-24.431384,31.303998,-1.815083,-0.595699,0.803208,0.000000
-16.778366,25.112358,-3.019047,0.000000,0.000000,-1.000000
-8.475464,37.023065,-3.019047,0.000000,0.000000,-1.000000
30.027406,-8.428365,3.019047,-0.000000,0.000000,1.000000
-22.458332,-6.931679,-3.019047,0.000000,0.000000,-1.000000
7.033246,11.175258,3.019047,0.000000,-0.000000,1.000000
0.768741,-13.343196,-3.019047,0.000000,-0.000000,-1.000000
27.037386,-16.035509,-3.019047,0.000000,-0.000000,-1.000000
12.538189,-6.311917,3.019047,-0.000000,-0.000000,1.000000
-26.295864,-3.425962,3.019047,0.000000,-0.000000,1.000000
-13.598272,10.017059,-3.019047,0.000000,-0.000000,-1.000000
-13.840614,-29.215369,-3.019047,0.000000,-0.000000,-1.000000
-7.892880,16.603530,3.019047,-0.000000,-0.000000,1.000000
-28.693885,8.402236,3.019047,-0.000000,-0.000000,1.000000
-2.684443,-36.995098,-3.019047,0.000000,0.000000,-1.000000
22.793574,-3.396168,3.019047,-0.000000,0.000000,1.000000
15.844966,-6.266956,-3.019047,0.000000,0.000000,-1.000000
-5.556767,-13.076698,-3.019047,0.000000,-0.000000,-1.000000
22.975320,11.918534,-3.019047,0.000000,-0.000000,-1.000000
14.770813,11.831566,3.019047,0.000000,-0.000000,1.000000
21.176985,29.964814,-3.019047,0.000000,0.000000,-1.000000
-15.231280,33.716587,-3.019047,0.000000,0.000000,-1.000000
4.825021,-34.768818,3.019047,0.000000,-0.000000,1.000000
-5.738372,-32.184257,-3.019047,0.000000,-0.000000,-1.000000
-20.671932,3.663693,-3.019047,0.000000,0.000000,-1.000000
-3.110463,37.521611,-3.019047,0.000000,0.000000,-1.000000
-6.112703,-10.014738,-3.012544,0.471397,0.881921,-0.000000
16.439245,18.184563,3.019047,0.000000,-0.000000,1.000000
-29.141698,3.193905,-0.935368,-0.290284,-0.956941,0.000000
-6.759540,-35.261117,-3.019047,0.000000,-0.000000,-1.000000
11.374646,-23.987310,-3.019047,0.000000,0.000000,-1.000000
0.227022,-18.607761,3.019047,0.000000,0.000000,1.000000
-16.554585,-1.786342,-3.019047,0.000000,0.000000,-1.000000
31.686207,-12.300606,3.019047,-0.000000,0.000000,1.000000
-19.164100,-28.775769,3.019047,-0.000000,0.000000,1.000000
-30.488157,-11.664165,-3.019047,0.000000,0.000000,-1.000000
7.043732,21.494973,3.019047,0.000000,-0.000000,1.000000
-19.820523,-33.312333,-3.019047,0.000000,-0.000000,-1.000000
19.934546,-18.783388,-3.019047,0.000000,-0.000000,-1.000000
-36.095518,7.941559,3.019047,-0.000000,-0.000000,1.000000
-0.639086,-11.707453,-1.587902,0.098017,0.995185,-0.000000
-23.938812,14.458762,-3.019047,0.000000,0.000000,-1.000000
29.024446,-21.402795,3.019047,-0.000000,0.000000,1.000000
-13.786485,-16.039386,3.019047,0.000000,-0.000000,1.000000
18.030317,1.288837,3.019047,0.000000,-0.000000,1.000000
-32.305465,23.081061,0.534555,-0.803208,0.595699,0.000000
14.402124,19.367618,-3.019047,0.000000,0.000000,-1.000000
-2.028708,17.015445,-3.019047,0.000000,0.000000,-1.000000
-14.337708,-8.251597,3.019047,0.000000,-0.000000,1.000000
-37.696034,-12.481497,2.402481,-0.941544,-0.336890,0.000000
-17.037966,19.412869,3.019047,-0.000000,-0.000000,1.000000
32.945754,-17.846011,3.019047,-0.000000,0.000000,1.000000
-15.968254,-21.053488,-3.019047,0.000000,-0.000000,-1.000000
-3.201096,-14.016222,-3.019047,0.000000,-0.000000,-1.000000
-29.057872,23.202393,-3.019047,0.000000,0.000000,-1.000000
-19.852932,24.324555,-3.019047,0.000000,-0.000000,-1.000000
-37.985187,11.673368,2.043914,-0.941544,0.336890,0.000000
-31.326541,-24.400987,-1.795628,-0.803208,-0.595699,-0.000000
13.501663,-10.229335,3.019047,-0.000000,-0.000000,1.000000
-8.925186,12.571534,3.019047,-0.000000,-0.000000,1.000000
-2.585161,-39.618239,0.148254,-0.049067,-0.998795,0.000000
-15.820164,31.123919,3.019047,0.000000,0.000000,1.000000
-6.971438,-13.845132,3.019047,0.000000,-0.000000,1.000000
-18.064153,9.978097,3.019047,-0.000000,0.000000,1.000000
22.895127,32.443363,-2.302364,0.595699,0.803208,0.000000
11.748453,-34.512306,-3.019047,0.000000,0.000000,-1.000000
-24.852138,-7.566197,3.019047,0.000000,-0.000000,1.000000
-10.212443,6.337913,-3.019047,0.000000,-0.000000,-1.000000
14.411907,-17.221818,3.019047,-0.000000,-0.000000,1.000000
19.937521,-18.722443,-3.019047,0.000000,-0.000000,-1.000000
18.041029,24.246984,-3.019047,0.000000,0.000000,-1.000000
31.305016,12.192713,3.019047,0.000000,-0.000000,1.000000
27.133463,-1.863040,2.069846,0.773010,0.634394,-0.000000
-27.015923,-29.090420,0.396687,-0.671559,-0.740951,-0.000000
11.442673,2.631088,-1.706614,-0.956940,-0.290285,0.000000
-28.610998,22.022650,-3.019047,0.000000,0.000000,-1.000000
12.798255,-37.582696,-0.933155,0.336890,-0.941544,0.000000
-26.311615,17.476319,3.019047,-0.000000,-0.000000,1.000000
-36.987601,14.461432,0.658531,-0.941544,0.336890,0.000000
13.847761,-22.260452,3.019047,-0.000000,-0.000000,1.000000
28.171340,-5.880857,3.019047,-0.000000,-0.000000,1.000000
34.196694,17.489975,-3.019047,0.000000,0.000000,-1.000000
1.934796,-14.940539,-3.019047,0.000000,-0.000000,-1.000000
-4.347655,-11.126859,3.019047,0.000000,-0.000000,1.000000
-14.362610,33.413500,-3.019047,0.000000,0.000000,-1.000000
6.950184,37.874182,3.019047,0.000000,-0.000000,1.000000
-20.465133,-1.842826,-3.019047,0.000000,0.000000,-1.000000
-17.628046,-35.576091,-2.392390,-0.427555,-0.903989,0.000000
1.576652,16.218332,-3.019047,0.000000,-0.000000,-1.000000
38.724094,8.781715,2.121707,0.970031,0.242979,-0.000000
2.623749,-39.616343,-1.840951,0.049067,-0.998795,0.000000
-11.329006,-15.156058,3.019047,0.000000,-0.000000,1.000000
-36.689137,-6.144679,-3.019047,0.000000,0.000000,-1.000000
20.985438,-31.748752,3.019047,0.000000,-0.000000,1.000000
-4.937520,-21.042517,-3.019047,0.000000,-0.000000,-1.000000
-19.471766,12.731283,3.019047,-0.000000,-0.000000,1.000000
27.411108,-15.012129,-3.019047,0.000000,-0.000000,-1.000000
-4.120222,19.905263,-3.019047,0.000000,0.000000,-1.000000
-39.322572,-3.196098,-3.019047,0.000000,0.000000,-1.000000
38.113038,-1.259336,3.019047,-0.000000,0.000000,1.000000
-28.742562,10.525284,3.019047,-0.000000,-0.000000,1.000000
-24.516570,-4.897033,-3.019047,0.000000,0.000000,-1.000000
19.279187,-25.816328,3.019047,-0.000000,0.000000,1.000000
-33.908339,12.534260,-3.019047,0.000000,0.000000,-1.000000
13.647965,-34.706968,-3.019047,0.000000,0.000000,-1.000000
14.637147,34.052922,-3.019047,0.000000,0.000000,-1.000000
39.689831,1.127875,-1.504106,0.998795,0.049067,0.000000
2.132238,36.881720,-3.019047,0.000000,0.000000,-1.000000
11.386957,-3.837569,3.019047,-0.000000,-0.000000,1.000000
37.031358,14.339139,-2.210719,0.941544,0.336890,0.000000
-11.483313,-38.047381,2.983314,-0.242979,-0.970031,0.000000
24.388460,13.914017,3.019047,0.000000,-0.000000,1.000000
19.136848,-24.404634,-3.019047,0.000000,-0.000000,-1.000000
2.190590,-32.215582,1.835931,-0.634394,0.773010,0.000000
18.434808,-14.562126,3.019047,-0.000000,-0.000000,1.000000
-33.950500,-19.968525,-3.019047,0.000000,0.000000,-1.000000
-26.413783,6.637672,-3.019047,0.000000,0.000000,-1.000000
31.311130,19.890327,-3.019047,0.000000,0.000000,-1.000000
-16.713492,-31.347722,-3.019047,0.000000,-0.000000,-1.000000
22.019991,-0.345314,-3.019047,0.000000,0.000000,-1.000000
-3.728425,31.085744,-3.019047,0.000000,0.000000,-1.000000
-27.898036,17.369757,3.019047,-0.000000,-0.000000,1.000000
15.071058,36.769473,-2.565225,0.336890,0.941544,0.000000
-15.306200,34.018650,-3.019047,0.000000,0.000000,-1.000000
28.617898,22.502162,3.019047,0.000000,-0.000000,1.000000
26.088587,-14.239326,-3.019047,0.000000,-0.000000,-1.000000
-33.787115,5.507568,3.019047,-0.000000,-0.000000,1.000000
30.034577,-14.684006,-3.019047,0.000000,-0.000000,-1.000000
-4.099797,39.523583,-1.330180,-0.146731,0.989176,0.000000
-31.767883,17.163057,3.019047,-0.000000,-0.000000,1.000000
-23.696344,-30.647734,-3.019047,0.000000,-0.000000,-1.000000
17.828376,29.261516,-3.019047,0.000000,0.000000,-1.000000
-38.385657,-1.179945,-3.019047,0.000000,0.000000,-1.000000
28.951198,6.252100,3.019047,0.000000,-0.000000,1.000000
-25.877398,-30.122319,-0.560924,-0.671559,-0.740951,0.000000
-33.330220,-3.220776,-3.019047,0.000000,0.000000,-1.000000
31.592172,20.029820,3.019047,0.000000,-0.000000,1.000000
9.258786,21.038798,-3.019047,0.000000,0.000000,-1.000000
12.074952,18.681524,-3.019047,0.000000,0.000000,-1.000000
-3.622248,30.995166,-3.019047,0.000000,0.000000,-1.000000
22.579741,1.418571,-3.019047,0.000000,0.000000,-1.000000
32.544394,15.211713,3.019047,0.000000,-0.000000,1.000000
27.818557,23.664873,-3.019047,0.000000,0.000000,-1.000000
-27.528380,9.714900,-3.019047,0.000000,0.000000,-1.000000
34.947597,-3.956651,-3.019047,0.000000,-0.000000,-1.000000
22.733573,23.416424,-3.019047,0.000000,0.000000,-1.000000
8.148129,-35.396315,3.019047,0.000000,-0.000000,1.000000
-1.704626,-26.382884,-3.019047,0.000000,0.000000,-1.000000
-11.494218,-2.461167,-2.637577,0.956940,0.290285,-0.000000
-12.123405,-9.494588,-3.019047,0.000000,0.000000,-1.000000
-12.307203,-19.000054,3.019047,-0.000000,0.000000,1.000000
-18.255957,3.385283,3.019047,-0.000000,-0.000000,1.000000
11.700663,-11.523159,-3.019047,0.000000,-0.000000,-1.000000
-10.888961,-4.456428,1.518331,0.956940,0.290285,0.000000
27.528501,2.332925,1.348116,0.634393,-0.773010,0.000000
-9.506295,-11.858747,-3.019047,0.000000,0.000000,-1.000000
-27.804006,-19.317452,3.019047,0.000000,-0.000000,1.000000
-12.294934,10.370384,-3.019047,0.000000,-0.000000,-1.000000
7.028838,-12.323696,3.019047,-0.000000,-0.000000,1.000000
10.393749,5.403624,0.516607,-0.881921,-0.471397,0.000000
-10.708726,4.814343,-1.562864,0.881921,-0.471397,0.000000
28.402907,27.774477,0.882385,0.740951,0.671559,-0.000000
9.381363,-29.314035,3.019047,0.000000,-0.000000,1.000000
-13.872341,-9.297525,3.019047,0.000000,-0.000000,1.000000
9.461195,-22.974741,-3.019047,0.000000,0.000000,-1.000000
7.223599,14.867767,-3.019047,0.000000,0.000000,-1.000000
-10.087421,-5.976723,2.109552,0.881921,0.471397,0.000000
-20.559369,-12.771972,3.019047,0.000000,-0.000000,1.000000
-16.686609,-1.680121,-3.019047,0.000000,0.000000,-1.000000
18.298855,8.198559,-3.019047,0.000000,0.000000,-1.000000
9.719084,35.774515,3.019047,0.000000,-0.000000,1.000000
11.367325,21.794352,-3.019047,0.000000,0.000000,-1.000000
-8.235936,-23.677092,-3.019047,0.000000,-0.000000,-1.000000
33.557458,-21.229557,-0.143689,0.857728,-0.514103,0.000000
-12.493350,-2.909330,3.019047,0.000000,-0.000000,1.000000
-33.070939,-0.038370,1.288767,0.995185,0.098018,-0.000000
18.716410,-0.085988,-3.019047,0.000000,0.000000,-1.000000
-26.150325,29.874952,-0.186534,-0.671559,0.740951,0.000000
-16.865757,31.912940,-3.019047,0.000000,0.000000,-1.000000
-9.918183,-37.769949,3.019047,-0.000000,0.000000,1.000000
-18.326758,-10.464723,-3.019047,0.000000,0.000000,-1.000000
-0.112503,-21.536372,3.019047,-0.000000,0.000000,1.000000
-34.633726,-7.342919,-3.019047,0.000000,0.000000,-1.000000
34.174837,20.199524,1.808394,0.857728,0.514103,-0.000000
-25.215247,2.616799,3.019047,-0.000000,-0.000000,1.000000
22.429253,4.655491,3.019047,0.000000,-0.000000,1.000000
-10.687130,-15.310201,-3.019047,0.000000,-0.000000,-1.000000
8.786031,15.954586,3.019047,0.000000,-0.000000,1.000000
27.578951,-28.580120,1.062392,0.671559,-0.740951,0.000000
-4.856226,-17.918227,3.019047,0.000000,-0.000000,1.000000
-13.899029,-5.532302,3.019047,0.000000,-0.000000,1.000000
-4.427052,-20.197171,3.019047,0.000000,-0.000000,1.000000
-32.968579,0.780155,0.615819,0.956941,-0.290282,0.000000
-36.710624,-1.407373,3.019047,0.000000,-0.000000,1.000000
-14.905405,6.431417,3.019047,-0.000000,-0.000000,1.000000
36.174499,16.362819,-0.747872,0.903989,0.427555,0.000000
-23.231743,12.080658,-3.019047,0.000000,0.000000,-1.000000
0.709713,-20.262904,-3.019047,-0.000000,-0.000000,-1.000000
21.438598,-33.432163,2.407934,0.514103,-0.857728,0.000000
-39.546065,3.948234,0.176024,-0.989176,0.146731,0.000000
-2.780638,-20.457267,-3.019047,0.000000,-0.000000,-1.000000
-10.559994,5.289773,-3.019047,0.000000,-0.000000,-1.000000
1.578517,-18.805274,-3.019047,0.000000,-0.000000,-1.000000
-8.201158,35.754942,-3.019047,0.000000,0.000000,-1.000000
26.791296,1.248322,1.621187,0.956941,-0.290282,0.000000
2.968414,-11.340346,2.251987,-0.290285,0.956940,0.000000
-13.469915,-17.038871,3.019047,0.000000,-0.000000,1.000000
14.691202,-19.719741,3.019047,-0.000000,0.000000,1.000000
-36.970317,11.782033,3.019047,-0.000000,-0.000000,1.000000
24.382614,-10.647678,3.019047,-0.000000,0.000000,1.000000
-25.883711,-20.623970,3.019047,0.000000,-0.000000,1.000000
-16.146162,1.068909,-3.019047,0.000000,-0.000000,-1.000000
36.977270,-14.490306,0.835831,0.941544,-0.336890,0.000000
-5.312088,-24.844914,-3.019047,0.000000,-0.000000,-1.000000
27.864480,3.907656,-3.019047,0.000000,0.000000,-1.000000
10.776340,26.446128,-3.019047,0.000000,-0.000000,-1.000000
-8.974388,-20.195794,3.019047,-0.000000,0.000000,1.000000
-21.445840,23.671189,-3.019047,0.000000,0.000000,-1.000000
20.968763,2.898619,3.019047,0.000000,-0.000000,1.000000
-2.469231,-23.644686,-3.019047,0.000000,0.000000,-1.000000
-11.182238,3.489624,0.191086,0.956940,-0.290285,0.000000
28.299000,-2.878135,-0.987770,0.471397,0.881921,-0.000000
-3.644827,-27.727402,-3.019047,0.000000,-0.000000,-1.000000
1.001705,-26.716486,-1.459233,-0.290282,-0.956941,0.000000
1.351490,35.407058,3.019047,0.000000,-0.000000,1.000000
32.205759,-23.215499,-1.856973,0.803208,-0.595699,0.000000
-29.715097,-9.641298,-3.019047,0.000000,0.000000,-1.000000
34.148099,-19.435051,3.019047,-0.000000,0.000000,1.000000
-21.473464,-9.629435,3.019047,0.000000,-0.000000,1.000000
-5.900562,-32.617557,-3.019047,0.000000,-0.000000,-1.000000
-14.235787,-8.542789,3.019047,0.000000,-0.000000,1.000000
8.639646,-31.187458,3.019047,0.000000,-0.000000,1.000000
-11.299109,30.874525,3.019047,0.000000,0.000000,1.000000
12.585472,25.287242,-3.019047,0.000000,0.000000,-1.000000
-5.173991,-14.834482,-3.019047,0.000000,0.000000,-1.000000
22.495094,-11.305235,-3.019047,0.000000,-0.000000,-1.000000
-17.963479,7.977185,-3.019047,0.000000,0.000000,-1.000000
1.843170,27.117156,-0.286101,-0.634394,0.773010,0.000000
22.906341,15.793039,-3.019047,0.000000,0.000000,-1.000000
39.051135,7.284770,-0.428313,0.989176,0.146731,-0.000000
32.271198,-3.923527,3.019047,-0.000000,0.000000,1.000000
-38.457900,9.844426,-0.522077,-0.970031,0.242979,0.000000
-5.097800,10.557215,2.461073,0.471397,-0.881921,0.000000
29.994168,-18.678039,-3.019047,0.000000,-0.000000,-1.000000
-4.453647,-28.804886,3.019047,-0.000000,0.000000,1.000000
-12.265760,-5.645504,-3.019047,0.000000,0.000000,-1.000000
2.682948,-31.662855,1.142627,-0.773009,0.634395,0.000000
27.751032,-20.717086,3.019047,-0.000000,0.000000,1.000000
35.336106,-18.135452,0.424698,0.903989,-0.427555,0.000000
9.797422,29.218151,-3.019047,0.000000,0.000000,-1.000000
3.533842,-26.067564,-3.019047,0.000000,0.000000,-1.000000
-28.436662,-24.554241,3.019047,-0.000000,0.000000,1.000000
2.699569,-27.975258,-1.227677,-0.773010,-0.634393,0.000000
16.949068,-26.510910,3.019047,-0.000000,-0.000000,1.000000
-22.363639,21.960276,-3.019047,0.000000,0.000000,-1.000000
17.128291,24.706244,-3.019047,0.000000,0.000000,-1.000000
10.827928,38.211546,-1.909710,0.242979,0.970031,0.000000
-2.948716,-33.429880,3.019047,0.000000,-0.000000,1.000000
-20.015372,26.034332,-3.019047,0.000000,0.000000,-1.000000
-20.567794,-27.281911,3.019047,-0.000000,0.000000,1.000000
13.730675,-20.906826,-3.019047,0.000000,0.000000,-1.000000
20.925823,-14.162206,3.019047,-0.000000,0.000000,1.000000
13.144094,-31.907289,-3.019047,0.000000,0.000000,-1.000000
-0.999192,16.309765,-3.019047,0.000000,0.000000,-1.000000
26.323456,-28.693063,3.019047,-0.000000,0.000000,1.000000
19.036253,34.872075,-0.284512,0.514103,0.857728,-0.000000
32.502233,-1.841306,0.946659,-0.773010,0.634394,0.000000
-4.796896,-16.827807,3.019047,0.000000,-0.000000,1.000000
-38.616472,-3.245629,-3.019047,0.000000,0.000000,-1.000000
-1.480682,20.408511,-3.019047,0.000000,0.000000,-1.000000
6.889806,-16.551852,-3.019047,0.000000,0.000000,-1.000000
29.336634,-3.219273,0.975102,0.098017,0.995185,-0.000000
1.503955,-35.453265,3.019047,0.000000,0.000000,1.000000
-15.317215,-20.870545,-3.019047,0.000000,-0.000000,-1.000000
-31.168074,-5.410169,-3.019047,0.000000,0.000000,-1.000000
26.689762,-2.081779,-3.019047,-0.000000,-0.000000,-1.000000
-19.304311,-23.113910,-3.019047,0.000000,0.000000,-1.000000
0.074830,22.416741,3.019047,0.000000,-0.000000,1.000000
30.667432,-4.185603,-3.019047,0.000000,-0.000000,-1.000000
-36.116925,4.558787,3.019047,-0.000000,-0.000000,1.000000
-1.001470,39.696040,1.356251,-0.049067,0.998795,0.000000
-39.672325,1.484210,-0.791032,-0.998795,0.049067,0.000000
29.262811,-12.822478,3.019047,-0.000000,0.000000,1.000000
6.898762,-9.491710,-2.009645,-0.634393,0.773011,0.000000
27.113050,-2.057393,3.019047,-0.000000,-0.000000,1.000000
-39.695126,-1.020083,1.720631,-0.998795,-0.049067,0.000000
-2.276424,-13.998026,3.019047,-0.000000,0.000000,1.000000
1.529034,-37.667337,-3.019047,0.000000,0.000000,-1.000000
17.369329,-33.775409,3.019047,0.000000,-0.000000,1.000000
39.423948,4.771478,2.546725,0.989176,0.146731,-0.000000
-25.685034,-28.772030,-3.019047,0.000000,0.000000,-1.000000
31.399778,13.551423,-3.019047,0.000000,0.000000,-1.000000
-9.396287,-11.750711,-3.019047,0.000000,0.000000,-1.000000
-15.512643,-1.946376,3.019047,0.000000,-0.000000,1.000000
5.827609,-14.156719,3.019047,0.000000,0.000000,1.000000
-38.009236,5.931919,-3.019047,0.000000,0.000000,-1.000000
2.560364,-31.812224,0.347855,-0.773009,0.634395,0.000000
-1.954828,23.849648,-3.019047,0.000000,0.000000,-1.000000
4.764235,31.605831,3.019047,0.000000,-0.000000,1.000000
22.006228,33.091939,-2.939485,0.514103,0.857728,0.000000
-4.836159,28.029532,3.019047,0.000000,0.000000,1.000000
24.247557,1.589957,3.019047,0.000000,0.000000,1.000000
4.240469,33.579113,3.019047,0.000000,-0.000000,1.000000
-22.371746,5.010176,-3.019047,0.000000,0.000000,-1.000000
33.619723,2.188383,3.019047,-0.000000,0.000000,1.000000
-5.362978,-33.957153,-3.019047,0.000000,-0.000000,-1.000000
17.762617,-35.512443,1.181575,0.427555,-0.903989,0.000000
22.859509,23.226137,3.019047,0.000000,-0.000000,1.000000
-16.330959,21.700285,3.019047,-0.000000,-0.000000,1.000000
-11.269259,-3.202755,1.100420,0.956940,0.290285,0.000000
1.541583,33.427741,3.019047,-0.000000,0.000000,1.000000
-12.035976,-24.836354,-3.019047,0.000000,-0.000000,-1.000000
2.305206,11.541528,2.036947,-0.290285,-0.956940,0.000000
16.045870,33.446827,-3.019047,0.000000,0.000000,-1.000000
5.578834,-10.485990,-3.019047,0.000000,0.000000,-1.000000
0.242928,12.448181,-3.019047,0.000000,-0.000000,-1.000000
28.852537,24.873234,-3.019047,0.000000,0.000000,-1.000000
10.287896,33.239870,3.019047,0.000000,-0.000000,1.000000
4.262323,37.930084,3.019047,0.000000,-0.000000,1.000000
-35.949880,-16.837735,-2.957241,-0.903989,-0.427555,-0.000000
27.242093,-1.995407,-1.160026,0.773010,0.634394,-0.000000
-21.380171,18.443452,3.019047,-0.000000,-0.000000,1.000000
-7.038126,15.196198,-3.019047,0.000000,0.000000,-1.000000
30.236222,-25.751726,0.740833,0.740951,-0.671559,0.000000
-16.391076,10.469186,3.019047,-0.000000,-0.000000,1.000000
-7.463422,-11.403205,-3.019047,0.000000,0.000000,-1.000000
1.712209,27.038915,0.167897,-0.471398,0.881921,0.000000
-1.995164,-39.647224,-0.666036,-0.049067,-0.998795,0.000000
-4.297904,-10.995122,3.019047,0.000000,-0.000000,1.000000
-38.716211,-8.813185,2.285764,-0.970031,-0.242979,0.000000
18.941691,-34.928753,0.762562,0.514103,-0.857728,0.000000
-24.739998,-15.061087,3.019047,0.000000,-0.000000,1.000000
-9.320025,16.898967,-3.019047,0.000000,0.000000,-1.000000
-24.172175,31.496240,-0.537093,-0.595699,0.803208,0.000000
-25.343997,-17.981457,-3.019047,0.000000,0.000000,-1.000000
-10.857311,25.687047,3.019047,0.000000,0.000000,1.000000
-27.674046,14.766995,3.019047,-0.000000,0.000000,1.000000
-26.081084,-10.013313,-3.019047,0.000000,0.000000,-1.000000
5.019809,12.879883,3.019047,0.000000,-0.000000,1.000000
15.345908,-7.981976,-3.019047,0.000000,-0.000000,-1.000000
27.973526,26.075992,-3.019047,0.000000,0.000000,-1.000000
18.740757,-16.750004,-3.019047,0.000000,-0.000000,-1.000000
-21.895668,11.522562,-3.019047,0.000000,0.000000,-1.000000
22.086913,11.827979,-3.019047,0.000000,-0.000000,-1.000000
-14.151738,15.132320,-3.019047,0.000000,0.000000,-1.000000
3.790785,20.751470,-3.019047,0.000000,0.000000,-1.000000
-17.930775,23.215764,3.019047,-0.000000,-0.000000,1.000000
-22.571956,-32.683043,-2.685439,-0.595699,-0.803208,0.000000
-23.154722,13.365282,-3.019047,0.000000,0.000000,-1.000000
10.991646,-32.361898,3.019047,0.000000,-0.000000,1.000000
1.429286,-26.887690,-0.351124,-0.471398,-0.881921,0.000000
27.449540,12.784354,3.019047,0.000000,-0.000000,1.000000
-34.436726,-9.190629,3.019047,0.000000,-0.000000,1.000000
11.663351,33.127510,-3.019047,0.000000,0.000000,-1.000000
-8.452935,8.928643,3.019047,-0.000000,0.000000,1.000000
11.532001,18.073193,3.019047,0.000000,-0.000000,1.000000
-8.437541,-22.210567,3.019047,-0.000000,0.000000,1.000000
10.261384,31.536603,-3.019047,0.000000,0.000000,-1.000000
27.482937,-10.749225,3.019047,-0.000000,0.000000,1.000000
17.791782,15.312700,3.019047,0.000000,-0.000000,1.000000
-11.922318,13.968053,3.019047,-0.000000,0.000000,1.000000
11.133808,27.508745,3.019047,0.000000,-0.000000,1.000000
-23.264601,0.839137,3.019047,-0.000000,-0.000000,1.000000
-25.152514,3.345251,3.019047,-0.000000,-0.000000,1.000000
15.250765,36.700460,0.615313,0.427555,0.903989,-0.000000
0.726745,-25.648406,3.019047,0.000000,0.000000,1.000000
4.671096,-39.438839,-1.163411,0.146731,-0.989176,0.000000
-13.718441,24.407631,3.019047,-0.000000,-0.000000,1.000000
30.845111,-21.548185,-3.019047,0.000000,-0.000000,-1.000000
-22.100325,9.782439,3.019047,-0.000000,-0.000000,1.000000
22.218015,8.733684,-3.019047,0.000000,0.000000,-1.000000
-7.501671,-39.018961,-2.471956,-0.146731,-0.989176,0.000000
26.728060,-29.333195,-3.019047,0.000000,-0.000000,-1.000000
-20.649418,33.905180,-1.618704,-0.514103,0.857728,0.000000
14.284772,37.050811,-1.922373,0.336890,0.941544,0.000000
29.885185,23.873049,3.019047,0.000000,-0.000000,1.000000
31.782784,23.785815,-0.805180,0.803208,0.595699,0.000000
28.370760,23.320226,3.019047,0.000000,-0.000000,1.000000
25.134076,-11.213805,-3.019047,0.000000,-0.000000,-1.000000
30.418751,3.205728,-1.069014,-0.098017,-0.995185,0.000000
-29.745781,18.638316,-3.019047,0.000000,0.000000,-1.000000
-20.540311,25.939253,3.019047,-0.000000,-0.000000,1.000000
-20.832383,4.419481,3.019047,-0.000000,0.000000,1.000000
2.670937,-27.940370,0.360680,-0.773010,-0.634393,0.000000
-35.877714,16.990318,-0.043208,-0.903989,0.427555,0.000000
21.772757,-22.502518,3.019047,-0.000000,0.000000,1.000000
10.710672,-13.852858,3.019047,-0.000000,-0.000000,1.000000
-26.260335,12.402728,3.019047,-0.000000,-0.000000,1.000000
33.517083,-21.057476,-3.019047,0.000000,-0.000000,-1.000000
6.765545,24.375619,-3.019047,0.000000,0.000000,-1.000000
-14.955272,15.684956,-3.019047,0.000000,0.000000,-1.000000
-3.582762,31.505883,3.019047,0.000000,0.000000,1.000000
-18.055017,2.077820,3.019047,-0.000000,0.000000,1.000000
24.037090,-15.328759,-3.019047,0.000000,0.000000,-1.000000
-18.168566,-20.177096,3.019047,0.000000,-0.000000,1.000000
10.285807,11.956778,-3.019047,0.000000,-0.000000,-1.000000
-17.618983,5.875693,-3.019047,0.000000,-0.000000,-1.000000
-11.706017,5.386170,-3.019047,0.000000,-0.000000,-1.000000
-13.029013,-36.551002,3.019047,-0.000000,0.000000,1.000000
1.261264,11.646174,2.805879,-0.098017,-0.995185,0.000000
-22.685786,-7.652058,-3.019047,0.000000,0.000000,-1.000000
15.763508,-0.391480,3.019047,0.000000,0.000000,1.000000
-4.210987,39.507090,-1.074735,-0.146731,0.989176,0.000000
9.861227,-33.003799,3.019047,0.000000,-0.000000,1.000000
-22.834917,-21.609338,3.019047,-0.000000,0.000000,1.000000
-4.957823,15.805118,-3.019047,0.000000,0.000000,-1.000000
29.509378,19.925739,3.019047,0.000000,-0.000000,1.000000
-5.609285,28.728702,-3.019047,0.000000,0.000000,-1.000000
10.347820,-5.489550,-0.823164,-0.881921,0.471397,0.000000
-15.482307,-32.524469,3.019047,-0.000000,0.000000,1.000000
1.698221,32.586420,-2.306784,-0.471398,-0.881921,0.000000
32.516264,-22.796832,-0.741594,0.803208,-0.595699,0.000000
-14.123313,-15.595608,3.019047,0.000000,-0.000000,1.000000
-2.442256,-31.956138,-2.273884,0.773009,0.634395,-0.000000
-11.675917,0.959276,-0.993476,0.995185,-0.098017,0.000000
-10.062736,-30.235686,3.019047,-0.000000,0.000000,1.000000
-15.280574,-20.328342,3.019047,-0.000000,0.000000,1.000000
24.995043,-1.860045,-3.019047,-0.000000,-0.000000,-1.000000
-17.409577,12.367587,-3.019047,0.000000,0.000000,-1.000000
-14.122375,16.266157,-3.019047,0.000000,-0.000000,-1.000000
-16.834065,8.233299,-3.019047,0.000000,0.000000,-1.000000
-24.386063,-10.918210,3.019047,0.000000,-0.000000,1.000000
-30.509876,-21.230115,-3.019047,0.000000,0.000000,-1.000000
-14.846512,-16.365886,-3.019047,0.000000,0.000000,-1.000000
-34.364395,18.615576,-3.019047,0.000000,0.000000,-1.000000
-13.453403,-17.712613,-3.019047,0.000000,-0.000000,-1.000000
-20.765007,-22.775883,-3.019047,0.000000,0.000000,-1.000000
-8.700111,38.744535,2.384191,-0.242979,0.970031,0.000000
7.400758,-9.079733,0.114872,-0.634393,0.773011,0.000000
-29.351868,-20.139027,3.019047,0.000000,-0.000000,1.000000
2.959326,37.828424,3.019047,0.000000,-0.000000,1.000000
9.500160,6.888465,-2.088202,-0.773011,-0.634393,0.000000
-1.322404,-25.729527,3.019047,-0.000000,0.000000,1.000000
25.014942,-4.554919,3.019047,-0.000000,0.000000,1.000000
11.300740,-3.098977,2.241336,-0.956940,0.290285,0.000000
9.730418,32.895986,-3.019047,0.000000,0.000000,-1.000000
25.953791,-20.356091,-3.019047,0.000000,-0.000000,-1.000000
-10.487302,-32.221377,3.019047,-0.000000,0.000000,1.000000
-32.472440,-20.024011,-3.019047,0.000000,0.000000,-1.000000
17.379955,3.645445,-3.019047,0.000000,0.000000,-1.000000
18.408836,-4.307515,-3.019047,0.000000,-0.000000,-1.000000
-22.696387,-20.288175,-3.019047,0.000000,-0.000000,-1.000000
14.097624,37.117774,1.814367,0.336890,0.941544,-0.000000
-5.856661,-31.630857,3.019047,-0.000000,0.000000,1.000000
-18.004554,35.344148,-3.019047,0.000000,0.000000,-1.000000
9.156776,23.832824,-3.019047,0.000000,-0.000000,-1.000000
33.237649,-6.271303,3.019047,-0.000000,0.000000,1.000000
31.210061,7.336323,3.019047,0.000000,-0.000000,1.000000
20.411536,11.870528,-3.019047,0.000000,0.000000,-1.000000
11.572136,-24.410430,-3.019047,0.000000,0.000000,-1.000000
-25.905462,-6.858067,-3.019047,0.000000,0.000000,-1.000000
-20.664281,31.540204,-3.019047,0.000000,0.000000,-1.000000
-22.592133,0.679355,-3.019047,0.000000,0.000000,-1.000000
21.854842,-17.081358,-3.019047,0.000000,-0.000000,-1.000000
8.156101,-31.546567,-3.019047,0.000000,0.000000,-1.000000
-38.446887,-5.595410,3.019047,0.000000,-0.000000,1.000000
30.562928,3.167585,-1.759409,-0.290285,-0.956940,0.000000
-36.593957,5.491591,3.019047,-0.000000,-0.000000,1.000000
27.856075,17.941959,3.019047,0.000000,-0.000000,1.000000
-27.210566,8.694924,3.019047,-0.000000,-0.000000,1.000000
-39.693714,-1.048831,1.150295,-0.998795,-0.049067,-0.000000
16.591971,-35.953653,3.019047,0.000000,-0.000000,1.000000
-28.027210,2.732860,-2.825883,-0.471397,-0.881921,0.000000
-16.885820,2.321765,3.019047,-0.000000,-0.000000,1.000000
-28.592785,-18.780768,3.019047,0.000000,-0.000000,1.000000
16.575186,-35.328800,3.019047,0.000000,-0.000000,1.000000
5.597279,-22.385035,3.019047,0.000000,-0.000000,1.000000
15.708528,-19.086194,3.019047,-0.000000,-0.000000,1.000000
-4.724453,13.231606,-3.019047,0.000000,0.000000,-1.000000
11.535395,-4.153045,3.019047,-0.000000,-0.000000,1.000000
-13.001141,-37.510102,1.436906,-0.336890,-0.941544,0.000000
0.861171,-26.673855,-3.003559,-0.290282,-0.956941,0.000000
16.610979,-36.057128,0.881173,0.427555,-0.903989,0.000000
19.603270,2.663350,-3.019047,0.000000,-0.000000,-1.000000
-26.381734,-29.665215,-1.055239,-0.671559,-0.740951,-0.000000
30.613362,-18.777184,-3.019047,0.000000,-0.000000,-1.000000
-28.665625,-17.215247,-3.019047,0.000000,0.000000,-1.000000
-11.587353,1.858481,2.344572,0.995185,-0.098017,0.000000
19.835463,-8.641129,3.019047,-0.000000,0.000000,1.000000
16.340315,-4.826098,3.019047,-0.000000,-0.000000,1.000000
-23.960517,-4.849171,-3.019047,0.000000,0.000000,-1.000000
-28.085450,-3.340349,3.019047,0.000000,-0.000000,1.000000
29.884368,-3.258360,-2.993337,-0.098017,0.995185,0.000000
-23.701947,-5.079189,3.019047,0.000000,-0.000000,1.000000
20.167817,-28.780263,-3.019047,0.000000,-0.000000,-1.000000
2.142730,-25.228809,3.019047,-0.000000,-0.000000,1.000000
-8.325299,33.231718,-3.019047,0.000000,0.000000,-1.000000
-7.031581,-23.578538,-3.019047,0.000000,-0.000000,-1.000000
-29.581576,-26.474016,2.359473,-0.740951,-0.671559,0.000000
0.645620,-21.073648,3.019047,0.000000,0.000000,1.000000
-1.734522,14.063398,-3.019047,0.000000,0.000000,-1.000000
-3.529968,-27.892848,-3.019047,0.000000,-0.000000,-1.000000
-33.738782,-19.924626,3.019047,0.000000,-0.000000,1.000000
25.221091,20.296272,3.019047,0.000000,-0.000000,1.000000
31.729820,-14.469541,-3.019047,0.000000,-0.000000,-1.000000
14.567638,-1.036394,-3.019047,0.000000,0.000000,-1.000000
14.376368,29.494223,-3.019047,0.000000,0.000000,-1.000000
-39.607023,-2.813465,2.404470,-0.998795,-0.049067,0.000000
23.249348,-32.180655,0.836287,0.595699,-0.803208,0.000000
19.792460,26.046805,-3.019047,0.000000,0.000000,-1.000000
-8.637276,-38.760274,-1.698010,-0.242979,-0.970031,0.000000
-30.705745,6.869907,3.019047,-0.000000,-0.000000,1.000000
-34.069206,5.544998,3.019047,-0.000000,-0.000000,1.000000
-31.754773,-23.823583,1.473100,-0.803208,-0.595699,0.000000
33.444876,17.482223,-3.019047,0.000000,0.000000,-1.000000
-24.622396,31.162333,2.843646,-0.595699,0.803208,0.000000
16.479671,-25.985195,3.019047,0.000000,-0.000000,1.000000
-20.274551,18.665382,3.019047,-0.000000,-0.000000,1.000000
-24.420558,14.774068,3.019047,-0.000000,-0.000000,1.000000
3.253209,29.936666,-1.108481,-0.995185,-0.098017,0.000000
-20.615909,-8.966972,-3.019047,0.000000,0.000000,-1.000000
21.981553,18.714685,3.019047,0.000000,-0.000000,1.000000
16.238900,30.880609,-3.019047,0.000000,0.000000,-1.000000
16.521185,-23.015016,3.019047,-0.000000,0.000000,1.000000
-28.115094,-2.944849,3.019047,0.000000,-0.000000,1.000000
-0.071988,26.550231,-1.367982,0.098018,0.995185,0.000000
-10.744917,19.820539,-3.019047,0.000000,0.000000,-1.000000
-18.018329,18.300729,3.019047,-0.000000,-0.000000,1.000000
12.146843,-37.815775,-2.536144,0.336890,-0.941544,0.000000
-11.413116,-2.728524,0.927183,0.956940,0.290285,-0.000000
-22.609733,-23.287178,3.019047,0.000000,-0.000000,1.000000
30.977600,-3.041796,-1.322270,-0.290285,0.956940,0.000000
-13.073989,-13.185827,-3.019047,0.000000,0.000000,-1.000000
21.714779,-8.515274,3.019047,-0.000000,0.000000,1.000000
-6.658547,19.735776,3.019047,0.000000,-0.000000,1.000000
33.652519,21.070958,-2.152392,0.857728,0.514103,0.000000
30.762290,-18.789864,-3.019047,0.000000,-0.000000,-1.000000
-20.683939,-14.388743,3.019047,0.000000,-0.000000,1.000000
-9.285094,22.189738,3.019047,0.000000,0.000000,1.000000
-18.719352,-0.917004,-3.019047,0.000000,0.000000,-1.000000
27.039848,-6.168189,-3.019047,0.000000,-0.000000,-1.000000
26.849379,22.584039,-3.019047,0.000000,0.000000,-1.000000
16.400003,-3.305414,-3.019047,0.000000,-0.000000,-1.000000
7.328812,12.694819,3.019047,0.000000,-0.000000,1.000000
3.096443,-18.305983,3.019047,0.000000,-0.000000,1.000000
3.415584,-14.290977,-3.019047,0.000000,0.000000,-1.000000
1.523749,11.620321,0.834653,-0.098017,-0.995185,0.000000
25.753327,12.915076,3.019047,0.000000,-0.000000,1.000000
17.685625,15.572202,3.019047,0.000000,-0.000000,1.000000
-12.672198,29.249953,-3.019047,0.000000,0.000000,-1.000000
38.307947,7.018983,3.019047,0.000000,-0.000000,1.000000
35.692458,5.424510,-3.019047,0.000000,0.000000,-1.000000
0.598177,-39.715853,-0.550085,0.049067,-0.998795,0.000000
-13.986618,0.460635,3.019047,-0.000000,0.000000,1.000000
-9.867857,-36.394448,-3.019047,0.000000,-0.000000,-1.000000
-10.228757,23.188362,3.019047,0.000000,0.000000,1.000000
-29.380915,3.223634,1.284456,-0.098017,-0.995185,0.000000
31.934734,21.838543,-3.019047,0.000000,0.000000,-1.000000
-6.270522,39.201585,-2.507697,-0.146731,0.989176,0.000000
33.466801,21.380809,-1.443279,0.857728,0.514103,-0.000000
3.993848,-35.105433,3.019047,0.000000,-0.000000,1.000000
-34.542386,1.066492,3.019047,0.000000,-0.000000,1.000000
-3.761208,-24.804383,3.019047,-0.000000,0.000000,1.000000
13.327282,5.259094,3.019047,0.000000,-0.000000,1.000000
-10.494280,-38.295121,0.443868,-0.242979,-0.970031,0.000000
-39.600287,-2.950585,-1.774785,-0.998795,-0.049067,-0.000000
35.384955,17.550961,-3.019047,0.000000,0.000000,-1.000000
2.624446,31.734140,0.733758,-0.773009,-0.634395,0.000000
15.553700,-19.179551,-3.019047,0.000000,0.000000,-1.000000
-10.157661,-27.205534,3.019047,-0.000000,0.000000,1.000000
38.953897,6.376712,-3.019047,0.000000,0.000000,-1.000000
-11.436466,13.647739,3.019047,-0.000000,0.000000,1.000000
-26.101368,-14.206169,-3.019047,0.000000,0.000000,-1.000000
24.323127,-9.777764,3.019047,-0.000000,0.000000,1.000000
29.634673,-21.311966,-3.019047,0.000000,-0.000000,-1.000000
-11.444097,-2.626392,-0.791692,0.956940,0.290285,-0.000000
-1.374631,33.688375,3.019047,0.000000,-0.000000,1.000000
-14.159642,37.095583,0.240897,-0.336890,0.941544,0.000000
11.746031,-0.247389,0.408333,-0.995185,0.098017,0.000000
-5.722022,-29.838340,3.019047,-0.000000,0.000000,1.000000
8.801048,-21.054688,3.019047,0.000000,-0.000000,1.000000
27.913603,6.806924,3.019047,0.000000,-0.000000,1.000000
37.733971,12.375470,-0.013495,0.941544,0.336890,0.000000
-24.586414,-27.538846,-3.019047,0.000000,0.000000,-1.000000
22.481260,30.245012,-3.019047,0.000000,0.000000,-1.000000
17.214661,2.177729,3.019047,0.000000,-0.000000,1.000000
-17.909046,-33.000077,-3.019047,0.000000,-0.000000,-1.000000
39.705099,-0.817083,0.681097,0.998795,-0.049067,0.000000
30.088006,-14.426080,3.019047,-0.000000,0.000000,1.000000
-26.346073,-29.265949,3.019047,0.000000,-0.000000,1.000000
-8.743474,-33.935065,-3.019047,0.000000,-0.000000,-1.000000
-14.557534,24.059061,3.019047,-0.000000,-0.000000,1.000000
-11.414913,2.722601,0.806735,0.956940,-0.290285,0.000000
-13.655504,-6.910162,-3.019047,0.000000,0.000000,-1.000000
-7.703772,33.445994,3.019047,0.000000,0.000000,1.000000
1.545812,34.065833,3.019047,-0.000000,0.000000,1.000000
13.157463,-23.775898,-3.019047,0.000000,0.000000,-1.000000
7.547404,-39.012177,1.320494,0.146731,-0.989176,0.000000
33.975544,-3.649232,-3.019047,0.000000,-0.000000,-1.000000
-16.494788,3.570230,3.019047,-0.000000,0.000000,1.000000
-20.871785,18.596231,-3.019047,0.000000,0.000000,-1.000000
9.882340,-18.012345,3.019047,0.000000,-0.000000,1.000000
-13.075675,36.224567,-3.019047,0.000000,0.000000,-1.000000
4.010363,-15.305049,3.019047,0.000000,-0.000000,1.000000
-38.409271,8.067093,-3.019047,0.000000,0.000000,-1.000000
-1.079522,-39.692206,-2.060614,-0.049067,-0.998795,0.000000
36.037671,16.652117,-0.649319,0.903989,0.427555,0.000000
-14.713839,-29.939874,-3.019047,0.000000,-0.000000,-1.000000
-24.332263,8.946335,3.019047,-0.000000,-0.000000,1.000000
20.321157,26.362179,-3.019047,0.000000,0.000000,-1.000000
-16.204939,-22.295678,-3.019047,0.000000,-0.000000,-1.000000
-28.512547,27.653507,0.454278,-0.740951,0.671559,0.000000
-13.870347,-34.865908,-3.019047,0.000000,-0.000000,-1.000000
-5.759701,29.190693,-3.019047,0.000000,0.000000,-1.000000
22.697642,14.523795,3.019047,-0.000000,0.000000,1.000000
-31.228698,-11.207220,3.019047,0.000000,-0.000000,1.000000
3.290966,-23.020203,-3.019047,0.000000,0.000000,-1.000000
32.434415,-15.185910,-3.019047,0.000000,-0.000000,-1.000000
-1.274514,32.812897,-1.382290,0.471398,-0.881921,0.000000
-34.727637,-3.599341,3.019047,0.000000,-0.000000,1.000000
-20.984945,-1.231224,-3.019047,0.000000,0.000000,-1.000000
33.574040,-21.201891,0.666617,0.857728,-0.514103,0.000000
38.397490,-10.085597,2.671451,0.970031,-0.242979,0.000000
-4.624823,14.108468,-3.019047,0.000000,0.000000,-1.000000
-16.803388,17.890725,-3.019047,0.000000,0.000000,-1.000000
11.743173,37.476676,3.019047,0.000000,-0.000000,1.000000
6.744176,-39.131325,1.174642,0.146731,-0.989176,0.000000
12.026261,36.734797,-3.019047,0.000000,0.000000,-1.000000
-35.911990,-16.767498,3.019047,0.000000,-0.000000,1.000000
-24.903089,-2.726278,-3.019047,0.000000,0.000000,-1.000000
29.295495,25.501731,-3.019047,0.000000,0.000000,-1.000000
