x,y,z,nx,ny,nz
0.198526,0.079776,0.032130,-0.834995,0.533405,-0.135139
0.208591,-0.121519,0.119568,-0.505753,-0.812508,-0.289906
0.081462,-0.086749,0.442005,0.147645,-0.580025,0.801107
0.013053,0.124473,0.410325,0.017627,0.832255,0.554113
0.172433,-0.016566,0.047952,-0.957512,-0.110767,-0.266275
0.206508,-0.141266,0.186862,-0.243506,-0.944540,-0.220340
0.273085,-0.141420,0.056880,-0.318587,-0.945568,-0.066357
0.184267,-0.077287,0.076648,-0.790472,-0.516759,-0.328807
0.043251,0.100603,0.212593,-0.147519,0.672654,-0.725104
0.002790,-0.110336,0.226632,-0.008310,-0.737733,-0.675042
0.385662,-0.135714,0.061067,0.415059,-0.907417,0.065722
0.165336,-0.040326,0.079820,-0.867192,-0.269631,-0.418660
0.363917,-0.039619,0.300320,0.743726,-0.264904,0.613756
0.055871,-0.134415,0.389209,0.062308,-0.898733,0.434046
0.315459,0.139569,0.214302,0.297273,0.933191,0.201948
0.369921,-0.060139,0.281013,0.729081,-0.402107,0.553850
0.100294,0.026651,0.150011,-0.546905,0.178196,-0.818011
0.313992,0.149388,0.116195,0.045052,0.998846,0.016672
0.098961,0.117311,0.408574,0.146018,0.784373,0.602857
-0.046361,0.022298,0.326576,-0.079644,0.000000,0.996823
0.104947,0.108694,0.198894,-0.320555,0.726754,-0.607514
0.021427,0.066314,0.192372,-0.099223,0.443393,-0.890818
0.221629,-0.089606,0.388606,0.396653,-0.599128,0.695494
0.083533,-0.003741,0.157299,-0.468869,-0.025014,-0.882914
-0.034680,-0.040693,0.470258,-0.070772,-0.272080,0.959668
0.369983,-0.084033,0.258493,0.678119,-0.561864,0.473775
0.097624,0.030189,0.152575,-0.527866,0.201853,-0.824993
0.012417,0.089544,0.207453,-0.047855,0.598714,-0.799532
-0.002277,0.095708,0.212677,0.008225,0.639927,-0.768391
0.178176,0.137757,0.202037,-0.257552,0.921075,-0.292041
0.082006,-0.137953,0.257083,-0.117387,-0.922386,-0.368001
0.405073,-0.121797,0.087497,0.567273,-0.814363,0.122533
0.040615,0.014771,0.474712,0.084829,0.098766,0.991488
0.296047,0.028296,0.370788,0.612677,0.189192,0.767355
0.186349,-0.051415,0.017528,-0.934925,-0.343775,-0.087940
0.473654,-0.005791,0.056953,0.992104,-0.038718,0.119292
0.254167,0.024741,0.000000,1.000000,0.000000,0.000000
0.359854,-0.128912,0.182410,0.452230,-0.861940,0.229235
0.072953,-0.092295,0.196847,-0.273449,-0.617107,-0.737838
0.221027,0.124526,0.105190,-0.500108,0.832613,-0.238008
0.012502,-0.143274,0.284435,-0.012597,-0.957965,-0.286607
0.058477,0.036693,0.326576,-0.079644,0.000000,0.996823
0.334202,-0.086813,0.300453,0.605555,-0.580455,0.544404
0.012590,0.139046,0.272238,-0.017015,0.929696,-0.367935
0.370409,0.074440,0.268241,0.702479,0.497726,0.508716
0.468427,0.001182,0.000000,1.000000,0.000000,0.000000
0.298689,-0.124298,0.282024,0.404374,-0.831084,0.381813
0.215464,0.111085,0.369532,0.337269,0.742740,0.578435
0.076658,-0.148454,0.299808,-0.030085,-0.992598,-0.117661
0.100153,-0.005132,0.147325,-0.561872,-0.034312,-0.826513
0.186679,-0.130737,0.173681,-0.355579,-0.874140,-0.330821
0.120389,0.141781,0.252805,-0.136866,0.947979,-0.287407
0.178974,0.073142,0.082709,-0.791797,0.489045,-0.365913
0.325761,-0.149057,0.096950,0.078600,-0.996632,0.023392
0.471210,-0.036423,0.037182,0.966886,-0.243536,0.076295
0.115672,0.130477,0.383663,0.141095,0.872399,0.467987
0.077756,0.065059,0.176587,-0.362864,0.435000,-0.824078
0.242762,-0.127806,0.059461,-0.504467,-0.854544,-0.123563
-0.014266,-0.080156,0.200843,0.059817,-0.535941,-0.842134
0.174799,0.034906,0.051354,-0.932954,0.233390,-0.274092
0.422132,-0.059773,0.194329,0.832670,-0.399657,0.383320
0.144813,0.147698,0.319896,0.064883,0.987546,0.143329
0.418285,0.093704,0.149455,0.733953,0.626531,0.262244
0.050542,-0.015323,0.171553,-0.281118,-0.102451,-0.954189
0.110155,0.055272,0.153142,-0.542590,0.369560,-0.754335
0.091327,-0.092558,0.189254,-0.341380,-0.618867,-0.707434
0.331360,0.149437,0.039350,0.040315,0.999176,0.004788
0.372398,-0.141741,0.046929,0.316610,-0.947716,0.039898
0.241773,-0.042430,0.404250,0.492194,-0.283696,0.822959
0.246553,0.125720,0.005060,-0.541554,0.840593,-0.011114
0.138044,-0.108425,0.177170,-0.423347,-0.724957,-0.543336
0.180936,-0.051049,0.047386,-0.909278,-0.341329,-0.238133
-0.006470,0.091862,0.209492,0.024362,0.614210,-0.788767
0.011871,-0.135142,0.263278,-0.019297,-0.903591,-0.427962
0.206257,0.142827,0.194127,-0.216048,0.954974,-0.203342
0.336900,-0.072837,0.310621,0.642123,-0.487003,0.592035
0.130406,0.116716,0.400437,0.193623,0.780392,0.594557
0.260950,-0.044880,0.391246,0.529304,-0.300077,0.793593
0.227036,0.113423,0.359398,0.348119,0.758376,0.551071
0.200764,0.081839,0.025945,-0.830103,0.547194,-0.107276
0.153896,-0.135625,0.359068,0.166051,-0.906823,0.387426
0.088289,0.144687,0.275968,-0.077154,0.967413,-0.241163
0.393148,-0.028114,0.265698,0.813763,-0.187977,0.549959
0.061715,-0.149028,0.334584,0.015296,-0.996439,0.082924
0.087857,0.143515,0.359121,0.066884,0.959574,0.273393
0.074439,-0.045652,0.464108,0.150810,-0.305242,0.940257
0.372638,-0.076628,0.262922,0.701694,-0.512353,0.495095
0.374735,-0.090988,0.242429,0.666366,-0.608369,0.431095
0.259875,-0.021687,0.398318,0.540644,-0.145004,0.828660
0.167384,-0.137446,0.210132,-0.245650,-0.918996,-0.308386
0.037473,0.070604,0.192150,-0.168743,0.472073,-0.865259
0.105108,0.009771,0.144119,-0.587991,0.065332,-0.806225
0.298533,-0.148023,0.180788,0.122342,-0.989719,0.074089
0.373807,-0.020191,0.000000,1.000000,0.000000,0.000000
0.427016,0.104202,0.082449,0.704336,0.696718,0.135995
0.000830,-0.004514,0.178122,-0.004658,-0.030183,-0.999534
0.148487,-0.139122,0.228754,-0.199843,-0.930203,-0.307873
0.146357,0.120570,0.189100,-0.362155,0.806160,-0.467921
0.451362,-0.018849,0.151110,0.940708,-0.126032,0.314936
0.050257,-0.118028,0.230340,-0.130925,-0.789164,-0.600066
0.191172,-0.075999,0.054556,-0.828207,-0.508145,-0.236351
0.363896,-0.142054,0.088077,0.304045,-0.949811,0.073591
0.319947,0.019752,0.352255,0.666456,0.132067,0.733754
0.242010,-0.122950,0.014743,-0.568332,-0.822071,-0.034622
0.405735,-0.121513,0.086304,0.570252,-0.812465,0.121299
0.248052,0.087580,0.000000,1.000000,0.000000,0.000000
0.049316,0.135357,0.388112,0.053617,0.905027,0.421960
0.214855,0.115632,0.089526,-0.585444,0.773142,-0.243942
0.374312,0.141916,0.019508,0.315188,0.948887,0.016426
0.060833,0.132563,0.251103,-0.109019,0.886346,-0.450006
0.305569,-0.136134,0.241617,0.324838,-0.910224,0.256853
0.028979,-0.071858,0.457868,0.055396,-0.480461,0.875265
0.013210,-0.077547,0.199293,-0.056554,-0.518500,-0.853205
0.034264,0.005495,0.475844,0.071772,0.036744,0.996744
0.225191,-0.067589,0.402295,0.435725,-0.451916,0.778406
0.396759,-0.075869,0.225787,0.748994,-0.507277,0.426237
0.241081,-0.002664,0.411772,0.505167,-0.017814,0.862838
0.161032,-0.025657,0.081038,-0.880023,-0.171552,-0.442866
0.139687,0.149270,0.306612,0.025824,0.998058,0.056684
0.398371,-0.036433,0.254400,0.817417,-0.243601,0.522004
0.087572,-0.104800,0.202816,-0.282811,-0.700717,-0.654991
0.082897,-0.101542,0.201417,-0.279434,-0.678933,-0.678945
0.264383,0.135934,0.021353,-0.415684,0.908889,-0.033572
0.057295,-0.047707,0.176818,-0.292153,-0.318982,-0.901608
0.104915,0.019182,0.145390,-0.580334,0.128257,-0.804216
0.271664,0.012540,0.000000,1.000000,0.000000,0.000000
0.215949,0.107864,0.059564,-0.667783,0.721207,-0.184189
0.304285,0.148119,0.039960,-0.137354,0.990358,-0.018038
0.415350,0.095521,0.153191,0.721937,0.638677,0.266267
0.186855,0.116632,0.377529,0.277677,0.779834,0.561030
0.062198,0.009908,0.167190,-0.347905,0.066248,-0.935186
0.166595,0.124800,0.179907,-0.374434,0.834445,-0.404353
0.066018,-0.146439,0.289796,-0.045142,-0.979130,-0.198157
0.362658,0.145196,0.024480,0.239269,0.970819,0.016151
0.147756,-0.122759,0.385716,0.204337,-0.820799,0.533419
0.175081,0.060970,0.076458,-0.836820,0.407661,-0.365437
0.120929,0.148554,0.323052,0.040616,0.993266,0.108503
0.131147,0.109210,0.183359,-0.397470,0.730208,-0.555710
0.224407,0.104651,0.372024,0.369005,0.699720,0.611741
0.192360,-0.091289,0.402479,0.341570,-0.610383,0.714676
0.220675,-0.149101,0.226041,-0.054731,-0.996926,-0.056062
0.076284,-0.138109,0.259230,-0.108336,-0.923433,-0.368150
0.254452,0.137187,0.084296,-0.378062,0.917269,-0.125246
0.222985,0.096855,0.381143,0.384779,0.647598,0.657694
0.042321,0.122890,0.238650,-0.099522,0.821672,-0.561204
0.116240,-0.149395,0.313810,0.016328,-0.998895,0.044079
0.309924,0.110411,0.295908,0.487881,0.738232,0.465817
0.140657,0.040283,0.450188,0.287203,0.269343,0.919222
0.102377,0.135850,0.376501,0.109747,0.908328,0.403604
0.452395,0.050041,0.122004,0.909859,0.334587,0.245375
0.236556,0.120586,0.035085,-0.585149,0.806269,-0.086787
-0.000465,-0.076958,0.199375,0.002002,-0.514560,-0.857452
0.223733,0.145063,0.287148,0.149596,0.969927,0.191998
0.344620,-0.146202,0.101070,0.202220,-0.977543,0.059307
0.254109,-0.145836,0.256120,0.156216,-0.975092,0.157453
0.339415,0.098273,0.280559,0.581023,0.657079,0.480271
0.375358,0.072984,0.262713,0.715100,0.487989,0.500498
0.147448,-0.108223,0.169142,-0.453550,-0.723602,-0.520281
-0.011401,0.075814,0.456396,-0.021527,0.506910,0.861730
0.084752,0.018473,0.157893,-0.469320,0.123514,-0.874347
0.064334,0.069903,0.184503,-0.291071,0.467392,-0.834759
0.242118,-0.146065,0.266102,0.144663,-0.976624,0.158993
0.011230,0.106739,0.222571,-0.035296,0.713683,-0.699579
0.102684,-0.042562,0.152972,-0.534293,-0.284578,-0.795956
-0.022594,0.127883,0.326576,-0.079644,0.000000,0.996823
0.281567,0.143830,0.237912,0.209421,0.961681,0.176951
0.040372,0.123586,0.240014,-0.093421,0.826328,-0.555386
-0.006399,-0.115363,0.422751,-0.009632,-0.771346,0.636343
-0.011382,0.149376,0.319988,0.001765,0.998766,-0.049623
0.393098,0.067272,0.241192,0.761260,0.449795,0.467084
-0.023995,0.120021,0.326576,-0.079644,0.000000,0.996823
0.358990,-0.102765,0.247924,0.597837,-0.687114,0.412874
0.061178,-0.149517,0.325549,0.004484,-0.999705,0.023859
0.393630,-0.133787,0.025738,0.446047,-0.894534,0.029166
0.165188,0.096793,0.135418,-0.589555,0.647180,-0.483305
0.249177,0.131080,0.056939,-0.469421,0.876435,-0.107266
0.415876,0.109989,0.105141,0.656946,0.735416,0.166088
0.404886,0.080701,0.204358,0.751617,0.539589,0.379362
0.203000,0.110342,0.100817,-0.604590,0.737776,-0.300261
0.174115,0.149294,0.288009,0.030897,0.998215,0.051108
0.187867,-0.089553,0.088880,-0.723986,-0.598770,-0.342517
0.242230,-0.146258,0.264790,0.141059,-0.977919,0.154196
0.222580,0.007937,0.421848,0.466000,0.053069,0.883192
0.207038,-0.110397,0.092386,-0.616093,-0.738139,-0.274919
0.157145,-0.123300,0.381141,0.215739,-0.824417,0.523253
0.084265,0.078333,0.181614,-0.358539,0.523752,-0.772744
0.222087,-0.124918,0.344474,0.297967,-0.835233,0.462171
0.021467,0.131486,0.398311,0.025646,0.879149,0.475857
0.383426,0.046912,0.271176,0.775240,0.313667,0.548285
0.297598,0.147646,0.060885,-0.156261,0.987198,-0.031969
0.313313,0.017876,0.358485,0.653357,0.119520,0.747556
-0.034013,0.040107,0.326576,-0.079644,0.000000,0.996823
0.047432,0.149290,0.333255,0.008477,0.998189,0.059557
0.129970,-0.141513,0.352840,0.111856,-0.946190,0.303665
0.413557,0.120293,0.049321,0.590035,0.804306,0.070368
-0.096715,-0.005283,0.326576,-0.079644,0.000000,0.996823
0.432554,-0.082522,0.132356,0.797503,-0.551761,0.244026
0.363729,-0.068997,0.000000,1.000000,0.000000,0.000000
0.157815,0.073062,0.118107,-0.698587,0.488511,-0.522813
0.076942,-0.105361,0.426887,0.125894,-0.704469,0.698480
0.474011,-0.027455,0.024356,0.981711,-0.183571,0.050442
0.204131,0.097814,0.390637,0.350356,0.654010,0.670463
0.247161,0.070839,0.387172,0.473896,0.473649,0.742348
-0.058751,0.100304,0.326576,-0.079644,0.000000,0.996823
0.026785,0.057961,0.464718,0.053044,0.387543,0.920324
0.238687,-0.108136,0.358797,0.382633,-0.723021,0.575180
0.076267,-0.069950,0.453442,0.146607,-0.467702,0.871643
0.050340,0.141813,0.371736,0.042631,0.948199,0.314805
-0.015265,-0.076987,0.198807,0.065637,-0.514754,-0.854822
0.014870,0.012478,0.177957,-0.082977,0.083432,-0.993053
0.008591,-0.056463,0.188928,-0.042066,-0.377523,-0.925044
0.470543,0.043725,0.009699,0.956106,0.292358,0.019707
-0.051387,0.049896,0.326576,-0.079644,0.000000,0.996823
0.279109,-0.140829,0.254874,0.248622,-0.941617,0.227034
0.207366,0.089506,0.013360,-0.799496,0.598459,-0.051508
0.354328,0.066850,0.295545,0.686951,0.446973,0.572986
-0.007318,-0.096841,0.441531,-0.012629,-0.647504,0.761957
0.231662,-0.138634,0.141582,-0.320151,-0.926941,-0.195662
0.043868,-0.125779,0.406175,0.058098,-0.840987,0.537927
0.122881,0.036069,0.134892,-0.653552,0.241166,-0.717432
0.288941,-0.076159,0.000000,1.000000,0.000000,0.000000
0.194451,-0.113907,0.124135,-0.546221,-0.761611,-0.348700
0.019737,-0.149048,0.339413,0.004801,-0.996574,0.082568
0.224046,-0.142023,0.169160,-0.250169,-0.949599,-0.188883
0.028202,-0.080171,0.199374,-0.118237,-0.536043,-0.835870
0.128695,-0.137200,0.365138,0.132326,-0.917352,0.375441
0.259149,0.140524,0.096165,-0.320953,0.939577,-0.119100
0.171238,0.024238,0.055583,-0.938573,0.162061,-0.304659
0.323453,0.078355,0.320019,0.605505,0.523901,0.599076
-0.003099,-0.124682,0.244996,0.006986,-0.833653,-0.552244
0.172015,-0.115222,0.386412,0.259284,-0.770406,0.582449
0.202928,0.118322,0.120754,-0.525624,0.791131,-0.312778
0.423609,0.107430,0.000000,1.000000,0.000000,0.000000
0.177076,-0.095552,0.117581,-0.640882,-0.638885,-0.425555
0.166832,0.048494,0.082545,-0.847868,0.324242,-0.419509
0.262940,-0.141263,0.091764,-0.310111,-0.944520,-0.108226
0.071996,-0.056310,0.174816,-0.352788,-0.376499,-0.856615
0.129672,0.149168,0.312626,0.027757,0.997372,0.066919
0.017451,-0.011288,0.177627,-0.097498,-0.075473,-0.992370
0.284771,-0.143557,0.022622,-0.279598,-0.959860,-0.022211
0.147903,-0.149016,0.306563,0.037070,-0.996354,0.076837
0.067675,0.076698,0.187373,-0.291633,0.512822,-0.807443
0.112904,0.065588,0.448022,0.219615,0.438536,0.871467
0.232355,0.010470,0.416364,0.486116,0.070002,0.871086
0.087949,0.148595,0.297937,-0.032123,0.993542,-0.108820
0.315008,-0.149133,0.028723,-0.075256,-0.997141,-0.006862
0.150487,-0.074912,0.431580,0.284969,-0.500877,0.817261
0.285436,0.149393,0.145836,-0.042176,0.998878,-0.021549
0.206196,0.099326,0.063666,-0.714350,0.664120,-0.220565
0.142951,0.061860,0.127348,-0.679817,0.413610,-0.605620
0.261886,-0.054113,0.386713,0.522741,-0.361813,0.771903
0.340006,-0.081978,0.298900,0.628173,-0.548126,0.552229
0.181204,-0.149185,0.285565,0.037931,-0.997491,0.059777
0.096433,-0.057886,0.326576,-0.079644,0.000000,0.996823
0.253818,-0.113077,0.341512,0.390418,-0.756061,0.525305
0.325515,0.148489,0.115775,0.112599,0.992833,0.040048
0.154083,-0.131738,0.205451,-0.284049,-0.880834,-0.378744
0.370057,-0.142654,0.042944,0.298367,-0.953823,0.034625
0.168775,0.009843,0.057745,-0.944103,0.065815,-0.323014
0.167730,0.148236,0.304319,0.064114,0.991140,0.116325
-0.049581,-0.016442,0.326576,-0.079644,0.000000,0.996823
0.154975,-0.111905,0.397715,0.240880,-0.748223,0.618174
-0.026799,-0.013067,0.326576,-0.079644,0.000000,0.996823
0.351467,0.039344,0.314913,0.718544,0.263061,0.643812
0.086464,-0.066168,0.173096,-0.400755,-0.442419,-0.802285
0.204514,0.099104,0.068258,-0.710417,0.662637,-0.237106
0.360181,-0.026805,0.309294,0.746382,-0.179222,0.640931
0.092068,-0.125716,0.398127,0.122049,-0.840571,0.527773
0.074657,-0.040209,0.465725,0.152455,-0.268848,0.951041
0.224068,0.143631,0.293576,0.169152,0.960349,0.221625
0.208046,-0.102543,0.067568,-0.692354,-0.685626,-0.224860
0.374642,0.109144,0.210791,0.595861,0.729761,0.335258
0.180734,0.149560,0.272606,-0.001996,0.999993,-0.003011
0.246605,0.001252,0.408509,0.516787,0.008371,0.856073
0.131652,-0.031625,0.124850,-0.709195,-0.211450,-0.672556
0.277938,0.001387,0.387870,0.582445,0.009273,0.812817
0.244106,0.065972,0.392058,0.474350,0.441107,0.761851
0.110302,-0.065742,0.448592,0.214468,-0.439569,0.872229
0.205428,0.093281,0.394209,0.361232,0.623697,0.693191
0.074366,0.049163,0.462931,0.149793,0.328715,0.932474
0.194052,-0.142857,0.317251,0.154475,-0.955174,0.252547
0.082417,-0.147699,0.341331,0.036917,-0.987553,0.152893
0.387715,-0.066999,0.250008,0.751382,-0.447968,0.484509
0.249298,-0.149166,0.195419,-0.057120,-0.997363,-0.044775
-0.125959,0.012335,0.326576,-0.079644,0.000000,0.996823
0.210495,0.148316,0.225341,-0.087885,0.991678,-0.094084
-0.000643,0.138851,0.326576,-0.079644,0.000000,0.996823
0.108992,-0.149555,0.310381,0.002979,-0.999960,0.008484
0.018950,0.079652,0.453807,0.035312,0.532570,0.845649
0.229248,0.149521,0.229176,-0.016371,0.999732,-0.016366
0.004140,0.001946,0.477147,0.008676,0.013014,0.999878
0.410602,0.071193,0.205478,0.786457,0.476015,0.393568
0.347999,0.141463,0.142811,0.300286,0.945856,0.123231
0.102654,-0.082470,0.440584,0.189301,-0.551416,0.812469
0.321020,0.003165,0.000000,1.000000,0.000000,0.000000
0.233476,-0.137756,0.307201,0.235616,-0.921073,0.310017
0.406807,0.126216,0.029210,0.535108,0.843910,0.038422
0.042622,-0.136842,0.263841,-0.064357,-0.914957,-0.398387
0.313966,0.146847,0.167763,0.167238,0.981858,0.089361
0.248454,0.149383,0.202177,-0.037844,0.998809,-0.030795
0.201905,-0.135681,0.171166,-0.320910,-0.907195,-0.272054
0.294621,-0.140627,0.237665,0.264968,-0.940269,0.213745
0.015997,0.125250,0.245360,-0.035557,0.837454,-0.545350
0.108970,-0.083613,0.438279,0.200057,-0.559054,0.804634
0.150182,0.026681,0.450400,0.311246,0.178399,0.933435
0.385826,-0.049449,0.000000,1.000000,0.000000,0.000000
-0.019217,-0.018381,0.326576,-0.079644,0.000000,0.996823
0.175415,-0.105208,0.396880,0.287327,-0.703444,0.650085
0.006552,-0.126699,0.248058,-0.014030,-0.847138,-0.531187
0.178027,0.008810,0.010140,-0.996648,0.058905,-0.056766
-0.010163,-0.104680,0.220562,0.032875,-0.699915,-0.713469
0.020499,0.030794,0.326576,-0.079644,0.000000,0.996823
0.223167,-0.143026,0.296802,0.175700,-0.956308,0.233674
0.189704,0.081529,0.070073,-0.786419,0.545126,-0.290488
0.348996,0.026391,0.000000,1.000000,0.000000,0.000000
0.395856,-0.116956,0.142831,0.586288,-0.781995,0.211541
0.266847,0.136765,0.011328,-0.404350,0.914443,-0.017165
0.352127,0.086217,0.279910,0.639647,0.576471,0.508462
0.227739,0.148250,0.207148,-0.097738,0.991233,-0.088901
0.257994,0.072236,0.379119,0.492626,0.482987,0.723909
0.130019,-0.139493,0.240812,-0.171365,-0.932684,-0.317389
0.381104,0.102400,0.213074,0.636175,0.684669,0.355683
0.008957,-0.021612,0.179402,-0.049341,-0.144505,-0.988273
0.382769,0.076344,0.248252,0.721454,0.510453,0.467913
0.151259,-0.095553,0.416029,0.262865,-0.638891,0.722994
0.036302,-0.148371,0.306651,-0.014797,-0.992047,-0.124993
0.001885,-0.148078,0.306600,-0.000864,-0.990083,-0.140483
0.312145,-0.149530,0.088915,-0.019645,-0.999791,-0.005596
0.206672,0.042660,0.000000,1.000000,0.000000,0.000000
0.186026,0.071692,0.062858,-0.831441,0.479352,-0.280942
0.234647,-0.130074,0.325717,0.288503,-0.869704,0.400476
0.320733,-0.003704,0.000000,1.000000,0.000000,0.000000
0.373987,-0.131878,0.136627,0.443043,-0.881769,0.161855
0.056833,-0.109932,0.218953,-0.170352,-0.735029,-0.656287
0.112617,0.148791,0.291465,-0.036512,0.994855,-0.094498
0.168669,0.149008,0.295744,0.042548,0.996305,0.074603
0.318374,0.149163,0.115044,0.068575,0.997338,0.024779
0.028273,-0.148253,0.306579,-0.012119,-0.991254,-0.131409
0.316083,0.008412,0.357161,0.661681,0.056243,0.747673
0.093631,0.104740,0.200026,-0.302628,0.700315,-0.646510
0.350742,0.062170,0.000000,1.000000,0.000000,0.000000
-0.007381,-0.129063,0.403121,-0.009250,-0.862948,0.505208
0.205220,0.031279,0.000000,1.000000,0.000000,0.000000
-0.003029,0.147927,0.349647,-0.001277,0.989079,0.147381
0.365051,-0.001461,0.000000,1.000000,0.000000,0.000000
0.225663,0.002350,0.420425,0.472873,0.015711,0.880991
0.115024,0.142846,0.258905,-0.120287,0.955104,-0.270753
0.463386,0.045291,0.079491,0.939326,0.302825,0.161135
0.233128,-0.042839,0.409156,0.474315,-0.286431,0.832455
-0.009598,0.022813,0.326576,-0.079644,0.000000,0.996823
0.067998,-0.081423,0.447939,0.125892,-0.544415,0.829315
0.024032,0.141298,0.375871,0.020914,0.944756,0.327106
0.135932,-0.143405,0.250666,-0.135354,-0.958843,-0.249599
0.347830,0.003010,0.000000,1.000000,0.000000,0.000000
0.016370,-0.140873,0.276902,-0.019821,-0.941913,-0.335272
0.285219,-0.095664,0.338420,0.495371,-0.639634,0.587772
0.186037,0.050126,0.015799,-0.938783,0.335157,-0.079726
0.328695,0.122068,0.251760,0.458709,0.816177,0.351342
0.204890,-0.071255,0.410858,0.392371,-0.476427,0.786805
0.354467,0.113011,0.235525,0.545559,0.755620,0.362495
0.150473,0.082191,0.135760,-0.620307,0.549552,-0.559653
0.268360,0.149548,0.184551,-0.010597,0.999917,-0.007287
0.155870,0.130098,0.369893,0.191554,0.869867,0.454575
0.155424,-0.055900,0.107355,-0.763169,-0.373762,-0.527139
0.146215,0.111121,0.174309,-0.430143,0.742983,-0.512791
-0.009301,-0.035591,0.326576,-0.079644,0.000000,0.996823
0.373822,-0.140139,0.067464,0.343766,-0.937004,0.062040
-0.030626,-0.107745,0.430256,-0.049243,-0.720411,0.691797
0.225742,0.032294,0.416395,0.465358,0.215926,0.858381
0.219192,0.060215,0.000000,1.000000,0.000000,0.000000
0.240905,-0.130919,0.084539,-0.456202,-0.875358,-0.160091
0.036185,0.051104,0.183525,-0.181801,0.341696,-0.922059
0.157596,0.060706,0.107786,-0.754361,0.405894,-0.515936
0.299420,0.148053,0.178910,0.121580,0.989920,0.072647
0.192592,-0.066431,0.019916,-0.891190,-0.444171,-0.092158
0.397811,0.119523,0.126767,0.572741,0.799161,0.182510
0.420093,0.106505,0.103344,0.681737,0.712115,0.167709
0.177765,-0.132409,0.187087,-0.320288,-0.885319,-0.337084
0.471804,0.039698,0.000000,1.000000,0.000000,0.000000
0.282530,-0.137167,0.264807,0.290812,-0.917134,0.272570
0.371149,-0.084834,0.255851,0.678066,-0.567223,0.467423
0.046066,0.121284,0.412566,0.064931,0.810937,0.581519
0.033151,0.149325,0.334374,0.005539,0.998423,0.055870
-0.002358,-0.053994,0.326576,-0.079644,0.000000,0.996823
-0.023586,-0.148526,0.309154,0.008934,-0.993080,-0.117097
0.209555,0.148872,0.232870,-0.064139,0.995392,-0.071275
0.026975,0.125768,0.245201,-0.059177,0.840918,-0.537918
0.212838,-0.105061,0.060139,-0.684902,-0.702465,-0.193524
0.197469,-0.119461,0.132191,-0.499980,-0.798747,-0.334698
-0.024946,0.101117,0.326576,-0.079644,0.000000,0.996823
0.240626,0.122242,0.019883,-0.574201,0.817338,-0.047446
0.101984,0.092550,0.183724,-0.381248,0.618813,-0.686819
0.054920,-0.016838,0.170374,-0.304852,-0.112585,-0.945722
0.311760,-0.148769,0.017445,-0.102601,-0.994706,-0.005741
0.185190,0.086194,0.088827,-0.736852,0.576311,-0.353432
0.033355,0.149232,0.335878,0.006550,0.997801,0.065959
0.218414,-0.147177,0.278855,0.109642,-0.984065,0.139983
-0.069871,-0.018692,0.326576,-0.079644,0.000000,0.996823
0.023999,-0.121446,0.239126,-0.058281,-0.812015,-0.580720
0.267756,-0.138437,0.041906,-0.373896,-0.925623,-0.058518
0.186333,0.092887,0.097708,-0.694118,0.621065,-0.363976
0.213879,0.016679,0.425517,0.446292,0.111523,0.887911
-0.044255,-0.071224,0.326576,-0.079644,0.000000,0.996823
0.366532,0.107467,0.227949,0.590579,0.718553,0.367285
0.384637,0.113395,0.181094,0.589924,0.758186,0.277747
0.167577,0.049306,0.081666,-0.848679,0.329674,-0.413593
0.145917,-0.148680,0.311321,0.045980,-0.994114,0.098100
0.191962,0.072278,0.042824,-0.854468,0.483267,-0.190622
0.430101,-0.096070,0.102914,0.745370,-0.642350,0.178352
0.079085,-0.130664,0.242266,-0.150987,-0.873653,-0.462530
0.231528,-0.061083,0.000000,1.000000,0.000000,0.000000
-0.042064,-0.033266,0.326576,-0.079644,0.000000,0.996823
0.339081,-0.134186,0.199995,0.380391,-0.897198,0.224361
0.388849,0.058889,0.255168,0.768523,0.393746,0.504317
0.214164,-0.141480,0.179002,-0.248801,-0.945967,-0.207952
0.050177,0.138437,0.266331,-0.070067,0.925624,-0.371902
0.075278,-0.048943,0.462861,0.151688,-0.327245,0.932685
0.134501,0.035712,0.453319,0.276218,0.238779,0.930961
0.076906,-0.020749,0.162193,-0.424300,-0.138732,-0.894831
0.398561,-0.015594,0.000000,1.000000,0.000000,0.000000
0.353255,0.059529,0.302107,0.697189,0.398023,0.596242
0.034180,0.133534,0.258005,-0.059147,0.892841,-0.446471
0.063915,0.130658,0.395262,0.077679,0.873613,0.480381
-0.010716,0.149052,0.315109,0.002801,0.996598,-0.082363
0.190468,-0.134192,0.344507,0.213637,-0.897243,0.386413
0.330275,0.146402,0.138636,0.188504,0.978880,0.079126
0.207396,-0.147886,0.281851,0.088436,-0.988805,0.120185
0.276490,0.127584,0.296840,0.355663,0.853055,0.381839
0.098312,0.115512,0.210818,-0.268464,0.772343,-0.575686
0.037571,-0.145886,0.358602,0.022955,-0.975432,0.219099
0.082157,-0.129205,0.238535,-0.164019,-0.863896,-0.476216
0.457948,-0.018862,0.129784,0.954427,-0.126114,0.270488
0.219838,-0.149561,0.243051,0.000477,-1.000000,0.000528
0.083900,0.145153,0.279241,-0.069346,0.970526,-0.230802
0.273917,-0.148897,0.204268,0.075465,-0.995559,0.056276
0.071442,-0.112190,0.217269,-0.206565,-0.750129,-0.628202
0.473523,-0.015140,0.052364,0.988836,-0.101228,0.109349
0.264505,-0.144786,0.119214,-0.228517,-0.968077,-0.102994
0.083567,0.146952,0.287920,-0.051838,0.982555,-0.178602
-0.007601,-0.060717,0.190784,0.036383,-0.405966,-0.913164
0.373636,-0.040142,0.287901,0.763058,-0.268399,0.587966
0.152557,0.140280,0.229709,-0.191849,0.937948,-0.288872
0.330954,0.003591,0.000000,1.000000,0.000000,0.000000
0.362822,0.142219,0.090338,0.300287,0.950914,0.074768
0.050505,0.061399,0.184450,-0.240813,0.410528,-0.879474
0.132672,0.148009,0.275884,-0.062271,0.989623,-0.129490
0.252970,-0.052509,0.393331,0.506495,-0.351091,0.787526
0.360635,-0.069460,0.000000,1.000000,0.000000,0.000000
0.005839,-0.109851,0.226047,-0.017522,-0.734492,-0.678391
0.146752,0.095700,0.153940,-0.530254,0.639877,-0.556227
0.096437,-0.034309,0.154402,-0.515619,-0.229400,-0.825538
0.242996,0.148586,0.193400,-0.089208,0.993479,-0.071001
0.186218,-0.066576,0.053285,-0.860907,-0.445146,-0.246343
0.033453,-0.127213,0.246712,-0.070657,-0.850577,-0.521082
0.017853,-0.137793,0.268875,-0.025760,-0.921320,-0.387952
0.135032,0.064530,0.137467,-0.632176,0.431464,-0.643577
0.044489,-0.081848,0.197491,-0.183933,-0.547256,-0.816505
0.207706,0.092286,0.030429,-0.778614,0.617049,-0.114069
0.046135,0.149551,0.326054,0.001579,0.999937,0.011156
0.149171,0.083069,0.426662,0.274446,0.555421,0.784975
0.137006,-0.146180,0.262381,-0.097857,-0.977396,-0.187407
0.150755,-0.062215,0.118268,-0.715477,-0.415982,-0.561294
0.288455,0.123678,0.293771,0.393953,0.826940,0.401212
0.217461,0.106395,0.374119,0.353183,0.711384,0.607614
0.069315,-0.149525,0.316831,-0.004704,-0.999758,-0.021500
0.172391,0.005177,0.444853,0.361123,0.034615,0.931875
0.363387,0.137873,0.128920,0.365238,0.921852,0.129577
0.445803,-0.080714,0.083352,0.827533,-0.539676,0.154724
0.047988,-0.130265,0.249564,-0.092774,-0.870983,-0.482475
0.203886,0.138528,0.178890,-0.283345,0.926234,-0.248608
0.441531,0.013038,0.179458,0.922877,0.087172,0.375099
0.064876,0.130057,0.396189,0.079793,0.869591,0.487283
0.318570,0.021790,0.000000,1.000000,0.000000,0.000000
0.144060,-0.062764,0.440408,0.282196,-0.419653,0.862703
0.170951,0.109660,0.393814,0.270769,0.733215,0.623763
0.197612,0.133175,0.168276,-0.346490,0.890443,-0.295053
0.339744,-0.112885,0.000000,1.000000,0.000000,0.000000
0.051383,-0.132265,0.252627,-0.093042,-0.884356,-0.457448
0.036938,0.052460,0.183885,-0.184427,0.350758,-0.918126
0.015132,0.092561,0.209594,-0.056562,0.618885,-0.783442
0.475792,0.002613,0.036036,0.996992,0.017474,0.075511
0.297297,0.099769,0.323061,0.504471,0.667080,0.548190
0.001145,0.105875,0.221978,-0.003643,0.707903,-0.706300
0.151864,-0.059557,0.114888,-0.731539,-0.398213,-0.553423
-0.009765,-0.024893,0.179877,0.053452,-0.166443,-0.984601
0.121268,0.091228,0.429334,0.215396,0.609976,0.762584
0.468066,0.025889,0.080394,0.970691,0.173099,0.166723
0.295829,0.020076,0.372684,0.616094,0.134234,0.776151
0.137314,-0.063841,0.442031,0.268274,-0.426860,0.863609
0.458828,0.058997,0.075813,0.906617,0.394469,0.149801
0.181061,-0.079277,0.086809,-0.764617,-0.530066,-0.366594
0.312240,0.149517,0.086493,-0.023319,0.999707,-0.006459
0.314701,0.063809,0.339446,0.614892,0.426640,0.663240
0.143624,0.038274,0.113466,-0.758545,0.255911,-0.599265
0.169148,-0.057536,0.085581,-0.823621,-0.384703,-0.416715
0.160682,0.088290,0.130336,-0.626867,0.590329,-0.508478
0.372977,0.098426,0.000000,1.000000,0.000000,0.000000
0.113953,-0.149029,0.320572,0.028232,-0.996441,0.079422
0.236077,0.147340,0.262838,0.114718,0.985153,0.127723
0.226118,-0.145903,0.189060,-0.168631,-0.975543,-0.140994
0.297008,-0.004232,0.000000,1.000000,0.000000,0.000000
0.231503,-0.120035,0.056920,-0.579288,-0.802583,-0.142432
0.216494,-0.138877,0.316097,0.209734,-0.928567,0.306227
0.075542,0.148323,0.299020,-0.031447,0.991724,-0.124477
0.286082,0.146689,0.213198,0.156381,0.980797,0.116541
0.318244,-0.052045,0.342908,0.637739,-0.347987,0.687164
0.024587,0.148717,0.310778,-0.008368,0.994356,-0.105764
0.386689,-0.134058,0.075157,0.435213,-0.896345,0.084588
0.094780,-0.145415,0.349978,0.061117,-0.972283,0.225676
0.173037,0.149321,0.268161,-0.030719,0.998394,-0.047607
0.243906,-0.130727,0.074260,-0.464736,-0.874071,-0.141495
0.172455,0.010805,0.045854,-0.963897,0.072244,-0.256289
0.160873,-0.015787,0.078244,-0.894253,-0.105556,-0.434937
0.154454,-0.139951,0.227373,-0.198167,-0.935750,-0.291723
0.090884,0.088384,0.185943,-0.354246,0.590955,-0.724763
0.350238,0.143869,0.114514,0.259714,0.961945,0.084916
0.322631,0.114546,0.274773,0.489511,0.765882,0.416898
0.470596,0.008514,0.077500,0.985109,0.056925,0.162233
0.075807,0.021176,0.162776,-0.417922,0.141590,-0.897381
0.436646,-0.101435,0.027687,0.733385,-0.678222,0.046503
0.104124,-0.130710,0.232696,-0.198505,-0.873957,-0.443616
-0.094052,0.096925,0.326576,-0.079644,0.000000,0.996823
0.365390,0.127714,0.175722,0.468983,0.853924,0.225542
0.428352,-0.095713,0.111162,0.743773,-0.639958,0.193017
0.216695,0.142635,0.303108,0.174924,0.953695,0.244679
0.139941,-0.104817,0.170959,-0.451833,-0.700831,-0.551981
0.182926,0.147754,0.299319,0.080800,0.987923,0.132212
0.018816,-0.073472,0.457500,0.035793,-0.491252,0.870282
0.086825,0.080613,0.181990,-0.362689,0.538999,-0.760222
0.439934,-0.091476,0.072950,0.780487,-0.611629,0.129420
0.314599,0.149558,0.094352,0.005293,0.999985,0.001587
0.242241,-0.148302,0.190628,-0.101746,-0.991583,-0.080067
0.027976,0.066281,0.460840,0.054320,0.443169,0.894791
0.160360,0.053207,0.097820,-0.797853,0.355758,-0.486690
0.208486,-0.125410,0.130811,-0.461540,-0.838523,-0.289586
0.458509,0.060944,0.072450,0.902021,0.407484,0.142530
0.258204,0.145230,0.136121,-0.211327,0.971045,-0.111409
0.177853,0.087321,0.104328,-0.700270,0.583853,-0.410776
0.374017,-0.107385,0.215618,0.603012,-0.718003,0.347632
0.000190,-0.144608,0.289446,-0.000168,-0.966883,-0.255221
0.246887,-0.146258,0.260458,0.143783,-0.977915,0.151686
-0.045461,-0.025295,0.326576,-0.079644,0.000000,0.996823
0.003319,-0.090921,0.446355,0.005905,-0.607919,0.793977
0.405369,0.037011,0.242809,0.831196,0.247461,0.497872
0.089088,-0.148736,0.331544,0.027220,-0.994483,0.101301
0.249355,-0.149382,0.223611,0.036420,-0.998803,0.032660
0.405409,-0.020468,0.249000,0.844094,-0.136855,0.518437
0.002477,-0.145288,0.292111,-0.002012,-0.971430,-0.237319
0.306940,-0.148452,0.039214,-0.120586,-0.992583,-0.015406
0.095351,0.067675,0.169229,-0.437756,0.452491,-0.776931
0.032485,0.126186,0.245190,-0.070504,0.843711,-0.532148
0.272132,0.148740,0.209226,0.082948,0.994511,0.063774
0.320016,0.149259,0.105985,0.060253,0.997984,0.019955
0.452340,0.069310,0.084409,0.871100,0.463424,0.162553
0.020863,0.149513,0.330748,0.001595,0.999679,0.025279
0.139506,0.030102,0.115505,-0.754492,0.201271,-0.624685
0.080030,0.079295,0.184170,-0.337917,0.530184,-0.777635
0.392283,0.088273,0.217097,0.706300,0.590213,0.390881
0.329379,0.148024,0.115382,0.134959,0.989723,0.047276
0.225679,-0.143448,0.293129,0.172630,-0.959126,0.224225
-0.016785,-0.010756,0.476495,-0.035112,-0.071914,0.996793
0.264263,0.129195,0.304210,0.330380,0.863831,0.380322
0.316698,0.149378,0.047377,-0.048897,0.998777,-0.007315
0.427462,0.104769,0.077038,0.702324,0.700514,0.126575
-0.007296,0.148810,0.312570,0.002334,0.994983,-0.100012
0.302284,0.025732,0.366332,0.626968,0.172052,0.759809
-0.003639,0.052552,0.187558,0.018160,0.351378,-0.936058
0.333531,-0.148611,0.086018,0.108947,-0.993650,0.028097
0.337249,-0.074298,0.309021,0.639878,-0.496775,0.586320
0.087926,-0.014868,0.155683,-0.489329,-0.099411,-0.866415
0.217410,-0.104702,0.038644,-0.703061,-0.700063,-0.124967
0.293660,-0.041255,0.000000,1.000000,0.000000,0.000000
0.049534,0.050304,0.326576,-0.079644,0.000000,0.996823
0.074243,-0.090474,0.440496,0.132342,-0.604929,0.785205
0.030592,-0.055337,0.186173,-0.150636,-0.369999,-0.916739
0.136166,-0.001464,0.114740,-0.764672,-0.009791,-0.644345
0.442283,0.086849,0.079537,0.801269,0.580693,0.144094
0.272672,0.139237,0.013637,-0.364641,0.930970,-0.018237
0.083718,0.106165,0.424790,0.136196,0.709842,0.691068
-0.028680,-0.121594,0.413706,-0.040268,-0.813008,0.580859
0.317514,-0.006976,0.355988,0.664904,-0.046640,0.745471
0.192227,0.088959,0.077841,-0.745098,0.594804,-0.301723
0.117298,-0.050132,0.453605,0.235872,-0.335196,0.912145
0.364664,-0.142283,0.081692,0.300687,-0.951341,0.067359
-0.015723,0.141896,0.279909,0.017725,0.948748,-0.315535
0.056149,0.099831,0.208835,-0.193337,0.667497,-0.719074
-0.011679,0.145717,0.293696,0.008951,0.974301,-0.225074
0.207033,-0.099697,0.062052,-0.714034,-0.666600,-0.214011
0.211539,-0.096034,0.024570,-0.761498,-0.642105,-0.088446
0.108166,-0.039595,0.148097,-0.568764,-0.264740,-0.778730
0.155652,-0.081291,0.128871,-0.646547,-0.543534,-0.535302
0.475500,-0.022030,0.006658,0.988996,-0.147295,0.013848
0.162171,-0.149358,0.275660,-0.026417,-0.998642,-0.044904
-0.021066,0.146365,0.296114,0.014592,0.978629,-0.205114
0.343486,-0.043110,0.322022,0.698570,-0.288243,0.654917
-0.017990,-0.142012,0.280124,0.020104,-0.949525,-0.313046
0.062663,0.091495,0.441501,0.111159,0.611760,0.783194
0.055145,0.088239,0.199374,-0.215242,0.589989,-0.778193
0.220745,-0.148674,0.219576,-0.077087,-0.994071,-0.076679
0.273964,-0.148366,0.212113,0.099728,-0.992014,0.077213
0.052903,-0.027806,0.172744,-0.287719,-0.185920,-0.939495
-0.025881,-0.006957,0.476313,-0.054196,-0.046519,0.997446
0.174212,-0.009025,0.038094,-0.975137,-0.060345,-0.213227
-0.080535,0.012124,0.326576,-0.079644,0.000000,0.996823
0.214747,-0.098934,0.017444,-0.747486,-0.661496,-0.060718
0.066352,0.067750,0.456152,0.128330,0.452990,0.882231
0.053786,0.072338,0.189218,-0.239313,0.483672,-0.841897
0.342738,-0.143281,0.140720,0.265250,-0.958009,0.108905
0.315370,-0.113474,0.000000,1.000000,0.000000,0.000000
0.281955,0.142420,0.000528,-0.305302,0.952255,-0.000572
0.431879,-0.107204,0.004537,0.697247,-0.716794,0.007325
0.181049,0.024234,0.439360,0.375960,0.162034,0.912359
0.055604,-0.039642,0.468540,0.113634,-0.265055,0.957514
0.320883,0.017986,0.000000,1.000000,0.000000,0.000000
0.229647,-0.149505,0.227878,-0.019434,-0.999625,-0.019284
0.412909,0.122173,0.028415,0.575452,0.816877,0.039600
0.324039,-0.149542,0.028109,-0.015725,-0.999875,-0.001364
0.446801,-0.077974,0.087263,0.837516,-0.521356,0.163571
0.174307,-0.113710,0.150769,-0.491293,-0.760296,-0.424949
0.330959,0.122180,0.248513,0.461198,0.816925,0.346309
0.188846,0.123090,0.152389,-0.442051,0.823011,-0.356712
0.253378,0.073388,0.381449,0.482114,0.490692,0.725802
0.018063,-0.147677,0.303415,-0.009403,-0.987403,-0.157949
0.167613,-0.062012,0.092654,-0.796410,-0.414627,-0.440246
0.177017,0.099801,0.124169,-0.609744,0.667294,-0.427705
0.070306,0.059708,0.177042,-0.338391,0.399222,-0.852123
0.434819,0.080784,0.128760,0.806936,0.540145,0.238952
0.136760,0.099259,0.166857,-0.474178,0.663671,-0.578529
0.190670,-0.077851,0.060092,-0.814357,-0.520528,-0.256657
0.268231,0.148459,0.154411,-0.104979,0.992637,-0.060432
0.220204,-0.102444,0.376981,0.367479,-0.684968,0.629109
0.223567,-0.124367,0.099092,-0.507804,-0.831551,-0.225075
0.209155,-0.015972,0.427945,0.436594,-0.106792,0.893298
0.347922,0.147758,0.044606,0.153547,0.987945,0.019686
0.252614,0.136569,0.295272,0.265013,0.913135,0.309764
0.101148,-0.023671,0.148821,-0.555034,-0.158273,-0.816632
0.345977,-0.145381,0.108962,0.223928,-0.972051,0.070524
0.336044,-0.148973,0.057124,0.087325,-0.996069,0.014844
0.046411,-0.021742,0.473319,0.096549,-0.145370,0.984655
-0.033269,-0.028987,0.473173,-0.068807,-0.193817,0.978622
0.015281,0.074821,0.197527,-0.066785,0.500272,-0.863289
0.067722,0.114185,0.220875,-0.189322,0.763472,-0.617469
0.451212,-0.084209,0.002377,0.826418,-0.563040,0.004354
0.285994,0.119622,0.304008,0.411283,0.799820,0.437189
0.371718,-0.080493,0.260080,0.690572,-0.538195,0.483173
0.384469,-0.107568,0.195960,0.619010,-0.719225,0.315504
0.456214,0.043153,0.116350,0.927774,0.288530,0.236614
0.115919,0.123407,0.213710,-0.269357,0.825132,-0.496593
0.426218,0.102165,0.095767,0.712557,0.683103,0.160105
0.001561,-0.142807,0.283175,-0.001638,-0.954841,-0.297114
0.264235,0.130653,0.300840,0.321173,0.873577,0.365666
0.188307,-0.084419,0.078874,-0.761380,-0.564444,-0.318911
-0.004876,0.134240,0.261632,0.008215,0.897562,-0.440811
0.158688,-0.006314,0.449877,0.332352,-0.042216,0.942210
0.153265,0.029592,0.096309,-0.829971,0.197859,-0.521536
0.116692,0.147990,0.329165,0.048302,0.989496,0.136251
0.030783,-0.144280,0.365714,0.022091,-0.964694,0.262445
0.096677,-0.028936,0.464395,0.199958,-0.193474,0.960513
0.391289,0.061365,0.249394,0.769027,0.410304,0.490151
0.074819,0.044824,0.169120,-0.385981,0.299703,-0.872466
-0.026733,0.007311,0.476249,-0.055978,0.048883,0.997235
0.324224,0.125486,0.249303,0.431318,0.839031,0.331650
0.430369,0.075564,0.152786,0.813252,0.505238,0.288714
0.365605,0.047239,0.294590,0.738814,0.315853,0.595308
0.307059,0.146562,0.182929,0.171186,0.979946,0.101983
0.322166,0.143644,0.180465,0.242966,0.960440,0.136100
0.458450,0.051274,0.094623,0.920004,0.342834,0.189887
0.037712,-0.143198,0.281945,-0.038260,-0.957454,-0.286040
0.114910,-0.144114,0.349189,0.083588,-0.963583,0.254009
0.151635,-0.148055,0.266302,-0.070039,-0.989932,-0.123003
0.066735,-0.100265,0.206107,-0.228570,-0.670394,-0.705923
-0.022889,-0.133099,0.395167,-0.026374,-0.889935,0.455324
0.115662,0.110159,0.412883,0.182453,0.736549,0.651312
0.036683,0.012188,0.174745,-0.204764,0.081494,-0.975413
0.446335,0.090412,0.019396,0.795842,0.604516,0.034583
0.002895,-0.148580,0.310502,-0.001066,-0.993441,-0.114337
0.377771,0.137316,0.083484,0.386953,0.918126,0.085513
0.151889,0.064817,0.118801,-0.709861,0.433385,-0.555225
0.306766,-0.126737,0.267519,0.400173,-0.847394,0.348976
0.146700,-0.103256,0.163169,-0.483673,-0.690396,-0.537972
0.280630,0.148036,0.207339,0.114545,0.989807,0.084629
0.006669,-0.149561,0.327404,-0.000020,-1.000000,-0.000969
0.148700,-0.131575,0.369959,0.177312,-0.879746,0.441144
0.156974,-0.080065,0.425937,0.292079,-0.535333,0.792533
0.174889,-0.019717,0.039805,-0.966554,-0.131831,-0.219987
0.280928,0.143990,0.059587,-0.264502,0.962752,-0.056103
0.084563,-0.122400,0.226393,-0.201077,-0.818397,-0.538326
0.453308,-0.034927,0.135207,0.931785,-0.233531,0.277921
0.240117,0.148358,0.193989,-0.098453,0.991958,-0.079539
0.193692,-0.149273,0.275640,0.035644,-0.998076,0.050725
-0.002221,0.144816,0.290236,0.001913,0.968276,-0.249875
-0.041745,0.037620,0.326576,-0.079644,0.000000,0.996823
0.222712,-0.137301,0.316397,0.228237,-0.918027,0.324246
0.348671,0.145915,0.091356,0.212299,0.975620,0.055625
0.413320,0.069668,0.000000,1.000000,0.000000,0.000000
0.114465,0.068970,0.445867,0.220643,0.461148,0.859453
0.191325,0.093255,0.088231,-0.709949,0.623525,-0.327397
0.180676,-0.121532,0.158656,-0.437946,-0.812594,-0.384571
0.375557,0.141479,0.020491,0.323791,0.945964,0.017667
0.369786,0.055533,0.284371,0.736035,0.371310,0.566022
0.105910,-0.140361,0.254838,-0.132525,-0.938485,-0.318878
0.414434,-0.121744,0.006802,0.580776,-0.814007,0.009532
0.462644,-0.060410,0.040746,0.911269,-0.403915,0.080257
0.243043,-0.087344,0.377560,0.439377,-0.584004,0.682560
0.145486,0.087422,0.146219,-0.572285,0.584525,-0.575169
0.217865,-0.123422,0.107957,-0.506071,-0.825232,-0.250770
0.295227,-0.040580,0.367718,0.602570,-0.271331,0.750526
0.158327,0.146231,0.322199,0.092538,0.977739,0.188318
0.057619,-0.149376,0.314964,-0.008935,-0.998767,-0.048841
0.367099,0.105626,0.230568,0.599527,0.706240,0.376552
0.093016,-0.067000,0.170136,-0.428876,-0.447981,-0.784460
0.063548,-0.134335,0.254043,-0.106676,-0.898198,-0.426452
0.006179,-0.059587,0.464754,0.012193,-0.398410,0.917126
-0.021435,-0.131510,0.326576,-0.079644,0.000000,0.996823
0.244414,0.144671,0.155500,-0.213975,0.967307,-0.136135
0.249824,-0.146044,0.259013,0.149671,-0.976483,0.155176
-0.004634,-0.143096,0.284082,0.004744,-0.956775,-0.290791
0.182570,-0.116097,0.145297,-0.493276,-0.776252,-0.392571
0.013978,0.080992,0.326576,-0.079644,0.000000,0.996823
0.201160,-0.144031,0.205160,-0.188607,-0.963030,-0.192357
0.020881,-0.144228,0.287278,-0.019185,-0.964345,-0.263952
0.036359,-0.127504,0.246778,-0.076188,-0.852521,-0.517111
0.002561,0.090122,0.208242,-0.009815,0.602576,-0.798001
0.436271,0.050757,0.170218,0.876314,0.339372,0.341908
0.145990,-0.062287,0.124154,-0.692572,-0.416469,-0.588980
0.036517,-0.113287,0.423691,0.056062,-0.757465,0.650464
0.028070,0.130955,0.326576,-0.079644,0.000000,0.996823
0.207135,-0.108492,0.087016,-0.634602,-0.725403,-0.266593
0.181195,-0.102423,0.122343,-0.603931,-0.684827,-0.407775
0.246330,-0.010817,0.408223,0.515294,-0.072326,0.853956
0.396057,0.122815,0.116970,0.547313,0.821170,0.161641
0.098805,0.004093,0.148194,-0.554526,0.027364,-0.831717
0.090741,0.142566,0.267439,-0.097111,0.953233,-0.286212
0.244139,-0.148992,0.237562,0.062436,-0.996198,0.060754
0.442684,-0.010402,0.177155,0.926169,-0.069552,0.370638
0.149030,0.085654,0.424840,0.271354,0.572707,0.773547
-0.019783,0.129894,0.401265,-0.024409,0.868500,0.495087
0.182236,-0.044123,0.030146,-0.942680,-0.295019,-0.155940
0.149481,0.022756,0.099912,-0.821709,0.152151,-0.549222
0.138232,-0.009181,0.456422,0.289312,-0.061387,0.955264
0.375637,0.023584,0.291226,0.780418,0.157691,0.605047
0.244049,-0.130949,0.075164,-0.461713,-0.875557,-0.142201
0.128592,-0.037497,0.129968,-0.680871,-0.250711,-0.688156
0.050970,-0.049773,0.465872,0.102560,-0.332796,0.937405
0.299109,0.121864,0.286697,0.418516,0.814815,0.401149
0.196749,-0.066517,0.000000,1.000000,0.000000,0.000000
0.227089,0.124147,0.089841,-0.518543,0.830078,-0.205146
0.368827,-0.108133,0.222880,0.591271,-0.723003,0.357302
0.260612,0.142505,0.266869,0.212062,0.952824,0.217154
0.310966,-0.148546,0.149440,0.104825,-0.993214,0.050375
0.027546,0.116967,0.232788,-0.073232,0.782072,-0.618871
0.013147,-0.112407,0.228583,-0.037876,-0.751582,-0.658552
0.307483,0.108721,0.000000,1.000000,0.000000,0.000000
0.064343,-0.101576,0.208121,-0.216798,-0.679159,-0.701243
0.084693,0.084069,0.185501,-0.343497,0.562108,-0.752359
0.055289,0.006071,0.169384,-0.310045,0.040591,-0.949855
0.218992,-0.106679,0.040974,-0.688925,-0.713279,-0.128900
0.440806,0.090983,0.069941,0.783874,0.608336,0.124374
0.358955,-0.022408,0.311835,0.746396,-0.149828,0.648417
0.426197,0.042067,0.200821,0.868088,0.281269,0.409037
-0.032423,0.093192,0.443410,-0.057040,0.623104,0.780057
0.305304,-0.139238,0.229955,0.291607,-0.930981,0.219638
0.269055,0.146580,0.127897,-0.179413,0.980070,-0.085285
0.170384,-0.031511,0.442126,0.351524,-0.210690,0.912162
-0.000505,-0.146250,0.358911,-0.000294,-0.977864,0.209241
0.070506,0.089231,0.195251,-0.272566,0.596623,-0.754817
0.240445,-0.002998,0.412136,0.503821,-0.020044,0.863576
0.328673,0.128993,0.233733,0.412434,0.862481,0.293299
0.337814,0.143294,0.152050,0.261192,0.958101,0.117563
0.469213,0.027402,0.071607,0.971821,0.183217,0.148310
-0.083843,0.025160,0.326576,-0.079644,0.000000,0.996823
0.345291,-0.147120,0.080385,0.175224,-0.983683,0.040793
0.255011,0.131713,0.306182,0.303183,0.880665,0.364019
0.272607,0.103129,0.000000,1.000000,0.000000,0.000000
0.191172,0.061334,0.003858,-0.911859,0.410092,-0.018400
0.131827,0.140311,0.355758,0.120298,0.938154,0.324647
0.427332,-0.075780,0.160724,0.806943,-0.506686,0.303499
0.463435,-0.062292,0.011881,0.908836,-0.416502,0.023299
0.206665,-0.141393,0.187233,-0.241561,-0.945385,-0.218848
0.115843,-0.031257,0.139540,-0.624647,-0.208991,-0.752422
0.038874,0.040479,0.469990,0.079355,0.270655,0.959400
0.258450,-0.079796,0.373392,0.481361,-0.533533,0.695438
0.164565,0.135672,0.207297,-0.261656,0.907139,-0.329599
0.293323,-0.149319,0.125698,-0.052214,-0.998385,-0.022375
0.216538,0.128638,0.340962,0.273476,0.860104,0.430618
0.458394,0.012673,0.130613,0.958263,0.084732,0.273044
0.020457,-0.142184,0.373446,0.016965,-0.950680,0.309708
0.119508,-0.094763,0.174994,-0.436310,-0.633606,-0.638887
0.175012,0.030261,0.046752,-0.946139,0.202334,-0.252747
0.221168,-0.072877,0.401311,0.421488,-0.487275,0.764795
0.029582,0.048814,0.183882,-0.150135,0.326381,-0.933239
0.106252,-0.042696,0.150564,-0.552587,-0.285477,-0.783039
0.418790,-0.071915,0.187267,0.800428,-0.480841,0.357920
0.326510,0.103381,0.288481,0.541544,0.691229,0.478469
-0.017607,0.126802,0.247684,0.037600,0.847829,-0.528934
0.474867,0.025980,0.005882,0.984721,0.173711,0.012198
0.043238,0.080335,0.196769,-0.181030,0.537140,-0.823838
0.376566,-0.120936,0.175870,0.533078,-0.808606,0.248966
0.371221,-0.015133,0.298599,0.775206,-0.101183,0.623553
0.327770,0.148642,0.104987,0.105426,0.993854,0.033769
-0.016485,-0.099938,0.438577,-0.027945,-0.668207,0.743450
0.310636,0.146384,0.178518,0.177748,0.978760,0.102149
0.180636,-0.089962,0.408980,0.322759,-0.601511,0.730761
0.181420,-0.035663,0.018588,-0.966097,-0.238452,-0.098982
0.089019,0.045889,0.162483,-0.457306,0.306824,-0.834704
0.209477,0.136716,0.326898,0.218755,0.914116,0.341377
0.454869,-0.032277,0.132067,0.937711,-0.215811,0.272257
0.270130,-0.149453,0.195229,0.030765,-0.999279,0.022234
0.244284,-0.141771,0.284852,0.207347,-0.947918,0.241781
0.434292,0.079654,0.133000,0.809278,0.532585,0.247837
0.408279,-0.117641,0.098403,0.600304,-0.786576,0.144685
-0.012235,-0.071732,0.195999,0.054669,-0.479616,-0.875774
0.226623,-0.044957,0.000000,1.000000,0.000000,0.000000
0.168746,0.145709,0.319519,0.105304,0.974245,0.199393
0.307442,-0.054899,0.351175,0.612723,-0.367065,0.699881
0.297953,0.081140,0.341560,0.552212,0.542525,0.633031
0.172935,0.043717,0.064547,-0.895952,0.292304,-0.334409
0.470022,-0.044683,0.017477,0.953669,-0.298760,0.035461
0.084969,-0.011334,0.156963,-0.474686,-0.075784,-0.876887
0.233112,-0.097248,0.374640,0.401376,-0.650224,0.645063
0.360977,0.138306,0.132532,0.357268,0.924745,0.131170
0.344250,-0.146252,0.101494,0.200630,-0.977880,0.059151
-0.026276,-0.103956,0.434347,-0.043413,-0.695076,0.717624
0.168615,0.066646,0.095387,-0.779187,0.445611,-0.440793
0.452169,-0.082252,0.018046,0.834531,-0.549954,0.033307
0.253950,0.148816,0.229847,0.073882,0.995023,0.066869
0.386128,-0.137472,0.017470,0.393459,-0.919170,0.017802
0.104683,0.077286,0.169914,-0.449074,0.516751,-0.728904
0.072515,0.122551,0.406936,0.100561,0.819407,0.564323
0.056861,0.026516,0.471391,0.117859,0.177292,0.977076
0.252938,0.148456,0.178310,-0.099165,0.992612,-0.069907
0.279438,0.065967,0.367714,0.543016,0.441072,0.714556
0.355488,-0.146912,0.010318,0.187279,-0.982292,0.005436
0.464707,0.022211,0.100826,0.966425,0.148511,0.209682
0.404341,-0.089604,0.000000,1.000000,0.000000,0.000000
0.217120,0.145231,0.195088,-0.177684,0.971051,-0.159653
0.154560,0.129529,0.200105,-0.305604,0.866060,-0.395658
0.353820,0.001651,0.000000,1.000000,0.000000,0.000000
-0.028264,-0.105059,0.326576,-0.079644,0.000000,0.996823
0.173590,0.051617,0.070195,-0.870111,0.345127,-0.351845
0.267360,0.137857,0.034830,-0.384540,0.921748,-0.050095
0.067599,0.149526,0.323839,0.004375,0.999771,0.020959
0.372557,-0.071174,0.268377,0.713626,-0.475888,0.514071
0.327321,0.059974,0.000000,1.000000,0.000000,0.000000
0.211722,-0.030868,0.424039,0.437094,-0.206390,0.875415
0.205971,0.087536,0.012474,-0.809344,0.585287,-0.049016
0.217012,-0.110030,0.369968,0.342694,-0.735684,0.584234
0.232337,0.127427,0.090437,-0.487871,0.852009,-0.189903
0.187754,-0.065736,0.045874,-0.872562,-0.439526,-0.213194
0.126785,-0.093633,0.425765,0.222545,-0.626056,0.747347
0.014852,-0.149026,0.314634,-0.003983,-0.996427,-0.084370
0.269973,-0.149488,0.193712,0.025332,-0.999514,0.018176
0.380328,-0.017866,0.286405,0.793110,-0.119454,0.597249
0.086655,-0.070665,0.451184,0.166233,-0.472487,0.865519
0.114401,-0.147012,0.277464,-0.070073,-0.982958,-0.169951
0.220797,0.108808,0.043307,-0.673264,0.727514,-0.132054
0.063953,0.075225,0.326576,-0.079644,0.000000,0.996823
0.054364,-0.017561,0.326576,-0.079644,0.000000,0.996823
