x,y,z,nx,ny,nz
0.095114,-0.392402,-0.120801,0.618621,0.000000,-0.785689
-0.022917,-0.611130,0.058639,-0.337971,0.371391,0.864780
-0.006018,0.080479,-0.062622,0.000000,1.000000,0.000000
0.111916,-0.082469,-0.105425,0.727901,0.000000,-0.685682
-0.092365,-0.220001,-0.122917,-0.600738,0.000000,-0.799446
0.039776,-0.155224,-0.148518,0.258700,0.000000,-0.965958
-0.318350,-0.010723,-0.051196,-0.866025,0.000000,-0.500000
0.122149,-0.557848,-0.077908,0.782806,0.371391,-0.499284
-0.221522,0.080479,0.090440,0.000000,1.000000,0.000000
0.074241,0.080479,-0.014335,0.000000,1.000000,0.000000
-0.138771,-0.492174,-0.066200,-0.902561,0.000000,-0.430562
0.017176,0.055746,0.301297,0.000000,0.000000,1.000000
-0.241889,0.009881,0.183630,-0.866025,0.000000,0.500000
-0.174074,-0.026477,0.301088,-0.866025,0.000000,0.500000
-0.169654,-0.038062,0.301297,0.000000,0.000000,1.000000
0.305594,-0.025713,-0.073290,0.866025,0.000000,-0.500000
-0.037507,-0.504923,0.149107,-0.243942,0.000000,0.969790
-0.126615,-0.521014,0.087226,-0.823502,0.000000,0.567313
-0.231571,-0.080479,-0.058224,0.000000,-1.000000,0.000000
-0.094087,-0.347689,-0.121603,-0.611941,0.000000,-0.790903
-0.187101,-0.071226,0.278526,-0.866025,0.000000,0.500000
0.069647,-0.417489,0.137073,0.452983,0.000000,0.891519
0.254920,-0.006641,-0.161059,0.866025,0.000000,-0.500000
0.052148,-0.338590,0.144639,0.339166,0.000000,0.940726
-0.288550,-0.045140,-0.102811,-0.866025,0.000000,-0.500000
-0.314164,0.032233,0.058445,-0.866025,0.000000,0.500000
0.064568,-0.545006,0.139538,0.419947,0.000000,0.907549
-0.082439,-0.376383,0.129783,-0.536181,0.000000,0.844103
0.045022,-0.521715,0.147013,0.292822,0.000000,0.956167
-0.290835,0.012965,-0.098853,-0.866025,0.000000,-0.500000
-0.010972,-0.604294,0.072644,-0.138667,0.371391,0.918063
0.257329,0.060913,0.156887,0.866025,0.000000,0.500000
0.095203,-0.578987,-0.059712,0.786565,0.371391,-0.493341
0.152499,-0.083551,-0.019589,0.991850,0.000000,-0.127408
-0.001499,-0.032627,-0.301297,-0.000000,0.000000,-1.000000
0.149773,-0.082680,-0.034751,0.974123,0.000000,-0.226021
0.062118,0.080479,-0.077781,0.000000,1.000000,0.000000
0.201647,-0.080479,0.159986,0.000000,-1.000000,0.000000
0.170195,0.001903,-0.301297,-0.000000,0.000000,-1.000000
0.123210,-0.063584,0.301297,0.000000,0.000000,1.000000
-0.281460,-0.017870,-0.115090,-0.866025,0.000000,-0.500000
-0.042010,0.080479,0.135587,0.000000,1.000000,0.000000
-0.302242,-0.054065,-0.079095,-0.866025,0.000000,-0.500000
-0.148719,-0.169940,0.039019,-0.967263,0.000000,0.253777
-0.051469,-0.616432,0.018834,-0.871931,0.371391,0.319071
-0.000185,-0.123645,0.153752,-0.001205,0.000000,0.999999
0.148095,-0.257728,0.041323,0.963206,0.000000,0.268763
-0.088393,-0.584031,-0.055970,-0.784442,0.371391,-0.496709
0.085728,-0.517227,0.127634,0.557575,0.000000,0.830127
-0.087641,-0.249500,-0.126328,-0.570016,0.000000,-0.821634
0.025421,-0.403832,-0.151636,0.165340,0.000000,-0.986237
-0.285414,-0.033287,0.108242,-0.866025,0.000000,0.500000
0.189412,-0.008241,0.274523,0.866025,0.000000,0.500000
-0.093622,-0.131790,0.121962,-0.608912,0.000000,0.793238
0.129290,-0.565124,-0.034029,0.897898,0.371391,-0.236323
0.179194,-0.067591,0.292221,0.866025,0.000000,0.500000
-0.086276,-0.123385,-0.127264,-0.561139,0.000000,-0.827721
0.318897,-0.046779,0.050248,0.866025,0.000000,0.500000
0.115318,-0.204382,-0.101693,0.750026,0.000000,-0.661408
-0.087538,-0.257618,-0.126399,-0.569347,0.000000,-0.822097
0.153741,-0.382192,0.001861,0.999927,0.000000,0.012107
0.265478,0.080479,0.063795,0.000000,1.000000,0.000000
0.018643,0.047839,0.301297,0.000000,0.000000,1.000000
-0.121027,-0.187787,0.094827,-0.787157,0.000000,0.616753
0.136368,-0.037540,0.301297,0.000000,0.000000,1.000000
-0.121266,-0.025961,-0.301297,-0.000000,0.000000,-1.000000
0.170920,-0.061787,0.301297,0.000000,0.000000,1.000000
0.153748,-0.185152,-0.001106,0.999974,0.000000,-0.007190
0.108279,-0.570612,0.062965,0.802635,0.371391,0.466740
0.118573,-0.436891,0.097879,0.771193,0.000000,0.636602
0.093379,-0.249274,-0.122148,0.607332,0.000000,-0.794448
0.282148,0.034032,0.113899,0.866025,0.000000,0.500000
0.148185,-0.536247,0.040998,0.963793,0.000000,0.266651
0.069083,-0.566445,0.112082,0.487174,0.371391,0.790399
-0.236783,-0.054483,0.192473,-0.866025,0.000000,0.500000
0.191890,0.071381,-0.270231,0.866025,0.000000,-0.500000
0.052883,-0.319859,-0.144371,0.343951,0.000000,-0.938988
-0.153745,-0.140723,0.001496,-0.999953,0.000000,0.009731
0.150741,-0.340720,0.030282,0.980413,0.000000,0.196952
0.001468,0.080479,0.000526,0.000000,1.000000,0.000000
-0.132715,-0.079467,0.301297,0.000000,0.000000,1.000000
0.312665,0.028974,-0.061043,0.866025,0.000000,-0.500000
0.065512,-0.092586,-0.139097,0.426088,0.000000,-0.904682
0.259560,0.030383,0.153022,0.866025,0.000000,0.500000
0.325154,-0.028997,-0.039411,0.866025,0.000000,-0.500000
-0.048764,0.017903,-0.301297,-0.000000,0.000000,-1.000000
0.140548,-0.559938,0.017764,0.921148,0.371391,0.116423
-0.153643,-0.363231,0.005793,-0.999290,0.000000,0.037676
0.003961,-0.454595,-0.153701,0.025760,0.000000,-0.999668
0.238983,-0.078269,0.188663,0.866025,0.000000,0.500000
0.145078,-0.299652,0.050911,0.943586,0.000000,0.331126
0.307999,-0.042605,0.069124,0.866025,0.000000,0.500000
-0.133214,-0.091021,-0.076771,-0.866418,0.000000,-0.499319
0.314490,-0.057547,0.057881,0.866025,0.000000,0.500000
0.071304,-0.409695,0.136219,0.463756,0.000000,0.885963
0.047286,-0.501085,0.146300,0.307545,0.000000,0.951534
0.046840,-0.553467,-0.144200,0.286843,0.371391,-0.883057
-0.035334,-0.033862,-0.301297,-0.000000,0.000000,-1.000000
0.329153,0.010611,0.032484,0.866025,0.000000,0.500000
0.245916,-0.080479,-0.028805,0.000000,-1.000000,0.000000
-0.073978,-0.446324,-0.134785,-0.481151,0.000000,-0.876638
0.152058,-0.489408,-0.022763,0.988979,0.000000,-0.148053
-0.047839,-0.252604,-0.146120,-0.311145,0.000000,-0.950362
-0.117609,0.080479,-0.156354,0.000000,1.000000,0.000000
0.070458,-0.554344,-0.132726,0.435349,0.371391,-0.820086
-0.272657,-0.013512,0.130338,-0.866025,0.000000,0.500000
0.035241,-0.024479,0.301297,0.000000,0.000000,1.000000
0.147420,-0.240401,-0.043669,0.958817,0.000000,-0.284023
-0.118155,-0.349623,0.098382,-0.768478,0.000000,0.639877
-0.014212,-0.413106,0.153094,-0.092436,0.000000,0.995719
-0.279500,0.036587,0.118485,-0.866025,0.000000,0.500000
0.087411,-0.053253,0.301297,0.000000,0.000000,1.000000
0.048010,-0.402595,0.146064,0.312255,0.000000,0.949998
0.057845,-0.582332,0.090296,0.500841,0.371391,0.781811
-0.218979,-0.010722,-0.223311,-0.866025,0.000000,-0.500000
0.029064,-0.092421,0.150980,0.189028,0.000000,0.981972
0.007624,-0.352657,-0.153563,0.049589,0.000000,-0.998770
0.064197,-0.226335,-0.139709,0.417533,0.000000,-0.908662
-0.111473,-0.185369,-0.105894,-0.725017,0.000000,-0.688731
-0.040012,-0.217610,0.148455,-0.260239,0.000000,0.965544
0.238018,-0.050182,0.190335,0.866025,0.000000,0.500000
0.242235,0.015614,-0.183031,0.866025,0.000000,-0.500000
-0.146827,-0.515694,-0.045625,-0.954958,0.000000,-0.296741
-0.047464,-0.615889,-0.029035,-0.792033,0.371391,-0.484512
-0.098071,-0.587520,0.015308,-0.917369,0.371391,0.143190
0.236165,-0.039643,-0.193543,0.866025,0.000000,-0.500000
0.032225,0.072753,0.301297,0.000000,0.000000,1.000000
0.148274,-0.080479,-0.017573,0.000000,-1.000000,0.000000
-0.054433,-0.348905,0.143794,-0.354033,0.000000,0.935233
0.214384,0.005795,0.231270,0.866025,0.000000,0.500000
-0.087703,-0.555057,0.120667,-0.545883,0.371391,0.751053
-0.085601,0.022211,0.301297,0.000000,0.000000,1.000000
-0.041497,-0.617897,-0.032248,-0.733130,0.371391,-0.569728
-0.005930,-0.234542,0.153638,-0.038571,0.000000,0.999256
0.126690,-0.389733,-0.087117,0.823988,0.000000,-0.566607
-0.015155,-0.593785,0.088337,-0.156995,0.371391,0.915107
-0.307345,-0.076824,0.070256,-0.866025,0.000000,0.500000
0.117657,0.056887,0.301297,0.000000,0.000000,1.000000
-0.151112,-0.549028,-0.028372,-0.982826,0.000000,-0.184532
-0.153597,-0.344887,0.006903,-0.998992,0.000000,0.044894
0.246601,0.020953,0.175468,0.866025,0.000000,0.500000
0.076399,-0.550513,-0.133428,0.496896,0.000000,-0.867810
0.226692,-0.030374,0.209952,0.866025,0.000000,0.500000
0.120433,0.011622,0.301297,0.000000,0.000000,1.000000
-0.032838,-0.306173,0.150205,-0.213578,0.000000,0.976926
-0.090650,-0.285100,-0.124187,-0.589584,0.000000,-0.807707
-0.301455,-0.030634,0.080459,-0.866025,0.000000,0.500000
0.045067,-0.620748,-0.017011,0.868659,0.371391,-0.327873
0.062156,-0.071825,-0.301297,-0.000000,0.000000,-1.000000
0.058488,-0.599726,0.055301,0.674656,0.371391,0.637894
0.052379,-0.080479,-0.251174,0.000000,-1.000000,0.000000
0.074255,-0.144623,-0.134633,0.482952,0.000000,-0.875647
-0.139591,-0.475806,-0.064453,-0.907895,0.000000,-0.419198
-0.313155,0.021137,0.060193,-0.866025,0.000000,0.500000
0.064575,-0.601850,0.042356,0.776372,0.371391,0.509231
-0.316665,0.069532,0.054114,-0.866025,0.000000,0.500000
0.311517,-0.048912,0.063031,0.866025,0.000000,0.500000
-0.068415,-0.080479,-0.101832,0.000000,-1.000000,0.000000
0.067365,-0.080479,0.054424,0.000000,-1.000000,0.000000
-0.136616,-0.198786,0.070540,-0.888544,0.000000,0.458791
-0.083968,-0.015914,0.301297,0.000000,0.000000,1.000000
-0.168576,-0.080479,-0.062565,0.000000,-1.000000,0.000000
-0.243610,0.053737,0.180649,-0.866025,0.000000,0.500000
-0.055629,-0.450791,0.143336,-0.361812,0.000000,0.932251
0.065716,-0.440587,0.139000,0.427416,0.000000,0.904055
-0.076664,-0.048758,-0.301297,-0.000000,0.000000,-1.000000
-0.063390,-0.080479,0.101311,0.000000,-1.000000,0.000000
-0.016719,-0.495234,-0.152840,-0.108743,0.000000,-0.994070
0.344552,-0.057121,-0.005812,0.866025,0.000000,-0.500000
-0.054976,-0.252703,-0.143587,-0.357565,0.000000,-0.933888
-0.069151,-0.585359,-0.075771,-0.625886,0.371391,-0.685810
0.129620,-0.208186,-0.082694,0.843047,0.000000,-0.537840
0.041787,0.047544,0.301297,0.000000,0.000000,1.000000
0.151372,-0.060222,-0.301297,-0.000000,0.000000,-1.000000
0.107289,-0.574210,-0.053129,0.832047,0.371391,-0.412027
0.104970,-0.165066,-0.112343,0.682723,0.000000,-0.730678
0.024272,0.071670,0.301297,0.000000,0.000000,1.000000
-0.312079,-0.036447,-0.062057,-0.866025,0.000000,-0.500000
-0.138734,-0.237735,0.066277,-0.902321,0.000000,0.431065
-0.123128,-0.060245,0.301297,0.000000,0.000000,1.000000
-0.089796,-0.080479,-0.212737,0.000000,-1.000000,0.000000
0.274400,0.080479,0.071770,0.000000,1.000000,0.000000
0.050889,-0.601686,0.058423,0.609831,0.371391,0.700125
-0.034331,-0.628734,0.010470,-0.888096,0.371391,0.270840
0.004510,0.080479,-0.046892,0.000000,1.000000,0.000000
-0.218624,0.011347,0.223926,-0.866025,0.000000,0.500000
0.013790,-0.609638,-0.063779,0.196220,0.371391,-0.907506
0.049454,-0.534465,-0.145582,0.321645,0.000000,-0.946860
-0.043168,-0.119059,-0.147568,-0.280762,0.000000,-0.959777
0.024830,-0.276806,0.151734,0.161493,0.000000,0.986874
0.124166,-0.368756,0.090678,0.807573,0.000000,0.589767
-0.174938,-0.053194,-0.299592,-0.866025,0.000000,-0.500000
-0.015192,-0.541923,0.153000,-0.098806,0.000000,0.995107
0.060087,-0.179752,0.141525,0.390803,0.000000,0.920474
0.138454,-0.221025,0.066861,0.900499,0.000000,0.434859
-0.136955,0.064065,-0.301297,-0.000000,0.000000,-1.000000
-0.175760,-0.057394,-0.298168,-0.866025,0.000000,-0.500000
0.090612,0.080479,-0.093734,0.000000,1.000000,0.000000
0.130607,-0.433774,0.081128,0.849461,0.000000,0.527651
0.008912,-0.039248,-0.301297,-0.000000,0.000000,-1.000000
-0.136028,-0.324144,-0.071666,-0.884725,0.000000,-0.466113
-0.065469,-0.226523,-0.139117,-0.425805,0.000000,-0.904815
0.140630,-0.296727,0.062153,0.914653,0.000000,0.404240
-0.018957,-0.631576,0.025185,-0.558375,0.371391,0.741813
-0.028914,-0.080479,0.226026,0.000000,-1.000000,0.000000
0.114574,-0.134898,0.102530,0.745188,0.000000,0.666854
0.152035,-0.232167,0.022917,0.988829,0.000000,0.149053
0.032852,-0.155300,0.150202,0.213668,0.000000,0.976906
0.127914,-0.080479,0.150844,0.000000,-1.000000,0.000000
-0.203529,0.017588,0.250071,-0.866025,0.000000,0.500000
-0.001137,0.080479,0.003973,0.000000,1.000000,0.000000
-0.191367,-0.035212,0.271136,-0.866025,0.000000,0.500000
0.064062,-0.080479,0.247321,0.000000,-1.000000,0.000000
0.092111,-0.573592,0.077958,0.708718,0.371391,0.599823
0.146788,-0.556116,-0.014913,0.923722,0.371391,-0.093847
0.013907,-0.080479,-0.009739,0.000000,-1.000000,0.000000
0.147788,-0.101172,-0.042407,0.961211,0.000000,-0.275816
-0.043782,-0.593471,0.078759,-0.451124,0.371391,0.811515
0.286580,-0.069562,-0.106223,0.866025,0.000000,-0.500000
-0.229252,0.078748,0.205517,-0.866025,0.000000,0.500000
0.153296,-0.419531,-0.011839,0.997031,0.000000,-0.077002
-0.101826,-0.575606,0.058785,-0.804098,0.371391,0.464215
0.065423,-0.542008,0.139139,0.425506,0.000000,0.904955
-0.263415,-0.076864,-0.146346,-0.866025,0.000000,-0.500000
0.153565,-0.438722,-0.007582,0.998783,0.000000,-0.049316
-0.014326,-0.178475,-0.153083,-0.093177,0.000000,-0.995650
0.184547,0.038769,0.282949,0.866025,0.000000,0.500000
0.025366,-0.208884,0.151645,0.164982,0.000000,0.986297
0.085756,-0.023516,-0.301297,-0.000000,0.000000,-1.000000
0.253582,-0.037478,-0.163376,0.866025,0.000000,-0.500000
-0.295549,-0.015715,-0.090689,-0.866025,0.000000,-0.500000
0.133119,-0.562402,0.035917,0.896422,0.371391,0.241862
0.142168,-0.085800,-0.058549,0.924656,0.000000,-0.380804
0.132593,-0.063926,-0.301297,-0.000000,0.000000,-1.000000
-0.154465,0.080479,-0.003781,0.000000,1.000000,0.000000
-0.033556,0.024380,-0.301297,-0.000000,0.000000,-1.000000
0.188698,-0.073110,-0.275759,0.866025,0.000000,-0.500000
-0.113063,-0.430278,0.104194,-0.735361,0.000000,0.677676
0.224135,-0.055564,0.214381,0.866025,0.000000,0.500000
-0.240416,-0.079975,0.186181,-0.866025,0.000000,0.500000
-0.145275,-0.171370,-0.050348,-0.944865,0.000000,-0.327459
0.337623,0.042382,0.017813,0.866025,0.000000,0.500000
0.151826,-0.080479,-0.209669,0.000000,-1.000000,0.000000
-0.002241,-0.080479,-0.002535,0.000000,-1.000000,0.000000
-0.060386,0.080479,-0.032021,0.000000,1.000000,0.000000
-0.076028,-0.593158,-0.049259,-0.779220,0.371391,-0.504862
-0.283077,-0.077191,-0.112291,-0.866025,0.000000,-0.500000
-0.054596,-0.016965,0.301297,0.000000,0.000000,1.000000
-0.168022,0.080479,-0.156572,0.000000,1.000000,0.000000
0.104490,-0.321071,-0.112790,0.679597,0.000000,-0.733586
0.016983,-0.417656,0.152811,0.110458,0.000000,0.993881
-0.133358,0.022699,-0.301297,-0.000000,0.000000,-1.000000
-0.107717,-0.305923,0.109712,-0.700590,0.000000,0.713564
0.026840,-0.626627,0.028477,0.636830,0.371391,0.675660
-0.067008,-0.556170,-0.131357,-0.421913,0.371391,-0.827078
-0.042002,-0.461862,-0.147904,-0.273177,0.000000,-0.961964
0.051287,-0.038173,-0.301297,-0.000000,0.000000,-1.000000
0.004655,-0.274803,0.153682,0.030278,0.000000,0.999542
-0.246124,0.054772,0.176294,-0.866025,0.000000,0.500000
0.309166,0.039770,0.067102,0.866025,0.000000,0.500000
-0.050375,-0.570863,0.114257,-0.374569,0.371391,0.849569
-0.046441,-0.080479,-0.023712,0.000000,-1.000000,0.000000
-0.032060,-0.127150,0.150373,-0.208517,0.000000,0.978019
-0.035670,0.080479,0.280226,0.000000,1.000000,0.000000
0.275691,-0.060019,0.125083,0.866025,0.000000,0.500000
0.325090,-0.007177,-0.039522,0.866025,0.000000,-0.500000
-0.342751,-0.044976,0.008931,-0.866025,0.000000,0.500000
0.230481,0.056894,-0.203388,0.866025,0.000000,-0.500000
0.102084,-0.572450,-0.067587,0.774176,0.371391,-0.512562
-0.083304,0.003559,0.301297,0.000000,0.000000,1.000000
-0.253410,-0.063697,-0.163675,-0.866025,0.000000,-0.500000
0.003698,-0.341029,-0.153708,0.024051,0.000000,-0.999711
-0.024034,-0.215271,0.151862,-0.156317,0.000000,0.987707
0.064892,-0.206553,0.139387,0.422059,0.000000,0.906568
-0.222857,0.029208,-0.216595,-0.866025,0.000000,-0.500000
0.067942,-0.417395,0.137926,0.441893,0.000000,0.897068
-0.029481,-0.446276,-0.150899,-0.191745,0.000000,-0.981445
0.053400,-0.522754,-0.144181,0.347315,0.000000,-0.937749
0.151796,-0.132273,0.024447,0.987278,0.000000,0.159003
-0.173706,0.080479,-0.035949,0.000000,1.000000,0.000000
-0.297124,-0.034664,-0.087960,-0.866025,0.000000,-0.500000
0.318186,0.064206,0.051480,0.866025,0.000000,0.500000
0.151744,-0.484061,-0.024766,0.986941,0.000000,-0.161080
0.003459,-0.074014,-0.301297,-0.000000,0.000000,-1.000000
-0.047425,-0.154626,0.146255,-0.308453,0.000000,0.951240
0.210778,-0.055761,-0.237516,0.866025,0.000000,-0.500000
0.094306,-0.417467,-0.121434,0.613361,0.000000,-0.789803
-0.176983,0.025825,0.296051,-0.866025,0.000000,0.500000
-0.025519,-0.606388,-0.065450,-0.337282,0.371391,-0.865049
0.037156,-0.452602,-0.149195,0.241664,0.000000,-0.970360
0.084469,-0.369930,0.128471,0.549382,0.000000,0.835571
-0.115437,0.003883,0.301297,0.000000,0.000000,1.000000
-0.215418,-0.077802,0.229479,-0.866025,0.000000,0.500000
0.124235,-0.152072,0.090584,0.808018,0.000000,0.589158
0.035781,0.080479,-0.213957,0.000000,1.000000,0.000000
0.106499,-0.269079,-0.110895,0.692666,0.000000,-0.721258
-0.150127,-0.093747,-0.033190,-0.976423,0.000000,-0.215865
-0.118595,-0.090179,-0.097852,-0.771335,0.000000,-0.636429
-0.072765,-0.247908,-0.135444,-0.473260,0.000000,-0.880923
0.107479,-0.184511,-0.109945,0.699043,0.000000,-0.715080
0.274405,0.049584,0.127310,0.866025,0.000000,0.500000
-0.298276,-0.079496,-0.085964,-0.866025,0.000000,-0.500000
0.129865,-0.560590,-0.054051,0.857194,0.371391,-0.356772
-0.331677,0.042822,-0.028113,-0.866025,0.000000,-0.500000
0.040731,-0.595031,0.077680,0.431161,0.371391,0.822295
0.199952,0.056516,0.256266,0.866025,0.000000,0.500000
0.091916,-0.074197,0.301297,0.000000,0.000000,1.000000
0.019715,-0.562621,0.136121,0.133089,0.371391,0.918889
-0.303664,-0.014578,0.076631,-0.866025,0.000000,0.500000
-0.007527,-0.080479,-0.040909,0.000000,-1.000000,0.000000
0.034943,-0.299416,0.149729,0.227268,0.000000,0.973832
-0.344291,0.030131,0.006264,-0.866025,0.000000,0.500000
-0.105107,-0.037963,-0.301297,-0.000000,0.000000,-1.000000
-0.212787,0.067451,0.234036,-0.866025,0.000000,0.500000
-0.258687,-0.080479,-0.059452,0.000000,-1.000000,0.000000
0.260429,-0.000248,0.151518,0.866025,0.000000,0.500000
-0.098354,-0.286477,-0.118179,-0.639690,0.000000,-0.768633
-0.117368,-0.571267,0.040776,-0.877054,0.371391,0.304705
-0.097509,-0.160512,0.118877,-0.634198,0.000000,0.773171
-0.105720,-0.012304,0.301297,0.000000,0.000000,1.000000
-0.013208,-0.008113,-0.301297,-0.000000,0.000000,-1.000000
0.040097,-0.620387,0.027683,0.764071,0.371391,0.527507
0.033371,0.080479,0.217950,0.000000,1.000000,0.000000
-0.130139,-0.191817,-0.081875,-0.846420,0.000000,-0.532515
0.034833,-0.556042,0.143490,0.219030,0.371391,0.902272
-0.148370,-0.473478,-0.040325,-0.964993,0.000000,-0.262275
0.123789,-0.381059,0.091192,0.805120,0.000000,0.593112
0.066198,-0.286606,0.138772,0.430551,0.000000,0.902566
-0.146044,-0.365744,0.048072,-0.949865,0.000000,0.312659
-0.058182,-0.551225,-0.142319,-0.378413,0.000000,-0.925637
-0.094516,-0.414320,0.121270,-0.614732,0.000000,0.788736
0.204595,-0.041135,-0.248224,0.866025,0.000000,-0.500000
-0.118889,-0.566451,-0.056550,-0.838461,0.371391,-0.398814
-0.268172,0.031174,0.138106,-0.866025,0.000000,0.500000
0.033629,-0.630203,0.000585,0.928336,0.371391,0.016154
-0.182509,-0.060121,-0.286479,-0.866025,0.000000,-0.500000
0.244047,-0.039289,-0.179892,0.866025,0.000000,-0.500000
-0.136648,0.034326,-0.301297,-0.000000,0.000000,-1.000000
0.056350,-0.613965,0.016083,0.892824,0.371391,0.254823
0.045707,-0.563779,0.127836,0.312594,0.371391,0.874273
0.042549,-0.601542,0.065015,0.508435,0.371391,0.776893
0.063524,-0.045677,0.301297,0.000000,0.000000,1.000000
-0.059802,-0.064820,0.301297,0.000000,0.000000,1.000000
-0.137087,-0.381086,0.069620,-0.891610,0.000000,0.452805
-0.150407,-0.453788,-0.031898,-0.978243,0.000000,-0.207463
0.153750,-0.412332,-0.000845,0.999985,0.000000,-0.005493
-0.151006,-0.335518,-0.028928,-0.982141,0.000000,-0.188147
-0.341218,0.049309,-0.011587,-0.866025,0.000000,-0.500000
0.033775,-0.629201,-0.009821,0.891553,0.371391,-0.259233
0.038708,0.080479,0.032551,0.000000,1.000000,0.000000
-0.153618,-0.469345,-0.006422,-0.999127,0.000000,-0.041770
-0.002546,0.080479,0.279716,0.000000,1.000000,0.000000
-0.173280,0.034573,0.301297,0.000000,0.000000,1.000000
-0.148181,-0.435154,0.041014,-0.963764,0.000000,0.266755
0.344254,-0.014005,0.006328,0.866025,0.000000,0.500000
0.056073,-0.593582,-0.070320,0.578863,0.371391,-0.725939
0.173785,0.029403,-0.301297,-0.000000,0.000000,-1.000000
-0.092262,-0.299571,0.122994,-0.600067,0.000000,0.799950
-0.050727,-0.105041,0.145143,-0.329926,0.000000,0.944007
-0.130111,-0.397804,-0.081920,-0.846236,0.000000,-0.532808
0.186638,-0.057755,0.279327,0.866025,0.000000,0.500000
-0.078211,-0.600975,0.007521,-0.924213,0.371391,0.088879
-0.282046,-0.061207,0.114075,-0.866025,0.000000,0.500000
-0.298472,-0.036819,-0.085625,-0.866025,0.000000,-0.500000
-0.224707,-0.070045,0.213389,-0.866025,0.000000,0.500000
-0.144040,-0.234243,-0.053780,-0.936829,0.000000,-0.349787
0.059150,0.070540,-0.301297,-0.000000,0.000000,-1.000000
0.024220,-0.621801,-0.039753,0.483089,0.371391,-0.792902
-0.015645,-0.377354,0.152954,-0.101752,0.000000,0.994810
0.085328,-0.061055,0.301297,0.000000,0.000000,1.000000
0.070816,-0.116813,-0.136473,0.460586,0.000000,-0.887615
-0.071125,-0.437945,0.136312,-0.462597,0.000000,0.886569
-0.119129,-0.574579,-0.002505,-0.928272,0.371391,-0.019518
0.089963,-0.354230,-0.124685,0.585119,0.000000,-0.810947
-0.045601,-0.609309,0.047378,-0.643866,0.371391,0.668959
-0.153745,-0.197645,0.001524,-0.999951,0.000000,0.009915
-0.152701,-0.170932,0.017948,-0.993163,0.000000,0.116734
0.286264,-0.050084,-0.106770,0.866025,0.000000,-0.500000
-0.132629,-0.286241,0.077777,-0.862616,0.000000,0.505859
0.317730,-0.035501,0.052270,0.866025,0.000000,0.500000
0.010261,-0.177256,0.153409,0.066735,0.000000,0.997771
0.194290,0.056873,0.266073,0.866025,0.000000,0.500000
0.151472,-0.135783,0.026380,0.985171,0.000000,0.171574
0.266767,0.080479,0.098418,0.000000,1.000000,0.000000
-0.083194,-0.597423,-0.011848,-0.919203,0.371391,-0.130902
-0.091517,-0.577652,0.068696,-0.742554,0.371391,0.557389
0.287874,0.031764,-0.103982,0.866025,0.000000,-0.500000
0.140421,-0.550276,-0.062623,0.913294,0.000000,-0.407300
0.079233,-0.212953,-0.131765,0.515328,0.000000,-0.856993
0.087879,-0.239306,-0.126163,0.571563,0.000000,-0.820558
-0.253098,0.060813,0.164215,-0.866025,0.000000,0.500000
-0.152617,-0.233316,-0.018651,-0.992615,0.000000,-0.121309
-0.151273,-0.477680,-0.027498,-0.983877,0.000000,-0.178848
-0.102340,-0.574237,-0.062050,-0.793941,0.371391,-0.481380
0.033793,-0.607805,0.059091,0.460924,0.371391,0.805989
-0.149348,-0.285078,0.036536,-0.971356,0.000000,0.237628
0.143456,-0.472624,0.055319,0.933033,0.000000,0.359792
0.069509,-0.316913,0.137143,0.452083,0.000000,0.891976
-0.151886,-0.436254,-0.023881,-0.987864,0.000000,-0.155319
-0.214639,0.080479,-0.140167,0.000000,1.000000,0.000000
0.076083,-0.602589,-0.000988,0.928398,0.371391,-0.012059
-0.155175,-0.053313,0.301297,0.000000,0.000000,1.000000
-0.125954,0.060207,0.301297,0.000000,0.000000,1.000000
0.045244,-0.598981,0.067954,0.514563,0.371391,0.772848
-0.125955,0.037414,0.301297,0.000000,0.000000,1.000000
-0.112838,-0.070863,-0.301297,-0.000000,0.000000,-1.000000
0.197116,-0.012088,0.261179,0.866025,0.000000,0.500000
-0.311451,0.012747,-0.063144,-0.866025,0.000000,-0.500000
0.126132,-0.361445,-0.087923,0.820361,0.000000,-0.571845
0.084508,-0.080479,0.213450,0.000000,-1.000000,0.000000
0.010450,-0.173411,0.153397,0.067968,0.000000,0.997687
-0.153529,-0.274342,-0.008284,-0.998548,0.000000,-0.053878
0.220914,-0.080479,-0.154968,0.000000,-1.000000,0.000000
-0.152866,-0.327133,-0.016481,-0.994238,0.000000,-0.107193
0.131896,-0.096030,-0.079014,0.857848,0.000000,-0.513903
-0.128019,-0.568813,-0.000898,-0.928454,0.371391,-0.006514
0.135131,-0.140575,-0.073344,0.878887,0.000000,-0.477030
-0.124637,-0.462988,0.090030,-0.810634,0.000000,0.585553
-0.098839,-0.406520,-0.117774,-0.642845,0.000000,-0.765996
0.049794,-0.080479,-0.187538,0.000000,-1.000000,0.000000
0.077445,-0.601635,0.004161,0.927139,0.371391,0.049818
0.068515,-0.297797,0.137642,0.445620,0.000000,0.895222
0.019455,-0.105842,-0.152516,0.126533,0.000000,-0.991962
-0.070108,-0.237199,-0.136838,-0.455977,0.000000,-0.889991
-0.079101,0.080479,0.088093,0.000000,1.000000,0.000000
-0.048362,-0.290013,0.145948,-0.314545,0.000000,0.949243
0.078777,-0.080479,0.063090,0.000000,-1.000000,0.000000
0.150236,-0.259699,0.032695,0.977129,0.000000,0.212646
-0.320010,-0.005426,0.048321,-0.866025,0.000000,0.500000
-0.116565,-0.156500,-0.100261,-0.758137,0.000000,-0.652095
0.008759,-0.560850,-0.139992,0.057977,0.371391,-0.926665
0.258800,0.053575,0.154339,0.866025,0.000000,0.500000
-0.027318,-0.050434,-0.301297,-0.000000,0.000000,-1.000000
-0.259545,0.033702,-0.153049,-0.866025,0.000000,-0.500000
0.060084,-0.598574,-0.056188,0.678151,0.371391,-0.634177
-0.247287,-0.008356,0.174280,-0.866025,0.000000,0.500000
-0.138381,-0.051547,0.301297,0.000000,0.000000,1.000000
0.061645,-0.266401,0.140853,0.400939,0.000000,0.916105
0.145724,-0.427828,0.049034,0.947783,0.000000,0.318917
-0.124390,-0.098567,-0.090370,-0.809031,0.000000,-0.587766
0.231837,-0.046291,-0.201040,0.866025,0.000000,-0.500000
0.112321,-0.547967,0.104994,0.730533,0.000000,0.682877
-0.032941,-0.485307,-0.150182,-0.214250,0.000000,-0.976779
-0.096846,-0.009289,0.301297,0.000000,0.000000,1.000000
-0.091316,-0.592505,0.007136,-0.925655,0.371391,0.072336
-0.176263,-0.080479,0.057387,0.000000,-1.000000,0.000000
-0.139748,-0.147799,-0.064111,-0.908918,0.000000,-0.416974
0.124888,0.080479,0.024457,0.000000,1.000000,0.000000
0.091822,-0.080479,-0.183609,0.000000,-1.000000,0.000000
-0.264533,0.035198,0.144410,-0.866025,0.000000,0.500000
-0.014194,-0.166550,-0.153096,-0.092319,0.000000,-0.995730
0.144846,-0.475012,0.051570,0.942073,0.000000,0.335409
-0.307350,0.034960,-0.070248,-0.866025,0.000000,-0.500000
-0.178462,-0.009042,0.293489,-0.866025,0.000000,0.500000
0.118894,0.080261,0.301297,0.000000,0.000000,1.000000
-0.075849,-0.136448,-0.133741,-0.493320,0.000000,-0.869848
-0.042453,-0.570897,-0.117375,-0.315796,0.371391,-0.873122
-0.045015,0.080479,0.095861,0.000000,1.000000,0.000000
0.007529,-0.623450,0.043368,0.158811,0.371391,0.914794
0.028314,0.080479,-0.016157,0.000000,1.000000,0.000000
-0.072090,-0.382619,0.135804,-0.468870,0.000000,0.883267
-0.066968,0.020154,-0.301297,-0.000000,0.000000,-1.000000
-0.109376,-0.080479,0.028136,0.000000,-1.000000,0.000000
0.109432,-0.323928,-0.108002,0.711740,0.000000,-0.702443
-0.188447,0.001908,-0.276194,-0.866025,0.000000,-0.500000
-0.035165,-0.465673,-0.149677,-0.228714,0.000000,-0.973494
-0.043123,-0.441995,-0.147581,-0.280471,0.000000,-0.959862
0.094804,-0.080479,0.022306,0.000000,-1.000000,0.000000
0.061751,-0.080479,0.037408,0.000000,-1.000000,0.000000
-0.001661,-0.552696,0.152793,-0.010090,0.371391,0.928422
-0.039973,-0.234514,-0.148465,-0.259984,0.000000,-0.965613
-0.022359,0.013003,-0.301297,-0.000000,0.000000,-1.000000
0.250552,0.019257,-0.168625,0.866025,0.000000,-0.500000
0.103375,0.048676,-0.301297,-0.000000,0.000000,-1.000000
0.111826,-0.145362,0.105521,0.727314,0.000000,0.686305
-0.097975,0.063724,-0.301297,-0.000000,0.000000,-1.000000
-0.117292,-0.510006,-0.099410,-0.762863,0.000000,-0.646560
-0.055644,-0.611928,0.026728,-0.836931,0.371391,0.402014
0.331401,0.055364,0.028591,0.866025,0.000000,0.500000
0.102385,-0.583867,-0.022717,0.906433,0.371391,-0.201116
0.128313,-0.329801,0.084708,0.834546,0.000000,0.550938
-0.013925,-0.561187,-0.139051,-0.092520,0.371391,-0.923855
-0.032545,-0.136708,0.150268,-0.211669,0.000000,0.977341
0.310547,-0.007816,-0.064710,0.866025,0.000000,-0.500000
-0.184115,0.018984,-0.283698,-0.866025,0.000000,-0.500000
0.043675,-0.415797,-0.147419,0.284062,0.000000,-0.958806
-0.153557,-0.180515,-0.007747,-0.998730,0.000000,-0.050387
0.141698,-0.486384,0.059678,0.921599,0.000000,0.388143
0.228678,0.031152,-0.206512,0.866025,0.000000,-0.500000
-0.343560,0.008835,0.007530,-0.866025,0.000000,0.500000
0.165661,0.066264,-0.301297,-0.000000,0.000000,-1.000000
0.086139,-0.373924,-0.127357,0.560246,0.000000,-0.828326
-0.038979,-0.486082,0.148729,-0.253517,0.000000,0.967331
-0.061019,-0.019131,0.301297,0.000000,0.000000,1.000000
0.331729,-0.064876,0.028022,0.866025,0.000000,0.500000
0.107569,-0.552155,-0.109692,0.650086,0.371391,-0.662916
0.117804,-0.019265,-0.301297,-0.000000,0.000000,-1.000000
0.233091,-0.065725,0.198868,0.866025,0.000000,0.500000
-0.060387,0.051437,-0.301297,-0.000000,0.000000,-1.000000
-0.012933,-0.554305,-0.149771,-0.079877,0.371391,-0.925034
0.300060,0.011283,0.082874,0.866025,0.000000,0.500000
0.042344,-0.268994,-0.147806,0.275406,0.000000,-0.961328
-0.052109,-0.080479,0.023306,0.000000,-1.000000,0.000000
0.186729,0.024515,0.279170,0.866025,0.000000,0.500000
0.047806,-0.427029,-0.146131,0.310931,0.000000,-0.950433
-0.318666,0.001046,-0.050648,-0.866025,0.000000,-0.500000
0.136655,-0.530056,-0.070463,0.888803,0.000000,-0.458290
0.290049,0.025840,-0.100214,0.866025,0.000000,-0.500000
0.119622,-0.498123,0.096594,0.778018,0.000000,0.628242
0.345225,-0.068392,-0.004646,0.866025,0.000000,-0.500000
-0.148120,-0.319113,0.041232,-0.963371,0.000000,0.268171
0.065562,-0.542046,-0.139073,0.426415,0.000000,-0.904528
-0.199134,-0.005057,-0.257683,-0.866025,0.000000,-0.500000
0.316714,0.070427,0.054029,0.866025,0.000000,0.500000
-0.102740,-0.585209,-0.003851,-0.927825,0.371391,-0.034775
0.129079,-0.146635,-0.083536,0.839528,0.000000,-0.543316
0.020882,-0.607720,-0.064927,0.284279,0.371391,-0.883886
-0.141035,-0.276069,-0.061228,-0.917287,0.000000,-0.398226
-0.273611,0.080479,-0.065413,0.000000,1.000000,0.000000
-0.001805,-0.080479,-0.021440,0.000000,-1.000000,0.000000
0.127653,-0.352203,-0.085699,0.830253,0.000000,-0.557386
-0.292287,-0.074842,0.096338,-0.866025,0.000000,0.500000
-0.068522,0.080479,0.280053,0.000000,1.000000,0.000000
0.004945,-0.552701,-0.152715,0.030051,0.371391,-0.927990
-0.103558,-0.380893,0.113646,-0.673538,0.000000,0.739152
-0.135052,-0.159140,-0.073489,-0.878376,0.000000,-0.477969
-0.224986,0.022575,-0.212907,-0.866025,0.000000,-0.500000
-0.212255,-0.042465,0.234958,-0.866025,0.000000,0.500000
-0.076563,-0.601906,-0.009413,-0.921538,0.371391,-0.113303
0.111980,-0.202200,-0.105358,0.728312,0.000000,-0.685246
0.155399,-0.059248,0.301297,0.000000,0.000000,1.000000
-0.205184,0.004452,-0.247204,-0.866025,0.000000,-0.500000
0.091946,-0.581808,0.056736,0.790155,0.371391,0.487570
0.135359,-0.384213,0.072922,0.880373,0.000000,0.474281
0.293441,-0.080479,0.022275,0.000000,-1.000000,0.000000
0.018430,-0.314722,-0.152644,0.119865,0.000000,-0.992790
0.015694,-0.377701,0.152949,0.102076,0.000000,0.994777
0.133287,-0.405864,-0.076645,0.866893,0.000000,-0.498494
0.079047,-0.260890,0.131876,0.514118,0.000000,0.857720
-0.058694,0.080479,-0.014112,0.000000,1.000000,0.000000
-0.150873,-0.187566,-0.029617,-0.981272,0.000000,-0.192626
-0.013583,-0.366039,-0.153151,-0.088346,0.000000,-0.996090
-0.194398,-0.030359,0.265887,-0.866025,0.000000,0.500000
-0.116471,-0.574822,-0.023317,-0.910412,0.371391,-0.182263
0.125025,-0.432933,-0.089490,0.813161,0.000000,-0.582039
-0.107361,-0.386635,-0.110061,-0.698271,0.000000,-0.715834
0.136235,-0.213281,-0.071272,0.886071,0.000000,-0.463550
0.012254,-0.140378,0.153263,0.079702,0.000000,0.996819
0.147946,-0.508850,0.041854,0.962236,0.000000,0.272215
-0.209967,-0.010633,-0.238920,-0.866025,0.000000,-0.500000
-0.144436,-0.162412,-0.052708,-0.939405,0.000000,-0.342810
0.025651,-0.476760,-0.151597,0.166832,0.000000,-0.985985
0.016189,-0.108534,0.152898,0.105292,0.000000,0.994441
0.129786,-0.465373,-0.082434,0.844124,0.000000,-0.536148
0.075359,-0.114159,-0.134018,0.490131,0.000000,-0.871649
0.173937,0.007665,0.301297,0.000000,0.000000,1.000000
-0.087428,-0.170597,0.126476,-0.568628,0.000000,0.822595
-0.244857,0.077310,-0.178488,-0.866025,0.000000,-0.500000
-0.002131,-0.047230,-0.301297,-0.000000,0.000000,-1.000000
-0.097447,-0.093857,0.118927,-0.633795,0.000000,0.773501
-0.002031,-0.440902,0.153739,-0.013210,0.000000,0.999913
-0.030249,0.080479,0.006119,0.000000,1.000000,0.000000
-0.087457,-0.247464,0.126456,-0.568818,0.000000,0.822463
0.218578,-0.025171,0.224005,0.866025,0.000000,0.500000
-0.142675,-0.559279,-0.001278,-0.928439,0.371391,-0.008319
-0.120819,-0.105171,-0.095093,-0.785801,0.000000,-0.618480
0.095533,-0.575808,0.068005,0.756403,0.371391,0.538446
0.186804,0.002447,-0.279039,0.866025,0.000000,-0.500000
0.105767,-0.364087,-0.111593,0.687906,0.000000,-0.725800
0.270821,-0.063793,-0.133518,0.866025,0.000000,-0.500000
0.291081,-0.009859,0.098426,0.866025,0.000000,0.500000
0.105805,-0.296927,-0.111558,0.688151,0.000000,-0.725567
-0.297608,-0.034671,-0.087122,-0.866025,0.000000,-0.500000
-0.042805,-0.547021,-0.147673,-0.278405,0.000000,-0.960464
0.014632,-0.493286,0.153054,0.095164,0.000000,0.995462
-0.013279,0.080479,0.050151,0.000000,1.000000,0.000000
0.151993,-0.330928,0.023193,0.988557,0.000000,0.150847
-0.064709,-0.568301,-0.111376,-0.466430,0.371391,-0.802815
-0.020960,-0.518923,-0.152317,-0.136323,0.000000,-0.990664
0.090515,-0.297305,0.124285,0.588710,0.000000,0.808345
-0.141725,-0.519064,0.059614,-0.921775,0.000000,0.387725
0.074340,-0.351849,0.134586,0.483505,0.000000,0.875341
-0.302387,0.025891,0.078843,-0.866025,0.000000,0.500000
0.315921,0.065211,0.055403,0.866025,0.000000,0.500000
0.202775,0.052265,0.251377,0.866025,0.000000,0.500000
-0.340016,0.023866,-0.013669,-0.866025,0.000000,-0.500000
0.284569,0.069764,-0.109706,0.866025,0.000000,-0.500000
0.035574,-0.479904,-0.149580,0.231373,0.000000,-0.972865
0.001515,0.075854,-0.301297,-0.000000,0.000000,-1.000000
-0.030749,-0.626368,0.024842,-0.722226,0.371391,0.583489
-0.336147,0.034258,-0.020371,-0.866025,0.000000,-0.500000
-0.054289,-0.128671,0.143849,-0.353096,0.000000,0.935587
0.011378,-0.616533,0.053453,0.193306,0.371391,0.908131
0.054405,-0.206426,0.143805,0.353848,0.000000,0.935303
-0.010573,-0.018851,-0.301297,-0.000000,0.000000,-1.000000
0.045245,-0.615536,0.033311,0.747689,0.371391,0.550482
0.321549,0.003985,0.045654,0.866025,0.000000,0.500000
-0.256472,-0.008416,0.158371,-0.866025,0.000000,0.500000
0.057741,-0.175858,-0.142498,0.375543,0.000000,-0.926805
-0.066101,-0.139977,0.138818,-0.429918,0.000000,0.902868
0.065125,-0.324242,-0.139279,0.423570,0.000000,-0.905863
-0.010841,-0.565102,-0.133287,-0.075271,0.371391,-0.925421
-0.066874,-0.185615,-0.138447,-0.434946,0.000000,-0.900457
0.044977,-0.365373,-0.147026,0.292532,0.000000,-0.956256
0.061078,-0.595245,-0.062491,0.648979,0.371391,-0.663999
-0.097927,-0.579813,0.052493,-0.818320,0.371391,0.438658
0.213552,-0.056498,-0.232711,0.866025,0.000000,-0.500000
0.132399,-0.546247,-0.078168,0.861118,0.000000,-0.508405
-0.067951,-0.607675,0.006599,-0.924130,0.371391,0.089740
-0.031668,-0.106228,-0.150456,-0.205969,0.000000,-0.978558
0.204229,0.040501,-0.248858,0.866025,0.000000,-0.500000
0.313556,0.043157,-0.059498,0.866025,0.000000,-0.500000
-0.107766,-0.083756,-0.109664,-0.700909,0.000000,-0.713250
-0.143732,-0.557971,-0.016641,-0.922316,0.371391,-0.106782
-0.043644,0.044904,0.301297,0.000000,0.000000,1.000000
0.024112,-0.618996,0.044786,0.440141,0.371391,0.817524
-0.153188,-0.326707,0.013155,-0.996333,0.000000,0.085559
0.153010,-0.381970,-0.015090,0.995172,0.000000,-0.098147
0.235853,-0.063642,0.194084,0.866025,0.000000,0.500000
0.143335,-0.389150,-0.055631,0.932247,0.000000,-0.361823
-0.044456,-0.621245,-0.016463,-0.870689,0.371391,-0.322444
-0.310391,0.062770,0.064982,-0.866025,0.000000,0.500000
-0.245503,0.012024,0.177371,-0.866025,0.000000,0.500000
-0.000342,-0.080479,0.001001,0.000000,-1.000000,0.000000
-0.244728,-0.078835,0.178713,-0.866025,0.000000,0.500000
0.114444,-0.148842,0.102676,0.744340,0.000000,0.667801
0.341783,0.009258,-0.010608,0.866025,0.000000,-0.500000
-0.150561,-0.138413,-0.031165,-0.979242,0.000000,-0.202694
0.106045,-0.483513,-0.111329,0.689716,0.000000,-0.724080
0.095959,-0.589583,-0.004986,0.927226,0.371391,-0.048181
0.306047,-0.013658,-0.072506,0.866025,0.000000,-0.500000
0.070347,-0.330927,-0.136715,0.457538,0.000000,-0.889190
-0.061233,0.080479,0.080628,0.000000,1.000000,0.000000
0.044112,-0.080479,0.105046,0.000000,-1.000000,0.000000
-0.218785,-0.057045,-0.223646,-0.866025,0.000000,-0.500000
0.014414,-0.630360,0.030120,0.400808,0.371391,0.837509
-0.147560,-0.231380,0.043196,-0.959725,0.000000,0.280943
-0.265000,-0.051741,0.143600,-0.866025,0.000000,0.500000
-0.084936,-0.308171,0.128163,-0.552420,0.000000,0.833566
0.111571,-0.244522,0.105791,0.725652,0.000000,0.688061
0.148565,-0.099631,0.039600,0.966263,0.000000,0.257557
-0.153749,-0.547386,-0.001008,-0.999979,0.000000,-0.006554
0.018274,-0.576521,0.114724,0.146052,0.371391,0.916918
-0.036252,-0.626870,-0.013708,-0.868459,0.371391,-0.328402
-0.130020,-0.539144,0.082064,-0.845649,0.000000,0.533739
-0.123451,-0.554059,-0.086443,-0.760558,0.371391,-0.532560
-0.114979,-0.267938,-0.102077,-0.747818,0.000000,-0.663904
0.090019,-0.080479,-0.041311,0.000000,-1.000000,0.000000
0.341031,0.061418,-0.011911,0.866025,0.000000,-0.500000
0.061522,-0.473364,0.140907,0.400139,0.000000,0.916454
-0.050975,-0.151653,0.145056,-0.331543,0.000000,0.943440
0.213937,0.044371,-0.232045,0.866025,0.000000,-0.500000
-0.119221,-0.510276,-0.097088,-0.775409,0.000000,-0.631460
-0.317627,-0.060327,0.052447,-0.866025,0.000000,0.500000
0.087649,-0.453566,-0.126323,0.570066,0.000000,-0.821599
-0.152444,-0.398871,-0.020016,-0.991490,0.000000,-0.130183
0.228404,-0.058133,0.206987,0.866025,0.000000,0.500000
-0.001683,-0.396378,-0.153743,-0.010948,0.000000,-0.999940
0.097648,-0.043100,-0.301297,-0.000000,0.000000,-1.000000
-0.065558,0.080479,-0.258465,0.000000,1.000000,0.000000
0.127449,-0.199079,-0.086003,0.828924,0.000000,-0.559362
-0.090140,0.047219,-0.301297,-0.000000,0.000000,-1.000000
-0.057700,-0.613744,0.012021,-0.908960,0.371391,0.189369
-0.069356,-0.080479,0.106426,0.000000,-1.000000,0.000000
0.044519,-0.053039,-0.301297,-0.000000,0.000000,-1.000000
-0.168393,0.080479,0.002065,0.000000,1.000000,0.000000
0.119378,-0.310111,-0.096895,0.776432,0.000000,-0.630201
0.113505,-0.356724,-0.103713,0.738234,0.000000,-0.674544
0.107842,-0.317952,-0.109590,0.701398,0.000000,-0.712769
-0.166708,0.023777,0.301297,0.000000,0.000000,1.000000
0.224138,-0.002417,0.214376,0.866025,0.000000,0.500000
-0.153674,-0.254948,-0.004890,-0.999494,0.000000,-0.031806
0.127352,-0.137239,-0.086146,0.828295,0.000000,-0.560292
0.144647,-0.495495,0.052124,0.940781,0.000000,0.339014
0.017440,-0.554345,-0.149251,0.107757,0.371391,-0.922202
0.020292,0.080479,-0.011993,0.000000,1.000000,0.000000
0.008150,-0.146342,-0.153536,0.053006,0.000000,-0.998594
-0.326573,0.051370,-0.036953,-0.866025,0.000000,-0.500000
0.149373,-0.329189,0.036434,0.971518,0.000000,0.236967
-0.025311,0.080479,0.080965,0.000000,1.000000,0.000000
-0.152988,-0.080479,0.198932,0.000000,-1.000000,0.000000
-0.123930,0.024673,-0.301297,-0.000000,0.000000,-1.000000
-0.027742,0.080479,0.031746,0.000000,1.000000,0.000000
-0.145411,-0.313615,-0.049953,-0.945751,0.000000,-0.324893
0.083395,-0.348712,-0.129170,0.542401,0.000000,-0.840120
0.050522,-0.284523,0.145215,0.328593,0.000000,0.944472
-0.274173,0.022145,0.127712,-0.866025,0.000000,0.500000
0.222824,0.076481,0.216651,0.866025,0.000000,0.500000
0.005524,-0.137067,-0.153653,0.035930,0.000000,-0.999354
0.000198,-0.080479,-0.000136,0.000000,-1.000000,0.000000
-0.092459,-0.008957,0.301297,0.000000,0.000000,1.000000
-0.153730,-0.309478,-0.002592,-0.999858,0.000000,-0.016858
0.069941,0.029755,-0.301297,-0.000000,0.000000,-1.000000
-0.150062,-0.468977,0.033483,-0.976000,0.000000,0.217771
0.006277,0.080479,0.157526,0.000000,1.000000,0.000000
-0.073814,-0.463215,-0.134875,-0.480082,0.000000,-0.877224
0.133706,-0.072585,0.301297,0.000000,0.000000,1.000000
-0.150072,-0.245390,-0.033439,-0.976064,0.000000,-0.217484
0.025766,-0.149297,0.151578,0.167581,0.000000,0.985858
0.089644,-0.217315,-0.124915,0.583043,0.000000,-0.812441
-0.097933,-0.292491,0.118528,-0.636955,0.000000,0.770901
0.239532,-0.049269,0.187713,0.866025,0.000000,0.500000
0.037349,-0.021489,-0.301297,-0.000000,0.000000,-1.000000
-0.112045,0.071139,-0.301297,-0.000000,0.000000,-1.000000
-0.085865,-0.465737,0.127542,-0.558462,0.000000,0.829530
-0.211906,0.080479,-0.114291,0.000000,1.000000,0.000000
0.219622,0.053324,-0.222197,0.866025,0.000000,-0.500000
0.012565,-0.064343,-0.301297,-0.000000,0.000000,-1.000000
-0.210529,0.080479,0.147127,0.000000,1.000000,0.000000
-0.021578,-0.576893,-0.113567,-0.173315,0.371391,-0.912157
0.181645,-0.010122,-0.287975,0.866025,0.000000,-0.500000
-0.058698,0.027298,0.301297,0.000000,0.000000,1.000000
0.229229,0.021469,-0.205557,0.866025,0.000000,-0.500000
0.105674,-0.052425,-0.301297,-0.000000,0.000000,-1.000000
-0.022663,-0.080479,-0.004693,0.000000,-1.000000,0.000000
0.016720,-0.420327,0.152840,0.108749,0.000000,0.994069
-0.093994,-0.162712,-0.121675,-0.611333,0.000000,-0.791373
-0.078952,-0.112820,0.131933,-0.513499,0.000000,0.858090
0.145047,-0.211702,-0.051002,0.943379,0.000000,-0.331718
0.230954,0.016583,0.202569,0.866025,0.000000,0.500000
-0.137590,-0.097914,0.068620,-0.894881,0.000000,0.446304
0.047125,-0.152895,0.146352,0.306503,0.000000,0.951870
0.212888,0.042562,0.233861,0.866025,0.000000,0.500000
-0.022850,-0.618383,-0.046495,-0.409515,0.371391,-0.833286
-0.329374,0.033231,0.032100,-0.866025,0.000000,0.500000
0.181585,0.040963,0.288079,0.866025,0.000000,0.500000
-0.143606,-0.323582,-0.054928,-0.934008,0.000000,-0.357251
0.148108,-0.080479,-0.020654,0.000000,-1.000000,0.000000
-0.105641,-0.054923,-0.301297,-0.000000,0.000000,-1.000000
0.066093,-0.539934,-0.138822,0.429866,0.000000,-0.902893
0.138459,-0.000593,0.301297,0.000000,0.000000,1.000000
0.307799,0.033483,-0.069470,0.866025,0.000000,-0.500000
0.136749,-0.347772,-0.070281,0.889411,0.000000,-0.457108
-0.086034,-0.457118,0.127428,-0.559562,0.000000,0.828788
-0.275154,-0.025012,0.126013,-0.866025,0.000000,0.500000
0.135271,-0.143983,-0.073085,0.879799,0.000000,-0.475346
0.176743,0.046880,-0.296466,0.866025,0.000000,-0.500000
0.276199,0.058445,0.124203,0.866025,0.000000,0.500000
0.258244,-0.021914,0.155302,0.866025,0.000000,0.500000
0.108620,-0.033899,-0.301297,-0.000000,0.000000,-1.000000
-0.064032,-0.608426,-0.020109,-0.885820,0.371391,-0.278194
-0.012532,0.052913,0.301297,0.000000,0.000000,1.000000
0.240519,-0.051560,0.186003,0.866025,0.000000,0.500000
-0.119370,-0.438239,-0.096905,-0.776380,0.000000,-0.630265
0.331492,-0.056183,-0.028433,0.866025,0.000000,-0.500000
-0.288757,0.009073,0.102451,-0.866025,0.000000,0.500000
0.134330,-0.123524,-0.074801,0.873678,0.000000,-0.486504
0.214412,-0.014396,-0.231221,0.866025,0.000000,-0.500000
-0.128370,-0.492752,0.084622,-0.834913,0.000000,0.550381
0.325115,-0.024300,-0.039477,0.866025,0.000000,-0.500000
-0.194759,0.058978,-0.265262,-0.866025,0.000000,-0.500000
0.333772,0.075657,-0.024483,0.866025,0.000000,-0.500000
0.030019,-0.267834,-0.150793,0.195242,0.000000,-0.980755
-0.069841,-0.601545,0.034043,-0.834606,0.371391,0.406819
0.108475,0.071496,0.301297,0.000000,0.000000,1.000000
0.046485,-0.407622,-0.146557,0.302334,0.000000,-0.953202
-0.067378,-0.594614,-0.057152,-0.708061,0.371391,-0.600599
-0.001120,-0.080479,0.018141,0.000000,-1.000000,0.000000
0.075819,-0.564546,0.111193,0.523072,0.371391,0.767114
-0.176946,-0.018900,0.296115,-0.866025,0.000000,0.500000
-0.223873,0.064686,0.214834,-0.866025,0.000000,0.500000
-0.256324,0.078191,0.158628,-0.866025,0.000000,0.500000
-0.053314,-0.080479,-0.269851,0.000000,-1.000000,0.000000
-0.274588,0.021091,0.126994,-0.866025,0.000000,0.500000
0.033838,0.080479,-0.109696,0.000000,1.000000,0.000000
-0.147122,-0.514450,-0.044664,-0.956877,0.000000,-0.290493
0.149849,0.033035,0.301297,0.000000,0.000000,1.000000
0.084974,-0.530512,-0.128137,0.552667,0.000000,-0.833402
-0.153626,-0.421717,-0.006219,-0.999182,0.000000,-0.040447
0.297384,-0.041540,0.087509,0.866025,0.000000,0.500000
-0.335618,-0.055347,0.021287,-0.866025,0.000000,0.500000
0.140626,-0.139485,0.062162,0.914627,0.000000,0.404298
0.111971,-0.547623,0.105367,0.728254,0.000000,0.685307
0.052375,-0.145107,-0.144557,0.340644,0.000000,-0.940192
-0.153746,-0.353184,-0.001347,-0.999962,0.000000,-0.008763
0.139850,-0.175628,-0.063888,0.909583,0.000000,-0.415523
0.297216,-0.020248,-0.087801,0.866025,0.000000,-0.500000
0.066728,-0.141751,-0.138518,0.433997,0.000000,-0.900914
0.015747,-0.286917,0.152944,0.102419,0.000000,0.994741
0.056140,-0.385758,-0.143136,0.365134,0.000000,-0.930955
0.032608,-0.542686,-0.150255,0.212084,0.000000,-0.977251
0.119678,-0.427477,-0.096525,0.778380,0.000000,-0.627793
-0.248421,0.012771,-0.172317,-0.866025,0.000000,-0.500000
-0.024397,-0.042701,-0.301297,-0.000000,0.000000,-1.000000
-0.017005,-0.164091,-0.152809,-0.110597,0.000000,-0.993865
-0.254477,0.041728,0.161826,-0.866025,0.000000,0.500000
0.323991,-0.076348,0.041425,0.866025,0.000000,0.500000
0.148410,-0.337139,-0.040178,0.965253,0.000000,-0.261318
0.000573,-0.577544,0.114596,0.004643,0.371391,0.928465
0.081444,-0.080479,0.037313,0.000000,-1.000000,0.000000
-0.050513,-0.192388,0.145218,-0.328535,0.000000,0.944492
0.079313,-0.043960,0.301297,0.000000,0.000000,1.000000
-0.071740,-0.034729,0.301297,0.000000,0.000000,1.000000
-0.051867,-0.359023,-0.144740,-0.337342,0.000000,-0.941382
0.070652,-0.512949,0.136558,0.459517,0.000000,0.888169
0.137412,-0.362252,0.068976,0.893724,0.000000,0.448617
0.151510,-0.330575,-0.026160,0.985419,0.000000,-0.170147
0.059109,-0.309557,-0.141936,0.384446,0.000000,-0.923147
-0.094350,0.013051,-0.301297,-0.000000,0.000000,-1.000000
-0.275679,0.038993,-0.125103,-0.866025,0.000000,-0.500000
-0.252752,0.027766,-0.164815,-0.866025,0.000000,-0.500000
-0.010204,-0.124569,0.153413,-0.066364,0.000000,0.997795
-0.104992,-0.156388,0.112323,-0.682864,0.000000,0.730546
0.133043,-0.135417,-0.077066,0.865310,0.000000,-0.501238
0.151604,-0.234591,-0.025612,0.986029,0.000000,-0.166577
0.302805,0.060266,0.078120,0.866025,0.000000,0.500000
0.010862,0.080479,0.009923,0.000000,1.000000,0.000000
0.068306,-0.330647,-0.137746,0.444258,0.000000,-0.895899
-0.217392,0.028986,0.226060,-0.866025,0.000000,0.500000
-0.004847,-0.465566,-0.153676,-0.031526,0.000000,-0.999503
-0.104775,-0.572940,-0.061867,-0.799501,0.371391,-0.472087
-0.145683,-0.342999,-0.049154,-0.947520,0.000000,-0.319695
-0.110718,-0.368499,-0.106683,-0.720109,0.000000,-0.693861
0.144675,-0.485827,0.052047,0.940963,0.000000,0.338509
-0.333564,0.068498,-0.024844,-0.866025,0.000000,-0.500000
0.107061,-0.581551,-0.017211,0.916707,0.371391,-0.147368
-0.339844,0.024603,0.013966,-0.866025,0.000000,0.500000
-0.043426,-0.253513,0.147492,-0.282442,0.000000,0.959284
0.044068,-0.603651,-0.060015,0.549525,0.371391,-0.748393
-0.065651,-0.509609,0.139031,-0.426990,0.000000,0.904256
-0.139810,-0.162878,-0.063977,-0.909317,0.000000,-0.416103
0.065079,-0.602471,-0.039774,0.792233,0.371391,-0.484186
0.077009,-0.601326,-0.012600,0.916292,0.371391,-0.149924
-0.173072,0.019117,-0.301297,-0.000000,0.000000,-1.000000
0.250240,-0.001076,-0.169166,0.866025,0.000000,-0.500000
0.141549,-0.371711,0.060030,0.920631,0.000000,0.390433
0.131876,-0.084246,-0.079047,0.857718,0.000000,-0.514121
-0.116982,0.053892,-0.301297,-0.000000,0.000000,-1.000000
-0.113533,-0.159090,-0.103682,-0.738417,0.000000,-0.674344
0.148430,-0.261743,-0.040105,0.965382,0.000000,-0.260840
0.075463,-0.352588,-0.133959,0.490807,0.000000,-0.871268
0.148298,-0.181301,0.040587,0.964529,0.000000,0.263978
-0.112448,-0.578134,-0.016758,-0.918334,0.371391,-0.136861
0.127511,-0.516090,-0.085911,0.829326,0.000000,-0.558765
-0.090636,-0.243684,0.124197,-0.589495,0.000000,0.807772
-0.080308,-0.591266,-0.047884,-0.797479,0.371391,-0.475495
-0.309939,-0.000603,0.065764,-0.866025,0.000000,0.500000
0.003969,-0.407417,-0.153701,0.025814,0.000000,-0.999667
0.112529,-0.080479,0.103880,0.000000,-1.000000,0.000000
-0.141231,-0.445524,0.060776,-0.918560,0.000000,0.395283
-0.147128,0.080479,0.180115,0.000000,1.000000,0.000000
0.152991,-0.226431,0.015281,0.995049,0.000000,0.099390
-0.012046,-0.043245,0.301297,0.000000,0.000000,1.000000
-0.179685,0.018654,0.291370,-0.866025,0.000000,0.500000
0.130479,-0.339580,-0.081333,0.848631,0.000000,-0.528986
