x,y,z,nx,ny,nz
-0.540849,0.026406,0.162789,-0.957566,0.000000,0.288216
0.041652,0.027227,0.285625,0.000000,1.000000,0.000000
-0.341553,0.012625,-0.201207,-0.147417,0.000000,-0.989074
0.173076,-0.027227,-0.424350,0.000000,-1.000000,0.000000
-0.151542,0.027227,-0.435118,0.000000,1.000000,0.000000
0.273091,0.022112,0.494408,0.483504,0.000000,0.875342
-0.359516,-0.010770,0.129538,-0.596472,0.000000,-0.802634
-0.328535,-0.027227,0.134302,0.000000,-1.000000,0.000000
-0.081106,0.044944,0.161011,-0.449874,0.000000,0.893092
0.286844,0.018889,-0.486558,0.507854,0.000000,-0.861443
0.250896,0.027227,0.381134,0.000000,1.000000,0.000000
0.376004,0.003228,0.039851,0.086325,0.000000,0.996267
0.121443,0.103086,0.133245,0.673619,0.000000,0.739079
0.031243,0.027227,0.416792,0.000000,1.000000,0.000000
-0.481957,0.027227,0.249722,0.000000,1.000000,0.000000
0.122045,-0.027227,0.223186,0.000000,-1.000000,0.000000
-0.120215,-0.002667,-0.377618,-0.932878,0.000000,-0.360192
0.165024,0.016326,0.072593,0.915350,0.000000,0.402659
-0.063862,-0.027227,-0.449827,0.000000,-1.000000,0.000000
-0.295755,-0.021836,0.164452,0.997532,0.000000,0.070214
0.133672,0.225409,0.120973,0.741449,0.000000,0.671010
0.059522,0.091134,-0.170176,0.330156,0.000000,-0.943926
0.243642,-0.008644,-0.252919,0.284009,0.000000,0.958822
-0.278132,0.027227,0.108173,0.000000,1.000000,0.000000
-0.522579,-0.012769,-0.214312,-0.925218,0.000000,-0.379437
-0.374965,-0.020339,0.154235,-0.982697,0.000000,-0.185223
-0.295527,0.027227,0.135982,0.000000,1.000000,0.000000
0.150779,0.005478,0.544320,0.266952,0.000000,0.963710
0.173931,0.154859,0.047443,0.964754,0.000000,0.263154
-0.180034,0.283733,-0.009514,-0.998607,0.000000,-0.052773
-0.171899,0.138798,0.054345,-0.953485,0.000000,0.301442
-0.332970,0.014125,-0.456234,-0.589519,0.000000,-0.807755
-0.046415,0.025505,0.346814,0.912133,0.000000,-0.409894
0.260387,0.027227,-0.304597,0.000000,1.000000,0.000000
-0.332083,0.015876,-0.121804,0.089338,0.000000,0.996001
-0.127177,-0.023107,0.127784,-0.705421,0.000000,0.708788
0.188968,-0.027227,-0.211977,0.000000,-1.000000,0.000000
0.410638,-0.005636,0.012222,0.952175,0.000000,0.305553
-0.094325,0.055766,-0.153641,-0.523200,0.000000,-0.852210
0.447724,0.020963,-0.344327,0.792689,0.000000,-0.609626
-0.155377,0.277577,0.091437,-0.861840,0.000000,0.507180
0.254149,0.027227,-0.338792,0.000000,1.000000,0.000000
-0.318138,0.027227,-0.018086,0.000000,1.000000,0.000000
-0.295692,-0.026261,-0.159972,0.999126,0.000000,0.041789
0.211113,-0.027227,0.255375,0.000000,-1.000000,0.000000
-0.029371,0.156214,-0.177876,-0.162913,0.000000,-0.986640
-0.414629,0.022637,0.383537,-0.734095,0.000000,0.679047
-0.134782,-0.027227,-0.128606,0.000000,-1.000000,0.000000
-0.094374,0.009154,-0.556877,-0.167087,0.000000,-0.985942
0.257030,0.027227,0.261527,0.000000,1.000000,0.000000
-0.054944,0.027227,0.214788,0.000000,1.000000,0.000000
0.145903,0.283278,0.105901,0.809289,0.000000,0.587411
-0.195512,0.027227,-0.102305,0.000000,1.000000,0.000000
0.051028,0.207013,-0.172913,0.283039,0.000000,-0.959108
-0.310833,-0.009396,0.130278,0.620591,0.000000,-0.784135
-0.475724,-0.027227,-0.297888,0.000000,-1.000000,0.000000
0.235666,-0.027227,-0.457503,0.000000,-1.000000,0.000000
0.026648,0.027227,-0.546008,0.000000,1.000000,0.000000
0.225215,0.022301,-0.330643,-0.176665,0.000000,-0.984271
-0.160590,-0.026355,-0.541506,-0.284323,0.000000,-0.958729
0.149984,-0.027227,-0.190732,0.000000,-1.000000,0.000000
-0.343914,-0.027227,0.014433,0.000000,-1.000000,0.000000
0.009541,-0.027227,-0.436624,0.000000,-1.000000,0.000000
-0.095551,-0.008420,-0.152881,-0.530000,0.000000,-0.847998
-0.305036,-0.027227,0.223868,0.000000,-1.000000,0.000000
0.044179,0.027227,0.429207,0.000000,1.000000,0.000000
-0.216241,0.027227,0.311142,0.000000,1.000000,0.000000
-0.172677,0.046379,0.051820,-0.957801,0.000000,0.287434
-0.252080,0.027227,-0.091620,0.000000,1.000000,0.000000
0.039355,0.011353,-0.563444,0.069678,0.000000,-0.997570
-0.063157,0.219125,0.168860,-0.350319,0.000000,0.936630
-0.134782,-0.027227,-0.128606,0.000000,-1.000000,0.000000
-0.259661,0.027227,0.009167,0.000000,1.000000,0.000000
0.003487,-0.003253,0.180251,0.019342,0.000000,0.999813
0.428202,0.027227,0.249837,0.000000,1.000000,0.000000
0.293401,-0.027227,0.299515,0.000000,-1.000000,0.000000
-0.030515,-0.027227,-0.380932,0.000000,-1.000000,0.000000
0.265276,-0.011189,0.268658,0.824856,0.000000,-0.565343
-0.185364,-0.001893,0.533534,-0.328185,0.000000,0.944614
0.370284,0.022782,0.039936,-0.056676,0.000000,0.998393
0.420916,-0.027227,0.187521,0.000000,-1.000000,0.000000
-0.296555,-0.023838,-0.153216,0.977552,0.000000,0.210696
0.051329,0.027227,0.206485,0.000000,1.000000,0.000000
-0.115302,0.027227,0.176283,0.000000,1.000000,0.000000
0.159636,-0.027227,-0.534117,0.000000,-1.000000,0.000000
0.030129,0.027227,-0.411976,0.000000,1.000000,0.000000
-0.375656,-0.001580,0.161908,-0.999978,0.000000,0.006617
0.180155,0.197087,-0.006834,0.999281,0.000000,-0.037906
-0.084229,0.246602,0.159399,-0.467201,0.000000,0.884151
-0.126881,0.027227,0.423939,0.000000,1.000000,0.000000
0.262174,-0.001921,-0.317851,0.747300,0.000000,-0.664487
-0.302300,0.027227,0.350127,0.000000,1.000000,0.000000
-0.058982,-0.008620,0.331149,0.597947,0.000000,-0.801536
0.269837,-0.016538,-0.305041,0.938891,0.000000,-0.344215
-0.169232,0.011929,-0.062155,-0.938691,0.000000,-0.344759
-0.043644,0.001830,-0.370890,0.981399,0.000000,-0.191982
-0.199110,0.027227,-0.525985,0.000000,1.000000,0.000000
-0.107410,-0.027227,0.479687,0.000000,-1.000000,0.000000
0.561819,0.016707,0.058117,0.994692,0.000000,0.102896
0.137758,-0.027227,0.342929,0.000000,-1.000000,0.000000
-0.005865,0.081635,0.180189,-0.032532,0.000000,0.999471
-0.087055,-0.027227,-0.314857,0.000000,-1.000000,0.000000
0.116141,0.027227,0.470571,0.000000,1.000000,0.000000
-0.004399,0.027227,-0.294798,0.000000,1.000000,0.000000
-0.054728,0.027227,0.516592,0.000000,1.000000,0.000000
0.152930,0.027227,0.437192,0.000000,1.000000,0.000000
0.159636,-0.027227,-0.534117,0.000000,-1.000000,0.000000
-0.341099,-0.010092,-0.122016,-0.136059,0.000000,0.990701
-0.561853,0.013936,0.057790,-0.994752,0.000000,0.102316
0.106300,-0.027227,0.244672,0.000000,-1.000000,0.000000
0.484287,0.027227,0.039625,0.000000,1.000000,0.000000
-0.192404,0.027227,0.090968,0.000000,1.000000,0.000000
0.201218,0.016425,-0.316472,-0.776588,0.000000,-0.630009
-0.180220,0.131313,0.004827,-0.999642,0.000000,0.026773
0.509677,0.023127,0.243409,0.902375,0.000000,0.430952
-0.329598,-0.027227,0.160612,0.000000,-1.000000,0.000000
-0.113041,-0.027227,-0.166534,0.000000,-1.000000,0.000000
-0.433840,0.018213,0.361664,-0.768108,0.000000,0.640320
-0.298886,0.018579,-0.145898,0.919267,0.000000,0.393635
0.111666,0.201869,0.141539,0.619385,0.000000,0.785087
0.454956,0.027227,-0.179707,0.000000,1.000000,0.000000
-0.260943,0.027227,-0.032594,0.000000,1.000000,0.000000
-0.328736,-0.024187,0.201041,0.173017,0.000000,0.984919
-0.515821,-0.017005,0.230103,-0.913253,0.000000,0.407393
0.192288,0.023841,-0.290535,-0.999830,0.000000,0.018428
-0.071147,0.007948,-0.401444,0.293844,0.000000,-0.955853
-0.118167,0.027227,-0.249002,0.000000,1.000000,0.000000
-0.367112,-0.015817,0.136934,-0.786376,0.000000,-0.617748
-0.461298,0.027227,0.218137,0.000000,1.000000,0.000000
-0.253733,-0.027227,-0.111800,0.000000,-1.000000,0.000000
0.336811,-0.027227,-0.232009,0.000000,-1.000000,0.000000
-0.200747,0.000258,0.527938,-0.355419,0.000000,0.934707
0.174007,0.033474,-0.047162,0.965177,0.000000,-0.261597
-0.226608,-0.012644,-0.517365,-0.401206,0.000000,-0.915988
0.328398,-0.027227,0.164742,0.000000,-1.000000,0.000000
-0.113041,-0.027227,-0.166534,0.000000,-1.000000,0.000000
0.510138,0.027227,0.210059,0.000000,1.000000,0.000000
0.371183,-0.027227,-0.195685,0.000000,-1.000000,0.000000
0.125820,0.027227,-0.153437,0.000000,1.000000,0.000000
0.231190,-0.027227,-0.277538,0.000000,-1.000000,0.000000
0.272264,0.022614,-0.290084,0.999559,0.000000,0.029709
-0.341553,0.012625,-0.201207,-0.147417,0.000000,-0.989074
0.192410,-0.003033,-0.294476,-0.996787,0.000000,-0.080099
0.131592,0.113316,0.123232,0.729912,0.000000,0.683542
-0.344075,0.027227,0.211645,0.000000,1.000000,0.000000
0.520536,-0.024567,0.219228,0.921601,0.000000,0.388139
-0.171899,0.138798,0.054345,-0.953485,0.000000,0.301442
-0.414600,0.027227,0.115953,0.000000,1.000000,0.000000
-0.437449,0.021188,-0.357291,-0.774497,0.000000,-0.632578
0.073182,-0.027227,0.346270,0.000000,-1.000000,0.000000
0.390004,-0.027227,-0.074522,0.000000,-1.000000,0.000000
-0.358886,0.021667,0.194208,-0.580733,0.000000,0.814094
0.167951,0.186963,-0.065538,0.931585,0.000000,-0.363523
-0.087541,-0.008161,-0.157604,-0.485573,0.000000,-0.874196
0.030350,0.140374,0.177712,0.168345,0.000000,0.985728
-0.372285,-0.011309,-0.145570,-0.915708,0.000000,0.401845
0.370284,0.022782,0.039936,-0.056676,0.000000,0.998393
0.144287,0.027227,-0.261049,0.000000,1.000000,0.000000
-0.359516,-0.010770,0.129538,-0.596472,0.000000,-0.802634
-0.081535,0.027227,-0.168744,0.000000,1.000000,0.000000
-0.308004,0.020422,-0.132741,0.691309,0.000000,0.722559
0.104007,0.027227,0.437839,0.000000,1.000000,0.000000
0.079473,0.027227,0.202675,0.000000,1.000000,0.000000
-0.152617,0.027227,-0.405570,0.000000,1.000000,0.000000
-0.414629,0.022637,0.383537,-0.734095,0.000000,0.679047
-0.051728,-0.027227,-0.558775,0.000000,-1.000000,0.000000
-0.268787,0.027227,0.050223,0.000000,1.000000,0.000000
0.404455,0.027227,-0.238604,0.000000,1.000000,0.000000
0.170910,0.295645,-0.057380,0.947999,0.000000,-0.318272
-0.295755,-0.021836,0.164452,0.997532,0.000000,0.070214
-0.097946,0.173657,-0.151358,-0.543286,0.000000,-0.839548
-0.174618,0.243662,0.044847,-0.968566,0.000000,0.248758
-0.101349,0.015180,-0.398702,-0.461207,0.000000,-0.887293
-0.355128,0.027227,0.125984,0.000000,1.000000,0.000000
0.294079,-0.006711,0.482220,0.520662,0.000000,0.853763
-0.118878,-0.022975,-0.380692,-0.899441,0.000000,-0.437043
-0.353886,-0.027227,0.052833,0.000000,-1.000000,0.000000
0.356443,0.027227,-0.179434,0.000000,1.000000,0.000000
0.189394,-0.027227,0.134096,0.000000,-1.000000,0.000000
-0.302239,-0.017274,0.183627,0.835436,0.000000,0.549588
-0.179259,0.115094,-0.019207,-0.994309,0.000000,-0.106538
0.176488,0.157541,-0.036805,0.978940,0.000000,-0.204148
-0.108345,0.011621,0.394074,-0.636112,0.000000,0.771597
0.261329,-0.017107,0.318772,0.726184,0.000000,0.687501
-0.036886,0.027227,0.226498,0.000000,1.000000,0.000000
0.206578,-0.019803,0.260624,-0.642592,0.000000,-0.766208
0.452103,0.027227,-0.184932,0.000000,1.000000,0.000000
0.127059,0.151456,0.127901,0.704766,0.000000,0.709440
0.149363,0.027227,-0.138731,0.000000,1.000000,0.000000
-0.417996,0.011684,-0.379865,-0.740056,0.000000,-0.672546
0.191854,-0.027227,-0.407545,0.000000,-1.000000,0.000000
-0.081572,-0.018383,0.323232,0.033204,0.000000,-0.999449
0.190622,-0.001538,0.531678,0.337494,0.000000,0.941328
-0.249061,0.027227,-0.384758,0.000000,1.000000,0.000000
0.131592,0.113316,0.123232,0.729912,0.000000,0.683542
-0.135728,0.069512,-0.118661,-0.752854,0.000000,-0.658187
0.265276,-0.011189,0.268658,0.824856,0.000000,-0.565343
0.239430,-0.002130,0.251916,0.178715,0.000000,-0.983901
-0.427853,-0.021806,0.368728,-0.757507,0.000000,0.652827
-0.167794,0.070340,0.065938,-0.930715,0.000000,0.365744
-0.257947,0.027227,-0.442349,0.000000,1.000000,0.000000
0.042088,0.099953,-0.175303,0.233450,0.000000,-0.972369
0.103293,0.231631,0.147761,0.572942,0.000000,0.819596
0.473094,0.022918,0.308545,0.837606,0.000000,0.546275
-0.051696,0.013115,0.388236,0.780112,0.000000,0.625640
-0.298369,-0.003804,0.147166,0.932201,0.000000,-0.361942
0.272222,-0.015331,-0.293465,0.998496,0.000000,-0.054821
-0.358886,0.021667,0.194208,-0.580733,0.000000,0.814094
-0.226608,-0.012644,-0.517365,-0.401206,0.000000,-0.915988
-0.341977,0.001101,-0.122146,-0.158017,0.000000,0.987436
0.081460,0.182486,-0.160832,0.451841,0.000000,-0.892099
-0.176573,0.058765,0.036395,-0.979411,0.000000,0.201876
-0.172677,0.046379,0.051820,-0.957801,0.000000,0.287434
-0.386189,0.027227,0.194733,0.000000,1.000000,0.000000
-0.182623,-0.027227,0.227459,0.000000,-1.000000,0.000000
0.146044,0.027227,-0.236070,0.000000,1.000000,0.000000
-0.446805,0.026086,0.345519,-0.791061,0.000000,0.611737
0.287814,0.027227,0.287123,0.000000,1.000000,0.000000
0.253897,0.010768,-0.324929,0.540371,0.000000,-0.841427
-0.132584,0.027227,-0.240127,0.000000,1.000000,0.000000
-0.120618,0.014603,-0.376528,-0.942949,0.000000,-0.332938
0.227403,0.027227,-0.124380,0.000000,1.000000,0.000000
-0.060547,0.015738,0.330039,0.558845,0.000000,-0.829272
-0.087055,-0.027227,-0.314857,0.000000,-1.000000,0.000000
-0.381071,0.027227,0.404408,0.000000,1.000000,0.000000
0.271816,-0.010320,0.285187,0.988361,0.000000,-0.152128
-0.337384,0.014483,-0.121681,-0.043192,0.000000,0.999067
0.017246,0.294972,0.179458,0.095658,0.000000,0.995414
-0.001922,-0.027227,-0.184751,0.000000,-1.000000,0.000000
0.150841,-0.027227,-0.429941,0.000000,-1.000000,0.000000
-0.179259,0.115094,-0.019207,-0.994309,0.000000,-0.106538
-0.172677,0.046379,0.051820,-0.957801,0.000000,0.287434
0.178548,0.294052,-0.024967,0.990364,0.000000,-0.138487
0.410966,0.023298,-0.011148,0.960375,0.000000,-0.278710
-0.304271,-0.027227,-0.437636,0.000000,-1.000000,0.000000
0.193087,0.027227,0.160427,0.000000,1.000000,0.000000
-0.295703,-0.023871,-0.159719,0.998842,0.000000,0.048119
-0.355841,-0.008977,-0.127110,-0.504597,0.000000,0.863355
-0.300469,-0.008736,-0.142623,0.879704,0.000000,0.475521
-0.297811,0.007515,-0.148693,0.946136,0.000000,0.323770
-0.196653,0.027227,-0.254580,0.000000,1.000000,0.000000
-0.091446,0.009619,-0.402287,-0.213633,0.000000,-0.976914
0.142704,-0.017096,-0.110173,0.791549,0.000000,-0.611106
0.042165,0.027227,-0.395055,0.000000,1.000000,0.000000
0.196762,0.027227,0.000628,0.000000,1.000000,0.000000
-0.328211,0.027227,-0.392268,0.000000,1.000000,0.000000
0.260291,-0.020823,-0.501265,0.460841,0.000000,-0.887483
0.077572,-0.027227,-0.229436,0.000000,-1.000000,0.000000
-0.404804,0.027227,-0.045421,0.000000,1.000000,0.000000
0.125695,0.198994,-0.129242,0.697202,0.000000,-0.716875
0.103081,0.263875,0.147908,0.571768,0.000000,0.820416
-0.534554,0.027227,-0.116339,0.000000,1.000000,0.000000
0.179794,-0.000520,0.535437,0.318323,0.000000,0.947982
0.234630,-0.024044,-0.513777,0.415409,0.000000,-0.909635
0.257714,0.015037,0.260398,0.635806,0.000000,-0.771849
0.180108,0.048269,-0.007986,0.999018,0.000000,-0.044297
-0.088293,-0.027227,-0.506858,0.000000,-1.000000,0.000000
-0.112242,-0.027176,-0.336025,-0.733548,0.000000,0.679638
-0.036573,0.027227,-0.442373,0.000000,1.000000,0.000000
-0.335791,0.027227,-0.163966,0.000000,1.000000,0.000000
0.178345,0.002233,0.026379,0.989238,0.000000,0.146319
-0.117063,0.026860,0.384017,-0.854065,0.000000,0.520166
0.127614,0.008640,0.127347,0.707849,0.000000,0.706364
0.327024,-0.027227,0.207339,0.000000,-1.000000,0.000000
0.257714,0.015037,0.260398,0.635806,0.000000,-0.771849
0.086566,0.027227,0.163614,0.000000,1.000000,0.000000
-0.383811,0.027227,-0.315335,0.000000,1.000000,0.000000
0.177478,0.027227,-0.191071,0.000000,1.000000,0.000000
-0.083320,-0.011718,-0.323212,-0.010484,0.000000,0.999945
-0.446805,0.026086,0.345519,-0.791061,0.000000,0.611737
0.170180,0.027227,-0.316382,0.000000,1.000000,0.000000
0.255897,0.022215,0.258987,0.590395,0.000000,-0.807114
0.490130,0.017194,-0.280697,0.867768,0.000000,-0.496969
-0.499908,0.027227,0.063816,0.000000,1.000000,0.000000
-0.078838,-0.026770,-0.323417,0.101556,0.000000,0.994830
0.017049,0.027227,0.185137,0.000000,1.000000,0.000000
0.342103,-0.027227,0.272687,0.000000,-1.000000,0.000000
0.117371,0.230102,-0.136846,0.651030,0.000000,-0.759052
-0.027725,-0.025962,0.178140,-0.153786,0.000000,0.988104
0.207877,-0.023941,0.259579,-0.610113,0.000000,-0.792314
-0.131191,0.027227,0.211141,0.000000,1.000000,0.000000
-0.198433,0.027227,0.355294,0.000000,1.000000,0.000000
-0.564434,0.002508,0.020788,-0.999322,0.000000,0.036805
0.447441,-0.027227,-0.265383,0.000000,-1.000000,0.000000
-0.303576,-0.008802,-0.476298,-0.537477,0.000000,-0.843278
-0.162366,0.027227,0.144783,0.000000,1.000000,0.000000
-0.306134,0.005505,-0.188633,0.738059,0.000000,-0.674737
0.502467,-0.027227,-0.040100,0.000000,-1.000000,0.000000
-0.097414,-0.008810,0.325936,-0.362847,0.000000,-0.931849
0.380619,0.018387,-0.417309,0.673881,0.000000,-0.738840
0.213670,-0.027227,-0.031858,0.000000,-1.000000,0.000000
0.024645,-0.009562,0.178592,0.136699,0.000000,0.990613
-0.308794,-0.027227,0.041831,0.000000,-1.000000,0.000000
0.268049,0.025036,-0.309180,0.894187,0.000000,-0.447694
0.235949,-0.027227,0.015275,0.000000,-1.000000,0.000000
-0.073993,-0.027227,0.304021,0.000000,-1.000000,0.000000
-0.107169,-0.027227,-0.354843,0.000000,-1.000000,0.000000
-0.114047,0.023858,0.388307,-0.778676,0.000000,0.627427
0.110348,-0.014880,-0.142569,0.612075,0.000000,-0.790800
0.142704,-0.017096,-0.110173,0.791549,0.000000,-0.611106
0.000760,-0.011114,-0.180283,0.004214,0.000000,-0.999991
-0.068680,-0.026100,0.560626,-0.121597,0.000000,0.992580
0.382933,-0.021520,-0.038629,0.259564,0.000000,-0.965726
0.177587,0.186242,0.031074,0.985034,0.000000,0.172361
0.328398,-0.027227,0.164742,0.000000,-1.000000,0.000000
-0.358677,0.023990,0.128932,-0.575513,0.000000,-0.817793
-0.357885,-0.014204,-0.194899,-0.555712,0.000000,-0.831375
0.234669,0.003141,-0.251343,0.059683,0.000000,0.998217
0.249850,0.012709,0.255337,0.439218,0.000000,-0.898381
-0.296555,-0.023838,-0.153216,0.977552,0.000000,0.210696
-0.179432,0.097421,-0.017512,-0.995271,0.000000,-0.097133
0.159636,-0.027227,-0.534117,0.000000,-1.000000,0.000000
-0.182623,-0.027227,0.227459,0.000000,-1.000000,0.000000
0.445443,-0.017791,0.347273,0.788650,0.000000,0.614842
0.561244,0.003275,-0.063427,0.993675,0.000000,-0.112297
0.298309,-0.027227,0.013841,0.000000,-1.000000,0.000000
0.025162,0.187007,-0.178520,0.139566,0.000000,-0.990213
0.232737,0.027227,0.258754,0.000000,1.000000,0.000000
0.412060,0.025652,0.006247,0.987731,0.000000,0.156167
-0.554162,0.012509,0.109189,-0.981136,0.000000,0.193318
0.039275,-0.027227,-0.508979,0.000000,-1.000000,0.000000
-0.360481,-0.000008,0.193009,-0.620603,0.000000,0.784125
0.194375,0.004689,-0.278502,-0.947671,0.000000,0.319250
-0.172677,0.046379,0.051820,-0.957801,0.000000,0.287434
0.110043,0.040728,-0.142805,0.610385,0.000000,-0.792105
0.486731,0.027227,0.107648,0.000000,1.000000,0.000000
0.252938,-0.027227,-0.252360,0.000000,-1.000000,0.000000
0.272280,0.011394,0.290952,0.999968,0.000000,-0.007994
-0.094374,0.009154,-0.556877,-0.167087,0.000000,-0.985942
0.180076,0.027227,-0.065226,0.000000,1.000000,0.000000
-0.037146,-0.018498,-0.176416,-0.206043,0.000000,-0.978543
-0.076604,0.022549,-0.402712,0.157402,0.000000,-0.987535
0.087442,0.027227,0.207915,0.000000,1.000000,0.000000
0.234447,-0.027227,-0.044518,0.000000,-1.000000,0.000000
-0.018952,0.013526,-0.179286,-0.105123,0.000000,-0.994459
0.104859,0.027227,0.209544,0.000000,1.000000,0.000000
-0.216741,0.027227,0.333076,0.000000,1.000000,0.000000
-0.167794,0.070340,0.065938,-0.930715,0.000000,0.365744
0.187877,-0.027227,0.165516,0.000000,-1.000000,0.000000
0.087471,0.027227,0.214198,0.000000,1.000000,0.000000
-0.137062,-0.027227,-0.229122,0.000000,-1.000000,0.000000
-0.167794,0.070340,0.065938,-0.930715,0.000000,0.365744
-0.425746,-0.027227,0.156544,0.000000,-1.000000,0.000000
-0.308794,-0.027227,0.041831,0.000000,-1.000000,0.000000
0.017669,0.027227,-0.543662,0.000000,1.000000,0.000000
-0.058024,0.020851,-0.170692,-0.321848,0.000000,-0.946791
-0.302239,-0.017274,0.183627,0.835436,0.000000,0.549588
-0.424280,-0.017151,-0.372833,-0.751182,0.000000,-0.660095
-0.302239,-0.017274,0.183627,0.835436,0.000000,0.549588
0.134742,-0.027227,0.371286,0.000000,-1.000000,0.000000
0.359892,-0.027227,0.371558,0.000000,-1.000000,0.000000
-0.184854,-0.027227,0.261400,0.000000,-1.000000,0.000000
-0.001517,-0.027227,-0.368690,0.000000,-1.000000,0.000000
-0.369275,0.022145,-0.139968,-0.840452,0.000000,0.541886
-0.329598,-0.027227,0.160612,0.000000,-1.000000,0.000000
0.401420,-0.024842,0.027687,0.721723,0.000000,0.692182
-0.121931,-0.004651,0.354456,-0.975757,0.000000,-0.218858
-0.014446,0.027227,-0.218629,0.000000,1.000000,0.000000
-0.558719,-0.001146,-0.082772,-0.989204,0.000000,-0.146547
0.199080,0.016029,0.268964,-0.830037,0.000000,-0.557708
0.180076,0.027227,-0.065226,0.000000,1.000000,0.000000
-0.072091,0.140075,-0.165244,-0.399873,0.000000,-0.916570
-0.454196,0.009280,-0.335744,-0.804148,0.000000,-0.594429
-0.350113,0.025437,-0.124347,-0.361396,0.000000,0.932412
-0.483602,0.014427,-0.291800,-0.856211,0.000000,-0.516627
0.110348,-0.014880,-0.142569,0.612075,0.000000,-0.790800
-0.295692,-0.026261,-0.159972,0.999126,0.000000,0.041789
-0.343409,-0.027227,-0.126752,0.000000,-1.000000,0.000000
-0.180132,0.184518,-0.007424,-0.999152,0.000000,-0.041177
0.409404,-0.005311,-0.015552,0.921319,0.000000,-0.388807
-0.344578,-0.004561,-0.122651,-0.223031,0.000000,0.974811
-0.315755,0.027227,-0.033793,0.000000,1.000000,0.000000
0.150841,-0.027227,-0.429941,0.000000,-1.000000,0.000000
-0.057777,-0.004954,-0.394336,0.628089,0.000000,-0.778142
-0.047940,-0.027227,0.400930,0.000000,-1.000000,0.000000
0.260377,-0.005215,-0.319744,0.702372,0.000000,-0.711810
0.388367,0.023281,0.036740,0.395407,0.000000,0.918506
-0.300834,0.005085,-0.141962,0.870571,0.000000,0.492043
-0.334367,0.024619,-0.201623,0.032238,0.000000,-0.999480
0.076402,0.105576,-0.163295,0.423786,0.000000,-0.905762
0.127745,0.015696,0.127215,0.708575,0.000000,0.705635
-0.178507,0.116732,0.025258,-0.990137,0.000000,0.140100
-0.171899,0.138798,0.054345,-0.953485,0.000000,0.301442
-0.115302,0.027227,0.176283,0.000000,1.000000,0.000000
-0.019182,0.027227,0.231193,0.000000,1.000000,0.000000
0.066932,0.136002,0.167400,0.371258,0.000000,0.928530
0.202728,-0.025824,0.318227,-0.738844,0.000000,0.673876
0.234326,0.027227,0.035288,0.000000,1.000000,0.000000
0.217009,-0.027227,0.398949,0.000000,-1.000000,0.000000
-0.118315,-0.023239,0.344614,-0.885354,0.000000,-0.464917
-0.137538,0.194447,-0.116559,-0.762891,0.000000,-0.646528
-0.202905,0.027227,-0.068627,0.000000,1.000000,0.000000
0.153733,0.027227,0.318170,0.000000,1.000000,0.000000
0.060098,0.089897,0.169973,0.333352,0.000000,0.942803
-0.052126,-0.005842,-0.388763,0.769351,0.000000,-0.638827
-0.322736,0.014626,0.123788,0.323020,0.000000,-0.946392
-0.322764,0.010253,0.123778,0.322315,0.000000,-0.946632
0.204323,0.016666,-0.262666,-0.698972,0.000000,0.715149
-0.044963,0.027227,-0.203740,0.000000,1.000000,0.000000
0.377706,-0.027227,-0.133522,0.000000,-1.000000,0.000000
-0.014446,0.027227,-0.218629,0.000000,1.000000,0.000000
0.212141,0.027227,-0.074053,0.000000,1.000000,0.000000
-0.093194,0.180096,-0.154329,-0.516926,0.000000,-0.856030
0.230000,-0.027227,-0.464871,0.000000,-1.000000,0.000000
-0.115924,0.002194,-0.340640,-0.825595,0.000000,0.564263
0.063795,0.022381,-0.561203,0.112948,0.000000,-0.993601
-0.557945,-0.016543,0.087841,-0.987832,0.000000,0.155522
-0.059125,0.004224,0.395378,0.594379,0.000000,0.804185
-0.129920,-0.027227,-0.351497,0.000000,-1.000000,0.000000
-0.430719,-0.027227,0.017550,0.000000,-1.000000,0.000000
0.238148,0.022200,0.330839,0.146661,0.000000,0.989187
0.176488,0.157541,-0.036805,0.978940,0.000000,-0.204148
0.551366,-0.014311,-0.122533,0.976184,0.000000,-0.216942
0.272000,-0.009427,0.286537,0.992970,0.000000,-0.118369
0.079368,0.230048,0.161875,0.440235,0.000000,0.897883
0.137758,-0.027227,0.342929,0.000000,-1.000000,0.000000
0.563077,0.013793,-0.044306,0.996919,0.000000,-0.078443
0.336750,-0.006769,0.017841,-0.895019,0.000000,0.446027
-0.332970,0.014125,-0.456234,-0.589519,0.000000,-0.807755
0.209074,-0.027227,0.492518,0.000000,-1.000000,0.000000
-0.323174,0.023838,-0.123641,0.312057,0.000000,0.950063
0.261769,0.019513,0.318300,0.737182,0.000000,0.675694
0.144287,0.027227,-0.261049,0.000000,1.000000,0.000000
-0.072698,-0.018962,-0.401887,0.255067,0.000000,-0.966923
-0.145806,-0.027227,0.280706,0.000000,-1.000000,0.000000
0.563875,0.021897,0.032601,0.998333,0.000000,0.057720
0.179553,-0.006001,0.535517,0.317896,0.000000,0.948125
0.158575,0.283746,-0.085770,0.879581,0.000000,-0.475750
-0.138456,-0.027227,-0.189183,0.000000,-1.000000,0.000000
-0.222740,0.027227,-0.243280,0.000000,1.000000,0.000000
0.216241,0.027227,-0.028774,0.000000,1.000000,0.000000
-0.039724,0.027227,0.300026,0.000000,1.000000,0.000000
-0.300374,-0.023382,-0.142799,0.882071,0.000000,0.471117
-0.554162,0.012509,0.109189,-0.981136,0.000000,0.193318
-0.350113,0.025437,-0.124347,-0.361396,0.000000,0.932412
0.234039,-0.026797,-0.331233,0.043931,0.000000,-0.999035
-0.511324,-0.027227,0.008525,0.000000,-1.000000,0.000000
0.010953,-0.027227,-0.246352,0.000000,-1.000000,0.000000
0.460655,-0.002463,-0.326826,0.815583,0.000000,-0.578640
0.520536,-0.024567,0.219228,0.921601,0.000000,0.388139
0.326699,0.027227,0.248185,0.000000,1.000000,0.000000
0.157063,0.157325,0.088508,0.871196,0.000000,0.490935
-0.334624,0.024446,0.121657,0.025811,0.000000,-0.999667
-0.372411,-0.019805,0.145861,-0.918864,0.000000,-0.394575
0.377844,-0.027227,0.108159,0.000000,-1.000000,0.000000
0.402428,-0.008263,0.026597,0.746916,0.000000,0.664919
0.157995,0.068948,-0.086834,0.876363,0.000000,-0.481651
-0.057735,-0.015469,-0.332118,0.629132,0.000000,0.777298
0.382933,-0.021520,-0.038629,0.259564,0.000000,-0.965726
-0.003439,-0.027227,0.244290,0.000000,-1.000000,0.000000
-0.020398,-0.027227,0.233552,0.000000,-1.000000,0.000000
0.465869,0.027227,-0.099759,0.000000,1.000000,0.000000
-0.509781,-0.004097,0.243190,-0.902560,0.000000,0.430564
0.222921,0.005922,0.518965,0.394679,0.000000,0.918819
0.101809,-0.027227,0.547281,0.000000,-1.000000,0.000000
-0.121635,0.000368,0.353228,-0.968359,0.000000,-0.249561
-0.031883,-0.017838,0.177443,-0.176850,0.000000,0.984238
-0.023216,0.122615,-0.178784,-0.128776,0.000000,-0.991674
0.463397,0.027227,-0.138252,0.000000,1.000000,0.000000
-0.148771,0.187672,-0.101832,-0.825201,0.000000,-0.564840
-0.300469,-0.008736,-0.142623,0.879704,0.000000,0.475521
-0.561439,0.007235,0.061676,-0.994020,0.000000,0.109196
0.547643,-0.019938,0.138223,0.969593,0.000000,0.244722
0.473094,0.022918,0.308545,0.837606,0.000000,0.546275
-0.362888,-0.022857,0.190943,-0.680780,0.000000,0.732488
-0.044147,0.001166,-0.353302,0.968833,0.000000,0.247714
-0.192290,-0.027227,-0.052686,0.000000,-1.000000,0.000000
-0.486889,0.027227,-0.146864,0.000000,1.000000,0.000000
-0.357885,-0.014204,-0.194899,-0.555712,0.000000,-0.831375
-0.215519,0.027227,-0.475227,0.000000,1.000000,0.000000
-0.020480,-0.027227,-0.551700,0.000000,-1.000000,0.000000
0.180076,0.027227,-0.065226,0.000000,1.000000,0.000000
-0.205943,-0.027227,0.431219,0.000000,-1.000000,0.000000
-0.115302,0.027227,0.176283,0.000000,1.000000,0.000000
0.202728,-0.025824,0.318227,-0.738844,0.000000,0.673876
0.261534,-0.027227,0.176742,0.000000,-1.000000,0.000000
0.309802,0.027227,-0.334551,0.000000,1.000000,0.000000
-0.557945,-0.016543,0.087841,-0.987832,0.000000,0.155522
0.265220,0.018378,-0.313967,0.823463,0.000000,-0.567369
-0.043101,0.011381,0.367212,0.994984,0.000000,0.100037
-0.083095,0.003747,0.323211,-0.004871,0.000000,-0.999988
-0.453860,0.027227,0.060464,0.000000,1.000000,0.000000
-0.472486,0.005166,-0.309476,-0.836529,0.000000,-0.547922
-0.545000,-0.003524,0.148303,-0.964914,0.000000,0.262568
0.252938,-0.027227,-0.252360,0.000000,-1.000000,0.000000
-0.075617,-0.024430,-0.402542,0.182093,0.000000,-0.983281
-0.302300,0.027227,0.350127,0.000000,1.000000,0.000000
0.198617,-0.015469,-0.312875,-0.841611,0.000000,-0.540084
-0.088293,-0.027227,-0.506858,0.000000,-1.000000,0.000000
0.173122,0.027227,-0.273133,0.000000,1.000000,0.000000
0.512863,-0.027227,-0.138514,0.000000,-1.000000,0.000000
0.063795,0.022381,-0.561203,0.112948,0.000000,-0.993601
-0.469754,-0.010154,0.313607,-0.831693,0.000000,0.555236
0.137746,0.251827,0.116313,0.764047,0.000000,0.645160
-0.024810,-0.027227,0.416117,0.000000,-1.000000,0.000000
0.058192,-0.027227,0.489905,0.000000,-1.000000,0.000000
-0.175998,-0.027227,0.225814,0.000000,-1.000000,0.000000
-0.041193,0.027227,0.300296,0.000000,1.000000,0.000000
0.191543,-0.027227,-0.071512,0.000000,-1.000000,0.000000
-0.450895,-0.012134,0.340165,-0.798302,0.000000,0.602257
0.435541,-0.027227,0.119780,0.000000,-1.000000,0.000000
-0.323025,0.025190,-0.199597,0.315793,0.000000,-0.948828
0.293335,-0.026938,-0.482673,0.519345,0.000000,-0.854565
0.202263,-0.027227,-0.314318,0.000000,-1.000000,0.000000
0.270941,0.018416,-0.301540,0.966490,0.000000,-0.256704
0.190622,-0.001538,0.531678,0.337494,0.000000,0.941328
0.167114,0.082593,-0.067642,0.926946,0.000000,-0.375195
-0.023216,0.122615,-0.178784,-0.128776,0.000000,-0.991674
-0.065658,0.027227,-0.419580,0.000000,1.000000,0.000000
0.228545,0.027227,-0.141374,0.000000,1.000000,0.000000
-0.102704,0.288055,0.148171,-0.569675,0.000000,0.821870
0.232750,-0.003392,0.331269,0.011715,0.000000,0.999931
0.314289,-0.027227,-0.212210,0.000000,-1.000000,0.000000
0.490702,-0.027227,0.234482,0.000000,-1.000000,0.000000
-0.031883,-0.017838,0.177443,-0.176850,0.000000,0.984238
-0.122565,0.006439,-0.358038,-0.991605,0.000000,0.129304
0.265220,0.018378,-0.313967,0.823463,0.000000,-0.567369
-0.459710,0.027227,-0.051785,0.000000,1.000000,0.000000
-0.445183,0.027227,-0.259005,0.000000,1.000000,0.000000
0.058192,-0.027227,0.489905,0.000000,-1.000000,0.000000
0.042688,0.094393,0.175158,0.236781,0.000000,0.971563
0.368016,0.027227,-0.147128,0.000000,1.000000,0.000000
0.241695,0.000218,-0.330149,0.235338,0.000000,-0.971914
-0.322948,0.018062,-0.199571,0.317715,0.000000,-0.948186
-0.306667,-0.009919,0.134084,0.724756,0.000000,-0.689006
0.106300,-0.027227,0.244672,0.000000,-1.000000,0.000000
-0.105944,0.090286,0.145872,-0.587646,0.000000,0.809118
-0.016345,0.167154,0.179542,-0.090660,0.000000,0.995882
-0.360481,-0.000008,0.193009,-0.620603,0.000000,0.784125
-0.142818,-0.027227,0.220468,0.000000,-1.000000,0.000000
-0.189904,0.027227,0.300824,0.000000,1.000000,0.000000
0.182538,-0.027227,0.164369,0.000000,-1.000000,0.000000
0.173931,0.154859,0.047443,0.964754,0.000000,0.263154
-0.157561,0.027227,0.142626,0.000000,1.000000,0.000000
-0.189904,0.027227,0.300824,0.000000,1.000000,0.000000
0.361718,-0.020105,-0.433795,0.640416,0.000000,-0.768028
0.116627,-0.015337,-0.137480,0.646902,0.000000,-0.762573
-0.537995,0.011545,0.171988,-0.952512,0.000000,0.304503
0.198617,-0.015469,-0.312875,-0.841611,0.000000,-0.540084
-0.334367,0.024619,-0.201623,0.032238,0.000000,-0.999480
-0.218757,-0.027227,0.351278,0.000000,-1.000000,0.000000
-0.324962,-0.027227,0.013237,0.000000,-1.000000,0.000000
-0.387963,0.027227,-0.095546,0.000000,1.000000,0.000000
-0.563231,0.006862,-0.042296,-0.997192,0.000000,-0.074884
-0.027725,-0.025962,0.178140,-0.153786,0.000000,0.988104
0.153838,0.255122,0.094003,0.853303,0.000000,0.521416
-0.113500,-0.014545,-0.337449,-0.765000,0.000000,0.644030
0.213432,0.000574,0.326552,-0.471238,0.000000,0.882006
-0.091446,0.009619,-0.402287,-0.213633,0.000000,-0.976914
0.337040,0.019849,-0.018411,-0.887770,0.000000,-0.460287
-0.515821,-0.017005,0.230103,-0.913253,0.000000,0.407393
-0.199547,0.027227,0.492999,0.000000,1.000000,0.000000
0.177587,0.186242,0.031074,0.985034,0.000000,0.172361
-0.135825,0.041288,0.118551,-0.753389,0.000000,0.657575
-0.372285,-0.011309,-0.145570,-0.915708,0.000000,0.401845
-0.365359,0.008625,0.134853,-0.742563,0.000000,-0.669776
-0.248304,-0.027227,-0.124450,0.000000,-1.000000,0.000000
-0.180054,0.068974,-0.009121,-0.998719,0.000000,-0.050594
-0.224315,-0.027227,-0.096984,0.000000,-1.000000,0.000000
-0.137865,0.027227,-0.510273,0.000000,1.000000,0.000000
-0.300243,-0.025971,0.180242,0.885332,0.000000,0.464959
-0.360223,0.027227,-0.080074,0.000000,1.000000,0.000000
0.261534,-0.027227,0.176742,0.000000,-1.000000,0.000000
0.327623,0.003729,-0.460088,0.580052,0.000000,-0.814580
-0.369529,0.006494,-0.140368,-0.846818,0.000000,0.531884
0.144885,0.120576,0.107289,0.803646,0.000000,0.595107
-0.273226,0.027227,-0.155923,0.000000,1.000000,0.000000
-0.120559,0.016856,0.376695,-0.941458,0.000000,0.337129
0.482723,0.021324,0.293253,0.854653,0.000000,0.519199
0.556378,0.010603,-0.097270,0.985059,0.000000,-0.172216
-0.317297,-0.027227,0.019596,0.000000,-1.000000,0.000000
0.124659,0.209179,-0.130241,0.691455,0.000000,-0.722419
-0.349314,-0.004247,0.124048,-0.341442,0.000000,-0.939903
0.327024,-0.027227,0.207339,0.000000,-1.000000,0.000000
-0.334367,0.024619,-0.201623,0.032238,0.000000,-0.999480
-0.303475,-0.000774,0.137889,0.804554,0.000000,-0.593880
0.191543,-0.027227,-0.071512,0.000000,-1.000000,0.000000
-0.300834,0.005085,-0.141962,0.870571,0.000000,0.492043
0.383551,-0.027227,-0.157271,0.000000,-1.000000,0.000000
0.438293,-0.027227,-0.181288,0.000000,-1.000000,0.000000
-0.060435,-0.026406,0.330115,0.561637,0.000000,-0.827384
0.563750,-0.022815,0.034694,0.998112,0.000000,0.061426
0.483241,0.001603,0.292397,0.855571,0.000000,0.517685
-0.145806,-0.027227,0.280706,0.000000,-1.000000,0.000000
-0.058424,0.089898,0.170556,-0.324064,0.000000,0.946035
-0.299814,0.008362,-0.179401,0.896062,0.000000,-0.443929
-0.499908,0.027227,0.063816,0.000000,1.000000,0.000000
-0.109526,0.027227,-0.405019,0.000000,1.000000,0.000000
-0.417996,0.011684,-0.379865,-0.740056,0.000000,-0.672546
0.051028,0.207013,-0.172913,0.283039,0.000000,-0.959108
0.123425,-0.027227,0.258897,0.000000,-1.000000,0.000000
0.166069,0.141740,0.070169,0.921148,0.000000,0.389211
0.223719,0.000864,0.330345,-0.214075,0.000000,0.976817
-0.191307,-0.027227,-0.204245,0.000000,-1.000000,0.000000
-0.564434,0.002508,0.020788,-0.999322,0.000000,0.036805
-0.042230,0.275538,0.175269,-0.234239,0.000000,0.972179
-0.323025,0.025190,-0.199597,0.315793,0.000000,-0.948828
0.044551,0.277846,-0.174694,0.247113,0.000000,-0.968987
0.480946,-0.027227,0.108576,0.000000,-1.000000,0.000000
-0.351982,-0.021809,0.125127,-0.408143,0.000000,-0.912918
-0.054195,-0.001466,-0.171946,-0.300607,0.000000,-0.953748
0.089089,0.027227,0.418376,0.000000,1.000000,0.000000
-0.109526,0.027227,-0.405019,0.000000,1.000000,0.000000
0.252371,0.002729,-0.256683,0.502243,0.000000,0.864727
0.111159,-0.017357,-0.141938,0.616574,0.000000,-0.787297
-0.360327,-0.027227,0.184055,0.000000,-1.000000,0.000000
-0.102167,0.277070,0.148542,-0.566696,0.000000,0.823927
0.531249,0.011686,-0.191815,0.940568,0.000000,-0.339605
0.213670,-0.027227,-0.031858,0.000000,-1.000000,0.000000
0.370284,0.022782,0.039936,-0.056676,0.000000,0.998393
-0.149777,-0.027227,0.251045,0.000000,-1.000000,0.000000
-0.102744,-0.017876,0.328480,-0.496102,0.000000,-0.868264
0.499321,0.022753,-0.264002,0.884040,0.000000,-0.467411
0.243360,0.007342,0.252837,0.276956,0.000000,-0.960883
0.484287,0.027227,0.039625,0.000000,1.000000,0.000000
-0.118935,-0.012170,-0.380575,-0.900859,0.000000,-0.434111
-0.372687,0.011086,-0.146519,-0.925754,0.000000,0.378125
-0.179259,0.115094,-0.019207,-0.994309,0.000000,-0.106538
0.385735,-0.013101,0.037765,0.329597,0.000000,0.944122
0.460655,-0.002463,-0.326826,0.815583,0.000000,-0.578640
-0.305155,0.027227,-0.143989,0.000000,1.000000,0.000000
0.390986,-0.003109,-0.035499,0.460870,0.000000,-0.887468
-0.085262,-0.020998,0.403141,-0.059035,0.000000,0.998256
-0.393949,0.027227,-0.191307,0.000000,1.000000,0.000000
0.327895,-0.027227,-0.291912,0.000000,-1.000000,0.000000
-0.219450,-0.027227,0.305335,0.000000,-1.000000,0.000000
-0.048546,0.026998,-0.342722,0.858858,0.000000,0.512214
0.225072,0.013388,-0.518036,0.398486,0.000000,-0.917174
-0.383919,-0.027227,-0.078493,0.000000,-1.000000,0.000000
0.461709,0.027227,-0.142804,0.000000,1.000000,0.000000
-0.295746,0.027174,-0.164310,0.997776,0.000000,-0.066650
0.161152,0.026187,-0.541339,0.285317,0.000000,-0.958433
-0.563231,0.006862,-0.042296,-0.997192,0.000000,-0.074884
0.150700,0.027227,-0.521093,0.000000,1.000000,0.000000
-0.513956,-0.027227,0.079057,0.000000,-1.000000,0.000000
0.109835,0.027227,0.260409,0.000000,1.000000,0.000000
0.141054,0.272192,-0.112279,0.782393,0.000000,-0.622786
0.193752,0.027227,-0.341780,0.000000,1.000000,0.000000
-0.295673,-0.007334,-0.162772,0.999602,0.000000,-0.028208
0.335410,0.027227,0.454142,0.000000,1.000000,0.000000
0.267082,0.008873,0.310993,0.870017,0.000000,0.493022
0.039275,-0.027227,-0.508979,0.000000,-1.000000,0.000000
0.116033,0.011227,0.552770,0.205434,0.000000,0.978671
0.326699,0.027227,0.248185,0.000000,1.000000,0.000000
-0.088293,-0.027227,-0.506858,0.000000,-1.000000,0.000000
-0.013805,0.027227,-0.330699,0.000000,1.000000,0.000000
-0.127171,-0.027227,0.474503,0.000000,-1.000000,0.000000
0.265998,0.023133,0.269749,0.842897,0.000000,-0.538074
-0.153242,0.264245,0.094972,-0.849997,0.000000,0.526787
-0.199110,0.027227,-0.525985,0.000000,1.000000,0.000000
0.556874,-0.001823,0.094393,0.985936,0.000000,0.167121
0.192702,0.000441,0.297052,-0.989504,0.000000,0.144508
-0.015255,0.027227,0.533769,0.000000,1.000000,0.000000
0.161416,0.025679,-0.541261,0.285784,0.000000,-0.958294
-0.093159,0.027227,0.493810,0.000000,1.000000,0.000000
-0.542736,-0.012747,0.156383,-0.960906,0.000000,0.276875
0.561819,0.016707,0.058117,0.994692,0.000000,0.102896
-0.005865,0.081635,0.180189,-0.032532,0.000000,0.999471
-0.081572,-0.018383,0.323232,0.033204,0.000000,-0.999449
0.255897,0.022215,0.258987,0.590395,0.000000,-0.807114
0.232750,-0.003392,0.331269,0.011715,0.000000,0.999931
0.276700,0.027227,0.097813,0.000000,1.000000,0.000000
-0.134782,-0.027227,-0.128606,0.000000,-1.000000,0.000000
-0.163784,0.287787,-0.075349,-0.908474,0.000000,-0.417942
-0.325867,-0.027210,-0.122860,0.244754,0.000000,0.969585
-0.368008,-0.003124,-0.185168,-0.808785,0.000000,-0.588104
-0.163784,0.287787,-0.075349,-0.908474,0.000000,-0.417942
-0.083324,-0.027227,-0.386415,0.000000,-1.000000,0.000000
0.337044,0.003512,0.018418,-0.887680,0.000000,0.460461
-0.073845,-0.002008,0.402172,0.226380,0.000000,0.974039
-0.047940,-0.027227,0.400930,0.000000,-1.000000,0.000000
0.213214,-0.027227,-0.177113,0.000000,-1.000000,0.000000
0.238830,0.019288,-0.251812,0.163710,0.000000,0.986509
0.217454,0.027227,-0.266142,0.000000,1.000000,0.000000
0.224589,0.010643,-0.252019,-0.192321,0.000000,0.981332
-0.324962,-0.027227,0.013237,0.000000,-1.000000,0.000000
-0.080596,0.025854,-0.161266,-0.447050,0.000000,-0.894509
0.074343,0.027227,-0.171609,0.000000,1.000000,0.000000
-0.524395,0.000687,-0.209829,-0.928433,0.000000,-0.371500
-0.248304,-0.027227,-0.124450,0.000000,-1.000000,0.000000
-0.027725,-0.025962,0.178140,-0.153786,0.000000,0.988104
-0.003439,-0.027227,0.244290,0.000000,-1.000000,0.000000
-0.105040,-0.002612,-0.329896,-0.553500,0.000000,0.832849
-0.101559,0.222950,0.148958,-0.563324,0.000000,0.826236
-0.327986,0.024423,0.122386,0.191765,0.000000,-0.981441
0.298309,-0.027227,0.013841,0.000000,-1.000000,0.000000
-0.357885,-0.014204,-0.194899,-0.555712,0.000000,-0.831375
0.124659,0.209179,-0.130241,0.691455,0.000000,-0.722419
-0.215260,0.027227,0.098891,0.000000,1.000000,0.000000
0.470106,-0.010169,-0.313079,0.832316,0.000000,-0.554301
-0.330399,-0.003783,0.121991,0.131442,0.000000,-0.991324
-0.113041,-0.027227,-0.166534,0.000000,-1.000000,0.000000
0.542112,0.027227,-0.022707,0.000000,1.000000,0.000000
-0.120095,-0.018505,0.348495,-0.929873,0.000000,-0.367880
-0.118315,-0.023239,0.344614,-0.885354,0.000000,-0.464917
-0.322764,0.010253,0.123778,0.322315,0.000000,-0.946632
-0.341960,0.009443,-0.449535,-0.605435,0.000000,-0.795895
0.037849,0.004614,-0.563547,0.067011,0.000000,-0.997752
-0.240496,-0.027227,-0.024379,0.000000,-1.000000,0.000000
0.173122,0.027227,-0.273133,0.000000,1.000000,0.000000
0.213670,-0.027227,-0.031858,0.000000,-1.000000,0.000000
0.129987,0.261162,-0.124924,0.721008,0.000000,-0.692927
0.270826,0.027227,-0.290318,0.000000,1.000000,0.000000
0.046201,0.270135,0.174264,0.256265,0.000000,0.966607
0.057403,0.186140,-0.170902,0.318400,0.000000,-0.947956
0.024645,-0.009562,0.178592,0.136699,0.000000,0.990613
0.131592,0.113316,0.123232,0.729912,0.000000,0.683542
-0.391763,0.020027,-0.406866,-0.693610,0.000000,-0.720351
-0.349993,0.027227,-0.064420,0.000000,1.000000,0.000000
0.151839,0.067273,-0.097198,0.842220,0.000000,-0.539134
0.092415,0.281811,0.154797,0.512604,0.000000,0.858625
-0.155374,0.197078,0.091442,-0.861825,0.000000,0.507206
0.174869,-0.004363,-0.537065,0.309603,0.000000,-0.950866
0.068002,0.027227,-0.478232,0.000000,1.000000,0.000000
0.416601,-0.027227,0.303780,0.000000,-1.000000,0.000000
0.469121,-0.027227,0.166757,0.000000,-1.000000,0.000000
0.052012,-0.027227,-0.292500,0.000000,-1.000000,0.000000
0.055599,-0.027227,-0.180045,0.000000,-1.000000,0.000000
-0.029734,0.000650,0.564034,-0.052644,0.000000,0.998613
-0.088461,-0.027227,-0.169780,0.000000,-1.000000,0.000000
-0.363946,-0.024241,-0.133365,-0.707233,0.000000,0.706981
-0.179383,0.150158,-0.018005,-0.995000,0.000000,-0.099872
-0.334624,0.024446,0.121657,0.025811,0.000000,-0.999667
0.101809,-0.027227,0.547281,0.000000,-1.000000,0.000000
0.221192,-0.027227,-0.017502,0.000000,-1.000000,0.000000
0.144287,0.027227,-0.261049,0.000000,1.000000,0.000000
0.176083,0.207871,-0.038696,0.976693,0.000000,-0.214639
-0.045174,0.005753,-0.376504,0.943158,0.000000,-0.332343
0.314289,-0.027227,-0.212210,0.000000,-1.000000,0.000000
0.212141,0.027227,-0.074053,0.000000,1.000000,0.000000
-0.101790,-0.023865,-0.327951,-0.472236,0.000000,0.881472
-0.310714,0.020963,0.192914,0.623580,0.000000,0.781760
0.051929,0.003455,-0.562425,0.091940,0.000000,-0.995765
-0.445183,0.027227,-0.259005,0.000000,1.000000,0.000000
-0.184854,-0.027227,0.261400,0.000000,-1.000000,0.000000
-0.305480,-0.027227,0.112923,0.000000,-1.000000,0.000000
-0.045908,0.014725,0.562948,-0.081279,0.000000,0.996691
-0.222740,0.027227,-0.243280,0.000000,1.000000,0.000000
-0.114047,0.023858,0.388307,-0.778676,0.000000,0.627427
-0.396382,-0.027227,0.079711,0.000000,-1.000000,0.000000
0.337040,0.019849,-0.018411,-0.887770,0.000000,-0.460287
-0.300834,0.005085,-0.141962,0.870571,0.000000,0.492043
-0.529336,0.022759,-0.197032,-0.937181,0.000000,-0.348842
0.337044,0.003512,0.018418,-0.887680,0.000000,0.460461
-0.199547,0.027227,0.492999,0.000000,1.000000,0.000000
0.040149,-0.027227,0.203047,0.000000,-1.000000,0.000000
0.122555,-0.027227,0.204954,0.000000,-1.000000,0.000000
0.224589,0.010643,-0.252019,-0.192321,0.000000,0.981332
0.292076,0.027227,-0.318682,0.000000,1.000000,0.000000
0.179581,0.185985,-0.015914,0.996097,0.000000,-0.088271
-0.163784,-0.027227,-0.138201,0.000000,-1.000000,0.000000
-0.220007,0.027227,0.066557,0.000000,1.000000,0.000000
-0.332239,-0.020407,0.121790,0.085438,0.000000,-0.996343
0.112131,0.169711,-0.141171,0.621963,0.000000,-0.783046
0.134717,0.290190,0.119809,0.747243,0.000000,0.664551
-0.208604,-0.027227,-0.177437,0.000000,-1.000000,0.000000
0.192666,0.012846,-0.530941,0.341112,0.000000,-0.940023
-0.330064,-0.027227,0.127280,0.000000,-1.000000,0.000000
-0.136056,-0.004631,0.118286,-0.754670,0.000000,0.656104
-0.043266,-0.019221,0.368607,0.990857,0.000000,0.134915
-0.097878,0.027227,-0.327273,0.000000,1.000000,0.000000
0.403188,-0.026534,-0.025717,0.765929,0.000000,-0.642925
-0.309740,-0.003852,-0.192112,0.647922,0.000000,-0.761706
-0.057253,0.113146,0.170952,-0.317570,0.000000,0.948235
-0.224724,-0.027227,-0.082221,0.000000,-1.000000,0.000000
-0.139029,0.027227,-0.483900,0.000000,1.000000,0.000000
-0.361800,0.006748,0.131370,-0.653588,0.000000,-0.756851
-0.155322,-0.015480,-0.091529,-0.861538,0.000000,-0.507693
-0.185505,0.027227,0.061061,0.000000,1.000000,0.000000
-0.019731,0.287195,-0.179202,-0.109442,0.000000,-0.993993
0.218513,0.027227,0.281569,0.000000,1.000000,0.000000
0.206546,-0.007626,0.260651,-0.643399,0.000000,-0.765531
-0.049070,-0.009254,0.384553,0.845764,0.000000,0.533557
-0.490608,-0.027227,-0.239074,0.000000,-1.000000,0.000000
-0.338126,0.027227,0.166987,0.000000,1.000000,0.000000
0.137746,0.251827,0.116313,0.764047,0.000000,0.645160
0.116627,-0.015337,-0.137480,0.646902,0.000000,-0.762573
0.056493,0.230654,-0.171205,0.313356,0.000000,-0.949636
0.044455,-0.027227,-0.472655,0.000000,-1.000000,0.000000
0.075864,0.133244,-0.163546,0.420799,0.000000,-0.907154
-0.177210,0.140429,-0.033156,-0.982943,0.000000,-0.183912
-0.529336,0.022759,-0.197032,-0.937181,0.000000,-0.348842
-0.367942,0.013371,-0.185259,-0.807123,0.000000,-0.590383
0.002542,0.139053,-0.180267,0.014100,0.000000,-0.999901
0.033015,-0.021068,-0.177236,0.183126,0.000000,-0.983089
-0.283627,0.027227,-0.325109,0.000000,1.000000,0.000000
0.272276,0.000708,0.290575,0.999848,0.000000,-0.017423
0.192410,-0.003033,-0.294476,-0.996787,0.000000,-0.080099
0.136952,0.054566,-0.117246,0.759644,0.000000,-0.650339
0.039275,-0.027227,-0.508979,0.000000,-1.000000,0.000000
-0.180170,-0.008339,0.006422,-0.999365,0.000000,0.035623
0.159636,-0.027227,-0.534117,0.000000,-1.000000,0.000000
-0.396382,-0.027227,0.079711,0.000000,-1.000000,0.000000
0.225857,-0.003746,0.251791,-0.160629,0.000000,-0.987015
-0.071544,-0.021382,0.324856,0.283901,0.000000,-0.958854
0.270294,-0.003453,0.303726,0.950299,0.000000,0.311338
-0.076735,-0.027227,0.375271,0.000000,-1.000000,0.000000
-0.561853,0.013936,0.057790,-0.994752,0.000000,0.102316
0.209724,0.002511,-0.324305,-0.563933,0.000000,-0.825820
-0.097946,0.173657,-0.151358,-0.543286,0.000000,-0.839548
-0.021945,0.027227,0.249303,0.000000,1.000000,0.000000
0.127065,0.125078,0.127895,0.704802,0.000000,0.709404
-0.030201,-0.027227,-0.231604,0.000000,-1.000000,0.000000
-0.185364,-0.001893,0.533534,-0.328185,0.000000,0.944614
0.265628,-0.000803,0.269181,0.833667,0.000000,-0.552267
0.193193,-0.025147,0.299761,-0.977223,0.000000,0.212216
-0.113239,0.004363,-0.337141,-0.758460,0.000000,0.651720
-0.088461,-0.027227,-0.169780,0.000000,-1.000000,0.000000
0.172199,0.027227,-0.258011,0.000000,1.000000,0.000000
0.233263,-0.002067,-0.514399,0.412989,0.000000,-0.910736
0.194988,0.027227,0.331589,0.000000,1.000000,0.000000
0.129407,0.027227,0.393248,0.000000,1.000000,0.000000
-0.051696,0.013115,0.388236,0.780112,0.000000,0.625640
0.104645,-0.027227,-0.194871,0.000000,-1.000000,0.000000
0.298395,0.027227,-0.395903,0.000000,1.000000,0.000000
-0.275028,0.027227,-0.350398,0.000000,1.000000,0.000000
-0.073409,-0.016420,-0.324353,0.237274,0.000000,0.971443
0.410020,-0.027227,-0.209687,0.000000,-1.000000,0.000000
-0.354342,0.014330,-0.126276,-0.467138,0.000000,0.884184
0.064073,0.202208,0.168515,0.355400,0.000000,0.934714
0.269022,-0.027144,-0.275456,0.918514,0.000000,0.395388
0.231190,-0.027227,-0.277538,0.000000,-1.000000,0.000000
0.204157,-0.015220,-0.262829,-0.703120,0.000000,0.711072
0.441092,-0.027227,0.005079,0.000000,-1.000000,0.000000
-0.179432,0.097421,-0.017512,-0.995271,0.000000,-0.097133
0.403188,-0.026534,-0.025717,0.765929,0.000000,-0.642925
-0.162474,-0.019830,0.078133,-0.901209,0.000000,0.433385
-0.179886,0.027227,0.110174,0.000000,1.000000,0.000000
0.408671,-0.005744,0.017184,0.903014,0.000000,0.429611
-0.172677,0.046379,0.051820,-0.957801,0.000000,0.287434
0.087173,0.027227,-0.497176,0.000000,1.000000,0.000000
-0.226203,-0.027227,0.064388,0.000000,-1.000000,0.000000
-0.094753,-0.002782,-0.556812,-0.167759,0.000000,-0.985828
-0.296938,0.017492,-0.151602,0.967975,0.000000,0.251046
-0.353886,-0.027227,0.052833,0.000000,-1.000000,0.000000
0.332940,-0.024751,-0.005569,-0.990262,0.000000,-0.139216
0.412060,0.025652,0.006247,0.987731,0.000000,0.156167
0.097410,-0.027227,0.407159,0.000000,-1.000000,0.000000
-0.043266,-0.019221,0.368607,0.990857,0.000000,0.134915
0.412426,-0.024985,-0.003156,0.996883,0.000000,-0.078889
-0.195752,0.027227,0.175912,0.000000,1.000000,0.000000
0.286157,-0.027227,-0.325610,0.000000,-1.000000,0.000000
0.150700,0.027227,-0.521093,0.000000,1.000000,0.000000
0.242377,-0.027227,-0.227707,0.000000,-1.000000,0.000000
-0.178679,-0.003345,0.024010,-0.991092,0.000000,0.133177
-0.297811,0.007515,-0.148693,0.946136,0.000000,0.323770
0.337044,0.003512,0.018418,-0.887680,0.000000,0.460461
0.226970,0.008125,0.251626,-0.132785,0.000000,-0.991145
-0.040239,0.138591,0.175737,-0.223196,0.000000,0.974774
-0.332239,-0.020407,0.121790,0.085438,0.000000,-0.996343
-0.122868,-0.022455,-0.361611,-0.999200,0.000000,0.039985
0.197278,-0.027227,0.008283,0.000000,-1.000000,0.000000
0.203250,0.013162,-0.263755,-0.725783,0.000000,0.687924
