x,y,z,nx,ny,nz
23.723674,10.473956,-0.416274,0.000000,0.997859,-0.065403
-16.833472,-8.080744,-6.678332,0.000000,-0.751840,-0.659346
-17.564539,10.447476,0.820276,-0.000000,0.997859,0.065403
2.279932,-9.573767,16.561539,0.195091,-0.980785,0.000000
-6.978081,-6.958722,31.048985,-0.751840,-0.659346,0.000000
3.022897,-6.778480,37.856162,-0.442289,0.896873,0.000000
5.929020,7.866332,16.200572,0.555570,0.831470,0.000000
-6.197684,4.073726,43.246993,0.831470,-0.555570,0.000000
24.196620,-8.550222,-6.064950,0.000000,-0.831469,-0.555571
-25.780297,-1.722037,7.875961,0.000000,0.195090,-0.980785
36.016430,-2.868605,-9.602505,1.000000,-0.000000,-0.000000
-1.872842,5.083507,-6.263024,0.000000,-0.659346,0.751840
8.956825,4.073065,32.343707,0.896873,0.442289,0.000000
-9.761522,-1.336028,35.312317,-0.980785,-0.195091,0.000000
-23.936258,-3.477018,9.885740,-0.000000,-0.321439,0.946930
-27.935801,-3.407148,9.909457,0.000000,-0.321439,0.946930
9.581599,2.240557,38.813935,0.980785,0.195091,0.000000
-1.511550,7.261057,26.260067,0.195090,-0.980785,0.000000
-29.724312,9.743292,3.896656,0.000000,0.946930,0.321439
-21.446882,1.416695,-10.402248,0.000000,0.195090,-0.980785
36.016430,3.533441,-8.670133,1.000000,-0.000000,-0.000000
-36.016430,-4.322485,8.832015,-1.000000,0.000000,0.000000
-19.676333,6.863850,4.236183,0.000000,-0.831469,-0.555571
6.997201,-6.938449,-4.124537,0.000000,0.831469,0.555571
-12.161898,-4.881438,-9.276401,0.000000,-0.442289,-0.896873
36.006703,6.999818,4.030476,-0.000000,-0.896873,-0.442288
13.327475,9.241538,4.952133,-0.000000,0.896873,0.442289
-9.144684,7.880119,1.701135,0.000000,-0.980785,-0.195090
27.493353,-9.667703,-4.087955,0.000000,-0.896873,-0.442289
3.061108,-9.346668,18.018627,0.321439,-0.946930,0.000000
-22.289643,4.749081,6.521142,0.000000,-0.555570,-0.831469
33.201716,-5.395409,5.989493,-0.000000,0.659346,-0.751840
-3.045936,-6.767119,46.004107,0.442289,0.896873,0.000000
-15.659852,-7.111669,3.803663,0.000000,0.896873,-0.442288
-15.369350,-2.067700,7.807205,0.000000,0.195091,-0.980785
-29.890917,-0.481628,8.046307,0.000000,0.065404,-0.997859
8.661032,-4.672875,32.536604,0.896873,-0.442289,0.000000
-12.763022,-8.377769,6.323044,0.000000,-0.831469,0.555571
5.526031,8.135600,20.938291,0.555570,0.831470,0.000000
-3.289192,6.647158,18.869554,0.442289,-0.896873,0.000000
-18.255903,-7.544431,-2.851332,0.000000,0.946930,0.321440
26.760651,1.593065,-10.367166,0.000000,0.195090,-0.980785
1.574373,-7.248561,13.153524,-0.195090,0.980785,0.000000
-6.390593,-3.785018,13.006518,0.831470,0.555570,-0.000000
25.185096,3.551057,-9.860607,0.000000,0.321439,-0.946930
-0.063491,7.428179,13.302602,0.065403,-0.997859,0.000000
-12.043413,0.153932,-10.491150,0.000000,0.065403,-0.997859
5.131244,8.399389,37.480905,0.555570,0.831470,0.000000
36.016430,9.484857,2.397167,1.000000,-0.000000,0.000000
3.308127,9.262817,4.949465,0.321439,0.946930,-0.000000
-7.052157,-10.435557,1.002124,0.000000,-0.997859,0.065403
21.643290,-3.228180,-9.970209,0.000000,-0.321439,-0.946930
-5.614519,-6.144994,5.218094,0.000000,0.751840,-0.659346
-27.517968,8.034590,0.660402,0.000000,-0.997859,-0.065404
6.949001,-6.986605,15.725098,0.659346,-0.751840,0.000000
-29.266107,-8.947924,-5.469747,0.000000,-0.831469,-0.555571
8.143408,5.514346,37.122013,0.831470,0.555570,-0.000000
8.378371,-5.162700,17.231266,0.831469,-0.555571,-0.000000
25.905359,8.271471,6.460850,0.000000,0.751840,0.659346
25.405211,10.123248,-2.777342,0.000000,0.946930,-0.321439
-32.265603,3.840631,7.093439,0.000000,-0.442288,-0.896873
7.211883,6.692122,15.754546,0.751840,0.659346,-0.000000
-1.486859,7.265969,17.573969,0.195090,-0.980785,0.000000
9.600924,-2.143407,13.841465,0.980785,-0.195091,0.000000
-16.923863,5.723820,5.698351,0.000000,-0.751840,-0.659345
31.350893,9.191117,5.054377,-0.000000,0.896873,0.442289
-1.080710,7.346757,13.009878,0.195090,-0.980785,0.000000
-18.895901,9.938082,-3.322821,0.000000,0.946930,-0.321439
32.738833,4.017251,-9.702355,0.000000,0.321439,-0.946930
-26.329656,-6.355036,-4.978586,-0.000000,0.751840,0.659346
-11.381661,8.762864,5.746709,-0.000000,0.831469,0.555571
-28.844329,7.437483,3.142977,0.000000,-0.896873,-0.442288
-6.753996,7.157621,21.167668,-0.659346,0.751840,0.000000
-29.700221,2.460514,-10.194620,0.000000,0.195090,-0.980785
1.304952,-10.184394,2.511921,0.000000,-0.980785,0.195090
4.985261,-8.496931,21.394786,0.555570,-0.831470,0.000000
-30.796341,1.781044,-7.864224,0.000000,-0.195090,0.980785
-6.880277,2.803906,8.705196,0.946930,-0.321439,0.000000
9.013860,0.782114,8.026612,-0.000000,-0.065404,-0.997859
1.084455,-7.346012,5.823668,-0.195090,0.980785,0.000000
-27.413030,7.503833,2.970929,0.000000,-0.946930,-0.321440
-15.943848,-3.496814,-7.262991,-0.000000,0.442288,0.896873
0.695126,10.246712,-2.198631,0.000000,0.980785,-0.195090
-30.445723,3.851610,7.088025,0.000000,-0.442288,-0.896873
3.739559,9.116366,30.379162,0.321439,0.946930,0.000000
-5.489325,6.930965,-4.135737,0.000000,-0.831469,0.555571
12.758359,-9.745674,3.889638,0.000000,-0.946930,0.321439
4.517077,-5.901447,18.887847,-0.555570,0.831470,0.000000
-5.656213,4.695514,-6.556934,0.000000,-0.555571,0.831469
-7.514141,6.347463,47.276276,-0.751840,0.659346,0.000000
23.349171,9.159198,5.119102,-0.000000,0.896873,0.442289
22.134580,-7.062599,7.743751,0.000000,-0.659346,0.751840
-32.823908,-0.117795,10.493519,0.000000,-0.065403,0.997859
36.016430,-5.935575,8.003722,1.000000,-0.000000,0.000000
4.396241,-8.797452,12.692751,0.442289,-0.896873,-0.000000
9.605932,2.118232,15.678162,0.980785,0.195091,-0.000000
-27.116411,-10.208666,-2.389900,-0.000000,-0.980785,-0.195090
24.153945,5.123196,9.157179,0.000000,0.442288,0.896873
2.605675,-6.947567,39.239185,-0.321439,0.946930,0.000000
-9.978854,7.905926,-6.877674,0.000000,0.751840,-0.659346
-12.370850,3.385321,-9.916867,0.000000,0.321439,-0.946930
-32.452856,-6.743179,4.416780,0.000000,0.831469,-0.555571
23.006742,7.956971,6.819468,0.000000,0.751840,0.659346
17.312651,-6.348696,-8.360629,0.000000,-0.555571,-0.831469
9.654055,1.876301,33.525297,0.980785,0.195091,0.000000
0.418132,-7.546118,-2.846361,0.000000,0.946930,0.321440
6.236075,-4.016271,38.647229,-0.831470,0.555570,0.000000
-1.196584,-9.777277,29.454548,-0.065403,-0.997859,0.000000
6.876353,-6.849227,-4.258068,-0.000000,0.831469,0.555571
20.895184,-6.765935,4.382723,-0.000000,0.831469,-0.555571
33.438174,-3.260976,-9.959076,0.000000,-0.321439,-0.946930
-0.734696,7.384186,16.391732,0.065403,-0.997859,0.000000
-9.351756,-3.046119,34.728884,-0.946930,-0.321439,-0.000000
23.794432,2.630443,-10.160819,0.000000,0.195090,-0.980785
3.289446,-6.647032,10.395143,-0.442289,0.896873,0.000000
-34.060872,-10.456925,-0.676113,0.000000,-0.997859,-0.065403
-8.387744,5.148672,31.376845,-0.831470,0.555570,0.000000
7.387474,0.684522,40.788455,-0.997859,-0.065403,-0.000000
0.360596,-7.408705,35.816191,-0.065403,0.997859,0.000000
6.636853,7.260352,10.932317,0.659346,0.751840,0.000000
7.382021,-0.767727,17.463060,-0.997859,0.065403,0.000000
30.178973,1.826020,10.320828,-0.000000,0.195090,0.980785
34.865907,5.589795,8.867710,-0.000000,0.555571,0.831469
-33.753100,3.089483,7.463589,0.000000,-0.321439,-0.946930
-11.109217,-10.140802,-2.725629,-0.000000,-0.946930,-0.321439
-3.585224,-6.501171,42.862238,0.442289,0.896873,0.000000
-1.989857,-7.156609,33.300010,0.321439,0.946930,0.000000
-3.851982,-6.345849,34.741051,0.555570,0.831470,-0.000000
2.766531,6.892964,19.496493,-0.321439,-0.946930,0.000000
-6.211995,4.052309,26.553638,0.831470,-0.555570,0.000000
9.624863,2.023058,19.750032,0.980785,0.195091,-0.000000
-18.385690,7.852783,1.838560,0.000000,-0.980785,-0.195090
22.871667,4.439143,9.494517,-0.000000,0.442289,0.896873
-7.356062,-1.033927,12.229912,0.980785,0.195092,-0.000000
1.408349,9.747136,6.027622,0.195091,0.980785,-0.000000
-9.655365,-10.442118,0.902023,0.000000,-0.997859,0.065403
4.128699,6.160953,19.238430,-0.555570,-0.831470,0.000000
-12.060326,6.350177,-8.359639,0.000000,0.555571,-0.831469
-17.142641,-9.596449,4.232445,0.000000,-0.896873,0.442289
14.889049,-1.878623,-7.844814,-0.000000,0.195090,0.980785
7.152260,-6.760108,38.455060,0.751840,-0.659346,-0.000000
-22.605799,1.353163,-7.949335,0.000000,-0.195090,0.980785
-7.257768,1.528085,34.116883,0.980785,-0.195090,0.000000
3.351820,9.247985,46.531531,0.321439,0.946930,0.000000
-12.934460,-3.382064,7.319579,-0.000000,0.442288,-0.896873
-3.289882,6.646818,11.003935,0.442289,-0.896873,0.000000
28.983630,-9.493651,4.440898,-0.000000,-0.896873,0.442289
-12.212090,-8.072520,0.081697,0.000000,0.997859,-0.065404
-17.924163,3.764147,-7.131157,0.000000,-0.442288,0.896873
-20.556343,-0.053725,-10.497718,0.000000,-0.065403,-0.997859
30.610117,-10.498737,-0.038180,0.000000,-0.997859,-0.065403
8.310229,-5.264682,46.386876,0.831470,-0.555570,0.000000
33.652167,4.498062,6.688868,-0.000000,-0.555571,-0.831469
-21.833756,2.422994,-10.202083,0.000000,0.195090,-0.980785
3.415090,-7.581176,-2.743084,0.000000,0.946930,0.321440
24.801949,6.578891,8.167951,-0.000000,0.659346,0.751840
-5.496803,4.342971,-6.792496,0.000000,-0.555571,0.831469
-10.174239,-7.348420,3.323579,0.000000,0.896873,-0.442288
-10.834488,-10.425396,-1.157141,0.000000,-0.997859,-0.065403
31.700336,-6.132231,-8.505266,0.000000,-0.555571,-0.831469
1.919908,2.103314,-7.798349,0.000000,-0.321440,0.946930
2.723460,9.461284,13.966328,0.321439,0.946930,-0.000000
6.445980,7.427743,10.844270,0.659346,0.751840,-0.000000
22.657631,9.623554,-4.177480,0.000000,0.896873,-0.442289
1.224731,9.775432,20.903182,0.065403,0.997859,0.000000
-34.715899,-8.363995,6.343658,0.000000,-0.831469,0.555571
2.267560,0.632764,-8.036401,0.000000,-0.065404,0.997859
-26.516737,-8.718573,5.812994,0.000000,-0.831469,0.555571
15.837504,-9.542774,4.341286,-0.000000,-0.896873,0.442289
8.610178,-4.775996,27.943519,0.896873,-0.442289,0.000000
0.700959,7.386397,40.808067,-0.065403,-0.997859,0.000000
-9.459853,2.727675,10.982491,-0.946930,0.321440,-0.000000
15.440951,4.139142,9.642461,-0.000000,0.442289,0.896873
16.205774,-6.469175,-4.826855,-0.000000,0.831470,0.555570
2.118719,-7.112866,28.018318,-0.321439,0.946930,0.000000
-18.178427,0.685676,-10.456298,0.000000,0.065403,-0.997859
10.661578,-1.500266,7.920074,-0.000000,0.195090,-0.980785
11.196443,10.394781,-1.454233,0.000000,0.980785,-0.195090
30.330137,-6.883419,-4.206895,0.000000,0.831469,0.555571
-5.405791,-5.084037,32.370367,0.751840,0.659346,0.000000
20.111564,-8.619027,5.961976,0.000000,-0.831469,0.555571
-4.459493,-8.766260,10.626964,-0.442289,-0.896873,-0.000000
-15.247346,9.536423,-4.354166,0.000000,0.896873,-0.442289
-1.766418,-7.210361,41.506708,0.195090,0.980785,0.000000
21.323637,-4.787104,9.322921,-0.000000,-0.442289,0.896873
14.125123,3.863051,7.082383,0.000000,-0.442288,-0.896873
-7.063912,-6.860850,39.676761,-0.751840,-0.659346,0.000000
-23.220562,10.111207,2.812811,0.000000,0.946930,0.321439
-19.636303,-4.141263,-9.641415,0.000000,-0.442289,-0.896873
-27.214697,-6.495231,-4.787860,-0.000000,0.831469,0.555571
-2.092243,-9.611101,20.525928,-0.195091,-0.980785,-0.000000
-5.852918,7.917182,42.552562,-0.555570,0.831470,0.000000
-10.603478,1.326119,7.954714,0.000000,-0.195090,-0.980785
-14.322667,-5.761090,5.655853,0.000000,0.751840,-0.659346
-7.816367,-6.002840,43.633676,-0.751840,-0.659346,-0.000000
-34.040865,5.551026,5.853021,0.000000,-0.659346,-0.751840
7.374413,-0.883797,32.330607,-0.997859,0.065403,0.000000
21.855123,-5.042136,-9.197153,0.000000,-0.442289,-0.896873
10.713392,-3.417348,-7.302179,0.000000,0.442288,0.896873
20.118810,8.053618,0.370090,0.000000,-0.997859,-0.065404
-35.285764,-8.021941,0.853377,0.000000,0.997859,-0.065404
9.387553,-2.940665,36.409184,0.946930,-0.321439,0.000000
1.292095,-7.644970,-7.175237,0.000000,-0.751840,-0.659346
-9.905039,-4.412410,-6.746099,-0.000000,0.555571,0.831469
18.673457,-7.138660,3.748932,0.000000,0.896873,-0.442288
12.419840,-1.761146,10.333733,0.000000,-0.195090,0.980785
-29.243715,0.062965,-8.073748,0.000000,-0.065404,0.997859
-23.461765,-1.491360,7.921845,0.000000,0.195090,-0.980785
12.847697,7.981898,1.189454,0.000000,-0.980785,-0.195090
1.522619,-9.724406,23.293745,0.195091,-0.980785,0.000000
5.055756,8.449828,39.619645,0.555570,0.831470,0.000000
9.840001,-0.239594,42.249059,0.997859,-0.065403,0.000000
5.418363,-5.069702,23.132605,-0.751840,0.659346,0.000000
8.652432,3.077217,-7.467753,0.000000,-0.321440,0.946930
-5.595767,-4.867411,25.702417,0.751840,0.659346,-0.000000
29.112839,-7.375631,-3.268401,0.000000,0.896873,0.442288
0.749305,8.015555,-0.950815,0.000000,-0.997859,0.065404
16.637098,1.628342,-10.360149,0.000000,0.195090,-0.980785
-11.611722,8.048829,-0.443150,0.000000,-0.997859,0.065404
-15.953008,8.022665,0.842332,0.000000,-0.997859,-0.065404
3.105198,-6.737894,44.686299,-0.442289,0.896873,0.000000
35.823175,-8.055024,0.348642,0.000000,0.997859,-0.065404
12.544273,-6.350390,4.983885,0.000000,0.751840,-0.659346
18.596963,1.219844,-7.975853,0.000000,-0.195090,0.980785
20.554982,10.496802,-0.067702,0.000000,0.997859,-0.065403
-13.859742,0.356351,-8.054518,0.000000,-0.065404,0.997859
2.467824,9.536393,28.333867,0.195091,0.980785,0.000000
-20.422165,3.407458,9.909352,-0.000000,0.321439,0.946930
18.712290,-8.020432,-0.876397,0.000000,0.997859,0.065404
-26.295076,5.403496,-5.982401,0.000000,-0.659346,0.751840
-9.138528,3.674270,25.643844,-0.946930,0.321439,0.000000
8.488682,4.997606,32.447180,0.831469,0.555571,0.000000
1.630957,9.986790,-3.179333,0.000000,0.946930,-0.321439
6.502392,-3.582749,32.755962,-0.896873,0.442289,0.000000
36.016430,9.509667,-2.554791,1.000000,0.000000,-0.000000
27.511895,5.201377,6.159654,-0.000000,-0.659346,-0.751840
26.352772,9.886776,-3.473966,0.000000,0.946930,-0.321439
-5.284817,-5.221981,40.942926,0.751840,0.659346,0.000000
-7.306272,-5.431245,-8.973650,0.000000,-0.555571,-0.831469
-12.358430,-7.734955,2.290065,0.000000,0.946930,-0.321440
6.290862,-3.934275,12.551988,-0.831470,0.555570,0.000000
-18.595458,-10.293262,1.964604,0.000000,-0.980785,0.195090
-13.158820,3.488000,-9.882012,0.000000,0.321439,-0.946930
7.302281,-6.589042,21.620117,0.751840,-0.659346,0.000000
34.763660,-10.470073,0.475517,-0.000000,-0.997859,0.065403
-33.446939,10.125978,-2.769299,0.000000,0.946930,-0.321439
1.630387,9.702970,40.068876,0.195091,0.980785,0.000000
-5.312108,-10.286651,-1.997842,-0.000000,-0.980785,-0.195090
9.870384,8.043108,0.530442,0.000000,-0.997859,-0.065404
1.727395,-7.218123,28.688782,-0.195090,0.980785,0.000000
-17.215238,-1.972226,-7.826195,-0.000000,0.195090,0.980785
-6.834794,-2.908704,30.447761,0.896873,0.442289,-0.000000
7.403678,0.437293,10.065352,-0.997859,-0.065403,-0.000000
8.201927,-0.053035,47.664486,0.000000,0.000000,1.000000
35.335917,4.574938,-6.637501,0.000000,-0.555571,0.831469
26.687845,9.976120,3.210766,-0.000000,0.946930,0.321439
0.610416,-9.815696,18.666309,0.065403,-0.997859,0.000000
-9.191057,-3.519524,29.080554,-0.946930,-0.321439,0.000000
7.421738,0.161752,44.744693,-0.997859,-0.065403,-0.000000
-30.036529,8.178524,6.566835,-0.000000,0.751840,0.659346
-25.905097,10.484011,0.262855,-0.000000,0.997859,0.065403
12.956814,7.169928,-3.685526,0.000000,-0.896873,0.442288
-0.639229,-9.813807,24.167698,-0.065403,-0.997859,0.000000
-22.474964,-6.648794,4.558037,0.000000,0.831469,-0.555571
-15.197651,6.656872,4.545947,0.000000,-0.831469,-0.555571
-24.761047,-3.685867,9.814845,-0.000000,-0.321439,0.946930
-4.426365,5.962058,10.858349,0.555570,-0.831470,0.000000
9.140831,-3.667485,13.026779,0.946930,-0.321439,0.000000
-9.016842,4.862128,-6.445607,0.000000,-0.555571,0.831469
11.169999,9.788273,-3.764145,0.000000,0.946930,-0.321439
-26.098794,-8.348285,6.367169,0.000000,-0.831469,0.555571
-6.543733,-7.342016,13.114831,-0.659346,-0.751840,-0.000000
20.443516,3.932031,-9.731284,0.000000,0.321439,-0.946930
7.129543,-2.069590,10.040930,-0.946930,0.321440,0.000000
8.018886,-7.869367,1.755186,0.000000,0.980785,-0.195090
-9.579545,-2.250885,42.044376,-0.980785,-0.195091,0.000000
8.769523,-4.452876,46.936868,0.896873,-0.442289,0.000000
5.501056,9.033518,-5.341647,0.000000,0.831469,-0.555571
5.074573,-5.414090,45.992098,-0.659346,0.751840,0.000000
-16.778509,-9.559096,4.308189,0.000000,-0.896873,0.442289
-8.927880,-10.252413,2.169968,0.000000,-0.980785,0.195090
16.862101,-10.453809,-0.723655,0.000000,-0.997859,-0.065403
-14.207943,-7.909421,-1.553820,-0.000000,0.980785,0.195090
-28.528627,6.506601,8.231348,-0.000000,0.659346,0.751840
-7.374444,0.883322,41.378799,0.997859,-0.065403,0.000000
5.640580,-10.485391,0.241802,-0.000000,-0.997859,0.065403
14.739361,7.411919,3.194816,0.000000,-0.896873,-0.442288
3.381289,-10.251073,-2.176706,0.000000,-0.980785,-0.195090
29.757397,-6.390704,8.332560,0.000000,-0.555571,0.831469
19.064425,-10.226324,-2.301124,0.000000,-0.980785,-0.195090
19.310579,10.466733,0.526477,-0.000000,0.997859,0.065403
2.142469,7.544940,2.849833,0.000000,-0.946930,-0.321440
-34.516392,-6.054124,8.557455,0.000000,-0.555571,0.831469
-5.222268,-8.338569,26.056281,-0.555570,-0.831470,0.000000
0.774032,-7.381607,32.118959,-0.065403,0.997859,0.000000
-9.311396,-3.165015,16.589505,-0.946930,-0.321439,0.000000
-13.616346,-3.178470,7.419980,0.000000,0.442288,-0.896873
32.800174,2.344913,-7.716337,0.000000,-0.321440,0.946930
1.127786,6.260759,-5.086089,0.000000,-0.751840,0.659346
17.475594,-3.276429,9.953831,0.000000,-0.321439,0.946930
7.024045,-2.380378,32.036926,-0.946930,0.321439,0.000000
-6.098663,-4.221922,20.009233,0.831470,0.555570,0.000000
-11.965266,-0.781928,8.026624,0.000000,0.065404,-0.997859
-14.135858,7.947817,-1.360790,0.000000,-0.980785,0.195090
1.210838,-8.062352,0.236841,0.000000,0.997859,-0.065404
-9.622288,2.036003,44.496077,-0.980785,0.195091,0.000000
28.479400,-8.872323,-5.582892,0.000000,-0.831469,-0.555571
28.608500,10.239558,2.234592,-0.000000,0.980785,0.195090
-7.297158,7.102570,7.708697,0.000000,0.659346,0.751840
-17.690405,-2.284151,-10.229701,0.000000,-0.195090,-0.980785
-0.965923,7.678249,-2.457118,0.000000,-0.946930,0.321440
-29.456469,8.076845,0.015709,0.000000,-0.997859,-0.065404
-17.730406,-10.482045,0.292847,-0.000000,-0.997859,0.065403
23.365891,10.362365,1.617203,-0.000000,0.980785,0.195090
-33.257441,-9.534916,-4.357221,0.000000,-0.896873,-0.442289
-34.932317,-1.933397,7.833919,0.000000,0.195090,-0.980785
1.612241,7.241029,19.223330,-0.195090,-0.980785,0.000000
-2.524916,-9.525037,31.410684,-0.195091,-0.980785,-0.000000
25.466835,-9.515033,-4.397540,0.000000,-0.896873,-0.442289
-36.016430,1.873425,10.158076,-1.000000,0.000000,0.000000
9.775689,-1.220803,40.379753,0.997859,-0.065403,0.000000
32.876786,-8.027711,0.765352,0.000000,0.997859,-0.065404
1.251951,7.312695,28.475678,-0.195090,-0.980785,0.000000
-31.307077,-10.270449,2.079293,0.000000,-0.980785,0.195090
9.838678,-0.259773,29.111623,0.997859,-0.065403,0.000000
-6.957658,-9.167800,5.101659,0.000000,-0.896873,0.442289
-21.071897,7.917598,1.512711,0.000000,-0.980785,-0.195090
3.169129,1.838398,-7.852815,0.000000,-0.195090,0.980785
-4.936500,5.535178,24.809839,0.659346,-0.751840,0.000000
-3.549365,6.518854,14.092856,0.442289,-0.896873,0.000000
32.245930,2.547373,10.177342,0.000000,0.195090,0.980785
-7.189675,-1.870413,28.525117,0.980785,0.195090,0.000000
9.687075,-1.710298,45.569038,0.980785,-0.195091,0.000000
-24.048390,-6.652431,-8.103458,0.000000,-0.659346,-0.751840
1.699053,9.689312,14.695456,0.195091,0.980785,0.000000
-2.340994,9.561621,28.930170,-0.195091,0.980785,0.000000
7.904243,-5.872283,8.985886,0.831470,-0.555570,0.000000
-23.715956,3.687617,9.814251,-0.000000,0.321439,0.946930
-4.372928,10.331692,-1.771404,0.000000,0.980785,-0.195090
1.917328,7.180343,40.650867,-0.195090,-0.980785,0.000000
-30.782542,-6.272152,-8.411773,0.000000,-0.555571,-0.831469
12.784547,4.321828,-9.552370,0.000000,0.442289,-0.896873
15.156152,-2.354134,-10.215780,0.000000,-0.195090,-0.980785
9.807139,-0.740963,40.637505,0.997859,-0.065403,0.000000
-3.161457,-6.710150,13.945877,0.442289,0.896873,-0.000000
27.540101,8.056851,0.320765,0.000000,-0.997859,-0.065404
0.171199,7.421119,45.835051,-0.065403,-0.997859,0.000000
-6.027336,-7.794884,21.324931,-0.659346,-0.751840,0.000000
3.569812,-7.939765,-6.839087,0.000000,-0.751840,-0.659346
9.763398,0.544652,8.042176,-0.000000,-0.065404,-0.997859
-7.846286,-5.959021,23.621240,-0.831470,-0.555570,0.000000
-6.596004,-3.392922,32.276572,0.896873,0.442289,0.000000
28.230837,6.806406,4.322153,-0.000000,-0.831469,-0.555571
35.845976,-1.068048,-10.431236,0.000000,-0.065403,-0.997859
-9.822712,-0.503367,34.506213,-0.997859,-0.065403,-0.000000
9.841588,0.243722,-8.061901,0.000000,-0.065404,0.997859
19.666134,-6.849362,-4.257866,-0.000000,0.831469,0.555571
-22.116705,8.003100,-1.082867,0.000000,-0.980785,0.195090
3.720742,-9.961133,3.254915,0.000000,-0.946930,0.321439
-6.860803,-7.063953,40.493638,-0.659346,-0.751840,-0.000000
3.125528,9.324801,25.398797,0.321439,0.946930,-0.000000
-0.295068,9.836365,40.389130,-0.065403,0.997859,0.000000
15.733374,6.958289,4.094845,0.000000,-0.831469,-0.555571
-9.809597,-0.703468,39.590419,-0.997859,-0.065403,-0.000000
21.127273,-7.759252,-2.218490,-0.000000,0.946930,0.321440
18.052048,8.728460,5.798198,0.000000,0.831469,0.555571
-34.379634,-6.530144,-4.735609,-0.000000,0.831469,0.555571
-12.326542,-7.990012,1.148661,0.000000,0.980785,-0.195090
1.278724,7.307369,15.415123,-0.195090,-0.980785,0.000000
-2.455108,6.998678,31.843651,0.321439,-0.946930,0.000000
-14.794398,-3.234413,-7.392392,0.000000,0.442288,0.896873
3.724977,9.121315,29.443194,0.321439,0.946930,0.000000
-16.701979,3.372237,9.921308,-0.000000,0.321439,0.946930
7.991548,5.741621,41.502896,0.831470,0.555570,-0.000000
34.995106,-6.920931,-4.150755,0.000000,0.831469,0.555571
-29.983616,-0.681530,-8.033205,-0.000000,0.065404,0.997859
35.903312,7.325894,7.512848,-0.000000,0.659346,0.751840
-10.986984,4.558122,-9.435842,0.000000,0.442289,-0.896873
26.271731,-6.602961,8.146843,0.000000,-0.659346,0.751840
-31.510577,-4.496146,-6.690148,-0.000000,0.555571,0.831469
12.455487,-7.129426,3.767656,0.000000,0.896873,-0.442288
19.319636,-6.414122,4.909247,0.000000,0.831470,-0.555569
29.974693,5.046005,9.195245,-0.000000,0.442289,0.896873
-15.448729,4.521340,9.453981,-0.000000,0.442289,0.896873
5.838048,4.591142,35.697259,-0.751840,-0.659346,0.000000
-4.780786,5.671735,32.050930,0.659346,-0.751840,-0.000000
12.067257,6.419832,4.900702,-0.000000,-0.831469,-0.555571
-16.839062,9.968709,-3.232597,0.000000,0.946930,-0.321439
2.046788,7.137284,19.669371,-0.321439,-0.946930,-0.000000
6.387970,3.988571,7.020483,0.000000,-0.442288,-0.896873
24.496744,-5.206305,-6.155333,0.000000,0.659346,0.751840
3.621431,-9.156465,33.038557,0.321439,-0.946930,0.000000
-16.513546,8.059872,6.702132,0.000000,0.751840,0.659346
5.642503,-5.737454,5.682805,0.000000,0.751840,-0.659345
-9.370260,-5.224547,9.107198,0.000000,-0.442288,0.896873
32.573410,9.412550,-4.605356,0.000000,0.896873,-0.442289
32.388036,-5.397389,-8.996272,0.000000,-0.555571,-0.831469
-4.074777,8.955981,10.740123,-0.442289,0.896873,-0.000000
8.813494,4.363713,14.076234,0.896873,0.442289,-0.000000
-8.479636,5.011145,47.595188,-0.831470,0.555570,0.000000
-5.792493,7.888974,-1.656616,0.000000,-0.980785,0.195090
4.672670,8.661133,37.847711,0.442289,0.896873,0.000000
6.278056,-7.575008,29.527806,0.659346,-0.751840,-0.000000
-28.183886,7.486085,-7.356411,0.000000,0.751840,-0.659346
-7.308860,-1.271230,24.562672,0.980785,0.195090,0.000000
5.179726,-8.366994,23.373832,0.555570,-0.831470,0.000000
-17.421540,-4.518275,-6.675362,-0.000000,0.555571,0.831469
-7.274508,-1.443931,29.309286,0.980785,0.195090,0.000000
-7.274992,-10.118723,2.790671,0.000000,-0.946930,0.321439
-13.739874,0.197647,8.064921,0.000000,-0.065404,-0.997859
29.813212,7.673763,7.142405,-0.000000,0.751840,0.659346
-3.956638,-7.550101,2.834629,0.000000,0.946930,-0.321440
1.091962,-7.344519,47.660726,-0.195090,0.980785,0.000000
16.039658,-4.060438,-6.981279,0.000000,0.555571,0.831469
0.440305,-7.403481,28.998698,-0.065403,0.997859,0.000000
-0.044555,-9.852784,27.725192,-0.065403,-0.997859,0.000000
-7.006064,2.433348,13.385993,0.946930,-0.321439,0.000000
1.120199,7.338902,31.874177,-0.195090,-0.980785,0.000000
-2.055375,5.753441,-8.758366,0.000000,0.555571,-0.831469
-4.256751,8.866241,22.536132,-0.442289,0.896873,-0.000000
9.046736,3.890745,21.086545,0.896873,0.442288,0.000000
-14.171290,4.012400,9.704002,0.000000,0.321440,0.946930
-20.984800,1.103413,-10.428918,0.000000,0.065403,-0.997859
21.162803,-9.186005,-5.064743,0.000000,-0.896873,-0.442289
10.991745,-6.919147,-7.869555,0.000000,-0.659346,-0.751840
-4.957825,8.515264,43.158227,-0.555570,0.831470,0.000000
12.095070,-4.141939,-9.641081,0.000000,-0.442289,-0.896873
0.890568,9.797334,30.664240,0.065403,0.997859,0.000000
0.024729,9.854083,13.556369,0.065403,0.997859,-0.000000
-9.171593,-3.576864,42.489372,-0.946930,-0.321439,-0.000000
-6.820591,7.099218,29.593311,-0.659346,0.751840,0.000000
-29.413191,5.432905,5.956610,0.000000,-0.659346,-0.751840
-29.978627,8.663779,5.894999,0.000000,0.831469,0.555571
-15.029161,-6.765917,-8.003934,0.000000,-0.659346,-0.751840
23.351427,4.448580,-6.721930,0.000000,-0.555571,0.831469
-16.407375,-10.467595,0.513314,0.000000,-0.997859,0.065403
-1.880335,7.187702,35.081199,0.195090,-0.980785,0.000000
-8.631677,4.732401,25.132389,-0.896873,0.442289,0.000000
-2.004152,-7.151756,45.209855,0.321439,0.946930,0.000000
14.780781,-10.233916,-2.262960,0.000000,-0.980785,-0.195090
-7.274078,-1.446090,42.716043,0.980785,0.195090,0.000000
0.605981,8.032166,-0.697383,0.000000,-0.997859,0.065404
15.501759,4.591919,-9.419176,0.000000,0.442289,-0.896873
-25.874870,-5.094867,9.171149,0.000000,-0.442289,0.896873
-16.777444,10.313117,-1.864786,0.000000,0.980785,-0.195090
13.023482,7.457977,3.101421,0.000000,-0.896873,-0.442289
-20.749039,-6.139660,-8.500302,0.000000,-0.555571,-0.831469
29.548265,-7.457315,-7.389217,0.000000,-0.751840,-0.659346
-36.016430,3.305402,9.514290,-1.000000,0.000000,0.000000
7.427281,0.077183,38.630781,-0.997859,-0.065403,-0.000000
4.504263,2.676915,-7.603637,0.000000,-0.321440,0.946930
20.851361,8.622450,-5.956852,0.000000,0.831469,-0.555571
17.331397,-6.747684,8.019923,0.000000,-0.659346,0.751840
4.767604,-8.614316,16.626798,0.442289,-0.896873,0.000000
4.653157,-5.783662,44.277704,-0.659346,0.751840,0.000000
-6.767127,7.146105,13.504684,-0.659346,0.751840,-0.000000
-35.395851,6.614912,8.136361,-0.000000,0.659346,0.751840
-4.308674,-6.040697,22.202132,0.555570,0.831470,-0.000000
-16.891288,10.290065,1.980677,0.000000,0.980785,0.195090
-5.280857,5.226496,22.080498,0.751840,-0.659346,0.000000
19.909637,-4.991787,9.221982,-0.000000,-0.442289,0.896873
-10.105217,0.739597,-10.452764,0.000000,0.065403,-0.997859
3.689882,-6.644337,-4.564706,-0.000000,0.831469,0.555571
-20.134660,4.920962,6.405572,0.000000,-0.659345,-0.751840
33.954161,0.143624,-10.491826,0.000000,0.065403,-0.997859
27.885405,4.800453,-9.316338,0.000000,0.442289,-0.896873
7.414212,0.276578,47.112384,-0.997859,-0.065403,-0.000000
1.811953,7.201304,35.891190,-0.195090,-0.980785,0.000000
-6.369966,3.815888,46.254772,0.831470,-0.555570,0.000000
-2.598328,-6.950061,21.644314,0.321439,0.946930,0.000000
-4.016149,6.236156,31.354881,0.555570,-0.831470,-0.000000
-2.669318,9.479663,33.243631,-0.321439,0.946930,0.000000
-6.912759,1.296147,-10.416285,0.000000,0.065403,-0.997859
-5.085392,5.404603,37.242161,0.659346,-0.751840,0.000000
-7.994323,5.737468,36.085580,-0.831469,0.555571,-0.000000
8.515827,-4.956981,34.673912,0.831470,-0.555570,0.000000
-9.972712,10.488298,-0.197449,0.000000,0.997859,-0.065403
19.035957,-2.445520,10.197602,0.000000,-0.195090,0.980785
21.872735,7.445749,-3.126217,0.000000,-0.896873,0.442288
7.507179,-6.355402,29.190050,0.751840,-0.659346,0.000000
8.322809,-3.868043,7.079921,0.000000,0.442288,-0.896873
-8.948824,4.089290,37.482079,-0.896873,0.442289,0.000000
24.086779,-10.419386,1.248848,0.000000,-0.997859,0.065403
-31.941948,-5.657166,5.759939,0.000000,0.659346,-0.751840
34.735640,9.306522,-4.820358,0.000000,0.896873,-0.442289
32.579597,-4.983754,-6.350504,0.000000,0.659346,0.751840
-22.535667,0.769245,-8.027456,0.000000,-0.065404,0.997859
35.527520,1.260287,-10.418636,0.000000,0.065403,-0.997859
-27.408171,6.391003,-4.937574,0.000000,-0.751840,0.659346
-33.727522,-4.025903,9.698304,0.000000,-0.442289,0.896873
-2.531195,-9.523788,39.014861,-0.195091,-0.980785,-0.000000
-9.629096,2.001779,23.977790,-0.980785,0.195091,0.000000
-5.937979,-7.860346,44.054128,-0.555570,-0.831470,-0.000000
19.828362,1.711956,10.343517,-0.000000,0.195090,0.980785
6.354289,-4.897204,6.422169,0.000000,0.555570,-0.831469
32.651304,4.181567,-6.900343,0.000000,-0.555571,0.831469
-8.935607,-4.116091,24.999785,-0.896873,-0.442289,0.000000
13.268738,7.536207,-2.875560,0.000000,-0.946930,0.321440
11.888876,10.444887,-0.859773,0.000000,0.997859,-0.065403
4.341600,-6.018697,17.891204,-0.555570,0.831470,0.000000
21.920101,2.360605,7.711010,-0.000000,-0.321440,-0.946930
10.490904,-4.200248,-9.612326,0.000000,-0.442289,-0.896873
9.574620,-2.275645,14.655263,0.980785,-0.195091,0.000000
9.816694,0.595185,36.813880,0.997859,0.065403,0.000000
-16.700373,3.595300,-7.214423,0.000000,-0.442288,0.896873
-34.312066,-9.701193,-4.020044,0.000000,-0.896873,-0.442289
-7.375441,6.668729,-8.089166,0.000000,0.659346,-0.751840
11.765555,-6.026802,5.352866,0.000000,0.751840,-0.659346
-10.728797,-9.012868,5.372551,0.000000,-0.831469,0.555571
20.469903,-7.997745,1.109786,0.000000,0.980785,-0.195090
-3.217393,6.682565,45.422710,0.442289,-0.896873,0.000000
9.842751,0.197627,45.119088,0.997859,0.065403,0.000000
-35.159095,-6.707833,-4.469679,-0.000000,0.831469,0.555571
6.637334,7.259931,14.468849,0.659346,0.751840,0.000000
7.376684,0.849142,27.144246,-0.997859,-0.065403,-0.000000
-15.061305,-8.056748,0.322335,0.000000,0.997859,-0.065404
2.429073,-7.007515,30.227393,-0.321439,0.946930,0.000000
32.246980,-7.902153,-1.590361,0.000000,0.980785,0.195090
-4.392163,7.461909,-7.383978,0.000000,0.751840,-0.659346
31.326206,-3.620452,7.202019,0.000000,0.442288,-0.896873
2.453042,-6.999379,36.537896,-0.321439,0.946930,0.000000
34.710689,1.564047,-10.372938,0.000000,0.195090,-0.980785
-5.971584,7.837892,36.113998,-0.555570,0.831470,0.000000
27.057009,3.139707,10.000241,-0.000000,0.321439,0.946930
-9.834897,0.317457,21.173986,-0.997859,0.065403,0.000000
-34.896062,-1.673078,-7.885700,-0.000000,0.195090,0.980785
-18.782666,4.989550,-9.223086,0.000000,0.442289,-0.896873
6.951790,-6.984159,35.233041,0.659346,-0.751840,0.000000
-14.236806,9.552502,-4.321560,0.000000,0.896873,-0.442289
30.724197,0.590816,-10.462515,0.000000,0.065403,-0.997859
3.055180,7.165424,47.664486,0.000000,0.000000,1.000000
-7.088373,2.190873,34.624934,0.946930,-0.321439,0.000000
36.016430,5.632362,-8.587194,1.000000,-0.000000,0.000000
-7.743976,6.085386,45.566774,-0.751840,0.659346,0.000000
6.715975,-3.149644,40.864585,-0.896873,0.442289,0.000000
-25.814896,7.598203,2.692925,0.000000,-0.946930,-0.321440
-31.006601,3.713393,9.805501,-0.000000,0.321439,0.946930
-3.992589,-6.251899,35.828520,0.555570,0.831470,-0.000000
-22.915669,-0.954263,10.438694,-0.000000,-0.065403,0.997859
-32.604919,-9.782704,3.780551,0.000000,-0.946930,0.321439
-13.300857,-6.843654,4.266408,0.000000,0.831469,-0.555571
7.803593,6.017406,18.869134,0.751840,0.659346,0.000000
-26.796796,10.494066,0.109449,-0.000000,0.997859,0.065403
-8.004971,6.437469,8.291975,-0.000000,0.659346,0.751840
5.044045,5.440863,22.952582,-0.659346,-0.751840,0.000000
2.827363,-7.124310,47.664486,0.000000,0.000000,1.000000
-17.038399,3.736652,9.797606,-0.000000,0.321439,0.946930
28.761179,6.264380,-5.081960,0.000000,-0.751840,0.659346
-14.270838,6.828913,-7.948688,0.000000,0.659346,-0.751840
10.784460,-3.290401,7.364782,0.000000,0.442288,-0.896873
-3.292841,4.378878,-9.524236,0.000000,0.442289,-0.896873
8.139576,5.520081,34.321457,0.831470,0.555570,-0.000000
0.961213,-9.792704,41.873579,0.065403,-0.997859,0.000000
2.955521,10.191376,-2.476823,0.000000,0.980785,-0.195090
31.789270,6.641986,-4.568225,0.000000,-0.831469,0.555571
36.016430,9.746354,-0.409203,1.000000,-0.000000,0.000000
7.125334,2.081991,20.232159,-0.946930,-0.321439,0.000000
7.015716,2.404913,39.234880,-0.946930,-0.321439,0.000000
-15.636789,1.978368,-10.290524,0.000000,0.195090,-0.980785
-16.287217,10.453678,0.725646,-0.000000,0.997859,0.065403
2.163472,7.097675,12.700364,-0.321439,-0.946930,0.000000
6.692326,3.197599,43.886136,-0.896873,-0.442289,-0.000000
-0.815797,9.802235,45.913348,-0.065403,0.997859,0.000000
-30.020994,1.778303,10.330320,-0.000000,0.195090,0.980785
-9.623504,-2.029889,34.208583,-0.980785,-0.195091,0.000000
-2.066234,-9.616275,34.012762,-0.195091,-0.980785,0.000000
-21.656789,-8.960094,-5.451534,0.000000,-0.831469,-0.555571
-7.019799,-6.741392,4.419454,0.000000,0.831469,-0.555571
31.584664,-7.466662,3.080432,0.000000,0.946930,-0.321440
-7.557584,6.297925,16.769632,-0.751840,0.659346,-0.000000
7.085124,-6.836662,23.031023,0.751840,-0.659346,0.000000
27.339775,3.213098,9.975328,-0.000000,0.321439,0.946930
7.221458,-6.681203,13.736916,0.751840,-0.659346,0.000000
15.585939,1.280179,10.417332,0.000000,0.065403,0.997859
-33.353125,-6.924544,7.864822,0.000000,-0.659346,0.751840
8.758348,8.013613,-0.980440,0.000000,-0.997859,0.065404
0.579515,9.817721,31.095999,0.065403,0.997859,0.000000
-6.049804,4.295044,19.553999,0.831470,-0.555570,0.000000
-2.474837,-9.534998,33.838077,-0.195091,-0.980785,-0.000000
11.814392,-9.972811,3.220515,0.000000,-0.946930,0.321439
-6.003310,-7.815954,46.156056,-0.659346,-0.751840,0.000000
-34.905666,5.642495,-8.832498,0.000000,0.555571,-0.831469
-12.262296,2.065912,7.807560,0.000000,-0.195091,-0.980785
9.323643,3.128937,30.402240,0.946930,0.321439,-0.000000
20.368045,5.763141,8.751884,0.000000,0.555570,0.831469
11.965323,-7.558821,-2.808940,0.000000,0.946930,0.321440
3.818104,0.656181,-10.458231,0.000000,0.065403,-0.997859
3.166378,-6.707723,38.352721,-0.442289,0.896873,0.000000
20.811031,2.714719,7.590805,0.000000,-0.321440,-0.946930
-15.622145,1.610645,-10.363669,0.000000,0.195090,-0.980785
0.357766,-9.832255,21.758742,0.065403,-0.997859,0.000000
-5.639807,4.817192,44.215162,0.751840,-0.659346,0.000000
-21.160478,-2.332715,-10.220040,0.000000,-0.195090,-0.980785
34.654949,-1.414772,-7.937080,0.000000,0.195090,0.980785
26.711401,8.061604,0.248250,0.000000,-0.997859,-0.065404
-6.423470,3.735814,27.001639,0.831470,-0.555570,0.000000
25.879524,-1.068658,-10.431196,0.000000,-0.065403,-0.997859
-6.783781,-3.012148,32.345106,0.896873,0.442289,-0.000000
-28.033856,-10.271720,-2.072904,-0.000000,-0.980785,-0.195090
-5.216580,5.289554,18.838297,0.659346,-0.751840,0.000000
28.537614,2.779966,-7.568656,0.000000,-0.321440,0.946930
6.494585,3.598579,34.358963,-0.896873,-0.442289,-0.000000
26.727631,6.542122,4.717683,-0.000000,-0.831469,-0.555571
-18.570481,-10.183347,2.517185,0.000000,-0.980785,0.195090
-3.374508,9.240284,15.326001,-0.321439,0.946930,0.000000
-19.758867,-3.544739,-7.239357,-0.000000,0.442288,0.896873
9.699917,-1.645740,17.173615,0.980785,-0.195091,0.000000
28.312492,10.465831,-0.540227,0.000000,0.997859,-0.065403
-8.317575,-4.496573,47.664486,-0.000000,0.000000,1.000000
25.535500,10.386725,1.494734,0.000000,0.980785,0.195090
16.307907,-0.110894,-10.493971,0.000000,-0.065403,-0.997859
-3.318529,8.918697,47.664486,-0.000000,-0.000000,1.000000
-19.763103,3.062186,-7.472855,0.000000,-0.321440,0.946930
7.889858,-5.893811,21.206230,0.831470,-0.555570,0.000000
21.958342,-6.507550,4.769422,0.000000,0.831469,-0.555571
-5.951820,-4.441688,23.554235,0.831470,0.555570,0.000000
9.826151,0.450907,33.164143,0.997859,0.065403,0.000000
-7.254235,-1.545850,41.653578,0.980785,0.195090,0.000000
27.043454,2.424143,7.689442,-0.000000,-0.321440,-0.946930
14.531769,-2.318368,10.222894,0.000000,-0.195090,0.980785
-21.870362,-6.653092,4.551605,0.000000,0.831469,-0.555571
-7.240640,-6.659331,23.682341,-0.751840,-0.659346,0.000000
-29.045193,2.014948,7.817698,0.000000,-0.195090,-0.980785
-24.398563,-5.076653,-9.180131,0.000000,-0.442289,-0.896873
0.036794,-9.853293,47.457968,0.065403,-0.997859,0.000000
-28.456105,9.831229,-3.637602,0.000000,0.946930,-0.321439
-6.546366,8.072123,-0.087765,-0.000000,-0.997859,0.065404
18.016943,5.899077,5.498509,-0.000000,-0.751840,-0.659346
-18.325998,3.489161,9.881618,-0.000000,0.321439,0.946930
-5.940198,10.325123,1.804427,0.000000,0.980785,0.195090
5.661359,-8.045178,19.771578,0.555570,-0.831470,0.000000
-28.680521,-3.028496,10.037992,0.000000,-0.321439,0.946930
3.582232,-9.169771,19.204107,0.321439,-0.946930,0.000000
-14.882566,7.347863,-3.324709,0.000000,-0.896873,0.442288
-33.415036,7.748335,-7.057372,0.000000,0.751840,-0.659346
0.196329,-9.842836,4.649894,0.065403,-0.997859,0.000000
8.435837,-3.119649,47.664486,0.000000,-0.000000,1.000000
13.700255,4.435426,6.730719,0.000000,-0.555571,-0.831469
27.571138,-2.608398,-10.165204,0.000000,-0.195090,-0.980785
-31.552872,-8.321347,6.403976,0.000000,-0.751840,0.659346
31.218171,-6.700752,8.061082,0.000000,-0.659346,0.751840
-3.430928,-6.577261,33.987641,0.442289,0.896873,0.000000
10.749329,-4.568874,-9.430540,0.000000,-0.442289,-0.896873
2.794243,6.883557,47.010712,-0.321439,-0.946930,-0.000000
5.903986,-7.883059,8.365756,0.555570,-0.831470,0.000000
-4.142219,8.922722,24.985624,-0.442289,0.896873,-0.000000
6.270230,8.377394,6.323605,0.000000,0.831469,0.555571
-22.203631,0.761057,-10.451357,0.000000,0.065403,-0.997859
9.382099,-2.956731,46.686741,0.946930,-0.321439,0.000000
34.020156,-9.324239,-4.784431,0.000000,-0.896873,-0.442289
36.016430,-6.832848,-4.355039,1.000000,0.000000,-0.000000
-30.547256,-4.447602,-6.722584,-0.000000,0.555571,0.831469
1.114619,7.340012,30.340846,-0.195090,-0.980785,0.000000
-26.789573,-4.488007,-9.470420,0.000000,-0.442289,-0.896873
-0.711209,1.159282,-7.987900,0.000000,-0.195090,0.980785
-7.393977,-0.585303,21.251319,0.997859,0.065403,-0.000000
-3.236003,-4.595617,-6.623684,-0.000000,0.555571,0.831469
-6.215404,4.047207,37.242704,0.831470,-0.555570,0.000000
-7.396200,-0.551391,23.022392,0.997859,0.065403,-0.000000
-25.719464,-5.636538,8.836478,0.000000,-0.555571,0.831469
-0.485813,-9.336059,-4.760463,0.000000,-0.896873,-0.442289
16.074501,-0.725676,-10.453676,0.000000,-0.065403,-0.997859
6.911562,-2.819215,-10.109034,0.000000,-0.321439,-0.946930
-6.027597,-8.014338,6.754054,0.000000,-0.751840,0.659346
-20.979401,5.514795,5.884794,0.000000,-0.659346,-0.751840
-0.485301,9.823896,20.482769,-0.065403,0.997859,0.000000
12.551222,-4.259109,9.583300,0.000000,-0.442289,0.896873
-12.551755,10.266072,-2.101301,0.000000,0.980785,-0.195090
35.226850,5.443598,-8.965396,0.000000,0.555571,-0.831469
35.798987,10.437978,0.965180,-0.000000,0.997859,0.065403
-0.471667,2.294466,-7.733461,0.000000,-0.321440,0.946930
33.345531,-10.355240,1.653020,0.000000,-0.980785,0.195090
8.979411,4.027266,15.336676,0.896873,0.442289,0.000000
-4.694777,8.650231,45.498918,-0.442289,0.896873,0.000000
17.078575,-7.844831,1.878537,0.000000,0.980785,-0.195090
-32.109009,-2.148947,7.782858,0.000000,0.321440,-0.946930
-6.618714,-3.346869,11.182276,0.896873,0.442289,-0.000000
-24.534417,-4.429159,-6.734907,-0.000000,0.555571,0.831469
2.985088,-6.797126,23.468112,-0.442289,0.896873,0.000000
30.340886,-9.863843,3.541524,0.000000,-0.946930,0.321439
8.894894,-4.198649,12.729372,0.896873,-0.442289,0.000000
-10.075207,-8.166011,-6.581103,0.000000,-0.751840,-0.659346
-7.690084,6.146838,26.377859,-0.751840,0.659346,0.000000
2.292729,9.320123,47.664486,-0.000000,0.000000,1.000000
-7.330890,-1.160476,12.008386,0.980785,0.195090,0.000000
36.016430,-0.615299,8.361063,1.000000,-0.000000,0.000000
1.725930,-10.478059,-0.353674,0.000000,-0.997859,-0.065403
9.461697,-8.313578,-6.412835,0.000000,-0.751840,-0.659346
-11.179940,-1.587614,-7.902699,-0.000000,0.195090,0.980785
-9.783599,-1.100126,31.026985,-0.997859,-0.065403,0.000000
-30.870217,5.889753,8.667285,-0.000000,0.555571,0.831469
20.705037,7.549500,-7.284099,0.000000,0.751840,-0.659346
-13.136691,-0.873174,10.444009,-0.000000,-0.065403,0.997859
17.749521,6.037445,8.568600,0.000000,0.555570,0.831469
23.958753,-1.120405,-7.995633,0.000000,0.195090,0.980785
7.993698,5.738403,10.113996,0.831470,0.555570,-0.000000
30.460892,0.905646,-8.018515,0.000000,-0.065404,0.997859
18.186437,7.746875,2.254950,0.000000,-0.946930,-0.321440
34.093957,-2.121672,-10.262019,0.000000,-0.195090,-0.980785
-14.054824,1.609163,-10.363964,0.000000,0.195090,-0.980785
3.445758,9.675224,-4.072705,0.000000,0.896873,-0.442289
-4.138980,-8.924320,37.838623,-0.442289,-0.896873,0.000000
5.904277,-8.017361,0.923258,0.000000,0.997859,-0.065404
4.563355,8.715041,41.146062,0.442289,0.896873,0.000000
5.016614,-8.475982,18.799771,0.555570,-0.831470,0.000000
36.016430,1.320254,9.243608,1.000000,-0.000000,-0.000000
17.431511,-8.003161,-1.082558,-0.000000,0.980785,0.195090
-12.814201,2.226058,-10.241256,0.000000,0.195090,-0.980785
22.590347,-7.416976,7.432971,0.000000,-0.659346,0.751840
-9.577748,-2.259922,20.258849,-0.980785,-0.195091,0.000000
3.932598,-9.026096,40.659113,0.442289,-0.896873,-0.000000
29.222347,-4.651925,-9.389584,0.000000,-0.442289,-0.896873
9.725931,-1.514955,39.326519,0.980785,-0.195091,0.000000
-17.035537,-3.041232,10.033669,0.000000,-0.321439,0.946930
5.930616,-4.473423,19.960758,-0.831470,0.555570,0.000000
-8.155925,5.495613,41.852536,-0.831470,0.555570,0.000000
7.924781,-7.685893,2.434597,0.000000,0.946930,-0.321440
-34.335286,5.226358,-9.106305,0.000000,0.442289,-0.896873
1.955799,-9.638241,37.700075,0.195091,-0.980785,0.000000
5.126545,-8.402529,12.344329,0.555570,-0.831470,0.000000
-1.482755,-9.732336,11.729394,-0.195091,-0.980785,0.000000
26.429539,-6.745394,-4.413464,0.000000,0.831469,0.555571
-36.016430,7.189239,-3.680702,-1.000000,0.000000,0.000000
-12.009036,7.180859,7.640039,0.000000,0.659346,0.751840
-4.549049,5.874963,41.548835,0.659345,-0.751840,0.000000
-28.031815,-4.142686,-9.640713,0.000000,-0.442289,-0.896873
12.685705,-7.553260,2.825321,0.000000,0.946930,-0.321440
3.518799,-9.191303,13.387614,0.321439,-0.946930,0.000000
-3.191476,-5.482765,-5.912884,-0.000000,0.659346,0.751840
9.725088,1.519195,13.683344,0.980785,0.195091,-0.000000
-22.004181,0.360579,-8.054241,0.000000,-0.065404,0.997859
11.282251,-0.000390,-8.077850,0.000000,0.065404,0.997859
9.774439,-1.239881,42.427494,0.997859,-0.065403,0.000000
9.809166,0.710042,14.705346,0.997859,0.065403,-0.000000
-1.519946,-7.259387,45.495188,0.195090,0.980785,0.000000
36.016430,7.215474,-6.646668,1.000000,-0.000000,0.000000
27.685749,-4.341364,-9.542736,0.000000,-0.442289,-0.896873
33.611064,9.738069,3.912041,-0.000000,0.946930,0.321439
-6.389541,-3.786592,8.875181,0.831470,0.555570,-0.000000
-3.596296,-9.164997,21.057497,-0.321439,-0.946930,0.000000
16.358603,10.466497,0.530075,-0.000000,0.997859,0.065403
-34.960635,-6.566169,8.179108,0.000000,-0.659346,0.751840
-2.481400,2.002913,-7.820091,0.000000,-0.195090,0.980785
5.078117,5.410982,30.149539,-0.659346,-0.751840,0.000000
31.534629,-2.727410,10.140197,0.000000,-0.321439,0.946930
27.250205,10.465378,-0.547136,0.000000,0.997859,-0.065403
11.809946,10.420588,1.230502,-0.000000,0.997859,0.065403
-3.133559,9.322075,30.398948,-0.321439,0.946930,0.000000
10.638690,-7.925220,1.474394,0.000000,0.980785,-0.195090
7.119528,-2.099093,47.374638,-0.946930,0.321439,0.000000
-4.405364,-8.792954,37.677217,-0.442289,-0.896873,0.000000
-2.183434,-9.592962,31.798331,-0.195091,-0.980785,0.000000
-8.308431,-1.922546,-10.301628,0.000000,-0.195090,-0.980785
-21.086184,5.152321,6.202676,0.000000,-0.659346,-0.751840
9.755717,-1.365212,26.105738,0.980785,-0.195091,0.000000
-0.669145,-9.811847,21.850492,-0.065403,-0.997859,0.000000
-14.206281,3.832534,-7.097432,0.000000,-0.442288,0.896873
26.039010,-5.341500,-9.033616,0.000000,-0.555571,-0.831469
-20.054783,2.757565,7.576260,-0.000000,-0.321440,-0.946930
-15.796962,2.601536,-7.629225,0.000000,-0.321440,0.946930
-29.167117,-4.657736,-6.582177,-0.000000,0.555571,0.831469
-16.994913,0.953618,-10.438736,0.000000,0.065403,-0.997859
2.744328,-7.813469,2.036206,0.000000,0.980785,-0.195090
5.111504,8.412578,41.825835,0.555570,0.831470,0.000000
9.615464,-2.070310,15.132062,0.980785,-0.195091,0.000000
17.037614,-10.451048,0.765770,-0.000000,-0.997859,0.065403
-22.276863,3.253356,-7.383051,0.000000,-0.442288,0.896873
-6.758889,-7.153329,9.532981,-0.659346,-0.751840,-0.000000
8.189854,-5.444834,12.650026,0.831470,-0.555570,0.000000
-6.492876,3.602045,46.161396,0.896873,-0.442289,0.000000
11.085899,10.095737,2.858385,0.000000,0.946930,0.321439
-5.170887,-5.329626,47.002744,0.659346,0.751840,0.000000
22.690277,-10.188829,2.489626,0.000000,-0.980785,0.195090
27.753782,-10.218192,2.342010,0.000000,-0.980785,0.195090
11.651204,-1.057192,-8.008207,0.000000,0.195090,0.980785
-18.269962,-6.747750,8.019866,0.000000,-0.659346,0.751840
-9.744292,-2.535240,10.179756,-0.000000,-0.195090,0.980785
-32.278348,4.545518,6.657158,0.000000,-0.555571,-0.831469
7.732618,-6.098337,42.099106,0.751840,-0.659346,0.000000
-11.575392,5.642208,-8.832689,0.000000,0.555571,-0.831469
19.596103,-7.783623,-7.017134,0.000000,-0.751840,-0.659346
29.455420,7.251532,-3.520049,0.000000,-0.896873,0.442288
-12.970848,-7.928037,1.460233,0.000000,0.980785,-0.195090
-16.080288,-0.076757,10.496209,0.000000,-0.065403,0.997859
-14.691910,7.110492,3.806052,-0.000000,-0.896873,-0.442288
7.771781,1.790810,-7.862281,0.000000,-0.195090,0.980785
6.155002,-4.137605,40.163272,-0.831470,0.555570,0.000000
29.030875,-6.750971,-4.405118,0.000000,0.831469,0.555571
13.142358,-5.398940,5.986397,0.000000,0.659346,-0.751840
-31.315386,8.921044,-5.509976,0.000000,0.831469,-0.555571
21.259888,-3.450024,7.286065,0.000000,0.442288,-0.896873
5.210553,-8.346396,37.675955,0.555570,-0.831470,0.000000
2.517112,-6.977630,33.180232,-0.321439,0.946930,0.000000
28.942571,4.072996,6.972888,-0.000000,-0.555571,-0.831469
19.736574,-7.561521,-2.800985,0.000000,0.946930,0.321440
7.214976,-1.830021,47.664486,0.000000,0.000000,1.000000
36.016430,1.588101,-8.567888,1.000000,-0.000000,-0.000000
9.316216,-3.150817,17.351689,0.946930,-0.321439,0.000000
0.921659,-7.371931,16.875218,-0.065403,0.997859,0.000000
-4.433719,-4.376611,-9.525354,0.000000,-0.442289,-0.896873
32.757511,5.681412,5.738675,0.000000,-0.659346,-0.751840
-21.569336,7.419706,-7.430577,0.000000,0.659346,-0.751840
8.110831,-5.563101,16.494992,0.831470,-0.555570,0.000000
-22.846761,8.030348,0.725122,0.000000,-0.997859,-0.065404
-9.745794,-1.415098,47.183033,-0.980785,-0.195091,0.000000
-23.687597,8.051532,-0.401910,0.000000,-0.997859,0.065404
-6.600705,-9.717100,3.973814,0.000000,-0.946930,0.321439
3.177652,-0.503529,-10.468237,0.000000,-0.065403,-0.997859
23.990001,-6.331943,-5.004919,-0.000000,0.751840,0.659346
-16.426774,9.833053,-3.632230,0.000000,0.946930,-0.321439
13.137461,7.791075,-2.124741,0.000000,-0.946930,0.321440
8.078179,5.611968,38.841615,0.831470,0.555570,-0.000000
-6.179872,-10.486256,0.228614,-0.000000,-0.997859,0.065403
4.897115,-5.569717,32.220120,-0.659346,0.751840,0.000000
27.865567,-6.190239,5.166502,0.000000,0.751840,-0.659346
-22.410040,1.052093,-10.432282,0.000000,0.065403,-0.997859
8.810210,4.370371,33.821629,0.896873,0.442289,0.000000
-0.717867,7.385289,26.669293,0.065403,-0.997859,0.000000
-26.327201,-7.977673,1.210697,0.000000,0.980785,-0.195090
-5.608239,-4.853190,8.439056,0.751840,0.659346,-0.000000
12.859390,-7.902440,1.588917,0.000000,0.980785,-0.195090
24.502525,-8.162129,6.585529,0.000000,-0.751840,0.659346
27.375878,3.537751,-7.242803,0.000000,-0.442288,0.896873
5.521739,7.838497,-1.910383,0.000000,-0.980785,0.195090
-27.204811,7.312424,-3.396572,0.000000,-0.896873,0.442288
-9.053147,-3.877745,12.250150,-0.896873,-0.442288,0.000000
9.202109,3.486965,30.768071,0.946930,0.321439,-0.000000
24.431453,-8.025397,-0.800654,0.000000,0.997859,0.065404
13.181993,6.507484,-8.230573,0.000000,0.659346,-0.751840
12.988019,-6.180698,8.472881,0.000000,-0.555571,0.831469
14.508698,-7.760254,-2.215537,-0.000000,0.946930,0.321440
-9.429992,-9.529406,4.368394,0.000000,-0.896873,0.442289
14.281827,6.721943,-4.448561,-0.000000,-0.831469,0.555571
-34.009906,-2.601925,7.629093,0.000000,0.321440,-0.946930
