x,y,z,nx,ny,nz
-0.000881,0.011002,0.153994,0.000000,0.000000,1.000000
0.070460,-0.102598,0.202062,0.329260,0.000000,0.944239
-0.185937,-0.513939,0.105929,-0.868889,0.000000,0.495006
0.157749,-0.528468,-0.144599,0.737165,0.000000,-0.675713
-0.026308,-0.092400,0.212371,-0.122938,0.000000,0.992414
0.005948,0.648364,0.033130,0.000000,1.000000,0.000000
-0.125870,-0.036203,-0.173061,-0.588194,0.000000,-0.808720
-0.176743,-0.401053,-0.120646,-0.825923,0.000000,-0.563783
-0.151464,-0.447099,-0.151170,-0.707793,0.000000,-0.706420
0.164400,-0.542383,0.136990,0.768245,0.000000,0.640156
-0.061068,-0.648364,-0.055475,0.000000,-1.000000,0.000000
-0.202180,0.441708,-0.070121,-0.944790,0.000000,-0.327677
0.090887,0.257487,-0.193735,0.424716,0.000000,-0.905327
-0.206422,0.604092,-0.056421,-0.964616,0.000000,-0.263658
0.016734,-0.509727,-0.213339,0.078199,0.000000,-0.996938
-0.058140,0.321378,0.205945,-0.271690,0.000000,0.962385
0.067503,-0.648364,0.138951,0.000000,-1.000000,0.000000
0.172686,0.437575,-0.126385,0.806965,0.000000,-0.590600
-0.017955,-0.550210,-0.213240,-0.083904,0.000000,-0.996474
-0.199058,0.576208,-0.078545,-0.930205,0.000000,-0.367041
0.003084,0.648364,-0.102489,0.000000,1.000000,0.000000
0.113707,0.489626,-0.181285,0.531356,0.000000,-0.847148
0.199906,-0.039733,0.076363,0.934163,0.000000,0.356846
-0.110214,-0.648364,0.137623,0.000000,-1.000000,0.000000
0.054446,-0.012392,0.206952,0.254429,0.000000,0.967091
0.168944,-0.317177,0.131345,0.789479,0.000000,0.613777
-0.130001,-0.587257,-0.169980,-0.607498,0.000000,-0.794321
-0.035576,0.074726,-0.211016,-0.166250,0.000000,-0.986084
0.024654,-0.322097,0.212569,0.115209,0.000000,0.993341
-0.043700,-0.049483,0.209485,-0.204212,0.000000,0.978927
-0.208035,-0.220588,-0.050150,-0.972151,0.000000,-0.234354
-0.090240,-0.590642,0.194037,-0.421691,0.000000,0.906739
-0.161310,0.550670,-0.140615,-0.753806,0.000000,-0.657097
0.031669,-0.648364,-0.036800,0.000000,-1.000000,0.000000
-0.213778,-0.420103,-0.009607,-0.998992,0.000000,-0.044895
0.046267,0.017216,-0.208933,0.216205,0.000000,-0.976348
-0.172977,0.333964,0.125986,-0.808325,0.000000,0.588737
-0.100384,0.648364,0.037516,0.000000,1.000000,0.000000
-0.213742,-0.558088,0.010382,-0.998822,0.000000,0.048514
0.208397,0.496120,0.048624,0.973843,0.000000,0.227220
-0.155247,0.648364,-0.037174,0.000000,1.000000,0.000000
0.037222,-0.151500,0.210732,0.173941,0.000000,0.984756
0.166901,0.198788,0.133931,0.779932,0.000000,0.625864
-0.025512,0.648364,0.074480,0.000000,1.000000,0.000000
0.031345,-0.230281,-0.211686,0.146478,0.000000,-0.989214
-0.211648,0.323557,0.031603,-0.989035,0.000000,0.147680
0.131651,0.352524,0.168705,0.615209,0.000000,0.788364
0.030311,0.648364,0.042217,0.000000,1.000000,0.000000
0.067424,-0.589506,-0.203095,0.315075,0.000000,-0.949067
0.048579,0.305734,-0.208407,0.227012,0.000000,-0.973892
0.058515,-0.648364,0.039665,0.000000,-1.000000,0.000000
-0.118255,-0.004814,0.178351,-0.552611,0.000000,0.833440
0.212719,-0.616487,-0.023326,0.994042,0.000000,-0.109001
-0.190682,0.401119,-0.097129,-0.891061,0.000000,-0.453884
-0.145067,-0.491619,0.157318,-0.677903,0.000000,0.735151
0.026097,-0.626788,-0.212397,0.121953,0.000000,-0.992536
0.007317,0.648364,-0.004750,0.000000,1.000000,0.000000
0.209944,0.088878,0.041435,0.981075,0.000000,0.193626
0.200536,-0.648364,0.037790,0.000000,-1.000000,0.000000
-0.090408,-0.271028,-0.193958,-0.422481,0.000000,-0.906372
-0.169658,0.191440,0.130422,-0.792814,0.000000,0.609463
0.081427,0.219846,0.197897,0.380509,0.000000,0.924777
0.050190,0.354204,-0.208025,0.234537,0.000000,-0.972107
0.049571,-0.648364,0.034766,0.000000,-1.000000,0.000000
0.048876,0.573000,0.208338,0.228398,0.000000,0.973568
-0.108932,-0.648364,0.000158,0.000000,-1.000000,0.000000
-0.150296,0.591748,-0.152331,-0.702337,0.000000,-0.711845
-0.020761,-0.648364,0.159641,0.000000,-1.000000,0.000000
-0.003400,-0.648364,-0.002722,0.000000,-1.000000,0.000000
0.062868,0.601078,-0.204551,0.293784,0.000000,-0.955872
0.121468,0.484876,0.176179,0.567623,0.000000,0.823289
-0.019079,0.236226,-0.213142,-0.089155,0.000000,-0.996018
-0.043807,0.648364,-0.006901,0.000000,1.000000,0.000000
-0.074571,0.511573,0.200581,-0.348471,0.000000,0.937320
0.146569,-0.353468,-0.155920,0.684921,0.000000,-0.728617
0.084024,0.648364,-0.136632,0.000000,1.000000,0.000000
0.001802,0.648364,0.001458,0.000000,1.000000,0.000000
-0.213989,-0.181790,0.001541,-0.999974,0.000000,0.007203
0.169840,0.216139,0.130184,0.793667,0.000000,0.608352
-0.149310,-0.648364,0.091127,0.000000,-1.000000,0.000000
-0.180260,0.328954,-0.115324,-0.842361,0.000000,-0.538913
0.203029,-0.563594,0.067623,0.948759,0.000000,0.316002
0.207735,0.144760,-0.051377,0.970752,0.000000,-0.240086
0.175619,0.064339,0.122276,0.820673,0.000000,0.571399
0.140130,-0.075138,-0.161732,0.654829,0.000000,-0.755777
0.195802,0.157768,0.086342,0.914989,0.000000,0.403478
-0.213869,-0.036532,0.007329,-0.999413,0.000000,0.034249
-0.036307,-0.451219,-0.210892,-0.169665,0.000000,-0.985502
-0.144296,-0.648364,0.074422,0.000000,-1.000000,0.000000
0.136282,0.274031,0.164987,0.636847,0.000000,0.770990
0.058245,-0.155823,-0.205915,0.272182,0.000000,-0.962246
0.071928,-0.125177,0.201544,0.336120,0.000000,0.941819
-0.013767,-0.648364,0.027831,0.000000,-1.000000,0.000000
-0.004442,0.648364,0.122284,0.000000,1.000000,0.000000
0.070459,-0.589101,0.202062,0.329258,0.000000,0.944240
-0.166028,-0.433764,0.135012,-0.775852,0.000000,0.630915
0.208359,0.173164,-0.048785,0.973667,0.000000,-0.227976
0.160567,0.457842,-0.141463,0.750333,0.000000,-0.661060
-0.018953,0.467468,0.213153,-0.088569,0.000000,0.996070
0.136699,0.369475,0.164642,0.638798,0.000000,0.769374
-0.131100,-0.101156,0.169134,-0.612633,0.000000,0.790367
0.105516,0.648364,-0.151572,0.000000,1.000000,0.000000
-0.213378,-0.313487,-0.016225,-0.997122,0.000000,-0.075818
-0.124322,-0.441131,-0.174177,-0.580959,0.000000,-0.813933
-0.066733,-0.648364,-0.037380,0.000000,-1.000000,0.000000
-0.163312,0.360573,-0.138285,-0.763160,0.000000,-0.646210
-0.196491,-0.082581,0.084764,-0.918206,0.000000,0.396104
-0.136068,-0.233232,0.165164,-0.635847,0.000000,0.771815
-0.085510,0.276900,-0.196167,-0.399592,0.000000,-0.916693
-0.103028,0.493458,0.187560,-0.481453,0.000000,0.876472
0.206414,0.054760,0.056450,0.964579,0.000000,0.263793
0.167162,0.272440,0.133606,0.781150,0.000000,0.624344
0.090822,0.573041,0.193765,0.424415,0.000000,0.905468
0.136458,-0.421469,-0.164841,0.637674,0.000000,-0.770307
0.184203,-0.330938,-0.108917,0.860784,0.000000,-0.508970
-0.055496,0.167733,-0.206673,-0.259333,0.000000,-0.965788
-0.150619,0.250865,-0.152012,-0.703844,0.000000,-0.710354
-0.144672,-0.329237,-0.157681,-0.676058,0.000000,-0.736849
-0.151274,0.412549,0.151360,-0.706906,0.000000,0.707308
-0.037001,-0.648364,0.044331,0.000000,-1.000000,0.000000
-0.209207,-0.432203,-0.045010,-0.977630,0.000000,-0.210331
0.177347,0.148950,-0.119757,0.828745,0.000000,-0.559627
0.091211,-0.645318,0.193582,0.426231,0.000000,0.904614
0.085446,0.648364,0.177822,0.000000,1.000000,0.000000
-0.213597,0.347362,-0.013040,-0.998142,0.000000,-0.060937
-0.016762,-0.190712,0.153994,0.000000,0.000000,1.000000
0.213902,0.325091,0.006290,0.999568,0.000000,0.029395
0.027178,-0.246214,0.212261,0.127003,0.000000,0.991902
-0.031112,-0.137566,0.153994,0.000000,0.000000,1.000000
0.002532,-0.143208,0.153994,0.000000,0.000000,1.000000
-0.074579,-0.413318,0.200578,-0.348511,0.000000,0.937305
-0.017565,0.648364,0.180590,0.000000,1.000000,0.000000
0.026023,-0.087422,0.153994,0.000000,0.000000,1.000000
-0.124219,0.331017,0.174250,-0.580480,0.000000,0.814275
0.127447,-0.270449,0.171903,0.595562,0.000000,0.803309
-0.048040,-0.043437,0.208532,-0.224493,0.000000,0.974476
-0.130808,-0.426712,-0.169360,-0.611270,0.000000,-0.791422
-0.069819,-0.050381,0.153994,0.000000,0.000000,1.000000
-0.108815,0.453621,-0.184263,-0.508497,0.000000,-0.861064
-0.050742,-0.028856,0.153994,0.000000,0.000000,1.000000
0.185598,-0.605034,-0.106521,0.867305,0.000000,-0.497777
-0.126325,-0.648364,-0.147507,0.000000,-1.000000,0.000000
0.213752,0.637679,0.010173,0.998869,0.000000,0.047538
-0.192553,0.031826,0.093365,-0.899803,0.000000,0.436296
0.127098,0.116611,-0.172161,0.593934,0.000000,-0.804514
0.176146,0.505683,0.121516,0.823135,0.000000,0.567846
-0.213891,0.320343,0.006635,-0.999519,0.000000,0.031003
-0.169065,-0.010092,0.131188,-0.790047,0.000000,0.613047
0.129095,0.015282,-0.170669,0.603266,0.000000,-0.797540
0.213284,0.338632,0.017418,0.996682,0.000000,0.081394
0.015028,-0.203921,0.213466,0.070227,0.000000,0.997531
0.160276,-0.648364,0.034791,0.000000,-1.000000,0.000000
0.006371,-0.340946,-0.213899,0.029772,0.000000,-0.999557
-0.040705,-0.414582,-0.210087,-0.190215,0.000000,-0.981742
0.136218,-0.248601,0.165040,0.636551,0.000000,0.771234
0.138523,0.004973,-0.163110,0.647320,0.000000,-0.762219
0.083030,-0.648364,0.016650,0.000000,-1.000000,0.000000
-0.006763,-0.134508,0.153994,0.000000,0.000000,1.000000
-0.196821,-0.522526,-0.083994,-0.919749,0.000000,-0.392506
-0.176010,0.545989,0.121712,-0.822500,0.000000,0.568765
-0.073608,0.408349,0.200936,-0.343973,0.000000,0.938980
-0.213778,0.192376,-0.009625,-0.998988,0.000000,-0.044976
0.107974,0.648364,-0.003191,0.000000,1.000000,0.000000
0.033341,-0.509945,-0.211381,0.155802,0.000000,-0.987788
-0.002479,0.279991,-0.213980,-0.011582,0.000000,-0.999933
-0.048653,0.387000,0.208390,-0.227355,0.000000,0.973812
-0.065235,0.437610,0.203808,-0.304846,0.000000,0.952402
-0.203571,-0.156202,0.065971,-0.951294,0.000000,0.308286
0.078282,0.607119,-0.199162,0.365814,0.000000,-0.930688
-0.151226,0.648364,-0.018439,0.000000,1.000000,0.000000
-0.105393,0.252321,0.186241,-0.492506,0.000000,0.870309
-0.208221,0.084200,-0.049372,-0.973021,0.000000,-0.230716
0.199105,0.396842,-0.078426,0.930423,0.000000,-0.366486
-0.211008,0.482590,0.035624,-0.986046,0.000000,0.166470
-0.126501,0.295254,-0.172601,-0.591141,0.000000,-0.806568
0.171433,0.071081,0.128079,0.801110,0.000000,0.598517
-0.098729,-0.006523,0.189858,-0.461362,0.000000,0.887212
-0.165383,-0.135358,0.135801,-0.772838,0.000000,0.634604
-0.132464,0.469295,0.168067,-0.619010,0.000000,0.785383
0.204896,-0.096281,0.061735,0.957482,0.000000,0.288491
0.213989,0.639509,0.001555,0.999974,0.000000,0.007265
-0.194701,-0.379281,-0.088797,-0.909843,0.000000,-0.414953
0.176985,-0.056963,0.120290,0.827057,0.000000,0.562118
0.047037,-0.106349,-0.208761,0.219805,0.000000,-0.975544
0.159992,0.607993,-0.142113,0.747647,0.000000,-0.664097
-0.166089,0.246599,0.134937,-0.776139,0.000000,0.630562
-0.110925,-0.248707,0.183001,-0.518353,0.000000,0.855167
0.041618,-0.029068,0.153994,0.000000,0.000000,1.000000
0.071916,-0.025993,0.153994,0.000000,0.000000,1.000000
-0.094826,-0.648364,-0.154823,0.000000,-1.000000,0.000000
-0.096814,0.490038,0.190842,-0.452414,0.000000,0.891808
0.014339,0.218284,0.153994,0.000000,0.000000,1.000000
-0.154018,-0.521824,-0.148567,-0.719728,0.000000,-0.694256
0.121090,0.135431,-0.176439,0.565855,0.000000,-0.824504
0.177867,-0.101899,-0.118982,0.831178,0.000000,-0.556006
-0.084414,0.648364,-0.024324,0.000000,1.000000,0.000000
-0.176216,-0.373551,-0.121414,-0.823463,0.000000,-0.567371
0.009341,0.482804,-0.213790,0.043652,0.000000,-0.999047
0.213405,0.012298,-0.015871,0.997246,0.000000,-0.074165
-0.065252,0.619133,-0.203803,-0.304923,0.000000,-0.952377
0.086169,0.021450,-0.195879,0.402668,0.000000,-0.915346
-0.200249,0.106924,0.075456,-0.935771,0.000000,0.352610
0.194038,-0.096160,-0.090238,0.906742,0.000000,-0.421686
0.195802,0.216957,-0.086344,0.914986,0.000000,-0.403486
-0.036690,0.305987,0.210825,-0.171455,0.000000,0.985192
-0.098789,0.157474,-0.189827,-0.461643,0.000000,-0.887066
-0.065307,-0.648364,0.083286,0.000000,-1.000000,0.000000
0.086544,0.095771,-0.195713,0.404423,0.000000,-0.914572
0.092299,0.386622,0.193066,0.431317,0.000000,0.902200
-0.094758,-0.648364,0.028101,0.000000,-1.000000,0.000000
-0.027231,-0.364418,-0.212255,-0.127249,0.000000,-0.991871
0.055173,0.648364,-0.043924,0.000000,1.000000,0.000000
0.122504,0.648364,0.000674,0.000000,1.000000,0.000000
0.189756,0.421448,0.098925,0.886734,0.000000,0.462280
-0.062266,-0.617844,-0.204735,-0.290969,0.000000,-0.956732
-0.101769,-0.468417,0.188246,-0.475570,0.000000,0.879678
0.213239,-0.452257,-0.017963,0.996471,0.000000,-0.083941
-0.213869,-0.609838,0.007306,-0.999417,0.000000,0.034140
-0.022272,-0.648364,0.077194,0.000000,-1.000000,0.000000
0.002417,-0.260640,-0.213981,0.011295,0.000000,-0.999936
0.162691,-0.362685,-0.139015,0.760259,0.000000,-0.649620
-0.196615,-0.648364,0.028355,0.000000,-1.000000,0.000000
0.197863,0.361937,-0.081510,0.924618,0.000000,-0.380896
-0.006874,-0.187633,-0.213884,-0.032124,0.000000,-0.999484
-0.042675,-0.075655,-0.209696,-0.199422,0.000000,-0.979914
0.073944,-0.648364,0.034916,0.000000,-1.000000,0.000000
0.076706,0.129455,0.153994,0.000000,0.000000,1.000000
0.126901,0.083748,0.172307,0.593010,0.000000,0.805195
0.024536,0.648364,0.103607,0.000000,1.000000,0.000000
-0.085443,0.511347,0.196196,-0.399276,0.000000,0.916831
0.062404,0.488850,-0.204693,0.291614,0.000000,-0.956536
-0.074483,0.648364,-0.005438,0.000000,1.000000,0.000000
0.193160,-0.394311,-0.092102,0.902641,0.000000,-0.430394
0.032503,-0.083735,0.153994,0.000000,0.000000,1.000000
-0.055035,-0.648364,0.127162,0.000000,-1.000000,0.000000
-0.202445,-0.196983,0.069351,-0.946030,0.000000,0.324079
-0.059587,-0.374430,-0.205531,-0.278453,0.000000,-0.960450
0.154307,-0.536660,-0.148266,0.721081,0.000000,-0.692851
0.081847,-0.347309,-0.197724,0.382471,0.000000,-0.923967
0.127432,0.295495,-0.171914,0.595494,0.000000,-0.803360
-0.104635,-0.363429,-0.186668,-0.488963,0.000000,-0.872304
0.180179,-0.607320,-0.115452,0.841980,0.000000,-0.539509
-0.108470,-0.016533,-0.184466,-0.506884,0.000000,-0.862014
-0.107244,-0.648364,0.178732,0.000000,-1.000000,0.000000
0.069587,-0.049589,0.153994,0.000000,0.000000,1.000000
0.062727,0.023738,0.153994,0.000000,0.000000,1.000000
-0.120398,-0.032919,-0.176912,-0.562621,0.000000,-0.826715
-0.001472,-0.648364,-0.089808,0.000000,-1.000000,0.000000
0.054151,-0.095253,-0.207029,0.253049,0.000000,-0.967453
0.017740,-0.648364,-0.068391,0.000000,-1.000000,0.000000
-0.024395,0.218536,0.153994,0.000000,0.000000,1.000000
-0.213149,-0.252405,-0.019003,-0.996049,0.000000,-0.088802
-0.060676,0.418696,0.205212,-0.283541,0.000000,0.958960
-0.013742,-0.551785,0.213552,-0.064218,0.000000,0.997936
-0.100813,0.552905,-0.188760,-0.471103,0.000000,-0.882078
0.115346,0.184305,-0.180247,0.539014,0.000000,-0.842297
-0.017456,0.534119,0.213281,-0.081572,0.000000,0.996667
0.024248,0.648364,0.054104,0.000000,1.000000,0.000000
0.196799,0.456376,-0.084045,0.919647,0.000000,-0.392746
0.212841,-0.565827,0.022189,0.994610,0.000000,0.103689
-0.076879,-0.273586,0.199708,-0.359258,0.000000,0.933238
0.203917,-0.354572,0.064894,0.952911,0.000000,0.303249
0.017366,0.648364,-0.034264,0.000000,1.000000,0.000000
0.213175,0.644273,-0.018705,0.996173,0.000000,-0.087407
0.193413,0.196526,-0.091569,0.903823,0.000000,-0.427906
-0.128238,0.611896,-0.171314,-0.599260,0.000000,-0.800555
0.067856,0.071364,0.153994,0.000000,0.000000,1.000000
0.108813,-0.648364,0.042237,0.000000,-1.000000,0.000000
0.042590,-0.093962,0.153994,0.000000,0.000000,1.000000
-0.028328,-0.427171,-0.212111,-0.132375,0.000000,-0.991200
-0.092044,0.050699,-0.193187,-0.430126,0.000000,-0.902769
0.203400,-0.238680,0.066498,0.950492,0.000000,0.310748
0.078197,0.147830,0.153994,0.000000,0.000000,1.000000
0.205302,-0.457226,-0.060369,0.959383,0.000000,-0.282107
0.181819,0.266549,-0.112851,0.849645,0.000000,-0.527355
0.024858,-0.282716,-0.212545,0.116164,0.000000,-0.993230
-0.148318,0.648364,0.139589,0.000000,1.000000,0.000000
0.196113,0.622385,-0.085635,0.916440,0.000000,-0.400172
-0.212859,-0.368778,0.022016,-0.994694,0.000000,0.102881
0.065326,-0.113991,0.153994,0.000000,0.000000,1.000000
-0.104839,-0.163629,0.186554,-0.489915,0.000000,0.871770
0.045226,-0.122688,0.153994,0.000000,0.000000,1.000000
-0.198131,0.265210,-0.080855,-0.925871,0.000000,-0.377840
-0.125797,0.013742,-0.173114,-0.587852,0.000000,-0.808968
-0.211383,-0.071732,0.033329,-0.987797,0.000000,0.155746
-0.176783,-0.241162,-0.120587,-0.826112,0.000000,-0.563506
-0.195859,0.214616,-0.086213,-0.915254,0.000000,-0.402877
0.087653,0.648364,-0.075385,0.000000,1.000000,0.000000
-0.194916,-0.244469,0.088326,-0.910845,0.000000,0.412748
0.075518,-0.128157,0.153994,0.000000,0.000000,1.000000
0.196022,-0.317520,0.085842,0.916015,0.000000,0.401144
0.087586,-0.517183,0.195249,0.409293,0.000000,0.912403
-0.144680,0.626454,-0.157674,-0.676094,0.000000,-0.736815
-0.052265,0.084369,-0.207514,-0.244235,0.000000,-0.969716
-0.213702,0.376121,-0.011181,-0.998634,0.000000,-0.052250
0.128006,0.648364,-0.147585,0.000000,1.000000,0.000000
-0.072567,-0.327485,-0.201314,-0.339108,0.000000,-0.940747
0.003222,0.648364,-0.039265,0.000000,1.000000,0.000000
-0.114277,0.648364,0.021412,0.000000,1.000000,0.000000
0.146237,-0.432127,0.156231,0.683369,0.000000,0.730073
-0.213403,-0.414152,0.015897,-0.997237,0.000000,0.074289
0.016299,-0.127906,0.153994,0.000000,0.000000,1.000000
0.135003,-0.524821,0.166035,0.630874,0.000000,0.775885
0.055779,0.037738,0.153994,0.000000,0.000000,1.000000
-0.123092,0.058988,-0.175048,-0.575210,0.000000,-0.818006
0.128198,0.516953,0.171344,0.599072,0.000000,0.800695
-0.196507,0.581132,-0.084727,-0.918280,0.000000,-0.395931
0.130971,0.032076,-0.169234,0.612031,0.000000,-0.790834
0.208615,-0.406811,0.047678,0.974864,0.000000,0.222800
-0.086745,0.648364,0.046357,0.000000,1.000000,0.000000
-0.173244,0.110780,-0.125619,-0.809572,0.000000,-0.587020
-0.212960,-0.303969,-0.021014,-0.995167,0.000000,-0.098199
0.036029,0.402703,-0.210939,0.168363,0.000000,-0.985725
0.060690,-0.648364,-0.099615,0.000000,-1.000000,0.000000
0.091605,-0.632027,-0.193396,0.428070,0.000000,-0.903745
-0.213751,0.092132,-0.010196,-0.998864,0.000000,-0.047646
0.122454,0.012161,0.175495,0.572231,0.000000,0.820093
-0.057460,0.153363,0.206136,-0.268511,0.000000,0.963277
-0.212682,-0.196132,0.023660,-0.993869,0.000000,0.110566
0.203058,0.211029,0.067536,0.948893,0.000000,0.315598
-0.041618,0.521166,-0.209908,-0.194481,0.000000,-0.980906
-0.053940,-0.583534,-0.207084,-0.252063,0.000000,-0.967711
0.078994,-0.149229,0.198880,0.369143,0.000000,0.929373
-0.183588,0.629403,0.109951,-0.857909,0.000000,0.513802
-0.211772,-0.621043,-0.030759,-0.989616,0.000000,-0.143739
-0.042663,-0.648364,0.087724,0.000000,-1.000000,0.000000
-0.158531,-0.499698,-0.143741,-0.740818,0.000000,-0.671706
0.100913,0.648364,0.164219,0.000000,1.000000,0.000000
0.201619,-0.257441,0.071717,0.942171,0.000000,0.335133
0.208685,0.193340,-0.047370,0.975191,0.000000,-0.221363
-0.098000,-0.336363,-0.190235,-0.457956,0.000000,-0.888975
0.170565,0.638056,-0.129233,0.797054,0.000000,-0.603908
0.036102,-0.648364,-0.081121,0.000000,-1.000000,0.000000
0.004059,-0.109921,0.153994,0.000000,0.000000,1.000000
0.213762,0.432961,0.009976,0.998913,0.000000,0.046620
-0.205306,-0.463661,0.060358,-0.959399,0.000000,0.282052
0.178938,-0.102860,-0.117366,0.836179,0.000000,-0.548456
0.001985,-0.648364,-0.010018,0.000000,-1.000000,0.000000
0.179678,0.600039,0.116229,0.839641,0.000000,0.543141
-0.211825,-0.603239,-0.030392,-0.989863,0.000000,-0.142025
0.208683,0.352724,0.047380,0.975181,0.000000,0.221410
-0.073952,0.160969,0.153994,0.000000,0.000000,1.000000
0.006399,0.149696,0.153994,0.000000,0.000000,1.000000
0.047009,0.551991,-0.208767,0.219676,0.000000,-0.975573
0.148189,0.648364,0.007733,0.000000,1.000000,0.000000
0.110301,-0.382128,0.183377,0.515439,0.000000,0.856926
-0.213992,0.303141,-0.000862,-0.999992,0.000000,-0.004030
-0.038603,-0.648364,-0.033967,0.000000,-1.000000,0.000000
0.030072,-0.156688,0.153994,0.000000,0.000000,1.000000
-0.137498,-0.592403,0.163975,-0.642531,0.000000,0.766259
0.102277,-0.059306,0.187971,0.477941,0.000000,0.878392
-0.212390,-0.328333,0.026153,-0.992504,0.000000,0.122213
-0.103208,0.378141,-0.187461,-0.482294,0.000000,-0.876009
0.163227,-0.444886,-0.138385,0.762766,0.000000,-0.646675
-0.212979,-0.565526,0.020822,-0.995255,0.000000,0.097304
-0.166145,0.648364,0.097452,0.000000,1.000000,0.000000
-0.123885,-0.554295,0.174488,-0.578917,0.000000,0.815387
0.026594,0.437577,-0.212335,0.124275,0.000000,-0.992248
-0.000193,-0.400284,-0.213994,-0.000902,0.000000,-1.000000
-0.141604,-0.582995,-0.160443,-0.661718,0.000000,-0.749753
0.210711,-0.031303,-0.037339,0.984659,0.000000,-0.174488
0.212743,0.608770,0.023108,0.994153,0.000000,0.107985
-0.114413,-0.066112,0.180840,-0.534654,0.000000,0.845071
0.159421,0.606566,-0.142754,0.744976,0.000000,-0.667091
0.136879,0.648364,-0.042257,0.000000,1.000000,0.000000
-0.139504,0.369124,0.162272,-0.651905,0.000000,0.758301
0.170705,-0.482208,0.129048,0.797707,0.000000,0.603045
0.101419,-0.004106,0.188435,0.473932,0.000000,0.880561
0.019486,-0.648364,0.055965,0.000000,-1.000000,0.000000
0.114761,0.168389,0.180620,0.536281,0.000000,0.844039
-0.097743,0.312383,0.190367,-0.456758,0.000000,0.889591
0.078961,0.219825,0.153994,0.000000,0.000000,1.000000
0.211828,-0.061964,-0.030371,0.989878,0.000000,-0.141923
-0.044171,-0.161359,0.153994,0.000000,0.000000,1.000000
0.010212,0.648364,-0.005659,0.000000,1.000000,0.000000
-0.213516,-0.541119,0.014295,-0.997766,0.000000,0.066802
0.123283,0.648364,0.006503,0.000000,1.000000,0.000000
0.178638,0.461197,-0.117821,0.834781,0.000000,-0.550582
-0.130279,-0.648364,0.113932,0.000000,-1.000000,0.000000
0.045276,0.198562,0.153994,0.000000,0.000000,1.000000
-0.096871,0.648364,0.015430,0.000000,1.000000,0.000000
-0.206418,0.449505,-0.056435,-0.964598,0.000000,-0.263723
-0.180765,0.648364,0.062660,0.000000,1.000000,0.000000
-0.153957,0.426737,0.148629,-0.719447,0.000000,0.694548
-0.209958,0.031948,0.041366,-0.981139,0.000000,0.193303
-0.213237,-0.020421,0.017986,-0.996462,0.000000,0.084049
0.170058,-0.591130,0.129900,0.794684,0.000000,0.607024
-0.178762,-0.420867,-0.117633,-0.835360,0.000000,-0.549703
0.014037,0.130117,0.213533,0.065596,0.000000,0.997846
-0.062628,-0.572922,0.204625,-0.292662,0.000000,0.956216
-0.130175,-0.190307,0.169847,-0.608311,0.000000,0.793699
0.078011,-0.056370,0.153994,0.000000,0.000000,1.000000
-0.149538,0.648364,0.066133,0.000000,1.000000,0.000000
0.068965,0.258228,0.202577,0.322276,0.000000,0.946646
-0.040166,-0.648364,-0.014416,0.000000,-1.000000,0.000000
-0.155762,-0.648364,0.044803,0.000000,-1.000000,0.000000
0.077330,-0.593345,0.199533,0.361364,0.000000,0.932425
-0.038232,0.137318,0.210551,-0.178661,0.000000,0.983911
0.164786,-0.610644,0.136526,0.770047,0.000000,0.637988
-0.039790,-0.218941,0.153994,0.000000,0.000000,1.000000
0.037083,-0.121521,0.153994,0.000000,0.000000,1.000000
-0.149385,-0.046709,0.153225,-0.698077,0.000000,0.716022
-0.211406,0.330740,-0.033183,-0.987904,0.000000,-0.155067
-0.134488,0.373669,-0.166453,-0.628464,0.000000,-0.777839
0.138736,0.125661,-0.162929,0.648318,0.000000,-0.761370
-0.138717,0.294013,0.162945,-0.648229,0.000000,0.761446
0.008698,0.648364,-0.108091,0.000000,1.000000,0.000000
0.100278,-0.199939,-0.189045,0.468600,0.000000,-0.883411
0.162790,-0.415465,-0.138900,0.760719,0.000000,-0.649081
0.213991,-0.504187,0.001091,0.999987,0.000000,0.005097
-0.016534,0.648364,0.003229,0.000000,1.000000,0.000000
0.049182,-0.648364,-0.033431,0.000000,-1.000000,0.000000
-0.196341,0.302598,0.085110,-0.917506,0.000000,0.397722
-0.017129,-0.511526,-0.213308,-0.080044,0.000000,-0.996791
0.022870,0.124144,0.153994,0.000000,0.000000,1.000000
0.015136,-0.639817,0.213458,0.070732,0.000000,0.997495
0.017579,-0.648364,0.025569,0.000000,-1.000000,0.000000
-0.201752,0.302856,-0.071342,-0.942792,0.000000,-0.333383
0.152479,-0.169232,0.150146,0.712537,0.000000,0.701635
-0.042288,0.124747,0.153994,0.000000,0.000000,1.000000
-0.029879,0.648364,-0.011313,0.000000,1.000000,0.000000
-0.193142,-0.596002,0.092140,-0.902557,0.000000,0.430571
0.109165,0.229471,-0.184056,0.510130,0.000000,-0.860097
-0.173430,0.277570,-0.125362,-0.810443,0.000000,-0.585818
0.074410,-0.175325,0.153994,0.000000,0.000000,1.000000
0.123326,-0.238492,-0.174884,0.576303,0.000000,-0.817236
-0.091260,-0.141054,-0.193559,-0.426462,0.000000,-0.904505
-0.017895,-0.077191,0.153994,0.000000,0.000000,1.000000
0.160801,0.021970,-0.141197,0.751427,0.000000,-0.659816
0.040962,-0.648364,-0.041192,0.000000,-1.000000,0.000000
0.036775,0.016650,-0.210811,0.171851,0.000000,-0.985123
0.194790,-0.371193,0.088602,0.910259,0.000000,0.414040
0.034143,0.216695,0.153994,0.000000,0.000000,1.000000
0.176611,-0.286757,0.120840,0.825305,0.000000,0.564687
-0.027725,0.475229,-0.212191,-0.129558,0.000000,-0.991572
-0.181477,0.057882,-0.113400,-0.848048,0.000000,-0.529920
-0.213889,0.352245,-0.006720,-0.999507,0.000000,-0.031404
-0.022161,0.448573,0.212844,-0.103557,0.000000,0.994623
-0.210702,-0.099249,-0.037393,-0.984615,0.000000,-0.174739
-0.127957,0.407526,-0.171524,-0.597946,0.000000,-0.801536
-0.078717,-0.193230,0.153994,0.000000,0.000000,1.000000
-0.206964,0.252174,0.054399,-0.967150,0.000000,0.254208
0.171761,-0.648364,-0.121593,0.000000,-1.000000,0.000000
0.000325,0.366998,0.213994,0.001520,0.000000,0.999999
0.207396,-0.641396,0.052730,0.969167,0.000000,0.246406
0.085666,-0.224291,-0.196099,0.400321,0.000000,-0.916375
-0.202049,-0.204528,0.070496,-0.944180,0.000000,0.329430
0.043563,0.319119,-0.209513,0.203573,0.000000,-0.979060
0.209197,0.425656,0.045055,0.977585,0.000000,0.210542
-0.022092,0.648364,-0.080275,0.000000,1.000000,0.000000
0.107515,0.648364,-0.026587,0.000000,1.000000,0.000000
-0.006923,-0.181439,0.213882,-0.032350,0.000000,0.999477
0.152275,0.125795,-0.150353,0.711584,0.000000,-0.702601
0.106973,0.484209,-0.185338,0.499886,0.000000,-0.866091
0.066014,-0.066876,-0.203557,0.308486,0.000000,-0.951229
-0.071023,-0.231155,0.201864,-0.331892,0.000000,0.943318
0.075086,-0.152798,0.200389,0.350878,0.000000,0.936421
-0.049457,0.130461,0.208201,-0.231114,0.000000,0.972927
0.102545,-0.363292,-0.187824,0.479197,0.000000,-0.877707
0.213589,0.012577,-0.013155,0.998109,0.000000,-0.061474
0.081567,-0.202176,-0.197839,0.381166,0.000000,-0.924507
0.184810,0.026105,0.107883,0.863622,0.000000,0.504139
-0.024526,-0.648364,0.032233,0.000000,-1.000000,0.000000
0.056985,-0.204354,0.206267,0.266293,0.000000,0.963892
0.204378,0.336635,-0.063428,0.955064,0.000000,-0.296401
0.127784,-0.648364,0.071068,0.000000,-1.000000,0.000000
-0.120554,-0.247757,0.176806,-0.563352,0.000000,0.826217
-0.008274,0.648364,-0.001055,0.000000,1.000000,0.000000
-0.018122,-0.141363,0.153994,0.000000,0.000000,1.000000
-0.160276,0.308568,0.141793,-0.748972,0.000000,0.662602
0.070553,0.127025,0.202029,0.329697,0.000000,0.944087
-0.146713,0.280266,0.155785,-0.685593,0.000000,0.727985
0.084781,-0.648364,-0.054657,0.000000,-1.000000,0.000000
-0.171157,-0.168273,0.128448,-0.799820,0.000000,0.600240
-0.098973,-0.648364,-0.089338,0.000000,-1.000000,0.000000
-0.187106,-0.048881,-0.103850,-0.874351,0.000000,-0.485293
-0.159500,0.242630,-0.142665,-0.745347,0.000000,-0.666676
-0.184655,-0.191710,-0.108149,-0.862895,0.000000,-0.505383
0.139704,0.076457,-0.162100,0.652840,0.000000,-0.757496
0.165267,-0.648364,-0.047668,0.000000,-1.000000,0.000000
0.103910,0.249895,0.187073,0.485573,0.000000,0.874196
0.152980,0.558348,0.149635,0.714878,0.000000,0.699249
0.088454,-0.186713,0.194858,0.413346,0.000000,0.910574
-0.103946,-0.314156,-0.187053,-0.485743,0.000000,-0.874102
-0.015990,-0.273410,0.213396,-0.074721,0.000000,0.997205
-0.124347,-0.074859,-0.174159,-0.581075,0.000000,-0.813850
-0.050822,0.648364,0.084544,0.000000,1.000000,0.000000
-0.082831,-0.648364,0.162543,0.000000,-1.000000,0.000000
0.051954,-0.089320,0.153994,0.000000,0.000000,1.000000
0.096969,-0.629204,0.190763,0.453140,0.000000,0.891439
-0.188102,-0.430972,-0.102035,-0.879005,0.000000,-0.476813
-0.010119,-0.059105,0.153994,0.000000,0.000000,1.000000
-0.103775,0.611494,-0.187148,-0.484943,0.000000,-0.874546
0.159080,0.182140,-0.143133,0.743385,0.000000,-0.668864
0.189937,-0.121901,-0.098577,0.887581,0.000000,-0.460652
0.211149,0.600547,0.034782,0.986702,0.000000,0.162539
-0.105601,-0.339028,0.186124,-0.493474,0.000000,0.869760
0.095462,0.046032,-0.191521,0.446098,0.000000,-0.894984
-0.040980,0.648364,0.038902,0.000000,1.000000,0.000000
-0.197174,0.142890,0.083163,-0.921398,0.000000,0.388621
0.154878,0.284065,0.147670,0.723749,0.000000,0.690064
0.073093,0.106519,0.153994,0.000000,0.000000,1.000000
0.209069,-0.607913,-0.045649,0.976983,0.000000,-0.213318
0.037631,0.007371,0.210659,0.175851,0.000000,0.984417
0.045710,-0.648364,0.020022,0.000000,-1.000000,0.000000
0.108492,0.338439,-0.184453,0.506985,0.000000,-0.861955
0.188706,0.349576,-0.100913,0.881830,0.000000,-0.471568
0.074631,0.432749,-0.200558,0.348754,0.000000,-0.937214
0.115068,0.310273,0.180424,0.537717,0.000000,0.843125
0.111276,-0.648364,0.010481,0.000000,-1.000000,0.000000
-0.213743,-0.187462,-0.010365,-0.998826,0.000000,-0.048437
-0.001898,0.648364,0.005513,0.000000,1.000000,0.000000
-0.113505,0.150005,-0.181412,-0.530410,0.000000,-0.847742
-0.153073,0.268665,0.149540,-0.715315,0.000000,0.698802
-0.124177,-0.250079,-0.174281,-0.580280,0.000000,-0.814417
-0.127141,0.648364,-0.126794,0.000000,1.000000,0.000000
0.072869,0.648364,0.077418,0.000000,1.000000,0.000000
-0.194222,-0.131371,0.089841,-0.907603,0.000000,0.419830
0.065257,-0.051986,0.203802,0.304947,0.000000,0.952369
-0.155094,-0.163364,0.147443,-0.724757,0.000000,0.689004
-0.151678,0.340183,0.150955,-0.708795,0.000000,0.705415
-0.023125,0.302520,-0.212741,-0.108064,0.000000,-0.994144
0.029010,0.648364,0.116166,0.000000,1.000000,0.000000
0.164508,-0.329988,-0.136860,0.768749,0.000000,-0.639551
0.006506,0.513584,0.213895,0.030405,0.000000,0.999538
0.192514,-0.301209,-0.093443,0.899625,0.000000,-0.436664
0.070635,0.028872,0.153994,0.000000,0.000000,1.000000
0.212754,-0.467253,0.023008,0.994203,0.000000,0.107518
-0.067951,-0.641357,0.202919,-0.317535,0.000000,0.948246
0.163269,0.389203,-0.138335,0.762961,0.000000,-0.646444
-0.183332,0.145928,0.110376,-0.856716,0.000000,0.515788
-0.142421,0.648364,0.099323,0.000000,1.000000,0.000000
0.063071,-0.389625,0.204488,0.294734,0.000000,0.955579
0.110375,-0.237257,-0.183333,0.515783,0.000000,-0.856719
0.202491,0.227960,-0.069217,0.946244,0.000000,-0.323453
0.023078,-0.166579,0.153994,0.000000,0.000000,1.000000
0.163338,0.648364,-0.115121,0.000000,1.000000,0.000000
-0.182631,-0.011580,0.111532,-0.853439,0.000000,0.521192
-0.049123,0.648364,0.003183,0.000000,1.000000,0.000000
0.146722,-0.648364,0.060684,0.000000,-1.000000,0.000000
0.098377,0.285025,-0.190041,0.459717,0.000000,-0.888066
0.083662,0.422826,-0.196962,0.390955,0.000000,-0.920410
0.196176,0.396847,0.085491,0.916733,0.000000,0.399499
-0.033247,-0.548389,0.211396,-0.155366,0.000000,0.987857
-0.158442,-0.278920,0.143839,-0.740404,0.000000,0.672162
-0.004820,0.648364,-0.046527,0.000000,1.000000,0.000000
0.062019,0.152850,0.153994,0.000000,0.000000,1.000000
-0.023773,-0.648364,0.044676,0.000000,-1.000000,0.000000
0.207693,0.330892,0.051548,0.970553,0.000000,0.240886
-0.011540,-0.542128,-0.213683,-0.053929,0.000000,-0.998545
-0.139133,0.082690,-0.162590,-0.650172,0.000000,-0.759787
-0.110026,0.218207,0.183542,-0.514156,0.000000,0.857697
0.166742,-0.362824,-0.134129,0.779188,0.000000,-0.626790
0.169312,0.518861,-0.130870,0.791198,0.000000,-0.611560
-0.160798,0.590022,-0.141200,-0.751414,0.000000,-0.659831
-0.210369,0.415709,0.039224,-0.983058,0.000000,0.183293
0.160215,0.401347,-0.141862,0.748687,0.000000,-0.662924
0.023870,0.648364,0.159865,0.000000,1.000000,0.000000
-0.186321,0.317537,0.105253,-0.870681,0.000000,0.491848
0.205353,-0.218286,-0.060197,0.959619,0.000000,-0.281303
0.135615,-0.433855,0.165536,0.633733,0.000000,0.773552
0.151752,0.300699,-0.150880,0.709140,0.000000,-0.705068
0.063096,-0.027831,0.204481,0.294847,0.000000,0.955544
-0.062113,-0.494262,0.204782,-0.290254,0.000000,0.956950
-0.151504,-0.191235,0.151130,-0.707981,0.000000,0.706232
-0.104146,0.051064,0.186942,-0.486675,0.000000,0.873583
0.136168,-0.311589,0.165081,0.636317,0.000000,0.771428
-0.173141,-0.648364,-0.014293,0.000000,-1.000000,0.000000
0.029276,-0.204258,-0.211982,0.136806,0.000000,-0.990598
0.015780,-0.567565,-0.213412,0.073739,0.000000,-0.997278
-0.043384,0.072784,0.209550,-0.202734,0.000000,0.979234
-0.083831,-0.360035,-0.196891,-0.391742,0.000000,-0.920075
-0.156730,0.083071,-0.145702,-0.732404,0.000000,-0.680870
-0.212470,0.389722,0.025494,-0.992878,0.000000,0.119135
0.134956,0.207551,0.166073,0.630654,0.000000,0.776064
-0.056164,-0.084333,0.153994,0.000000,0.000000,1.000000
-0.203162,0.453232,-0.067222,-0.949380,0.000000,-0.314131
-0.163122,0.362264,-0.138509,-0.762273,0.000000,-0.647256
0.022317,-0.188900,0.212827,0.104286,0.000000,0.994547
0.044320,-0.648364,0.068406,0.000000,-1.000000,0.000000
-0.198677,0.579528,0.079505,-0.928422,0.000000,0.371527
0.098823,0.255849,0.189809,0.461801,0.000000,0.886983
0.014543,0.427953,0.213499,0.067959,0.000000,0.997688
-0.105090,-0.633548,0.186412,-0.491090,0.000000,0.871109
0.177369,-0.380172,-0.119724,0.828850,0.000000,-0.559472
0.009076,-0.160074,0.153994,0.000000,0.000000,1.000000
-0.212844,-0.315683,-0.022155,-0.994626,0.000000,-0.103532
0.140437,-0.268061,-0.161465,0.656266,0.000000,-0.754530
-0.207328,0.636576,0.052995,-0.968851,0.000000,0.247646
-0.038484,0.460209,-0.210505,-0.179836,0.000000,-0.983697
-0.110097,0.334134,-0.183500,-0.514485,0.000000,-0.857499
-0.213694,-0.581381,-0.011329,-0.998598,0.000000,-0.052941
-0.176769,-0.426297,-0.120608,-0.826046,0.000000,-0.563603
0.119948,0.049006,0.177217,0.560522,0.000000,0.828140
0.184297,-0.333729,0.108758,0.861223,0.000000,0.508228
0.181447,0.328220,-0.113449,0.847905,0.000000,-0.530148
0.100776,0.486423,-0.188780,0.470926,0.000000,-0.882172
-0.011064,-0.152325,0.153994,0.000000,0.000000,1.000000
-0.080496,-0.648364,-0.004386,0.000000,-1.000000,0.000000
-0.082871,0.338288,-0.197296,-0.387260,0.000000,-0.921970
-0.213090,0.448999,0.019654,-0.995774,0.000000,0.091843
0.191139,0.513750,0.096226,0.893197,0.000000,0.449665
0.051776,0.648364,-0.202198,0.000000,1.000000,0.000000
-0.212735,-0.046489,-0.023184,-0.994114,0.000000,-0.108337
0.205287,0.343263,0.060421,0.959312,0.000000,0.282349
-0.196126,-0.023839,0.085604,-0.916503,0.000000,0.400028
-0.194845,-0.019890,-0.088481,-0.910516,0.000000,-0.413475
-0.016210,-0.043268,-0.213379,-0.075750,0.000000,-0.997127
-0.092286,-0.320663,0.193072,-0.431256,0.000000,0.902230
0.196271,-0.038135,-0.085272,0.917178,0.000000,-0.398478
0.044372,-0.085010,-0.209343,0.207351,0.000000,-0.978267
0.123198,-0.527737,-0.174973,0.575708,0.000000,-0.817655
-0.005599,0.648364,0.044892,0.000000,1.000000,0.000000
-0.102658,-0.648364,0.083863,0.000000,-1.000000,0.000000
-0.210612,-0.571920,-0.037898,-0.984193,0.000000,-0.177099
-0.157305,0.070696,-0.145082,-0.735089,0.000000,-0.677970
0.008765,-0.648364,-0.033228,0.000000,-1.000000,0.000000
0.157100,-0.648364,0.138638,0.000000,-1.000000,0.000000
0.202161,0.153573,0.070175,0.944701,0.000000,0.327932
-0.211932,0.641112,0.029640,-0.990361,0.000000,0.138510
0.121141,-0.541959,-0.176404,0.566093,0.000000,-0.824341
0.147818,0.398898,-0.154736,0.690759,0.000000,-0.723085
0.161744,-0.445782,-0.140115,0.755835,0.000000,-0.654762
0.061890,0.052849,0.204849,0.289211,0.000000,0.957265
0.024406,0.502566,0.212598,0.114051,0.000000,0.993475
0.009803,-0.648364,0.003675,0.000000,-1.000000,0.000000
0.043914,-0.648364,-0.102119,0.000000,-1.000000,0.000000
0.199765,-0.648364,0.066101,0.000000,-1.000000,0.000000
0.082660,0.560017,0.197385,0.386272,0.000000,0.922385
-0.050131,0.049503,0.153994,0.000000,0.000000,1.000000
0.192579,0.628819,-0.093311,0.899925,0.000000,-0.436045
0.207952,-0.182126,-0.050493,0.971764,0.000000,-0.235957
-0.208300,-0.377921,-0.049036,-0.973392,0.000000,-0.229148
0.202627,-0.621238,-0.068817,0.946881,0.000000,-0.321585
0.108170,0.496487,0.184642,0.505480,0.000000,0.862838
0.200617,-0.344154,-0.074475,0.937486,0.000000,-0.348023
0.076109,0.190615,0.200002,0.355661,0.000000,0.934615
-0.068610,0.418371,0.202697,-0.320617,0.000000,0.947209
-0.199596,0.329551,-0.077168,-0.932718,0.000000,-0.360607
0.183636,0.576832,-0.109869,0.858136,0.000000,-0.513422
0.101791,-0.557285,-0.188234,0.475671,0.000000,-0.879623
0.213675,0.206665,-0.011679,0.998510,0.000000,-0.054574
-0.213846,-0.410636,-0.007964,-0.999307,0.000000,-0.037214
0.047206,0.196661,0.208723,0.220593,0.000000,0.975366
-0.062538,-0.117569,0.153994,0.000000,0.000000,1.000000
-0.147944,0.140998,0.154616,-0.691347,0.000000,0.722523
0.208218,-0.499600,-0.049382,0.973010,0.000000,-0.230763
-0.054159,0.648364,0.184569,0.000000,1.000000,0.000000
-0.202771,-0.133753,0.068391,-0.947555,0.000000,0.319593
0.002528,0.648364,0.003721,0.000000,1.000000,0.000000
-0.213478,-0.471925,-0.014853,-0.997588,0.000000,-0.069408
0.142691,0.564514,0.159477,0.666798,0.000000,0.745239
-0.094349,-0.382554,-0.192072,-0.440896,0.000000,-0.897558
-0.201320,0.493870,-0.072553,-0.940771,0.000000,-0.339042
-0.143757,0.648364,0.108293,0.000000,1.000000,0.000000
0.152588,-0.323316,0.150035,0.713045,0.000000,0.701118
0.210628,0.504243,0.037808,0.984269,0.000000,0.176678
-0.126337,0.322175,-0.172720,-0.590378,0.000000,-0.807127
-0.177117,-0.477302,0.120096,-0.827674,0.000000,0.561210
0.150002,-0.590371,0.152620,0.700963,0.000000,0.713197
-0.156575,-0.648364,-0.087640,0.000000,-1.000000,0.000000
-0.208570,0.640224,-0.047876,-0.974652,0.000000,-0.223728
-0.063058,0.118597,0.153994,0.000000,0.000000,1.000000
0.076434,0.505428,-0.199878,0.357178,0.000000,-0.934036
0.127666,-0.021509,0.171741,0.596585,0.000000,0.802550
-0.010380,-0.060761,0.153994,0.000000,0.000000,1.000000
-0.077366,0.299221,-0.199519,-0.361533,0.000000,-0.932359
-0.082741,-0.601811,-0.197351,-0.386652,0.000000,-0.922226
0.062934,-0.561596,0.204531,0.294092,0.000000,0.955777
0.093778,0.630740,0.192352,0.438228,0.000000,0.898864
0.158714,-0.282561,0.143539,0.741674,0.000000,0.670761
0.000807,-0.321553,-0.213993,0.003771,0.000000,-0.999993
0.185457,0.490615,-0.106767,0.866644,0.000000,-0.498926
0.020833,0.595778,0.212978,0.097355,0.000000,0.995250
-0.196058,-0.133940,-0.085759,-0.916186,0.000000,-0.400754
0.023933,-0.319696,0.212652,0.111839,0.000000,0.993726
0.077251,0.037138,-0.199564,0.360997,0.000000,-0.932567
-0.021083,-0.197655,0.212953,-0.098522,0.000000,0.995135
-0.101033,0.648364,-0.155086,0.000000,1.000000,0.000000
0.073293,0.115909,-0.201051,0.342501,0.000000,-0.939517
0.045612,0.339297,0.209077,0.213147,0.000000,0.977020
-0.212252,0.505643,-0.027248,-0.991861,0.000000,-0.127328
-0.164287,-0.246515,0.137126,-0.767715,0.000000,0.640791
-0.134975,0.606212,0.166058,-0.630744,0.000000,0.775991
0.113008,0.221692,-0.181721,0.528091,0.000000,-0.849188
0.144177,-0.283024,0.158135,0.673741,0.000000,0.738968
-0.213964,-0.204549,0.003584,-0.999860,0.000000,0.016747
0.210757,0.372856,0.037083,0.984871,0.000000,0.173289
0.109366,0.322052,0.183937,0.511068,0.000000,0.859540
-0.187644,-0.174135,0.102875,-0.876864,0.000000,0.480738
-0.196546,-0.529254,-0.084635,-0.918466,0.000000,-0.395500
-0.071337,-0.236266,-0.201754,-0.333361,0.000000,-0.942799
-0.036051,-0.602702,0.210936,-0.168469,0.000000,0.985707
-0.012570,0.159851,-0.213625,-0.058739,0.000000,-0.998273
-0.061021,-0.051253,-0.205110,-0.285152,0.000000,-0.958482
-0.014980,0.323414,0.213469,-0.070002,0.000000,0.997547
0.009812,-0.648364,0.008314,0.000000,-1.000000,0.000000
-0.021215,-0.007721,0.153994,0.000000,0.000000,1.000000
0.077652,-0.648364,0.098725,0.000000,-1.000000,0.000000
0.023710,0.089307,0.212677,0.110798,0.000000,0.993843
-0.030663,-0.216315,0.153994,0.000000,0.000000,1.000000
0.208728,-0.392670,-0.047183,0.975390,0.000000,-0.220488
0.040180,-0.648364,0.100427,0.000000,-1.000000,0.000000
-0.047646,0.193740,0.153994,0.000000,0.000000,1.000000
0.145644,-0.592467,0.156784,0.680598,0.000000,0.732657
0.168531,0.177131,-0.131874,0.787549,0.000000,-0.616252
-0.095521,0.504117,-0.191492,-0.446370,0.000000,-0.894848
-0.023489,0.114040,-0.212701,-0.109763,0.000000,-0.993958
0.182751,-0.333350,-0.111336,0.853998,0.000000,-0.520276
0.212270,-0.262285,-0.027109,0.991944,0.000000,-0.126680
0.034633,0.648364,-0.001966,0.000000,1.000000,0.000000
-0.169484,0.299264,0.130647,-0.792003,0.000000,0.610517
0.077937,0.648364,0.095602,0.000000,1.000000,0.000000
0.205627,0.350747,-0.059254,0.960900,0.000000,-0.276895
0.019423,-0.648364,0.015426,0.000000,-1.000000,0.000000
0.000449,-0.217500,0.213994,0.002100,0.000000,0.999998
-0.034015,-0.563378,0.211273,-0.158955,0.000000,0.987286
0.143356,0.331825,0.158879,0.669908,0.000000,0.742444
0.171773,0.217398,-0.127622,0.802701,0.000000,-0.596381
0.072523,-0.211270,0.153994,0.000000,0.000000,1.000000
0.202685,-0.046637,-0.068646,0.947153,0.000000,-0.320783
0.161860,0.081830,-0.139981,0.756377,0.000000,-0.654136
0.175941,-0.648364,0.027715,0.000000,-1.000000,0.000000
-0.191742,-0.619720,0.095018,-0.896017,0.000000,0.444020
0.003401,-0.373336,0.213967,0.015894,0.000000,0.999874
0.179290,0.270484,0.116828,0.837824,0.000000,0.545940
0.015196,-0.170668,-0.213454,0.071013,0.000000,-0.997475
0.000106,0.648364,-0.181708,0.000000,1.000000,0.000000
0.061776,-0.064902,0.153994,0.000000,0.000000,1.000000
-0.162004,-0.010227,-0.139815,-0.757048,0.000000,-0.653359
0.129182,-0.648364,0.042519,0.000000,-1.000000,0.000000
0.212922,0.630378,0.021398,0.994988,0.000000,0.099994
-0.213293,-0.542959,-0.017305,-0.996725,0.000000,-0.080869
-0.152739,-0.604056,0.149881,-0.713752,0.000000,0.700398
0.133397,0.038221,0.167328,0.623368,0.000000,0.781929
-0.167668,0.597591,-0.132970,-0.783515,0.000000,-0.621373
-0.174171,-0.648364,-0.110916,0.000000,-1.000000,0.000000
0.070859,-0.648364,-0.032377,0.000000,-1.000000,0.000000
0.084915,0.541531,-0.196425,0.396810,0.000000,-0.917901
0.017597,0.100280,0.153994,0.000000,0.000000,1.000000
0.021312,0.542741,0.212930,0.099591,0.000000,0.995028
-0.142340,-0.122810,0.159790,-0.665158,0.000000,0.746703
0.204287,0.525953,-0.063719,0.954640,0.000000,-0.297763
-0.047822,-0.125774,0.153994,0.000000,0.000000,1.000000
-0.201259,0.042021,-0.072721,-0.940488,0.000000,-0.339826
-0.172793,-0.648364,0.037272,0.000000,-1.000000,0.000000
0.034516,0.525840,0.211192,0.161293,0.000000,0.986907
-0.000351,-0.513130,0.213994,-0.001641,0.000000,0.999999
0.078830,0.066814,0.153994,0.000000,0.000000,1.000000
0.008127,0.571006,0.213840,0.037975,0.000000,0.999279
0.093680,0.455705,-0.192400,0.437768,0.000000,-0.899088
0.056117,0.422724,-0.206505,0.262238,0.000000,-0.965003
-0.035821,0.326153,0.210975,-0.167392,0.000000,0.985890
0.207381,-0.435513,0.052788,0.969097,0.000000,0.246681
0.200678,-0.116993,-0.074311,0.937771,0.000000,-0.347255
-0.106427,-0.032112,-0.185652,-0.497335,0.000000,-0.867558
0.102508,-0.081318,-0.187844,0.479024,0.000000,-0.877802
0.213675,0.268607,-0.011682,0.998509,0.000000,-0.054593
-0.210539,0.626125,-0.038300,-0.983853,0.000000,-0.178976
0.005645,0.648364,-0.001290,0.000000,1.000000,0.000000
-0.007385,-0.370969,0.213867,-0.034510,0.000000,0.999404
-0.056559,0.215914,0.153994,0.000000,0.000000,1.000000
-0.102069,-0.572843,-0.188084,-0.476969,0.000000,-0.878920
0.100566,-0.595818,0.188892,0.469946,0.000000,0.882695
-0.119603,-0.196556,0.177451,-0.558906,0.000000,0.829231
-0.110032,0.648364,0.000966,0.000000,1.000000,0.000000
0.031878,-0.130602,0.153994,0.000000,0.000000,1.000000
-0.087349,-0.369153,0.195355,-0.408185,0.000000,0.912899
-0.164425,0.464645,-0.136960,-0.768360,0.000000,-0.640017
0.103137,0.355150,-0.187500,0.481962,0.000000,-0.876192
0.123095,-0.630136,0.175046,0.575225,0.000000,0.817995
-0.158687,-0.000518,0.143568,-0.741550,0.000000,0.670898
-0.113617,0.648364,-0.076938,0.000000,1.000000,0.000000
-0.040331,-0.648364,-0.156251,0.000000,-1.000000,0.000000
-0.000385,-0.648364,-0.140584,0.000000,-1.000000,0.000000
-0.079450,0.648364,0.015220,0.000000,1.000000,0.000000
0.187812,0.614931,0.102567,0.877651,0.000000,0.479300
0.032175,-0.106819,0.211561,0.150356,0.000000,0.988632
0.207211,-0.409084,0.053451,0.968303,0.000000,0.249780
-0.174759,0.569238,-0.123502,-0.816654,0.000000,-0.577127
-0.055470,0.474009,0.206680,-0.259211,0.000000,0.965821
-0.001859,0.648364,0.001953,0.000000,1.000000,0.000000
-0.126521,-0.473133,0.172586,-0.591234,0.000000,0.806500
0.212348,0.523540,0.026493,0.992307,0.000000,0.123802
-0.082094,-0.628819,0.197621,-0.383626,0.000000,0.923488
-0.204600,0.535287,0.062707,-0.956103,0.000000,0.293032
-0.181928,0.592029,-0.112675,-0.850156,0.000000,-0.526531
-0.130499,0.250070,0.169598,-0.609826,0.000000,0.792536
0.051385,0.409194,-0.207733,0.240123,0.000000,-0.970743
-0.103112,0.357545,0.187514,-0.481846,0.000000,0.876256
-0.038255,-0.022401,0.210547,-0.178767,0.000000,0.983891
-0.015012,-0.129849,0.153994,0.000000,0.000000,1.000000
0.170556,-0.648364,0.019981,0.000000,-1.000000,0.000000
0.054191,0.017289,0.153994,0.000000,0.000000,1.000000
-0.007355,0.648364,-0.069077,0.000000,1.000000,0.000000
-0.065639,0.058712,0.153994,0.000000,0.000000,1.000000
-0.197469,-0.011331,-0.082458,-0.922779,0.000000,-0.385329
0.009431,-0.217366,0.153994,0.000000,0.000000,1.000000
0.141867,-0.635869,0.160210,0.662947,0.000000,0.748666
0.213655,-0.618760,0.012051,0.998413,0.000000,0.056312
-0.087744,-0.085684,0.195178,-0.410028,0.000000,0.912073
-0.166542,-0.509519,-0.134378,-0.778253,0.000000,-0.627950
0.205266,-0.097899,-0.060494,0.959211,0.000000,-0.282691
0.147335,0.520746,-0.155196,0.688500,0.000000,-0.725236
0.206588,0.203412,-0.055811,0.965391,0.000000,-0.260808
-0.053746,-0.460168,0.207135,-0.251157,0.000000,0.967946
-0.199857,-0.384236,-0.076490,-0.933936,0.000000,-0.357440
0.159584,0.648364,-0.130927,0.000000,1.000000,0.000000
0.000314,-0.073516,-0.213994,0.001468,0.000000,-0.999999
-0.055797,-0.375537,0.206592,-0.260741,0.000000,0.965409
-0.185800,-0.595780,0.106169,-0.868247,0.000000,0.496132
-0.189365,-0.421755,-0.099671,-0.884909,0.000000,-0.465765
-0.206878,-0.526720,-0.054728,-0.966744,0.000000,-0.255746
-0.131542,-0.648364,-0.131561,0.000000,-1.000000,0.000000
0.171686,-0.142043,-0.127740,0.802291,0.000000,-0.596933
-0.163517,0.182554,-0.138042,-0.764119,0.000000,-0.645075
0.022891,0.648364,-0.098338,0.000000,1.000000,0.000000
-0.065836,-0.648364,0.094087,0.000000,-1.000000,0.000000
-0.135281,0.204680,0.165809,-0.632172,0.000000,0.774828
0.074314,0.146390,0.200676,0.347269,0.000000,0.937765
0.103712,0.648364,-0.093077,0.000000,1.000000,0.000000
-0.204258,-0.266531,-0.063814,-0.954501,0.000000,-0.298206
0.075203,0.065955,0.153994,0.000000,0.000000,1.000000
0.014394,0.038991,0.153994,0.000000,0.000000,1.000000
-0.091946,-0.226895,-0.193234,-0.429665,0.000000,-0.902988
-0.171671,0.486295,-0.127760,-0.802224,0.000000,-0.597024
0.129348,0.579835,0.170478,0.604444,0.000000,0.796647
0.133409,-0.525722,0.167318,0.623425,0.000000,0.781883
0.163109,0.265835,-0.138524,0.762212,0.000000,-0.647327
0.017321,-0.648364,-0.001954,0.000000,-1.000000,0.000000
-0.213392,-0.047542,-0.016047,-0.997184,0.000000,-0.074989
-0.088906,-0.320040,0.194652,-0.415460,0.000000,0.909612
-0.174375,0.326298,-0.124044,-0.814858,0.000000,-0.579660
-0.000640,-0.039141,0.213993,-0.002993,0.000000,0.999996
-0.032474,-0.093144,0.153994,0.000000,0.000000,1.000000
0.213496,0.434214,-0.014591,0.997673,0.000000,-0.068183
0.103309,-0.537091,0.187405,0.482767,0.000000,0.875749
-0.056350,-0.158785,-0.206442,-0.263323,0.000000,-0.964708
-0.070677,0.174448,0.153994,0.000000,0.000000,1.000000
-0.118020,-0.648364,0.140261,0.000000,-1.000000,0.000000
0.141548,-0.255104,0.160492,0.661457,0.000000,0.749983
0.008967,0.079115,0.153994,0.000000,0.000000,1.000000
-0.029641,-0.085855,0.153994,0.000000,0.000000,1.000000
-0.187758,-0.174412,0.102667,-0.877398,0.000000,0.479764
-0.032560,0.309925,-0.211503,-0.152155,0.000000,-0.988357
0.142188,-0.093490,-0.159925,0.664449,0.000000,-0.747334
0.192247,0.464718,-0.093992,0.898375,0.000000,-0.439229
0.049203,-0.570909,-0.208261,0.229927,0.000000,-0.973208
-0.063178,-0.256641,-0.204456,-0.295231,0.000000,-0.955426
-0.076708,-0.497733,0.199773,-0.358458,0.000000,0.933546
0.106975,-0.051829,-0.185337,0.499895,0.000000,-0.866086
-0.115251,0.266236,-0.180307,-0.538573,0.000000,-0.842579
