x,y,z,nx,ny,nz
-17.697089,-10.301676,13.975523,0.000000,-0.000000,1.000000
8.660567,-2.379553,-2.144384,-0.956940,0.000000,0.290285
-21.201408,11.286520,10.377001,-1.000000,0.000000,0.000000
21.201408,-18.284332,-4.754124,1.000000,0.000000,-0.000000
6.896322,-14.735847,-5.641925,-0.773010,0.000000,0.634393
0.565893,-12.589308,-8.897505,-0.098017,0.000000,0.995185
9.060087,-24.759619,7.724866,-0.000000,-1.000000,0.000000
12.434087,14.634707,13.975523,0.000000,-0.000000,1.000000
9.365905,11.035788,-7.600559,-0.751840,0.000000,0.659346
-12.170559,16.602982,-3.254286,-0.290285,0.000000,0.956940
0.040273,7.093440,-13.975523,0.000000,0.000000,-1.000000
-8.006778,-5.497049,13.975523,0.000000,-0.000000,1.000000
10.885199,-10.327210,13.975523,0.000000,0.000000,1.000000
-5.671073,-5.703833,6.872400,0.634393,0.000000,-0.773010
-21.201408,12.364599,1.537388,-1.000000,0.000000,0.000000
11.506792,-21.269031,-13.975523,0.000000,0.000000,-1.000000
1.738972,20.301969,-13.975523,0.000000,0.000000,-1.000000
-7.381379,-15.127656,5.050882,0.773010,0.000000,-0.634393
14.650081,20.885286,3.096079,-0.471397,0.000000,-0.881921
11.019454,5.188543,-4.260355,-0.000000,1.000000,0.000000
-14.012274,-1.687379,-3.321017,0.290285,-0.000000,0.956940
21.201408,16.787868,-0.770813,1.000000,-0.000000,0.000000
3.773095,-22.386759,13.975523,0.000000,0.000000,1.000000
-10.867621,-19.175887,13.975523,0.000000,0.000000,1.000000
-1.652544,5.188543,-10.580374,-0.000000,1.000000,0.000000
16.145373,0.908680,1.733256,-0.881922,0.000000,-0.471395
-13.866976,15.234885,13.975523,0.000000,-0.000000,1.000000
18.826280,-7.919304,13.975523,0.000000,0.000000,1.000000
-0.281590,-2.079243,-8.925506,0.098017,0.000000,0.995185
-0.039445,5.188543,-11.163492,-0.000000,1.000000,-0.000000
-11.645257,-24.759619,-3.423577,-0.000000,-1.000000,0.000000
10.882885,10.015064,-13.975523,0.000000,0.000000,-1.000000
1.371708,-5.416377,13.975523,0.000000,0.000000,1.000000
1.619647,-22.528731,13.975523,0.000000,0.000000,1.000000
-7.424603,-18.082810,4.998212,0.773010,0.000000,-0.634393
21.201408,20.692763,-7.940912,1.000000,-0.000000,0.000000
-20.602382,24.759619,5.805613,-0.000000,1.000000,0.000000
16.505838,-24.759619,-7.486802,-0.000000,-1.000000,0.000000
-1.077691,22.512123,12.008283,0.065403,0.000000,-0.997859
9.427999,6.332894,13.975523,0.000000,0.000000,1.000000
3.325991,-0.910709,13.975523,0.000000,0.000000,1.000000
-4.752759,10.616699,-13.975523,0.000000,0.000000,-1.000000
-7.052286,12.005212,-9.783902,0.555570,0.000000,0.831470
21.201408,5.062207,11.859194,1.000000,-0.000000,0.000000
-2.262046,6.068891,-11.839241,0.195091,-0.000000,0.980785
15.107097,21.960901,-2.851760,-0.634393,0.000000,0.773010
-21.201408,10.093075,12.691250,-1.000000,0.000000,0.000000
-21.201408,18.212449,12.932805,-1.000000,0.000000,0.000000
-11.557143,-14.968736,-13.975523,0.000000,0.000000,-1.000000
11.145358,-12.257540,13.975523,0.000000,0.000000,1.000000
-19.906106,9.647898,13.975523,0.000000,-0.000000,1.000000
-8.794111,-0.500214,1.615661,0.995185,0.000000,-0.098017
-5.381647,21.446287,13.975523,0.000000,-0.000000,1.000000
-14.322201,-15.684366,3.227002,0.290285,-0.000000,-0.956940
-21.201408,-7.119727,-11.786200,-1.000000,0.000000,0.000000
-8.776814,5.188543,-8.050785,-0.000000,1.000000,0.000000
-4.016369,-5.591154,7.956294,0.471397,0.000000,-0.881921
-9.947850,-3.925264,-1.033250,-0.956940,0.000000,0.290285
-12.085127,20.924245,3.228371,-0.290285,0.000000,-0.956940
-21.201408,18.788291,-8.620952,-1.000000,0.000000,0.000000
21.201408,-19.369523,-2.218135,1.000000,0.000000,-0.000000
12.224078,20.903413,-3.270521,0.290285,0.000000,0.956940
21.201408,22.833549,-10.048728,1.000000,-0.000000,0.000000
-17.257732,24.759619,-7.834604,-0.000000,1.000000,0.000000
-21.201408,1.850392,0.458838,-1.000000,0.000000,0.000000
-21.201408,-1.595841,5.280368,-1.000000,0.000000,0.000000
1.758732,-6.278228,8.777553,-0.290285,0.000000,-0.956940
8.901100,-1.551790,-0.529388,-0.995185,0.000000,0.098017
-21.201408,15.415636,-2.568719,-1.000000,0.000000,0.000000
13.863597,-7.120006,-3.364693,-0.098017,0.000000,0.995185
0.524646,3.485485,8.901567,-0.098017,0.000000,-0.995185
13.966845,-24.759619,-4.161796,-0.000000,-1.000000,0.000000
5.977847,22.224718,-10.491034,-0.442289,0.000000,0.896873
14.977072,-0.502415,-2.921298,-0.471397,0.000000,0.881921
16.085764,8.923631,1.844777,-0.881922,0.000000,-0.471395
21.201408,7.492840,4.078775,1.000000,-0.000000,0.000000
-0.021905,-5.376849,8.951083,0.098017,0.000000,-0.995185
21.201408,7.099878,0.793066,1.000000,-0.000000,0.000000
-1.928685,13.435773,11.905551,0.195091,0.000000,-0.980785
7.059254,-5.360865,-5.443391,-0.773010,0.000000,0.634393
-1.442964,-24.170930,-8.811121,0.098017,0.000000,0.995185
-2.606268,-2.069936,13.975523,0.000000,-0.000000,1.000000
21.201408,3.780479,1.814054,1.000000,-0.000000,0.000000
6.645536,19.206481,-10.055683,-0.555570,0.000000,0.831470
-21.201408,10.730892,1.148467,-1.000000,0.000000,0.000000
12.552002,8.374447,13.975523,0.000000,0.000000,1.000000
-16.502849,-14.333098,13.975523,0.000000,-0.000000,1.000000
11.963415,-24.759619,-3.749185,0.000000,-1.000000,0.000000
16.055872,15.141889,13.975523,0.000000,0.000000,1.000000
21.201408,-9.507557,-6.113668,1.000000,0.000000,-0.000000
11.793280,-3.128372,3.117751,0.471395,0.000000,-0.881922
-18.482194,-24.759619,-11.878475,0.000000,-1.000000,0.000000
-10.538597,-24.759619,-5.372077,0.000000,-1.000000,0.000000
-7.972340,-0.927869,-3.986349,0.881921,-0.000000,0.471397
-1.172551,-6.235979,13.975523,0.000000,0.000000,1.000000
-14.387158,10.009326,-3.207297,0.290285,0.000000,0.956940
21.201408,14.893653,3.474370,1.000000,-0.000000,0.000000
8.055880,-19.736292,-3.830057,-0.881921,0.000000,0.471397
-2.683174,-4.720430,-13.975523,0.000000,0.000000,-1.000000
-13.060368,-19.984662,-3.416022,-0.098017,0.000000,0.995185
8.210966,-7.329206,13.975523,0.000000,0.000000,1.000000
-13.165800,-14.288695,-13.975523,0.000000,0.000000,-1.000000
-21.201408,-16.891822,-7.456292,-1.000000,0.000000,0.000000
-6.718558,1.179768,5.858530,0.773010,0.000000,-0.634393
6.927947,3.774230,13.975523,0.000000,0.000000,1.000000
-7.185430,-23.233883,-13.975523,0.000000,0.000000,-1.000000
-16.595029,-4.057153,0.368474,0.995185,-0.000000,-0.098017
-12.606694,3.809963,-13.975523,0.000000,0.000000,-1.000000
21.201408,19.225939,-9.372479,1.000000,-0.000000,0.000000
9.020513,14.949421,7.994403,-0.751840,0.000000,-0.659346
-21.201408,-15.061712,-4.145781,-1.000000,0.000000,0.000000
9.847242,3.968675,-0.701588,0.956940,0.000000,0.290285
9.430774,17.164734,-7.526590,-0.751840,0.000000,0.659346
21.201408,18.159473,4.933800,1.000000,-0.000000,0.000000
-8.021812,-0.755878,13.975523,0.000000,-0.000000,1.000000
-11.109626,-24.759619,-5.359923,0.000000,-1.000000,0.000000
9.888832,24.759619,-9.022778,-0.000000,1.000000,0.000000
21.201408,0.219676,5.690781,1.000000,-0.000000,0.000000
8.923015,5.188543,-6.461018,-0.000000,1.000000,-0.000000
0.547033,-20.485808,13.975523,0.000000,0.000000,1.000000
-16.343813,6.445194,1.362000,0.881922,0.000000,-0.471396
21.201408,-9.059796,0.770449,1.000000,0.000000,-0.000000
8.914361,-21.145916,0.394750,-0.995185,-0.000000,-0.098017
-0.074131,-17.765064,-13.975523,0.000000,0.000000,-1.000000
21.201408,23.204066,-10.940872,1.000000,-0.000000,0.000000
21.201408,-14.823571,-11.641274,1.000000,0.000000,-0.000000
-21.201408,-21.340190,-10.790149,-1.000000,0.000000,0.000000
-15.980998,-14.421580,-1.993629,0.773010,0.000000,0.634393
16.536039,16.183347,-13.975523,0.000000,0.000000,-1.000000
-10.187697,14.061247,13.975523,0.000000,-0.000000,1.000000
-15.088152,21.742922,-2.861924,0.471397,0.000000,0.881921
11.432525,-22.472746,2.924923,0.471396,0.000000,-0.881921
13.365813,3.396583,-3.413721,-0.098017,0.000000,0.995185
4.628104,16.305565,13.975523,0.000000,-0.000000,1.000000
-14.000461,-20.913717,3.324601,0.290284,-0.000000,-0.956940
-0.924481,-8.045658,13.975523,0.000000,0.000000,1.000000
-8.866332,-18.290090,-0.882390,0.995185,0.000000,0.098017
15.649268,4.920394,2.397842,-0.773010,0.000000,-0.634394
-21.201408,-9.404980,-10.980721,-1.000000,0.000000,0.000000
-10.027242,16.657036,-13.975523,0.000000,0.000000,-1.000000
-5.785692,4.792548,13.975523,0.000000,-0.000000,1.000000
4.196710,7.840832,11.303969,-0.321439,0.000000,-0.946930
-21.201408,-17.360900,-2.781893,-1.000000,0.000000,0.000000
8.231714,5.188543,4.707487,0.000000,1.000000,-0.000000
-11.095737,24.759619,-10.342950,-0.000000,1.000000,0.000000
0.771343,-21.478862,13.975523,0.000000,0.000000,1.000000
3.634567,17.700622,-11.494791,-0.321439,0.000000,0.946930
1.465871,22.864460,-13.975523,0.000000,0.000000,-1.000000
3.770773,-2.794981,13.975523,0.000000,0.000000,1.000000
14.672957,11.071920,3.083851,-0.471397,0.000000,-0.881921
-15.660389,7.479703,2.384292,0.773010,0.000000,-0.634394
-6.378162,-16.675416,-13.975523,0.000000,0.000000,-1.000000
-21.201408,-11.405414,-10.967542,-1.000000,0.000000,0.000000
-6.902713,-14.506235,5.634137,0.773010,0.000000,-0.634393
-8.901614,-6.011021,0.524170,0.995185,-0.000000,-0.098017
-20.953232,16.000884,-13.975523,0.000000,0.000000,-1.000000
-17.388508,24.759619,-12.382860,-0.000000,1.000000,0.000000
-2.201847,14.142739,-13.975523,0.000000,0.000000,-1.000000
2.050301,23.836355,-11.881360,-0.195091,0.000000,0.980785
-21.201408,12.893856,-2.303344,-1.000000,0.000000,0.000000
21.201408,5.779942,11.356457,1.000000,-0.000000,0.000000
11.300855,24.759619,7.968461,0.000000,1.000000,-0.000000
1.553157,-18.706763,8.800268,-0.098017,-0.000000,-0.995185
9.973671,-13.998060,-1.118370,0.956940,-0.000000,0.290285
-19.438502,11.188624,13.975523,0.000000,-0.000000,1.000000
-14.208109,0.224714,3.261611,0.290284,-0.000000,-0.956940
21.201408,3.968882,-6.490874,1.000000,0.000000,-0.000000
-11.163485,16.518786,-13.975523,0.000000,0.000000,-1.000000
1.898389,5.188543,10.633881,-0.000000,1.000000,-0.000000
-6.615625,-21.729883,-13.975523,0.000000,0.000000,-1.000000
15.293411,-21.405935,-13.975523,0.000000,0.000000,-1.000000
20.718896,-24.759619,-10.184604,-0.000000,-1.000000,0.000000
14.817394,10.029270,3.006648,-0.471397,-0.000000,-0.881921
21.201408,-13.866936,0.546888,1.000000,0.000000,-0.000000
16.497595,-24.759619,10.440561,-0.000000,-1.000000,0.000000
-5.984655,15.891697,10.487677,0.442289,0.000000,-0.896873
-1.856769,-14.225168,-13.975523,0.000000,0.000000,-1.000000
-10.129930,8.634210,-13.975523,0.000000,0.000000,-1.000000
-11.422017,23.652489,3.848952,0.946930,0.000000,-0.321439
-11.006650,-24.759619,-5.196422,0.000000,-1.000000,0.000000
0.762830,0.409091,-8.878108,-0.098017,0.000000,0.995185
-3.129343,1.453405,-13.975523,0.000000,0.000000,-1.000000
7.969677,-6.500313,-3.991332,-0.881921,0.000000,0.471397
8.259577,-18.180594,-3.448966,-0.881921,0.000000,0.471397
-6.653250,17.634247,-10.050529,0.555570,0.000000,0.831470
20.750258,-17.381794,13.975523,0.000000,0.000000,1.000000
21.201408,23.406522,-12.650599,1.000000,-0.000000,0.000000
-2.622060,18.642799,-13.975523,0.000000,0.000000,-1.000000
-1.643278,0.689946,-8.791391,0.098017,0.000000,0.995185
-7.641408,-24.759619,6.287529,0.000000,-1.000000,0.000000
-16.226332,5.308319,-1.581791,0.881921,0.000000,0.471396
17.097130,24.759619,-6.123370,0.000000,1.000000,-0.000000
-9.774271,-16.180808,0.028189,-0.995185,-0.000000,-0.098014
-14.482128,24.759619,9.209046,0.000000,1.000000,0.000000
21.201408,-23.234756,9.604225,1.000000,0.000000,-0.000000
-21.201408,13.630120,6.592469,-1.000000,0.000000,0.000000
2.903432,15.379764,-13.975523,0.000000,0.000000,-1.000000
10.253470,-6.289631,-1.725825,0.881922,-0.000000,0.471396
4.261994,2.464314,13.975523,0.000000,0.000000,1.000000
-15.839246,3.894973,13.975523,0.000000,-0.000000,1.000000
18.613960,19.913708,13.975523,0.000000,0.000000,1.000000
17.031654,0.976431,13.975523,0.000000,0.000000,1.000000
-21.201408,18.197483,-1.777584,-1.000000,0.000000,0.000000
-1.601567,-5.904676,-8.795500,0.098017,0.000000,0.995185
-21.201408,13.332093,10.454292,-1.000000,0.000000,0.000000
-0.816746,15.118437,12.025386,0.065403,0.000000,-0.997859
17.580576,-0.952719,13.975523,0.000000,0.000000,1.000000
21.201408,5.163959,-13.753482,1.000000,0.000000,-0.000000
-21.201408,6.858910,-13.430327,-1.000000,0.000000,0.000000
8.351191,-1.257613,-3.164262,-0.956940,0.000000,0.290285
7.831701,4.784215,-13.975523,0.000000,0.000000,-1.000000
-14.272681,-7.954500,3.242024,0.290285,-0.000000,-0.956940
21.201408,-4.781761,9.755091,1.000000,-0.000000,0.000000
21.201408,-6.675049,-2.230110,1.000000,0.000000,-0.000000
-15.143047,20.459191,-13.975523,0.000000,0.000000,-1.000000
-18.409917,-13.269722,13.975523,0.000000,-0.000000,1.000000
-0.192782,21.208295,12.066283,0.065403,0.000000,-0.997859
3.724317,5.562369,13.975523,0.000000,-0.000000,1.000000
15.590532,0.143290,-2.455015,-0.634393,0.000000,0.773010
10.623320,-22.163915,2.239160,0.773011,0.000000,-0.634392
-19.254067,-24.759619,-13.841030,0.000000,-1.000000,0.000000
-8.938315,24.759619,-8.527099,-0.000000,1.000000,0.000000
12.183238,14.862565,-3.258132,0.290285,0.000000,0.956940
21.201408,-5.291309,-7.700519,1.000000,0.000000,-0.000000
14.986082,-7.172782,2.916482,-0.471397,-0.000000,-0.881921
2.692710,10.248101,-11.753577,-0.195091,0.000000,0.980785
-8.778440,-19.910646,1.755809,0.956940,0.000000,-0.290285
21.201408,-24.638667,-2.989612,1.000000,0.000000,-0.000000
17.179743,17.329064,-13.975523,0.000000,0.000000,-1.000000
-5.997479,21.248388,-10.481353,0.442289,0.000000,0.896873
15.837409,-19.200852,-13.975523,0.000000,0.000000,-1.000000
21.201408,-5.460088,4.747807,1.000000,-0.000000,0.000000
-8.033222,-11.132858,3.872446,0.881921,0.000000,-0.471397
-12.032604,-14.898676,-13.975523,0.000000,0.000000,-1.000000
-21.201408,-15.157148,-11.005048,-1.000000,0.000000,0.000000
-18.776860,-24.759619,-6.718400,0.000000,-1.000000,0.000000
-21.201408,-22.636225,-11.482246,-1.000000,0.000000,0.000000
-11.574915,19.245704,3.398527,0.946930,0.000000,-0.321439
17.966332,-24.759619,-5.010242,-0.000000,-1.000000,0.000000
-2.795079,-5.292159,-13.975523,0.000000,0.000000,-1.000000
-21.201408,-21.912996,11.321656,-1.000000,0.000000,0.000000
7.430791,12.351969,-13.975523,0.000000,0.000000,-1.000000
21.201408,-18.610459,-4.663942,1.000000,0.000000,-0.000000
-21.201408,19.870879,10.284132,-1.000000,0.000000,0.000000
13.140255,17.777491,3.423890,0.098017,0.000000,-0.995185
-13.912305,-21.688157,-3.351342,0.290285,-0.000000,0.956940
5.300727,-9.180274,7.176336,-0.634393,0.000000,-0.773010
-21.022693,-19.395393,13.975523,0.000000,-0.000000,1.000000
-10.735792,-0.830907,-2.376209,-0.773010,0.000000,0.634393
16.351308,-19.185693,13.975523,0.000000,0.000000,1.000000
21.201408,-4.736193,-4.774690,1.000000,0.000000,-0.000000
-7.852292,14.516798,-13.975523,0.000000,0.000000,-1.000000
-8.370223,-24.759619,-13.427384,0.000000,-1.000000,0.000000
0.732844,10.806854,-13.975523,0.000000,0.000000,-1.000000
12.058836,-13.568293,13.975523,0.000000,0.000000,1.000000
-10.086071,-5.366613,1.412643,-0.881922,-0.000000,-0.471396
-21.201408,-4.689264,10.817477,-1.000000,0.000000,0.000000
-14.585450,-24.759619,9.319562,0.000000,-1.000000,0.000000
-21.201408,12.989753,-8.777748,-1.000000,0.000000,0.000000
-3.640645,-22.168162,13.975523,0.000000,0.000000,1.000000
5.540009,16.900063,13.975523,0.000000,-0.000000,1.000000
6.581090,0.859738,6.026035,-0.773010,0.000000,-0.634393
21.201408,-22.000041,6.870918,1.000000,0.000000,-0.000000
9.839937,1.897852,-0.677507,0.956940,0.000000,0.290285
10.621231,-21.179387,13.975523,0.000000,0.000000,1.000000
-0.517352,-14.905882,-8.902286,0.098017,0.000000,0.995185
-7.983451,0.620881,-13.975523,0.000000,0.000000,-1.000000
-21.201408,-4.825074,-11.144448,-1.000000,0.000000,0.000000
2.293285,24.284773,11.833027,-0.195091,0.000000,-0.980785
8.899327,-1.810266,-13.975523,0.000000,0.000000,-1.000000
-2.864561,5.997052,11.719393,0.195091,0.000000,-0.980785
16.487047,-24.759619,13.062839,0.000000,-1.000000,0.000000
16.664503,-24.759619,4.800154,-0.000000,-1.000000,0.000000
-21.201408,15.442132,-6.301028,-1.000000,0.000000,0.000000
-11.440675,5.188543,-3.508042,0.000000,1.000000,-0.000000
4.049978,2.455717,7.938329,-0.471397,0.000000,-0.881921
9.319629,-10.273299,-13.975523,0.000000,0.000000,-1.000000
-21.201408,-1.422769,-5.074928,-1.000000,0.000000,0.000000
6.009547,24.463993,10.475401,-0.442289,0.000000,-0.896873
8.100185,20.132831,-13.975523,0.000000,0.000000,-1.000000
-14.755103,-24.759619,4.411554,0.000000,-1.000000,0.000000
-13.648982,2.325508,13.975523,0.000000,-0.000000,1.000000
10.570421,5.188543,-5.765769,-0.000000,1.000000,0.000000
-13.526631,22.162802,-13.975523,0.000000,0.000000,-1.000000
-10.874980,-10.411547,13.975523,0.000000,-0.000000,1.000000
10.828109,6.411031,5.294328,-0.896873,0.000000,-0.442289
-3.448498,1.470379,8.259827,0.471397,0.000000,-0.881921
-7.974114,-16.388769,13.975523,0.000000,0.000000,1.000000
-8.577657,10.940295,-8.499384,0.751840,-0.000000,0.659346
-13.081039,-24.759619,7.394259,0.000000,-1.000000,0.000000
-1.997342,-12.657061,-8.705172,0.290285,-0.000000,0.956940
-5.088513,-23.424376,-7.350495,0.634393,0.000000,0.773010
10.478182,1.394536,13.975523,0.000000,0.000000,1.000000
-21.201408,7.582828,6.433311,-1.000000,0.000000,0.000000
-13.882078,13.185416,3.360512,0.290285,0.000000,-0.956940
-8.787539,-20.336168,-1.682388,0.995185,-0.000000,0.098017
-11.145892,-22.514545,-2.728802,-0.634393,0.000000,0.773010
-6.961990,5.188543,-6.126398,-0.000000,1.000000,0.000000
-5.308199,17.678836,13.975523,0.000000,-0.000000,1.000000
9.834955,-24.592510,-0.644327,0.995185,-0.000000,0.098016
-21.201408,17.326213,-11.471422,-1.000000,0.000000,0.000000
-4.606458,-15.901915,-7.640885,0.471397,0.000000,0.881921
-2.907696,-22.201068,-13.975523,0.000000,0.000000,-1.000000
21.137842,-9.201622,-13.975523,0.000000,0.000000,-1.000000
-21.201408,-14.935285,1.087780,-1.000000,0.000000,0.000000
21.201408,14.899364,-3.789505,1.000000,-0.000000,0.000000
21.201408,-22.424871,-4.610427,1.000000,0.000000,-0.000000
-8.582833,-15.214522,-13.975523,0.000000,0.000000,-1.000000
-6.899751,10.315350,-13.975523,0.000000,0.000000,-1.000000
9.821974,-15.915398,0.512525,0.995185,0.000000,-0.098017
21.201408,7.411835,13.245320,1.000000,-0.000000,0.000000
-12.773769,18.881792,-13.975523,0.000000,0.000000,-1.000000
7.384638,-24.759619,-9.901658,0.000000,-1.000000,0.000000
21.201408,-11.060238,-5.777107,1.000000,0.000000,-0.000000
0.818445,17.657269,-12.025275,-0.065403,0.000000,0.997859
-16.319990,10.734028,1.406570,0.881922,0.000000,-0.471396
-21.201408,-24.343223,-1.010323,-1.000000,0.000000,0.000000
12.003771,17.756113,3.203692,0.290285,0.000000,-0.956940
-6.854193,-4.697393,-5.693259,0.773010,-0.000000,0.634393
-10.462583,16.217339,6.035539,0.896873,0.000000,-0.442289
-21.201408,1.931990,11.109011,-1.000000,0.000000,0.000000
13.816398,19.094278,13.975523,0.000000,-0.000000,1.000000
5.757179,-4.630709,-6.801735,-0.634393,0.000000,0.773010
-0.732709,-5.698080,8.881075,0.098017,0.000000,-0.995185
11.534768,23.975511,3.516798,-0.946930,0.000000,-0.321439
-21.201408,19.204420,1.537497,-1.000000,0.000000,0.000000
-16.630124,-24.759619,-4.750665,0.000000,-1.000000,0.000000
21.201408,-21.939169,4.522932,1.000000,0.000000,-0.000000
-16.105120,-23.697149,13.975523,0.000000,0.000000,1.000000
-4.965146,-14.240262,7.449162,0.471397,0.000000,-0.881921
6.974834,-18.762123,-5.546257,-0.773010,0.000000,0.634393
-2.308235,-8.569801,-13.975523,0.000000,0.000000,-1.000000
3.103558,-17.843714,13.975523,0.000000,0.000000,1.000000
7.234145,22.616579,-13.975523,0.000000,0.000000,-1.000000
11.098917,-24.158372,-2.690250,0.634393,-0.000000,0.773011
7.023997,-4.779248,5.486352,-0.773010,0.000000,-0.634393
-5.219594,-13.794439,7.242920,0.634393,0.000000,-0.773010
-13.304255,-17.550141,13.975523,0.000000,0.000000,1.000000
17.814465,8.581053,-13.975523,0.000000,0.000000,-1.000000
-19.371830,-24.759619,5.549958,0.000000,-1.000000,0.000000
-9.884636,20.293052,-13.975523,0.000000,0.000000,-1.000000
21.201408,-12.798833,-11.586277,1.000000,0.000000,-0.000000
19.611038,2.174348,13.975523,0.000000,0.000000,1.000000
-10.477603,8.108099,6.005083,0.896873,0.000000,-0.442289
-14.551262,10.364543,13.975523,0.000000,-0.000000,1.000000
-16.496467,10.070947,-0.896437,0.956940,0.000000,0.290286
-11.424898,-1.464468,2.920846,-0.471397,-0.000000,-0.881921
0.980447,5.188543,9.116068,-0.000000,1.000000,0.000000
-11.333334,-3.286910,-2.871904,-0.471396,0.000000,0.881921
-21.201408,-2.250062,1.001548,-1.000000,0.000000,0.000000
1.649153,-23.232440,13.975523,0.000000,0.000000,1.000000
9.558204,-11.994859,-13.975523,0.000000,0.000000,-1.000000
8.786862,5.188543,-1.791341,-0.000000,1.000000,0.000000
-6.689055,-24.759619,13.967466,0.000000,-1.000000,0.000000
-2.817690,-24.759619,-12.151029,0.000000,-1.000000,0.000000
2.053843,2.537739,8.688033,-0.290285,0.000000,-0.956940
13.171550,-18.424955,-3.426973,0.098017,-0.000000,0.995185
15.830406,-24.759619,-10.726284,0.000000,-1.000000,0.000000
-13.692015,-20.605924,-13.975523,0.000000,0.000000,-1.000000
16.499064,1.088970,0.887875,-0.956940,0.000000,-0.290286
16.326580,-7.052849,-1.394242,-0.881922,0.000000,0.471395
-4.553175,-3.393768,-7.669365,0.471397,0.000000,0.881921
-5.446803,23.251821,-13.975523,0.000000,0.000000,-1.000000
-9.833637,-2.810602,-0.630945,-0.995185,0.000000,0.098017
10.180043,-9.689061,1.588452,0.881921,-0.000000,-0.471396
-12.043339,-24.759619,10.042300,0.000000,-1.000000,0.000000
21.201408,5.828474,-5.970760,1.000000,0.000000,-0.000000
-14.798324,-22.114568,-3.016841,0.471397,-0.000000,0.881921
14.404132,-13.193493,13.975523,0.000000,0.000000,1.000000
-2.115847,-3.656151,-13.975523,0.000000,0.000000,-1.000000
6.831782,21.101503,13.975523,0.000000,-0.000000,1.000000
-7.967318,-10.974097,3.995744,0.881921,0.000000,-0.471397
21.201408,6.511069,-9.261313,1.000000,0.000000,-0.000000
0.629135,7.397621,-13.975523,0.000000,0.000000,-1.000000
10.236605,7.727699,-6.374767,-0.831470,0.000000,0.555570
-12.732108,-17.275971,3.383691,-0.098017,0.000000,-0.995185
-11.197972,16.489727,4.508966,0.946930,0.000000,-0.321439
13.799953,-24.759619,-3.741361,-0.000000,-1.000000,0.000000
-8.521504,-20.365887,2.602812,0.956940,0.000000,-0.290285
21.201408,20.178442,-11.398843,1.000000,0.000000,-0.000000
-9.760177,-24.759619,-2.612325,-0.000000,-1.000000,0.000000
6.808394,-11.726810,-13.975523,0.000000,0.000000,-1.000000
-13.600941,24.759619,11.016068,0.000000,1.000000,0.000000
-5.334584,6.472026,-13.975523,0.000000,0.000000,-1.000000
-21.025399,-5.110582,13.975523,0.000000,-0.000000,1.000000
-7.286934,5.188543,5.902552,-0.000000,1.000000,-0.000000
-6.462321,20.690291,13.975523,0.000000,-0.000000,1.000000
-21.201408,-13.957783,-9.228053,-1.000000,0.000000,0.000000
8.313686,15.448350,-8.740509,-0.659346,0.000000,0.751840
-21.201408,-9.216500,6.392073,-1.000000,0.000000,0.000000
8.325643,0.641450,-3.248479,-0.956940,0.000000,0.290285
-21.201408,-0.096191,0.666498,-1.000000,0.000000,0.000000
-5.894415,-20.112391,-6.689108,0.634393,0.000000,0.773010
-21.201408,-2.825937,-12.208059,-1.000000,0.000000,0.000000
12.577236,-13.328749,-13.975523,0.000000,0.000000,-1.000000
5.574619,-24.759619,-8.860280,0.000000,-1.000000,0.000000
-11.517116,-21.871505,2.970138,-0.471396,0.000000,-0.881921
-7.035529,0.836393,-5.472300,0.773010,-0.000000,0.634393
1.328111,-19.325287,8.822433,-0.098017,-0.000000,-0.995185
6.369849,21.793262,-13.975523,0.000000,0.000000,-1.000000
-16.531004,11.317906,-0.782586,0.956940,0.000000,0.290286
-13.678230,-9.518623,-3.382950,0.098017,0.000000,0.995185
10.509294,6.882207,5.940820,-0.896873,0.000000,-0.442289
21.201408,-24.136747,-7.210623,1.000000,0.000000,-0.000000
14.272331,21.483477,13.975523,0.000000,-0.000000,1.000000
2.515005,-24.759619,-13.351122,0.000000,-1.000000,0.000000
-8.727193,24.759619,13.011714,-0.000000,1.000000,0.000000
7.694419,-5.309345,-4.506302,-0.881921,0.000000,0.471397
11.604733,6.702858,-13.975523,0.000000,0.000000,-1.000000
-5.863111,-10.646477,13.975523,0.000000,0.000000,1.000000
5.112398,-2.736694,-13.975523,0.000000,0.000000,-1.000000
-4.791320,-3.955242,-13.975523,0.000000,0.000000,-1.000000
-11.949951,7.927405,13.975523,0.000000,-0.000000,1.000000
-0.953313,5.188543,10.903718,-0.000000,1.000000,0.000000
11.985535,-1.933044,3.198160,0.290285,-0.000000,-0.956940
-9.720814,-4.374360,13.975523,0.000000,-0.000000,1.000000
21.201408,10.090198,7.123329,1.000000,-0.000000,0.000000
6.032044,-10.883492,-6.576159,-0.634393,0.000000,0.773010
18.201956,-21.792008,-13.975523,0.000000,0.000000,-1.000000
-0.470538,-10.514666,8.906896,0.098017,0.000000,-0.995185
21.201408,1.828825,-0.345240,1.000000,-0.000000,0.000000
-21.201408,-1.943454,-12.436447,-1.000000,0.000000,0.000000
-11.856030,-24.759619,12.422448,0.000000,-1.000000,0.000000
-21.201408,-6.335421,-5.892820,-1.000000,0.000000,0.000000
19.903099,-5.777622,13.975523,0.000000,0.000000,1.000000
13.991852,-1.249771,-3.327212,-0.290285,0.000000,0.956940
10.336992,1.241194,1.882084,0.881922,0.000000,-0.471396
-21.201408,-0.082444,5.169150,-1.000000,0.000000,0.000000
0.980278,3.239784,13.975523,0.000000,-0.000000,1.000000
-10.750648,-11.918806,-2.394311,-0.773010,0.000000,0.634393
16.138230,5.757231,1.746619,-0.881922,0.000000,-0.471395
8.731965,-24.759619,-10.022608,0.000000,-1.000000,0.000000
-18.069370,-24.759619,-6.933959,0.000000,-1.000000,0.000000
-21.201408,13.253772,-10.908336,-1.000000,0.000000,0.000000
-16.567663,-5.562748,-0.646329,0.995185,-0.000000,0.098016
12.878725,23.757917,-13.975523,0.000000,0.000000,-1.000000
0.599136,-3.690040,8.894231,-0.098017,0.000000,-0.995185
21.201408,14.180560,0.563203,1.000000,-0.000000,0.000000
2.002392,20.521204,-11.890890,-0.195091,0.000000,0.980785
-13.024680,12.999555,3.412507,-0.098017,0.000000,-0.995185
-5.113107,-12.013822,-7.330311,0.634393,-0.000000,0.773010
-16.356663,3.188264,-13.975523,0.000000,0.000000,-1.000000
-8.210550,12.469172,-8.830957,0.659346,0.000000,0.751840
-9.787791,-6.296677,-0.165456,-0.995185,0.000000,0.098017
13.129750,-11.685180,-13.975523,0.000000,0.000000,-1.000000
18.889492,-4.482239,-13.975523,0.000000,0.000000,-1.000000
-10.190880,8.531274,13.975523,0.000000,-0.000000,1.000000
12.154116,18.863730,3.249298,0.290285,0.000000,-0.956940
14.922375,23.816042,-2.950534,-0.471397,0.000000,0.881921
20.508920,18.696280,13.975523,0.000000,0.000000,1.000000
-8.425071,-13.706213,2.920712,0.956940,0.000000,-0.290285
11.818913,-19.284136,-13.975523,0.000000,0.000000,-1.000000
-6.258946,10.385520,13.975523,0.000000,-0.000000,1.000000
19.118875,-24.759619,12.579610,-0.000000,-1.000000,0.000000
6.591436,-17.628723,13.975523,0.000000,0.000000,1.000000
-21.201408,-12.111566,7.675610,-1.000000,0.000000,0.000000
-20.303626,20.281231,-13.975523,0.000000,0.000000,-1.000000
18.358839,24.759619,-3.974858,0.000000,1.000000,-0.000000
-21.201408,-8.190570,-3.536777,-1.000000,0.000000,0.000000
10.460694,20.050430,13.975523,0.000000,-0.000000,1.000000
-7.214504,-9.208805,13.975523,0.000000,0.000000,1.000000
-11.637333,-24.759619,3.524000,0.000000,-1.000000,0.000000
7.701511,-6.264561,-4.493034,-0.881921,0.000000,0.471397
-4.134757,-1.000447,-7.893014,0.471397,-0.000000,0.881921
-21.201408,-0.744568,4.169211,-1.000000,0.000000,0.000000
-15.931454,-12.338497,-13.975523,0.000000,0.000000,-1.000000
-21.201408,15.772927,1.859518,-1.000000,0.000000,0.000000
5.571307,-15.056652,-13.975523,0.000000,0.000000,-1.000000
-9.789274,17.880143,13.975523,0.000000,-0.000000,1.000000
-8.927731,-7.843788,-0.258997,0.995185,0.000000,0.098017
-7.715547,-11.410292,4.466775,0.881921,0.000000,-0.471397
-11.427539,9.192707,-3.832685,0.946930,-0.000000,0.321439
-11.394239,22.298009,3.930782,0.946930,0.000000,-0.321439
-18.366832,-9.319689,-13.975523,0.000000,0.000000,-1.000000
-9.236896,20.204633,13.975523,0.000000,-0.000000,1.000000
-16.267556,-4.307983,-1.504666,0.881921,0.000000,0.471396
15.601697,-23.920083,-13.975523,0.000000,0.000000,-1.000000
-9.242361,16.814367,7.741434,0.751840,0.000000,-0.659346
16.549206,-6.638269,-0.722579,-0.956940,0.000000,0.290286
-8.376239,-0.566322,-3.081688,0.956940,-0.000000,0.290285
-16.587543,-3.692154,0.444482,0.995185,0.000000,-0.098017
-18.065695,24.759619,13.916009,-0.000000,1.000000,0.000000
-10.574820,9.743115,-13.975523,0.000000,0.000000,-1.000000
3.956156,14.884630,-11.385626,-0.321439,0.000000,0.946930
9.191459,7.688326,-7.799476,-0.751840,0.000000,0.659346
21.201408,10.664551,8.532447,1.000000,-0.000000,0.000000
-21.201408,18.859697,-12.918087,-1.000000,0.000000,0.000000
-2.452957,22.034146,-13.975523,0.000000,0.000000,-1.000000
6.193535,-17.965738,-13.975523,0.000000,0.000000,-1.000000
15.008233,-20.092557,-2.904642,-0.471397,0.000000,0.881921
21.201408,16.255083,11.652077,1.000000,-0.000000,0.000000
18.491591,-12.802076,13.975523,0.000000,0.000000,1.000000
-21.201408,2.061551,-4.987372,-1.000000,0.000000,0.000000
-14.640478,-4.770472,-3.101211,0.471397,-0.000000,0.881921
0.312649,-16.344281,13.975523,0.000000,0.000000,1.000000
-14.912158,24.759619,8.757582,-0.000000,1.000000,-0.000000
15.907833,17.891825,-2.082780,-0.773010,0.000000,0.634393
-8.260908,13.356160,-13.975523,0.000000,0.000000,-1.000000
-21.201408,22.735160,9.081642,-1.000000,0.000000,0.000000
4.101115,18.254365,-13.975523,0.000000,0.000000,-1.000000
-21.201408,-7.060067,6.333145,-1.000000,0.000000,0.000000
10.780283,-17.805203,-13.975523,0.000000,0.000000,-1.000000
-10.347319,-2.690359,1.901405,-0.881922,0.000000,-0.471396
-1.744308,22.705547,-13.975523,0.000000,0.000000,-1.000000
-6.624213,-5.731019,5.973490,0.773010,0.000000,-0.634393
-15.056683,14.897119,2.878745,0.471397,0.000000,-0.881921
-10.585726,-24.759619,-7.412949,0.000000,-1.000000,0.000000
-15.487882,14.794305,13.975523,0.000000,-0.000000,1.000000
-21.201408,4.529744,-2.047217,-1.000000,0.000000,0.000000
-21.201408,-23.472454,2.303952,-1.000000,0.000000,0.000000
-8.487856,14.519032,8.587766,0.659346,0.000000,-0.751840
-15.223580,-14.413725,2.756165,0.634394,0.000000,-0.773010
-15.753040,-17.182025,-13.975523,0.000000,0.000000,-1.000000
-21.201408,21.048512,-4.433649,-1.000000,0.000000,0.000000
14.664984,24.759619,9.702120,0.000000,1.000000,-0.000000
-6.585142,-18.871070,-6.021098,0.773010,0.000000,0.634393
-21.201408,23.408874,-7.366663,-1.000000,0.000000,0.000000
-7.321894,3.292453,-5.123364,0.773010,-0.000000,0.634393
4.723012,7.406224,-13.975523,0.000000,0.000000,-1.000000
-14.599747,-11.570969,-13.975523,0.000000,0.000000,-1.000000
7.299691,-17.999346,13.975523,0.000000,0.000000,1.000000
16.173717,23.810378,1.680228,-0.881921,0.000000,-0.471396
-14.498639,24.759619,5.476970,0.000000,1.000000,0.000000
15.208096,4.926477,-13.975523,0.000000,0.000000,-1.000000
12.918623,17.307161,3.402061,0.098017,0.000000,-0.995185
4.973170,-23.974495,13.975523,0.000000,0.000000,1.000000
-11.060965,-17.675385,2.659104,-0.634393,-0.000000,-0.773010
21.201408,-1.813837,4.624138,1.000000,-0.000000,0.000000
-12.644110,1.405512,13.975523,0.000000,-0.000000,1.000000
20.692884,24.759619,11.953411,0.000000,1.000000,-0.000000
-4.647481,15.691073,11.147098,0.442289,0.000000,-0.896873
-8.415961,-24.759619,-8.348279,0.000000,-1.000000,0.000000
12.265901,-20.984936,3.283208,0.290285,-0.000000,-0.956940
8.763012,-6.504638,-13.975523,0.000000,0.000000,-1.000000
6.425318,-22.526866,6.215844,-0.773010,0.000000,-0.634393
18.813827,0.136858,13.975523,0.000000,0.000000,1.000000
13.789639,-24.759619,-13.642173,0.000000,-1.000000,0.000000
17.694462,24.759619,-6.612487,0.000000,1.000000,-0.000000
-16.317509,12.440558,13.975523,0.000000,-0.000000,1.000000
21.201408,-4.870016,-10.072161,1.000000,0.000000,-0.000000
-13.194999,-19.586241,-3.429282,-0.098017,0.000000,0.995185
-9.794211,-8.566079,-0.230639,-0.995185,0.000000,0.098017
-21.201408,17.268381,10.183345,-1.000000,0.000000,0.000000
10.689748,5.421412,-5.574896,-0.896873,0.000000,0.442289
-19.702068,-7.423322,-13.975523,0.000000,0.000000,-1.000000
8.315143,-19.817972,3.283096,-0.956940,0.000000,-0.290285
-10.129145,15.434577,6.535592,0.831470,0.000000,-0.555570
12.636389,19.194052,-13.975523,0.000000,0.000000,-1.000000
21.201408,-17.779470,-6.091034,1.000000,0.000000,-0.000000
8.838616,-21.835243,-1.163803,-0.995185,0.000000,0.098017
7.672571,-6.003528,13.975523,0.000000,0.000000,1.000000
8.290086,-11.109495,-13.975523,0.000000,0.000000,-1.000000
13.551811,24.759619,12.129344,-0.000000,1.000000,0.000000
12.590304,24.759619,5.810675,0.000000,1.000000,-0.000000
-13.921032,12.030062,3.348695,0.290285,0.000000,-0.956940
-21.201408,-6.268458,0.199184,-1.000000,0.000000,0.000000
17.718708,24.759619,-4.974117,0.000000,1.000000,-0.000000
5.535326,-6.696389,13.975523,0.000000,0.000000,1.000000
14.671792,-24.759619,8.492883,-0.000000,-1.000000,0.000000
-7.167111,0.757663,-5.311968,0.773010,-0.000000,0.634393
18.525279,-20.667895,-13.975523,0.000000,0.000000,-1.000000
7.658235,-24.759619,6.895878,-0.000000,-1.000000,0.000000
21.201408,-15.251275,9.753493,1.000000,-0.000000,0.000000
0.922191,-11.314669,-13.975523,0.000000,0.000000,-1.000000
21.201408,-12.607744,-9.709648,1.000000,0.000000,-0.000000
-2.425240,-15.370015,8.575370,0.290285,0.000000,-0.956940
-14.000914,1.272741,13.975523,0.000000,-0.000000,1.000000
-1.136702,-20.902368,8.841285,0.098017,0.000000,-0.995185
5.200802,5.188543,-10.357661,-0.000000,1.000000,-0.000000
-21.201408,5.214988,-4.386254,-1.000000,0.000000,0.000000
2.470882,-16.111109,-8.561525,-0.290285,0.000000,0.956940
21.201408,-0.185556,-13.337391,1.000000,0.000000,-0.000000
7.474910,24.759619,11.925369,-0.000000,1.000000,0.000000
-6.796009,-9.059285,-5.764156,0.773010,-0.000000,0.634393
11.797754,-1.217041,3.120142,0.471395,0.000000,-0.881922
-11.547227,16.819955,13.975523,0.000000,-0.000000,1.000000
12.880659,14.605297,3.398322,0.098017,0.000000,-0.995185
2.116595,-7.792031,-13.975523,0.000000,0.000000,-1.000000
4.984343,-14.260689,7.435985,-0.634393,0.000000,-0.773010
-0.947735,-23.843921,-13.975523,0.000000,0.000000,-1.000000
21.201408,14.676196,-4.420996,1.000000,-0.000000,0.000000
-18.531834,24.759619,-9.904405,-0.000000,1.000000,0.000000
-13.808128,-2.162209,3.370157,0.098017,0.000000,-0.995185
-13.932345,-10.774169,13.975523,0.000000,-0.000000,1.000000
13.735297,-5.347744,13.975523,0.000000,0.000000,1.000000
-1.512337,-21.648492,-8.804288,0.098017,0.000000,0.995185
-1.700841,-13.420552,-13.975523,0.000000,0.000000,-1.000000
-21.015374,-12.323307,13.975523,0.000000,-0.000000,1.000000
-10.890899,-15.266686,-13.975523,0.000000,0.000000,-1.000000
9.971856,-5.306667,1.112386,0.956940,0.000000,-0.290285
4.555358,5.188543,-7.710024,-0.000000,1.000000,0.000000
15.173902,20.165751,2.796935,-0.634394,0.000000,-0.773010
0.600989,-6.342303,13.975523,0.000000,0.000000,1.000000
21.201408,-1.981349,-11.122578,1.000000,0.000000,-0.000000
19.133218,24.069012,-13.975523,0.000000,0.000000,-1.000000
-2.651126,18.888329,-13.975523,0.000000,0.000000,-1.000000
-2.718555,5.188543,-11.681921,-0.000000,1.000000,0.000000
-21.201408,-11.338766,-10.757978,-1.000000,0.000000,0.000000
11.375378,-24.759619,-5.413815,0.000000,-1.000000,0.000000
8.687078,-12.533492,2.056991,-0.956940,0.000000,-0.290285
6.144022,-24.759619,7.712872,-0.000000,-1.000000,0.000000
-21.201408,-1.927617,-12.352147,-1.000000,0.000000,0.000000
-21.201408,7.994214,-9.037333,-1.000000,0.000000,0.000000
-21.201408,10.440825,6.517172,-1.000000,0.000000,0.000000
10.841962,-24.759619,-2.835260,0.000000,-1.000000,0.000000
3.534889,-12.333731,-13.975523,0.000000,0.000000,-1.000000
-21.201408,-4.887171,-10.942957,-1.000000,0.000000,0.000000
16.707052,24.759619,13.258485,-0.000000,1.000000,0.000000
-11.103465,-11.739398,2.693983,-0.634394,0.000000,-0.773010
21.201408,-24.238614,-7.903811,1.000000,0.000000,-0.000000
10.636516,17.292695,-13.975523,0.000000,0.000000,-1.000000
-16.180094,16.186019,-1.668298,0.881921,0.000000,0.471396
-6.184458,13.110759,-13.975523,0.000000,0.000000,-1.000000
21.201408,16.898757,-10.948587,1.000000,0.000000,-0.000000
-17.317080,-12.640189,-13.975523,0.000000,0.000000,-1.000000
-6.899670,-12.364669,-5.637845,0.773010,0.000000,0.634393
4.491258,6.450226,13.975523,0.000000,-0.000000,1.000000
-4.774073,18.935887,11.084670,0.442289,0.000000,-0.896873
1.285051,18.674297,13.975523,0.000000,-0.000000,1.000000
12.348727,0.153247,-3.308333,0.290285,-0.000000,0.956940
-15.688715,-4.188637,2.349777,0.773010,0.000000,-0.634394
-10.952563,2.703929,13.975523,0.000000,-0.000000,1.000000
-12.726383,9.319162,-13.975523,0.000000,0.000000,-1.000000
3.084875,-19.159057,8.375272,-0.290285,-0.000000,-0.956940
7.193784,12.098488,-9.689355,-0.555570,0.000000,0.831470
-16.501145,-6.991258,-13.975523,0.000000,0.000000,-1.000000
-9.867138,-8.708013,-0.767178,-0.956940,0.000000,0.290285
-16.415832,-14.796727,-1.162255,0.956940,-0.000000,0.290286
6.473373,17.262831,-13.975523,0.000000,0.000000,-1.000000
16.182401,-8.916549,-1.663981,-0.881922,0.000000,0.471396
5.197169,-19.147016,-13.975523,0.000000,0.000000,-1.000000
-1.515762,-15.450630,-8.803951,0.098017,0.000000,0.995185
0.984805,9.210095,-13.975523,0.000000,0.000000,-1.000000
-9.768661,-24.759619,-10.469561,0.000000,-1.000000,0.000000
20.651108,-24.759619,12.924922,-0.000000,-1.000000,0.000000
21.201408,6.224478,6.816200,1.000000,-0.000000,0.000000
11.356627,-13.442538,-13.975523,0.000000,0.000000,-1.000000
-13.222030,24.759619,-4.660932,0.000000,1.000000,0.000000
21.201408,7.789867,1.615990,1.000000,-0.000000,0.000000
16.229863,24.759619,13.084990,-0.000000,1.000000,0.000000
4.437648,-22.178829,-13.975523,0.000000,0.000000,-1.000000
-6.416956,17.004993,-13.975523,0.000000,0.000000,-1.000000
9.817625,-1.305322,0.468366,0.995185,0.000000,-0.098017
17.463917,-24.759619,0.338154,-0.000000,-1.000000,0.000000
21.201408,-23.215791,9.712741,1.000000,0.000000,-0.000000
7.330671,-8.790354,-5.112669,-0.773010,0.000000,0.634393
-6.873801,-14.174558,-5.669366,0.773010,0.000000,0.634393
6.938228,-18.936309,13.975523,0.000000,0.000000,1.000000
21.201408,4.493301,9.413044,1.000000,-0.000000,0.000000
21.201408,-18.573920,-12.220943,1.000000,0.000000,-0.000000
4.725681,11.494578,11.108534,-0.442289,0.000000,-0.896873
-4.102169,20.702626,11.336061,0.321439,0.000000,-0.946930
21.201408,-24.428114,-8.976847,1.000000,0.000000,-0.000000
21.201408,23.715949,4.173071,1.000000,-0.000000,0.000000
12.725959,-24.759619,-8.280743,0.000000,-1.000000,0.000000
-12.722796,2.014804,-13.975523,0.000000,0.000000,-1.000000
18.819698,-18.544416,-13.975523,0.000000,0.000000,-1.000000
-9.356661,23.992719,-13.975523,0.000000,0.000000,-1.000000
21.201408,16.617459,-12.974949,1.000000,0.000000,-0.000000
-21.201408,-14.393100,-11.235194,-1.000000,0.000000,0.000000
-21.201408,18.795030,2.819889,-1.000000,0.000000,0.000000
-4.427811,14.145440,-11.225521,0.321439,0.000000,0.946930
17.903713,5.094050,-13.975523,0.000000,0.000000,-1.000000
15.539651,-15.151148,2.496773,-0.634393,0.000000,-0.773011
-8.473227,-23.785287,2.761960,0.956940,0.000000,-0.290285
-18.203668,18.766114,13.975523,0.000000,-0.000000,1.000000
10.208007,-18.862832,-13.975523,0.000000,0.000000,-1.000000
21.201408,20.366116,-13.378129,1.000000,0.000000,-0.000000
21.201408,-5.741854,0.777806,1.000000,0.000000,-0.000000
-2.063448,-15.501235,-8.685119,0.290285,-0.000000,0.956940
6.572271,-15.794509,-6.036782,-0.773010,0.000000,0.634393
-8.927748,11.484352,-13.975523,0.000000,0.000000,-1.000000
-7.317210,0.341315,-5.129071,0.773010,0.000000,0.634393
19.978733,-21.032821,13.975523,0.000000,0.000000,1.000000
8.979835,6.945916,8.040787,-0.751840,0.000000,-0.659346
-19.735286,24.759619,-2.655334,-0.000000,1.000000,0.000000
-6.063311,-8.232471,13.975523,0.000000,0.000000,1.000000
19.263054,-10.849976,-13.975523,0.000000,0.000000,-1.000000
2.049293,22.818110,-13.975523,0.000000,0.000000,-1.000000
6.854200,23.666733,9.916258,-0.555570,0.000000,-0.831470
3.373275,6.486520,-13.975523,0.000000,0.000000,-1.000000
21.201408,13.933782,2.900365,1.000000,-0.000000,0.000000
-21.201408,-4.168146,-5.436887,-1.000000,0.000000,0.000000
5.967337,20.293044,-13.975523,0.000000,0.000000,-1.000000
12.837773,-9.397035,3.394098,0.098017,0.000000,-0.995185
7.242522,-1.643804,5.220079,-0.773010,0.000000,-0.634393
7.734545,24.264255,9.248402,-0.659346,0.000000,-0.751840
17.005174,1.419178,13.975523,0.000000,0.000000,1.000000
2.035239,24.759619,12.513522,-0.000000,1.000000,0.000000
-1.406390,17.218808,11.986739,0.065403,0.000000,-0.997859
-5.047437,20.157752,13.975523,0.000000,-0.000000,1.000000
-21.201408,15.985763,-9.151000,-1.000000,0.000000,0.000000
-8.835731,-24.667384,1.193093,0.995185,0.000000,-0.098017
21.201408,12.405627,12.542091,1.000000,-0.000000,0.000000
-7.731206,-20.151138,4.437480,0.881921,0.000000,-0.471397
10.275501,-17.846682,1.767042,0.881922,-0.000000,-0.471396
-13.884798,24.759619,-5.408070,0.000000,1.000000,0.000000
21.201408,-20.598780,4.326552,1.000000,0.000000,-0.000000
8.110823,-20.823225,-13.975523,0.000000,0.000000,-1.000000
16.522366,22.971370,-13.975523,0.000000,0.000000,-1.000000
21.201408,-23.382290,-13.730804,1.000000,0.000000,-0.000000
-21.201408,16.069036,1.996693,-1.000000,0.000000,0.000000
15.355897,8.982935,-13.975523,0.000000,0.000000,-1.000000
21.201408,4.857776,-11.068054,1.000000,0.000000,-0.000000
-13.320641,-21.819398,13.975523,0.000000,0.000000,1.000000
-9.565513,9.734923,-7.372950,0.751840,0.000000,0.659346
7.366776,-7.774466,5.068676,-0.773010,0.000000,-0.634393
-16.856697,24.759619,11.545503,0.000000,1.000000,0.000000
-18.262097,24.759619,0.638477,-0.000000,1.000000,0.000000
-6.116705,-24.545865,-13.975523,0.000000,0.000000,-1.000000
-14.141462,14.647340,3.281828,0.290285,0.000000,-0.956940
21.201408,16.944869,-8.517019,1.000000,-0.000000,0.000000
7.467768,12.424511,9.482359,-0.659346,0.000000,-0.751840
-10.465009,16.413400,-6.030621,0.896873,-0.000000,0.442289
2.224366,15.072360,11.846736,-0.195091,0.000000,-0.980785
-0.617254,-6.189787,-13.975523,0.000000,0.000000,-1.000000
13.440342,10.806755,-3.406380,-0.098017,0.000000,0.995185
-21.201408,-21.557731,6.554174,-1.000000,0.000000,0.000000
-11.794013,8.814551,-3.118142,-0.471395,0.000000,0.881922
21.201408,-11.346604,8.475778,1.000000,-0.000000,0.000000
-18.184319,-24.759619,5.156784,0.000000,-1.000000,0.000000
-15.353825,5.714169,-13.975523,0.000000,0.000000,-1.000000
7.759096,-24.759619,12.861268,0.000000,-1.000000,0.000000
-18.733753,-14.251177,13.975523,0.000000,-0.000000,1.000000
21.201408,-15.517621,1.809402,1.000000,0.000000,-0.000000
5.817023,24.639984,-10.570344,-0.442289,0.000000,0.896873
-20.391034,22.014075,13.975523,0.000000,-0.000000,1.000000
-3.619458,-4.021126,-8.168447,0.471397,-0.000000,0.881921
10.677664,20.676958,5.599400,-0.896873,-0.000000,-0.442289
-4.181131,16.676627,13.975523,0.000000,-0.000000,1.000000
-15.125272,-23.355522,-2.836844,0.634393,-0.000000,0.773010
-18.290632,20.612650,-13.975523,0.000000,0.000000,-1.000000
-11.874353,-23.710484,-3.161085,-0.471397,0.000000,0.881921
-0.396933,-19.629778,13.975523,0.000000,0.000000,1.000000
10.377579,22.780416,6.163784,-0.831470,0.000000,-0.555570
-11.537653,10.852660,-3.508299,0.946930,0.000000,0.321439
-8.339005,20.230962,13.975523,0.000000,-0.000000,1.000000
11.219306,24.759619,6.296401,-0.000000,1.000000,0.000000
21.201408,0.280939,-8.334322,1.000000,0.000000,-0.000000
-14.058966,-23.601881,-3.306853,0.290285,-0.000000,0.956940
-8.864944,7.057857,13.975523,0.000000,-0.000000,1.000000
8.584780,1.720798,2.394221,-0.956940,0.000000,-0.290285
-4.573818,3.677158,-7.658332,0.471397,-0.000000,0.881921
-21.201408,13.765607,3.852480,-1.000000,0.000000,0.000000
-0.361762,17.047108,12.055207,0.065403,0.000000,-0.997859
14.564422,9.152610,3.141864,-0.471397,0.000000,-0.881921
21.041866,12.114269,-13.975523,0.000000,0.000000,-1.000000
21.201408,-2.143193,1.308839,1.000000,-0.000000,0.000000
21.201408,4.478454,-5.590360,1.000000,0.000000,-0.000000
1.143328,-7.255825,13.975523,0.000000,0.000000,1.000000
16.176733,-13.806078,-1.674586,-0.881922,0.000000,0.471396
21.201408,-8.430079,8.175833,1.000000,-0.000000,0.000000
20.532375,24.759619,-7.445025,0.000000,1.000000,-0.000000
-15.190914,10.815349,-13.975523,0.000000,0.000000,-1.000000
-21.201408,-4.795463,13.814224,-1.000000,0.000000,0.000000
-10.319517,24.333875,-13.975523,0.000000,0.000000,-1.000000
14.316446,-17.075604,-3.228748,-0.290285,0.000000,0.956940
19.917916,-24.759619,-1.805751,-0.000000,-1.000000,0.000000
19.053849,24.759619,2.459827,0.000000,1.000000,-0.000000
-14.978464,7.923099,-13.975523,0.000000,0.000000,-1.000000
-21.201408,20.824125,13.327996,-1.000000,0.000000,0.000000
11.618620,-22.348798,3.024393,0.471396,0.000000,-0.881921
2.519020,9.307092,11.788126,-0.195091,0.000000,-0.980785
21.201408,-8.190386,-13.510625,1.000000,0.000000,-0.000000
5.967652,-5.131228,13.975523,0.000000,0.000000,1.000000
10.409043,-24.759619,12.159559,0.000000,-1.000000,0.000000
-6.988356,2.383619,-13.975523,0.000000,0.000000,-1.000000
18.003205,-24.759619,6.892220,-0.000000,-1.000000,0.000000
-2.967087,-6.214148,13.975523,0.000000,0.000000,1.000000
-16.578576,7.963656,0.535529,0.995185,0.000000,-0.098017
-3.768201,-0.492077,13.975523,0.000000,-0.000000,1.000000
-12.441026,-21.961544,3.336331,-0.290285,0.000000,-0.956940
16.395435,-0.785445,1.229492,-0.956940,0.000000,-0.290286
0.180754,-16.057873,-13.975523,0.000000,0.000000,-1.000000
8.381082,-6.981692,3.065722,-0.956940,0.000000,-0.290285
-21.201408,2.816873,-1.261708,-1.000000,0.000000,0.000000
-12.914502,-24.759619,-13.283218,0.000000,-1.000000,0.000000
20.553726,-20.035964,-13.975523,0.000000,0.000000,-1.000000
16.222493,18.041186,1.588975,-0.881921,0.000000,-0.471396
12.191476,-23.792863,13.975523,0.000000,0.000000,1.000000
-21.201408,-9.722703,-9.351478,-1.000000,0.000000,0.000000
-21.201408,15.990056,5.478159,-1.000000,0.000000,0.000000
21.201408,24.164340,9.114450,1.000000,-0.000000,0.000000
-1.249658,-9.494880,13.975523,0.000000,0.000000,1.000000
-2.736618,21.186212,-13.975523,0.000000,0.000000,-1.000000
-1.024247,19.855095,-12.011786,0.065403,0.000000,0.997859
-10.259046,5.188543,-2.467940,0.000000,1.000000,-0.000000
-5.163554,18.100753,13.975523,0.000000,-0.000000,1.000000
-15.940775,16.891993,13.975523,0.000000,-0.000000,1.000000
-11.649414,8.430157,-13.975523,0.000000,0.000000,-1.000000
-9.388929,10.678914,7.574305,0.751840,0.000000,-0.659346
15.841764,-1.858313,2.163286,-0.773010,-0.000000,-0.634394
-0.870019,5.188543,11.121856,-0.000000,1.000000,0.000000
-11.953189,17.953494,-13.975523,0.000000,0.000000,-1.000000
-9.460052,-24.759619,13.016562,0.000000,-1.000000,0.000000
9.816385,-19.246535,0.455774,0.995185,-0.000000,-0.098017
14.430577,-13.971323,13.975523,0.000000,0.000000,1.000000
-15.694883,24.587951,-13.975523,0.000000,0.000000,-1.000000
8.397540,2.795410,-3.011468,-0.956940,0.000000,0.290285
-0.008231,-24.455278,-13.975523,0.000000,0.000000,-1.000000
-16.396741,24.759619,-9.294109,-0.000000,1.000000,0.000000
5.873570,24.669224,-10.542458,-0.442289,0.000000,0.896873
-21.201408,-7.498578,-10.968301,-1.000000,0.000000,0.000000
-7.451674,20.264673,-13.975523,0.000000,0.000000,-1.000000
-4.635307,-22.079249,-13.975523,0.000000,0.000000,-1.000000
10.816067,-5.183393,13.975523,0.000000,0.000000,1.000000
-14.589149,1.121122,13.975523,0.000000,-0.000000,1.000000
-21.201408,-18.190370,-8.155314,-1.000000,0.000000,0.000000
2.165285,-15.444207,13.975523,0.000000,0.000000,1.000000
21.201408,16.485858,-4.393562,1.000000,-0.000000,0.000000
15.784623,13.831608,13.975523,0.000000,0.000000,1.000000
-21.201408,22.152239,3.907651,-1.000000,0.000000,0.000000
-21.201408,-11.099652,7.068765,-1.000000,0.000000,0.000000
-21.201408,-20.792608,-12.536955,-1.000000,0.000000,0.000000
-8.053602,-13.586476,13.975523,0.000000,0.000000,1.000000
-4.435140,-18.570714,-13.975523,0.000000,0.000000,-1.000000
21.201408,-24.542772,-5.322072,1.000000,0.000000,-0.000000
9.998384,-17.230711,1.199838,0.956941,0.000000,-0.290284
-8.368874,-16.925843,-13.975523,0.000000,0.000000,-1.000000
-21.201408,-12.815084,-0.597214,-1.000000,0.000000,0.000000
-15.979403,-24.759619,2.862511,0.000000,-1.000000,0.000000
-20.154539,5.169890,13.975523,0.000000,-0.000000,1.000000
15.350421,1.453301,2.652070,-0.634393,-0.000000,-0.773010
