x,y,z,nx,ny,nz
9.877378,12.388348,-0.941711,0.595699,0.803208,0.000000
-3.552621,-11.910297,2.372034,-0.000000,0.000000,1.000000
5.253064,14.937864,0.056340,0.336890,0.941544,-0.000000
14.355094,-3.438503,2.372034,0.000000,-0.000000,1.000000
3.805449,14.848518,-2.372034,-0.000000,0.000000,-1.000000
-7.780562,10.307251,-2.372034,-0.000000,-0.000000,-1.000000
11.722924,-6.356017,-2.372034,0.000000,0.000000,-1.000000
-8.335281,-12.284916,2.372034,-0.000000,0.000000,1.000000
9.396767,12.744793,-2.323419,0.595699,0.803208,0.000000
-5.069253,8.878756,-2.372034,-0.000000,0.000000,-1.000000
9.012854,-11.531830,2.372034,0.000000,-0.000000,1.000000
0.125522,15.123148,-2.372034,-0.000000,0.000000,-1.000000
15.844803,-0.176170,2.367546,0.998795,-0.049068,0.000000
10.838546,7.432371,-2.372034,0.000000,0.000000,-1.000000
3.943565,9.143636,2.372034,0.000000,-0.000000,1.000000
-3.386014,12.634221,-2.372034,-0.000000,-0.000000,-1.000000
7.159717,-14.129800,2.196886,0.427555,-0.903989,0.000000
-6.617165,-14.386408,-0.707532,-0.427555,-0.903989,0.000000
-2.053775,-13.054261,2.372034,-0.000000,-0.000000,1.000000
-15.105853,2.408061,2.372034,-0.000000,0.000000,1.000000
-12.398080,4.830863,-2.372034,-0.000000,0.000000,-1.000000
-4.085809,-8.021517,-0.130986,0.427555,0.903989,0.000000
-9.879970,6.083080,2.372034,0.000000,0.000000,1.000000
-10.249376,-12.080826,-0.043541,-0.671559,-0.740951,0.000000
9.694929,3.047257,2.372034,0.000000,0.000000,1.000000
-13.010972,5.771717,2.372034,0.000000,0.000000,1.000000
8.981086,0.570768,1.453189,-0.998795,-0.049068,0.000000
6.387054,10.518759,-2.372034,-0.000000,0.000000,-1.000000
4.671985,7.690537,-0.657218,-0.514103,-0.857729,-0.000000
-15.794506,-1.199978,2.139092,-0.998795,-0.049068,0.000000
13.926617,-7.564837,1.812977,0.857729,-0.514103,0.000000
-10.464186,-2.642489,2.372034,-0.000000,0.000000,1.000000
1.834691,-14.249844,-2.372034,0.000000,0.000000,-1.000000
12.959567,1.131458,-2.372034,0.000000,0.000000,-1.000000
12.745368,-1.789394,-2.372034,0.000000,0.000000,-1.000000
0.821851,15.813083,0.072243,0.049068,0.998795,0.000000
-4.940336,9.567617,2.372034,0.000000,0.000000,1.000000
-8.591968,2.696898,-0.215811,0.941544,-0.336890,0.000000
-2.648207,15.129500,-2.372034,-0.000000,0.000000,-1.000000
6.641440,-14.374927,-0.806561,0.427555,-0.903989,0.000000
-11.530800,10.856236,1.428496,-0.740951,0.671559,0.000000
-13.682077,-2.674225,-2.372034,0.000000,-0.000000,-1.000000
12.119756,-0.766487,2.372034,0.000000,-0.000000,1.000000
7.678559,-10.713102,-2.372034,0.000000,0.000000,-1.000000
-12.750321,7.748304,-2.372034,-0.000000,-0.000000,-1.000000
8.826622,-1.795104,-0.433034,-0.970031,0.242980,0.000000
-11.967954,-8.046277,-2.372034,0.000000,-0.000000,-1.000000
-1.671125,-10.398812,-2.372034,0.000000,-0.000000,-1.000000
7.961776,-6.700766,2.372034,-0.000000,-0.000000,1.000000
-14.636106,6.089222,-0.836866,-0.903989,0.427555,0.000000
-6.332127,-6.405116,0.217301,0.671559,0.740951,0.000000
-8.340952,-11.991353,2.372034,-0.000000,0.000000,1.000000
-0.357674,8.991554,-1.156611,0.049068,-0.998795,0.000000
5.802680,14.741208,0.318416,0.336890,0.941544,0.000000
5.662872,-14.775285,2.372034,0.000000,-0.000000,1.000000
-12.586118,4.212004,-2.372034,-0.000000,-0.000000,-1.000000
5.739597,6.942154,0.980650,-0.671559,-0.740951,-0.000000
-9.559034,-1.097909,2.372034,-0.000000,0.000000,1.000000
-8.212711,-3.681564,-0.160750,0.903989,0.427555,0.000000
0.840268,-13.012597,2.372034,0.000000,-0.000000,1.000000
-10.272168,-0.764801,-2.372034,0.000000,-0.000000,-1.000000
14.274341,5.839606,2.372034,0.000000,0.000000,1.000000
-11.812417,-7.673570,-2.372034,0.000000,-0.000000,-1.000000
3.857259,-12.233100,-2.372034,0.000000,0.000000,-1.000000
4.402723,-13.633247,2.372034,0.000000,-0.000000,1.000000
12.872782,9.224194,-2.342558,0.803208,0.595699,0.000000
-8.919557,-1.194419,-0.766064,0.989177,0.146730,0.000000
-12.596762,-2.040535,-2.372034,0.000000,-0.000000,-1.000000
15.245611,-1.210739,-2.372034,0.000000,0.000000,-1.000000
-4.798016,13.223706,2.372034,0.000000,0.000000,1.000000
8.184393,3.741436,-0.943534,-0.903989,-0.427555,-0.000000
-1.138807,15.797512,2.358403,-0.049068,0.998795,0.000000
2.237379,-8.715838,0.146905,-0.242980,0.970031,0.000000
0.510062,-13.433093,2.372034,0.000000,-0.000000,1.000000
-7.628930,13.888201,2.098749,-0.514103,0.857729,0.000000
0.796169,-13.714472,2.372034,0.000000,-0.000000,1.000000
8.837277,-1.749108,2.089187,-0.989177,0.146730,0.000000
-1.871258,-8.807547,-0.365483,0.242980,0.970031,0.000000
0.796070,-15.814349,1.068319,0.049068,-0.998795,0.000000
10.195654,-7.229878,2.372034,-0.000000,-0.000000,1.000000
4.545210,7.842143,2.372034,0.000000,-0.000000,1.000000
14.764734,-5.736932,-1.526664,0.941544,-0.336890,0.000000
14.305179,-6.629728,-2.372034,0.000000,0.000000,-1.000000
-13.454246,7.615122,-2.372034,-0.000000,-0.000000,-1.000000
-3.745150,-14.666370,2.372034,-0.000000,0.000000,1.000000
-8.478156,-11.043827,-2.372034,0.000000,-0.000000,-1.000000
-12.647805,9.527541,-0.124969,-0.803208,0.595699,0.000000
10.501587,2.734082,-2.372034,0.000000,0.000000,-1.000000
-8.637505,-2.550103,1.504162,0.970031,0.242980,0.000000
11.199048,-7.370373,2.372034,0.000000,-0.000000,1.000000
-7.263536,-12.602106,2.372034,-0.000000,0.000000,1.000000
5.141732,-14.977699,-0.863343,0.336890,-0.941544,0.000000
-10.216444,-0.292924,2.372034,-0.000000,0.000000,1.000000
11.944271,10.400041,0.085987,0.740951,0.671559,0.000000
-1.578031,-8.862654,-1.221265,0.146730,0.989177,0.000000
15.695818,2.101996,-1.741665,0.989177,0.146730,0.000000
-2.825737,-13.081969,-2.372034,0.000000,-0.000000,-1.000000
2.294150,8.701618,-1.404323,-0.242980,-0.970031,-0.000000
3.615005,-15.418046,-2.218543,0.242980,-0.970031,0.000000
-4.772603,-11.166467,2.372034,-0.000000,0.000000,1.000000
12.742176,-7.522819,2.372034,0.000000,-0.000000,1.000000
-14.774303,5.710188,1.653355,-0.941544,0.336890,0.000000
-13.646760,-8.031751,2.327248,-0.857729,-0.514103,0.000000
13.756522,6.806139,-2.372034,-0.000000,0.000000,-1.000000
-11.183266,9.079768,-2.372034,-0.000000,0.000000,-1.000000
6.386980,14.037360,-2.372034,-0.000000,0.000000,-1.000000
10.107412,-12.209494,-1.885658,0.671559,-0.740951,0.000000
3.380619,15.476757,2.026107,0.242980,0.970031,-0.000000
1.621183,8.856253,-1.722111,-0.146730,-0.989177,-0.000000
2.527521,13.201286,2.372034,0.000000,0.000000,1.000000
-5.651847,7.011230,0.837924,0.595699,-0.803208,0.000000
15.714099,-1.978757,0.985177,0.989177,-0.146730,0.000000
3.295306,-11.980225,-2.372034,0.000000,0.000000,-1.000000
4.853272,14.204584,-2.372034,-0.000000,0.000000,-1.000000
-1.253547,-13.416061,2.372034,-0.000000,-0.000000,1.000000
-2.766396,9.886088,-2.372034,-0.000000,-0.000000,-1.000000
7.307708,10.844987,-2.372034,-0.000000,0.000000,-1.000000
9.009374,-0.248910,-2.372034,0.000000,0.000000,-1.000000
15.084860,-4.842239,1.336597,0.941544,-0.336890,0.000000
9.291974,12.822513,0.997842,0.595699,0.803208,-0.000000
4.172634,-7.980452,1.377423,-0.427555,0.903989,0.000000
-12.788907,-9.337286,1.164602,-0.803208,-0.595699,0.000000
-13.411545,-7.940058,2.372034,-0.000000,0.000000,1.000000
-6.614233,9.569641,-2.372034,-0.000000,0.000000,-1.000000
-5.808633,14.226100,2.372034,0.000000,0.000000,1.000000
10.145483,5.212231,2.372034,0.000000,-0.000000,1.000000
5.590535,14.354644,-2.372034,-0.000000,0.000000,-1.000000
-3.145045,-9.909009,-2.372034,0.000000,-0.000000,-1.000000
3.344692,-15.228195,2.372034,0.000000,-0.000000,1.000000
5.537589,-14.836059,-0.733021,0.336890,-0.941544,0.000000
14.087992,7.248113,-0.936568,0.903989,0.427555,-0.000000
-8.772394,-4.317570,-2.372034,0.000000,-0.000000,-1.000000
7.333549,14.047584,-1.189483,0.427555,0.903989,0.000000
1.796993,8.826149,-0.543338,-0.242980,-0.970031,-0.000000
-5.100478,7.420153,1.446177,0.595699,-0.803208,0.000000
-11.754158,10.471059,2.372034,0.000000,0.000000,1.000000
-1.497106,-9.397804,-2.372034,0.000000,-0.000000,-1.000000
-2.527051,-12.352842,2.372034,-0.000000,0.000000,1.000000
-9.152765,-0.865713,-2.372034,0.000000,-0.000000,-1.000000
-8.601281,-8.121728,2.372034,-0.000000,0.000000,1.000000
-3.447292,-10.128170,-2.372034,0.000000,-0.000000,-1.000000
9.183026,-12.506185,-2.372034,0.000000,0.000000,-1.000000
-7.857742,5.240434,2.372034,0.000000,0.000000,1.000000
1.448730,-15.782286,-0.135211,0.049068,-0.998795,0.000000
-12.747746,9.392786,2.276128,-0.803208,0.595699,0.000000
0.831120,-8.968296,1.108828,-0.049068,0.998795,0.000000
-0.809372,-13.900087,2.372034,-0.000000,-0.000000,1.000000
-6.072519,-14.274179,2.372034,-0.000000,0.000000,1.000000
4.551210,-14.208640,-2.372034,0.000000,0.000000,-1.000000
-3.004630,-8.481860,1.293114,0.336890,0.941544,0.000000
10.468586,-9.346209,-2.372034,0.000000,0.000000,-1.000000
1.129457,8.929193,-0.052507,-0.146730,-0.989177,-0.000000
2.893314,8.521689,0.794961,-0.336890,-0.941544,0.000000
-13.199453,-8.778037,-1.002808,-0.857729,-0.514103,0.000000
15.704623,2.042638,-1.129239,0.989177,0.146730,0.000000
7.423408,-13.148417,2.372034,0.000000,-0.000000,1.000000
-15.403505,-0.628524,-2.372034,0.000000,-0.000000,-1.000000
12.726236,3.990409,-2.372034,0.000000,0.000000,-1.000000
15.238967,4.329931,-0.482153,0.970031,0.242980,-0.000000
8.982134,0.549439,-2.291869,-0.998795,-0.049068,-0.000000
12.837361,7.570638,2.372034,0.000000,0.000000,1.000000
-12.696633,-8.724983,-2.372034,0.000000,-0.000000,-1.000000
2.825300,-11.649686,2.372034,0.000000,-0.000000,1.000000
10.936105,-7.519164,-2.372034,0.000000,0.000000,-1.000000
-9.041138,6.918660,-2.372034,-0.000000,0.000000,-1.000000
-8.548882,13.336804,-0.423960,-0.514103,0.857729,0.000000
8.468496,3.041980,1.060821,-0.941544,-0.336890,0.000000
0.404487,-10.581781,2.372034,-0.000000,-0.000000,1.000000
-6.255975,-12.631629,2.372034,-0.000000,0.000000,1.000000
-10.470193,3.423071,2.372034,0.000000,0.000000,1.000000
6.923313,8.349544,2.372034,0.000000,-0.000000,1.000000
5.405561,7.193888,1.674668,-0.595699,-0.803208,0.000000
13.252784,3.025357,-2.372034,-0.000000,0.000000,-1.000000
-15.635345,-2.509673,-1.796182,-0.989177,-0.146730,0.000000
-1.068635,-15.800959,0.768004,-0.049068,-0.998795,0.000000
-13.393835,6.969074,-2.372034,-0.000000,-0.000000,-1.000000
-13.761168,7.840873,1.719939,-0.857729,0.514103,0.000000
-15.109155,4.774339,-1.738325,-0.941544,0.336890,0.000000
-8.217149,3.672180,0.802441,0.903989,-0.427555,0.000000
-8.213868,3.679116,-0.480579,0.903989,-0.427555,0.000000
-10.066381,-8.360053,-2.372034,0.000000,-0.000000,-1.000000
11.944483,-6.385188,2.372034,-0.000000,-0.000000,1.000000
-5.043098,11.953475,2.372034,0.000000,0.000000,1.000000
-6.169950,6.552104,1.253366,0.671559,-0.740951,0.000000
8.420749,11.147586,2.372034,0.000000,0.000000,1.000000
3.108064,-13.740381,-2.372034,0.000000,0.000000,-1.000000
-11.232501,9.388080,2.372034,0.000000,0.000000,1.000000
-2.819469,8.548111,1.797777,0.336890,-0.941544,0.000000
9.899539,12.371912,1.358459,0.595699,0.803208,0.000000
-10.989487,-2.466245,2.372034,-0.000000,0.000000,1.000000
-10.533593,10.832072,-2.372034,-0.000000,-0.000000,-1.000000
-10.973286,-11.127813,-2.372034,0.000000,-0.000000,-1.000000
-15.500570,3.285552,0.958114,-0.970031,0.242980,0.000000
3.725028,8.663948,-2.372034,0.000000,0.000000,-1.000000
1.907199,13.438864,-2.372034,-0.000000,0.000000,-1.000000
2.085679,-15.698239,1.956078,0.146730,-0.989177,0.000000
-10.947571,0.459424,-2.372034,-0.000000,0.000000,-1.000000
-3.679456,-15.228742,-2.372034,0.000000,-0.000000,-1.000000
7.625836,-10.383016,2.372034,0.000000,-0.000000,1.000000
-9.885050,12.382658,0.349857,-0.595699,0.803208,0.000000
2.015582,-8.771395,-0.424584,-0.242980,0.970031,0.000000
-11.980618,10.359938,0.258723,-0.740951,0.671559,0.000000
-11.920040,-3.837059,2.372034,-0.000000,0.000000,1.000000
14.693752,5.935313,-1.846418,0.941544,0.336890,-0.000000
-13.750514,-7.858648,-2.308760,-0.857729,-0.514103,0.000000
6.196580,12.576825,2.372034,0.000000,0.000000,1.000000
-9.612157,-7.130913,-2.372034,0.000000,-0.000000,-1.000000
12.494693,1.628558,-2.372034,0.000000,0.000000,-1.000000
15.467582,-3.417246,-1.603431,0.970031,-0.242980,0.000000
-0.348365,15.836344,1.430378,-0.049068,0.998795,0.000000
-12.600645,9.591129,0.177970,-0.803208,0.595699,0.000000
9.005927,0.065113,0.142435,-0.998795,-0.049068,0.000000
3.895976,15.347667,1.561344,0.242980,0.970031,-0.000000
13.826551,-7.731787,-0.215606,0.857729,-0.514103,0.000000
-8.704992,-2.280678,0.304620,0.970031,0.242980,0.000000
2.041549,-12.128961,-2.372034,0.000000,0.000000,-1.000000
8.989546,-9.608730,2.372034,0.000000,-0.000000,1.000000
15.718402,-1.949750,0.421670,0.989177,-0.146730,0.000000
-11.645720,-0.829101,2.372034,-0.000000,0.000000,1.000000
-2.485465,13.607799,-2.372034,-0.000000,0.000000,-1.000000
8.813001,-1.849481,-2.235338,-0.970031,0.242980,0.000000
-8.796816,2.619016,2.372034,0.000000,0.000000,1.000000
15.741390,-0.551921,2.372034,0.000000,-0.000000,1.000000
2.211456,-14.389163,2.372034,0.000000,-0.000000,1.000000
5.324666,8.691342,2.372034,0.000000,-0.000000,1.000000
-0.365315,15.835511,-2.233734,-0.049068,0.998795,0.000000
-15.011873,-5.046223,-2.167525,-0.941544,-0.336890,0.000000
-1.745490,-15.748701,-0.928603,-0.146730,-0.989177,0.000000
-12.391468,4.817909,-2.372034,-0.000000,0.000000,-1.000000
-2.727186,15.603080,1.007986,-0.146730,0.989177,0.000000
-5.371184,-14.895600,1.365557,-0.336890,-0.941544,0.000000
2.308316,10.317339,-2.372034,-0.000000,0.000000,-1.000000
-9.356374,-1.021581,2.372034,-0.000000,0.000000,1.000000
0.164642,-11.031284,2.372034,0.000000,-0.000000,1.000000
-10.807118,5.460085,2.372034,0.000000,0.000000,1.000000
-3.211019,10.737330,2.372034,0.000000,0.000000,1.000000
6.869927,14.266860,-2.314316,0.427555,0.903989,0.000000
-13.184471,-6.901418,-2.372034,0.000000,-0.000000,-1.000000
8.596559,13.308227,-1.840832,0.514103,0.857729,0.000000
-10.908051,-10.530276,-2.372034,0.000000,-0.000000,-1.000000
5.237677,-10.833619,-2.372034,0.000000,0.000000,-1.000000
-7.955794,6.028266,2.372034,0.000000,0.000000,1.000000
7.429476,-5.087907,1.661426,-0.803208,0.595699,0.000000
-14.083552,-7.257499,-1.166205,-0.903989,-0.427555,0.000000
10.913001,-11.479351,-0.548655,0.671559,-0.740951,0.000000
-12.037527,0.440562,2.372034,0.000000,0.000000,1.000000
0.325660,8.993127,-2.099617,-0.049068,-0.998795,-0.000000
-11.356231,0.193371,-2.372034,-0.000000,-0.000000,-1.000000
7.105040,-11.633226,2.372034,0.000000,-0.000000,1.000000
-12.676529,-2.407151,-2.372034,0.000000,-0.000000,-1.000000
1.800217,13.628583,-2.372034,-0.000000,0.000000,-1.000000
-8.324006,-5.229615,2.372034,-0.000000,0.000000,1.000000
-10.379298,11.963071,1.732732,-0.671559,0.740951,0.000000
-6.670019,6.039850,1.192348,0.740951,-0.671559,0.000000
15.287837,4.134831,-1.994687,0.970031,0.242980,0.000000
8.994867,0.290246,-2.273388,-0.998795,-0.049068,-0.000000
11.550502,10.834498,0.069955,0.740951,0.671559,-0.000000
3.568673,12.104815,2.372034,0.000000,0.000000,1.000000
2.915485,-13.285680,2.372034,0.000000,-0.000000,1.000000
8.410101,-3.205182,-2.207765,-0.941544,0.336890,0.000000
6.949925,13.701646,-2.372034,-0.000000,0.000000,-1.000000
6.962044,10.144396,2.372034,0.000000,-0.000000,1.000000
10.598940,11.763999,1.916218,0.671559,0.740951,-0.000000
10.180870,-6.148875,2.372034,0.000000,-0.000000,1.000000
-8.516071,-7.796804,-2.372034,0.000000,-0.000000,-1.000000
-10.281260,-7.149789,2.372034,-0.000000,0.000000,1.000000
8.646169,-9.060392,2.372034,-0.000000,-0.000000,1.000000
9.424089,-1.231799,2.372034,0.000000,-0.000000,1.000000
2.327487,-14.278817,-2.372034,0.000000,0.000000,-1.000000
-7.988807,10.058407,-2.372034,-0.000000,-0.000000,-1.000000
6.012353,6.694942,1.608823,-0.671559,-0.740951,0.000000
-6.780168,12.748392,2.372034,0.000000,0.000000,1.000000
-13.832434,-7.721972,1.379418,-0.857729,-0.514103,0.000000
-2.782181,14.203059,2.372034,0.000000,0.000000,1.000000
0.383636,9.755173,2.372034,0.000000,0.000000,1.000000
15.665589,2.305785,-0.988258,0.989177,0.146730,0.000000
2.740412,8.576398,0.871220,-0.336890,-0.941544,-0.000000
1.412108,-8.887266,-1.467506,-0.146730,0.989177,0.000000
8.670257,-2.419347,1.885848,-0.970031,0.242980,0.000000
-12.303242,-9.352386,2.372034,-0.000000,0.000000,1.000000
-7.095085,-5.760861,2.372034,-0.000000,0.000000,1.000000
3.253633,13.753562,-2.372034,-0.000000,0.000000,-1.000000
-9.630052,-4.284536,2.372034,-0.000000,0.000000,1.000000
-12.375610,9.894554,1.661125,-0.803208,0.595699,0.000000
-8.997899,-1.240474,2.372034,-0.000000,0.000000,1.000000
6.987040,-7.509353,2.372034,-0.000000,-0.000000,1.000000
2.681202,8.597584,-2.213496,-0.336890,-0.941544,-0.000000
14.519864,1.586989,-2.372034,0.000000,0.000000,-1.000000
-7.606583,4.812054,-0.247389,0.857729,-0.514103,0.000000
-15.365616,-3.824319,-1.412360,-0.970031,-0.242980,0.000000
-0.454684,-15.831120,-1.848340,-0.049068,-0.998795,0.000000
12.818584,5.640727,-2.372034,-0.000000,0.000000,-1.000000
-13.696879,7.948131,0.231109,-0.857729,0.514103,0.000000
-12.156582,-0.382998,-2.372034,-0.000000,-0.000000,-1.000000
-1.379949,-15.785665,-0.783507,-0.049068,-0.998795,0.000000
-2.924286,14.740263,2.372034,0.000000,0.000000,1.000000
7.008879,10.788362,2.372034,0.000000,0.000000,1.000000
11.773140,10.588855,-1.619133,0.740951,0.671559,0.000000
6.979070,-13.502950,-2.372034,0.000000,0.000000,-1.000000
-8.287722,13.493337,-1.372682,-0.514103,0.857729,0.000000
-11.278412,-4.767591,-2.372034,0.000000,-0.000000,-1.000000
-15.815208,0.778585,-0.616195,-0.998795,0.049068,0.000000
-6.764790,-9.795216,-2.372034,0.000000,-0.000000,-1.000000
-8.727820,2.189545,0.252668,0.970031,-0.242980,0.000000
-15.519684,-3.209244,-0.257997,-0.970031,-0.242980,0.000000
15.799213,-1.104180,0.199755,0.998795,-0.049068,0.000000
5.114515,9.700271,2.372034,0.000000,0.000000,1.000000
11.606018,10.773246,-1.890633,0.740951,0.671559,0.000000
13.341932,-3.074191,-2.372034,0.000000,0.000000,-1.000000
14.000206,-2.040969,-2.372034,0.000000,0.000000,-1.000000
14.032972,-6.116077,2.372034,0.000000,-0.000000,1.000000
-12.556299,3.933308,-2.372034,-0.000000,-0.000000,-1.000000
-9.931109,6.963852,2.372034,0.000000,0.000000,1.000000
12.372862,4.706903,2.372034,0.000000,0.000000,1.000000
-15.393416,-3.713336,-0.660141,-0.970031,-0.242980,0.000000
13.908804,-4.010006,-2.372034,0.000000,0.000000,-1.000000
-3.511797,8.517659,-2.372034,-0.000000,-0.000000,-1.000000
15.051629,-4.935113,-0.814129,0.941544,-0.336890,0.000000
-13.881169,-3.109107,-2.372034,0.000000,-0.000000,-1.000000
3.568805,11.370317,-2.372034,-0.000000,0.000000,-1.000000
1.597701,11.841792,2.372034,0.000000,0.000000,1.000000
-12.124280,10.201431,-1.640540,-0.740951,0.671559,0.000000
-2.372945,-13.317660,-2.372034,0.000000,-0.000000,-1.000000
2.529037,15.632473,-1.986384,0.146730,0.989177,0.000000
-0.446354,-8.987198,2.039105,0.049068,0.998795,0.000000
8.198847,11.705476,-2.372034,-0.000000,0.000000,-1.000000
9.000915,-0.167128,2.344712,-0.998795,0.049068,0.000000
10.701599,-11.504435,2.372034,0.000000,-0.000000,1.000000
0.369887,-14.718353,-2.372034,0.000000,0.000000,-1.000000
-9.006994,-0.043399,-0.831946,0.998795,0.049068,0.000000
15.654986,-2.377266,0.405945,0.989177,-0.146730,0.000000
-14.710840,-0.793617,2.372034,-0.000000,0.000000,1.000000
-8.733659,-13.226052,0.687689,-0.514103,-0.857729,0.000000
-11.849579,-5.471604,-2.372034,0.000000,-0.000000,-1.000000
-13.648999,-8.028015,1.326375,-0.857729,-0.514103,0.000000
-9.540228,11.038535,-2.372034,-0.000000,-0.000000,-1.000000
8.973049,6.302883,-2.372034,0.000000,0.000000,-1.000000
3.909428,15.344297,-1.662605,0.242980,0.970031,0.000000
-14.967746,-5.169551,-0.898644,-0.941544,-0.336890,0.000000
8.900385,1.323664,-1.236687,-0.989177,-0.146730,-0.000000
-9.542149,-6.903696,2.372034,-0.000000,0.000000,1.000000
-6.106329,6.609767,-0.849709,0.671559,-0.740951,0.000000
-9.663241,2.813089,2.372034,0.000000,0.000000,1.000000
-13.467434,6.980775,2.372034,0.000000,0.000000,1.000000
5.091366,-7.426911,-1.813652,-0.595699,0.803208,0.000000
-14.074881,4.575428,-2.372034,-0.000000,-0.000000,-1.000000
2.219922,10.838862,2.372034,0.000000,-0.000000,1.000000
-7.265815,11.651264,-2.372034,-0.000000,-0.000000,-1.000000
-1.923447,9.093123,-2.372034,-0.000000,0.000000,-1.000000
4.592512,-7.738171,0.188083,-0.514103,0.857729,0.000000
-7.864299,-13.747126,-2.030951,-0.514103,-0.857729,0.000000
-0.351418,14.887201,-2.372034,-0.000000,0.000000,-1.000000
1.793710,-15.741548,0.361839,0.146730,-0.989177,0.000000
6.670903,9.057989,-2.372034,0.000000,0.000000,-1.000000
-15.805504,0.976118,1.682949,-0.998795,0.049068,0.000000
13.071770,-7.459804,-2.372034,0.000000,0.000000,-1.000000
-15.822696,-0.626163,1.322016,-0.998795,-0.049068,0.000000
1.904171,9.808116,-2.372034,0.000000,0.000000,-1.000000
-13.061172,8.970180,-0.276619,-0.803208,0.595699,0.000000
10.994871,7.408595,-2.372034,0.000000,0.000000,-1.000000
-15.839963,-0.274680,-0.788489,-0.998795,-0.049068,0.000000
0.390058,8.989964,-0.067562,-0.049068,-0.998795,-0.000000
11.192034,-3.484267,-2.372034,0.000000,0.000000,-1.000000
-5.334274,-14.908807,1.754157,-0.336890,-0.941544,0.000000
11.874017,-6.317000,2.372034,0.000000,-0.000000,1.000000
12.062254,-5.482213,2.372034,0.000000,-0.000000,1.000000
6.578239,-7.964331,2.372034,0.000000,-0.000000,1.000000
-10.825308,11.332787,-2.372034,-0.000000,-0.000000,-1.000000
9.755097,-1.843343,-2.372034,0.000000,0.000000,-1.000000
-6.722094,-10.230063,2.372034,-0.000000,0.000000,1.000000
-12.733886,2.832917,2.372034,0.000000,0.000000,1.000000
3.776655,15.333169,2.372034,0.000000,0.000000,1.000000
-15.512473,1.590303,-2.372034,-0.000000,-0.000000,-1.000000
5.222138,-14.747976,-2.372034,0.000000,0.000000,-1.000000
-3.232731,-15.513801,1.405799,-0.242980,-0.970031,0.000000
14.691432,5.941795,-0.454262,0.941544,0.336890,-0.000000
-9.382086,4.024020,-2.372034,-0.000000,-0.000000,-1.000000
4.976770,-13.576997,2.372034,0.000000,-0.000000,1.000000
-6.473921,-6.256212,-1.748583,0.740951,0.671559,0.000000
4.546905,-11.852341,-2.372034,0.000000,0.000000,-1.000000
-6.469465,-6.261128,-1.463182,0.740951,0.671559,0.000000
-5.952929,8.681055,2.372034,0.000000,0.000000,1.000000
12.312614,-7.329222,-2.372034,0.000000,0.000000,-1.000000
-15.510254,-3.246891,-0.124355,-0.970031,-0.242980,0.000000
-13.016439,9.030495,-2.251698,-0.803208,0.595699,0.000000
14.609155,-6.146206,0.423465,0.903989,-0.427555,0.000000
-13.348814,-1.966832,-2.372034,0.000000,-0.000000,-1.000000
10.688914,-11.682452,-0.477529,0.671559,-0.740951,0.000000
-2.481590,8.654666,-2.100425,0.242980,-0.970031,0.000000
4.533154,15.188062,-0.338713,0.242980,0.970031,0.000000
6.269596,6.461790,1.370682,-0.671559,-0.740951,0.000000
-3.495763,-8.707597,2.372034,-0.000000,0.000000,1.000000
-5.542898,8.885526,2.372034,0.000000,0.000000,1.000000
-11.930339,-9.668888,2.372034,-0.000000,0.000000,1.000000
-4.622594,-9.188450,-2.372034,0.000000,-0.000000,-1.000000
1.564718,8.864628,-1.404095,-0.146730,-0.989177,-0.000000
6.917119,10.665396,-2.372034,0.000000,0.000000,-1.000000
2.879866,13.927780,2.372034,0.000000,-0.000000,1.000000
-11.241147,-11.175818,-1.253788,-0.740951,-0.671559,0.000000
-9.192064,-12.896611,1.098004,-0.595699,-0.803208,0.000000
-11.673867,-0.892495,2.372034,-0.000000,0.000000,1.000000
2.203316,-8.724370,-0.835026,-0.242980,0.970031,0.000000
8.755662,2.078394,0.885767,-0.970031,-0.242980,0.000000
-6.779403,14.309675,2.071132,-0.427555,0.903989,0.000000
-5.291366,14.924159,-0.654205,-0.336890,0.941544,0.000000
13.480308,-2.815705,-2.372034,0.000000,0.000000,-1.000000
-15.646645,2.433495,0.009311,-0.989177,0.146730,0.000000
8.990602,0.377058,-0.401041,-0.998795,-0.049068,-0.000000
15.031924,1.132507,2.372034,0.000000,0.000000,1.000000
-6.507672,14.438194,-0.395398,-0.427555,0.903989,0.000000
-13.512753,8.255328,-0.428009,-0.857729,0.514103,0.000000
5.131759,14.981268,0.074604,0.336890,0.941544,-0.000000
14.413268,-6.560375,1.999565,0.903989,-0.427555,0.000000
-10.593596,-1.246307,2.372034,-0.000000,0.000000,1.000000
3.996787,-15.322415,1.063588,0.242980,-0.970031,0.000000
8.455371,3.078660,-0.452848,-0.941544,-0.336890,-0.000000
5.602069,8.498912,-2.372034,0.000000,0.000000,-1.000000
-5.104426,9.601695,2.372034,0.000000,0.000000,1.000000
-9.273382,11.730900,2.372034,0.000000,0.000000,1.000000
5.105274,14.990744,-0.917746,0.336890,0.941544,0.000000
10.404008,-10.789409,-2.372034,0.000000,0.000000,-1.000000
13.281161,6.060891,2.372034,0.000000,0.000000,1.000000
-10.231195,-4.900607,2.372034,-0.000000,0.000000,1.000000
-9.490306,-12.675420,1.072452,-0.595699,-0.803208,0.000000
11.529984,8.240385,-2.372034,-0.000000,0.000000,-1.000000
-1.427843,9.630982,-2.372034,-0.000000,0.000000,-1.000000
-11.216312,11.203220,-1.649144,-0.740951,0.671559,0.000000
-13.021523,7.021454,2.372034,0.000000,0.000000,1.000000
-11.875339,7.886867,-2.372034,-0.000000,0.000000,-1.000000
-15.576644,0.207410,2.372034,-0.000000,0.000000,1.000000
-15.385100,3.746533,-2.222940,-0.970031,0.242980,0.000000
-2.431690,-13.550185,-2.372034,0.000000,-0.000000,-1.000000
-5.223149,7.329174,1.898901,0.595699,-0.803208,0.000000
-10.542997,-6.639875,2.372034,-0.000000,0.000000,1.000000
-13.604206,-1.921787,2.372034,-0.000000,0.000000,1.000000
8.230191,13.084743,-2.372034,-0.000000,0.000000,-1.000000
-7.812658,8.441778,-2.372034,-0.000000,-0.000000,-1.000000
13.170593,-4.736295,-2.372034,0.000000,0.000000,-1.000000
-14.262854,6.878399,0.822466,-0.903989,0.427555,0.000000
5.901164,-12.564775,2.372034,0.000000,-0.000000,1.000000
11.642088,-10.086312,-2.372034,0.000000,0.000000,-1.000000
12.418440,9.836803,0.482475,0.803208,0.595699,-0.000000
-11.374082,8.108903,2.372034,0.000000,0.000000,1.000000
-14.460681,-6.460127,-1.745960,-0.903989,-0.427555,0.000000
-5.711069,-10.165118,2.372034,-0.000000,0.000000,1.000000
0.308056,9.234759,2.372034,0.000000,0.000000,1.000000
-12.846698,-5.140327,2.372034,-0.000000,0.000000,1.000000
13.421883,-8.406935,-1.313733,0.857729,-0.514103,0.000000
8.994143,9.498608,2.372034,0.000000,0.000000,1.000000
-0.875698,-8.966106,0.999389,0.049068,0.998795,0.000000
12.252499,-3.860138,-2.372034,0.000000,0.000000,-1.000000
-3.197420,-8.412878,0.948154,0.336890,0.941544,0.000000
4.014911,8.055049,2.202969,-0.427555,-0.903989,0.000000
-13.796256,-7.782332,-0.458226,-0.857729,-0.514103,0.000000
9.041724,-9.548176,2.372034,0.000000,-0.000000,1.000000
0.414218,8.988777,-2.004568,-0.049068,-0.998795,-0.000000
5.444413,-7.165074,-2.324079,-0.595699,0.803208,0.000000
5.969337,6.733929,-1.193302,-0.671559,-0.740951,-0.000000
7.062365,-5.582900,-1.816162,-0.803208,0.595699,0.000000
-12.568707,9.634192,-1.945897,-0.803208,0.595699,0.000000
-8.388311,-3.266082,-1.638439,0.941544,0.336890,0.000000
-12.643049,-1.822476,-2.372034,0.000000,-0.000000,-1.000000
5.659055,-11.765480,-2.372034,0.000000,0.000000,-1.000000
10.482607,11.869437,1.153755,0.671559,0.740951,-0.000000
14.294508,6.811472,-1.328738,0.903989,0.427555,0.000000
4.303228,-11.708015,-2.372034,0.000000,0.000000,-1.000000
-9.163249,9.187482,-2.372034,-0.000000,-0.000000,-1.000000
-8.440630,-3.582663,2.372034,-0.000000,0.000000,1.000000
0.336730,14.337606,2.372034,0.000000,0.000000,1.000000
13.997177,-7.440125,-0.812125,0.903989,-0.427555,0.000000
1.096594,-15.799585,-1.173026,0.049068,-0.998795,0.000000
-8.939337,-12.948514,2.372034,-0.000000,0.000000,1.000000
0.619868,-15.823005,-1.692348,0.049068,-0.998795,0.000000
13.845093,5.910300,-2.372034,-0.000000,0.000000,-1.000000
3.392277,-15.473837,-0.739910,0.242980,-0.970031,0.000000
0.322919,-9.540372,-2.372034,0.000000,-0.000000,-1.000000
9.694093,-3.056924,2.372034,-0.000000,-0.000000,1.000000
14.093549,-7.236362,1.113542,0.903989,-0.427555,0.000000
-7.137636,-5.481408,-1.075034,0.803208,0.595699,0.000000
-5.962885,-9.823041,-2.372034,0.000000,-0.000000,-1.000000
-15.652764,-2.392246,1.819289,-0.989177,-0.146730,0.000000
-10.285357,-4.598719,2.372034,-0.000000,0.000000,1.000000
-9.999257,-9.478482,2.372034,-0.000000,0.000000,1.000000
-8.166358,-5.714567,-2.372034,0.000000,-0.000000,-1.000000
-15.008213,-5.056451,1.310876,-0.941544,-0.336890,0.000000
8.224381,-4.135154,2.372034,-0.000000,-0.000000,1.000000
-1.845904,15.733806,0.657485,-0.146730,0.989177,0.000000
-3.503677,-15.445933,-0.803995,-0.242980,-0.970031,0.000000
-2.958725,-15.568734,2.227936,-0.146730,-0.989177,0.000000
12.616298,-4.482601,-2.372034,0.000000,0.000000,-1.000000
4.068286,15.304505,-0.726055,0.242980,0.970031,0.000000
-0.553925,15.486046,-2.372034,-0.000000,0.000000,-1.000000
11.618987,10.758937,-2.056642,0.740951,0.671559,0.000000
-10.682269,3.831845,2.372034,0.000000,0.000000,1.000000
-14.457969,6.465861,2.312989,-0.903989,0.427555,0.000000
-0.511856,-8.983980,-0.119871,0.049068,0.998795,0.000000
-13.406060,5.723538,-2.372034,-0.000000,-0.000000,-1.000000
13.366619,-8.499138,0.412179,0.857729,-0.514103,0.000000
7.368953,8.942111,2.372034,0.000000,-0.000000,1.000000
8.986336,-0.463894,-0.005340,-0.998795,0.049068,0.000000
-1.339751,11.198204,-2.372034,-0.000000,0.000000,-1.000000
-7.300745,5.261481,1.820138,0.803208,-0.595699,0.000000
-4.709370,13.453732,2.372034,0.000000,0.000000,1.000000
-1.228782,15.793091,-0.871131,-0.049068,0.998795,0.000000
-10.085635,-6.902218,2.372034,-0.000000,0.000000,1.000000
10.317489,-12.019092,-1.803558,0.671559,-0.740951,0.000000
-11.098582,-11.311150,-1.768948,-0.671559,-0.740951,0.000000
14.951086,-3.717289,-2.372034,0.000000,0.000000,-1.000000
10.351813,2.807300,2.372034,0.000000,-0.000000,1.000000
-10.064434,10.815426,-2.372034,-0.000000,-0.000000,-1.000000
3.919950,9.964689,-2.372034,0.000000,0.000000,-1.000000
-7.477859,13.978750,-1.731351,-0.514103,0.857729,0.000000
-4.708147,-7.668862,-0.324340,0.514103,0.857729,0.000000
9.006851,0.046313,-1.110101,-0.998795,-0.049068,0.000000
6.662592,6.048045,-0.019624,-0.740951,-0.671559,-0.000000
-7.213139,-9.884920,2.372034,-0.000000,0.000000,1.000000
-9.809845,9.169441,-2.372034,-0.000000,-0.000000,-1.000000
7.093574,5.757604,-2.372034,0.000000,0.000000,-1.000000
4.419865,12.641585,2.372034,0.000000,0.000000,1.000000
-10.599414,3.085531,2.372034,0.000000,0.000000,1.000000
9.918456,8.712227,2.372034,0.000000,0.000000,1.000000
9.379987,-12.153924,2.372034,0.000000,-0.000000,1.000000
-3.857708,15.357252,-0.024809,-0.242980,0.970031,0.000000
-11.576279,8.543133,-2.372034,-0.000000,-0.000000,-1.000000
4.400636,7.853177,1.416009,-0.514103,-0.857729,0.000000
-1.609344,-8.896855,-2.372034,0.000000,-0.000000,-1.000000
-3.246557,-13.980399,2.372034,-0.000000,0.000000,1.000000
-6.636644,6.076675,-1.530149,0.740951,-0.671559,0.000000
-4.883273,-14.387288,2.372034,-0.000000,0.000000,1.000000
-1.353128,-14.951395,2.372034,-0.000000,-0.000000,1.000000
12.360637,9.914742,-0.324240,0.803208,0.595699,-0.000000
-4.453460,7.821516,2.045519,0.514103,-0.857729,0.000000
-4.886237,-7.562119,-0.514100,0.514103,0.857729,0.000000
-12.945940,6.818952,2.372034,0.000000,0.000000,1.000000
8.665490,-2.438377,-0.768801,-0.970031,0.242980,0.000000
-14.183930,7.045269,1.896797,-0.903989,0.427555,0.000000
-15.428491,-0.605577,-2.372034,0.000000,-0.000000,-1.000000
-10.189991,12.134649,1.509873,-0.671559,0.740951,0.000000
-3.833982,-11.164007,-2.372034,0.000000,-0.000000,-1.000000
5.838271,11.293041,-2.372034,0.000000,0.000000,-1.000000
-6.520583,-6.204728,0.784806,0.740951,0.671559,0.000000
-0.675660,-15.820265,1.416780,-0.049068,-0.998795,0.000000
-2.826191,-15.588394,0.245026,-0.146730,-0.989177,0.000000
15.804041,-1.005907,2.093643,0.998795,-0.049068,0.000000
-1.847301,15.225181,2.372034,0.000000,0.000000,1.000000
9.145933,4.069532,-2.372034,0.000000,0.000000,-1.000000
-10.677189,-11.693078,1.463495,-0.671559,-0.740951,0.000000
1.590136,13.726447,2.372034,0.000000,0.000000,1.000000
-1.304377,9.600672,-2.372034,-0.000000,0.000000,-1.000000
-5.053762,-14.274966,2.372034,-0.000000,0.000000,1.000000
12.551089,9.515334,2.372034,0.000000,0.000000,1.000000
-14.027175,7.376699,0.898026,-0.903989,0.427555,0.000000
12.940226,6.656917,2.372034,0.000000,0.000000,1.000000
11.535772,10.051222,-2.372034,-0.000000,0.000000,-1.000000
14.535199,3.358405,2.372034,0.000000,0.000000,1.000000
-14.287481,6.056016,-2.372034,-0.000000,-0.000000,-1.000000
12.868978,-2.939187,-2.372034,0.000000,0.000000,-1.000000
9.838429,7.864945,-2.372034,-0.000000,0.000000,-1.000000
-8.578989,2.733172,-0.380314,0.941544,-0.336890,0.000000
8.549239,-13.336589,-0.277557,0.514103,-0.857729,0.000000
7.161972,-5.448595,-1.743871,-0.803208,0.595699,0.000000
-3.867107,-8.124955,-1.449152,0.427555,0.903989,0.000000
-9.494503,-12.672307,-0.122594,-0.595699,-0.803208,0.000000
4.986129,13.939035,-2.372034,-0.000000,0.000000,-1.000000
-10.523991,8.173772,-2.372034,-0.000000,-0.000000,-1.000000
-1.994724,13.294986,-2.372034,-0.000000,0.000000,-1.000000
-11.976584,6.147858,-2.372034,-0.000000,0.000000,-1.000000
-3.415907,-8.334702,-1.819692,0.336890,0.941544,0.000000
6.387515,6.351546,2.166073,-0.740951,-0.671559,-0.000000
2.905215,15.039781,-2.372034,-0.000000,0.000000,-1.000000
12.430590,6.953053,2.372034,0.000000,0.000000,1.000000
6.024831,-6.683632,-2.158041,-0.671559,0.740951,0.000000
10.024034,8.260276,-2.372034,0.000000,0.000000,-1.000000
-6.002020,-14.669884,0.178310,-0.336890,-0.941544,0.000000
-1.685024,-14.184157,-2.372034,0.000000,-0.000000,-1.000000
9.392202,-12.748179,1.516123,0.595699,-0.803208,0.000000
7.871637,4.369838,-2.232145,-0.857729,-0.514103,-0.000000
4.171460,-13.096250,2.372034,0.000000,-0.000000,1.000000
1.166304,-15.630944,2.372034,0.000000,-0.000000,1.000000
15.779167,1.512215,-1.005611,0.998795,0.049068,-0.000000
-12.758883,1.517035,-2.372034,-0.000000,-0.000000,-1.000000
12.661911,-9.508521,-2.167270,0.803208,-0.595699,0.000000
4.841211,-7.900918,2.372034,-0.000000,-0.000000,1.000000
6.067035,7.954647,2.372034,0.000000,-0.000000,1.000000
11.509722,10.879492,-1.131142,0.740951,0.671559,0.000000
0.397863,14.081645,-2.372034,-0.000000,0.000000,-1.000000
-2.283020,10.424581,-2.372034,-0.000000,0.000000,-1.000000
-3.414965,12.833790,-2.372034,-0.000000,-0.000000,-1.000000
-4.867106,14.061413,-2.372034,-0.000000,-0.000000,-1.000000
-5.459927,14.863847,-1.860779,-0.336890,0.941544,0.000000
4.699334,12.893153,2.372034,0.000000,0.000000,1.000000
-9.307185,6.561478,-2.372034,-0.000000,-0.000000,-1.000000
7.979655,-7.332119,-2.372034,0.000000,0.000000,-1.000000
-0.799196,9.962027,-2.372034,-0.000000,0.000000,-1.000000
-2.878224,8.527088,2.364892,0.336890,-0.941544,0.000000
0.254601,14.288430,2.372034,0.000000,0.000000,1.000000
-3.966164,15.207260,2.372034,0.000000,0.000000,1.000000
-10.256950,-12.073961,1.888331,-0.671559,-0.740951,0.000000
-6.064508,-8.841863,2.372034,-0.000000,0.000000,1.000000
8.315333,-8.409393,-2.372034,0.000000,0.000000,-1.000000
10.342963,8.794116,2.372034,0.000000,0.000000,1.000000
11.277704,0.177907,2.372034,0.000000,0.000000,1.000000
15.584079,2.855280,-1.921945,0.989177,0.146730,0.000000
-8.348207,5.650048,2.372034,0.000000,0.000000,1.000000
15.747629,-1.752712,0.457525,0.989177,-0.146730,0.000000
-8.838428,-1.741348,1.335248,0.989177,0.146730,0.000000
7.834769,-7.607529,-2.372034,0.000000,0.000000,-1.000000
-0.561450,8.981544,-0.969757,0.049068,-0.998795,0.000000
3.140881,-8.433108,0.749755,-0.336890,0.941544,0.000000
-8.496205,2.964537,2.079404,0.941544,-0.336890,0.000000
12.402204,9.858695,1.179401,0.803208,0.595699,-0.000000
6.471395,-10.858543,2.372034,0.000000,-0.000000,1.000000
3.575490,-10.541566,2.372034,0.000000,-0.000000,1.000000
14.825115,5.568176,0.926676,0.941544,0.336890,-0.000000
-14.357291,-0.459581,2.372034,-0.000000,0.000000,1.000000
-9.614328,-12.583439,0.617242,-0.595699,-0.803208,0.000000
-7.396530,5.132329,0.900033,0.803208,-0.595699,0.000000
3.471997,15.453868,-1.834338,0.242980,0.970031,0.000000
-6.811031,-9.331925,2.372034,-0.000000,0.000000,1.000000
-11.355377,2.603164,-2.372034,-0.000000,-0.000000,-1.000000
-1.464042,-15.781534,-1.577063,-0.049068,-0.998795,0.000000
4.875163,-15.073079,2.252304,0.336890,-0.941544,0.000000
3.439370,-14.972451,-2.372034,0.000000,0.000000,-1.000000
1.928800,8.793133,-0.025352,-0.242980,-0.970031,-0.000000
-15.765826,1.630042,-1.272159,-0.989177,0.146730,0.000000
8.038088,6.483620,-2.372034,-0.000000,0.000000,-1.000000
-10.308016,11.127830,2.372034,0.000000,0.000000,1.000000
9.602013,12.592573,-1.878504,0.595699,0.803208,0.000000
12.997054,-2.206203,2.372034,0.000000,-0.000000,1.000000
-8.867294,1.546748,2.346407,0.989177,-0.146730,0.000000
-10.862961,9.650397,2.372034,0.000000,0.000000,1.000000
-9.629193,-0.163140,-2.372034,-0.000000,-0.000000,-1.000000
-2.776775,-9.993423,2.372034,-0.000000,0.000000,1.000000
-15.796767,1.153966,2.202425,-0.998795,0.049068,0.000000
10.476603,-5.526754,2.372034,0.000000,-0.000000,1.000000
2.940134,-13.866180,2.372034,0.000000,-0.000000,1.000000
14.706105,-4.373884,-2.372034,0.000000,0.000000,-1.000000
-15.810873,-0.866823,-0.868526,-0.998795,-0.049068,0.000000
13.997783,-1.687591,2.372034,0.000000,-0.000000,1.000000
-2.654743,13.542071,-2.372034,-0.000000,0.000000,-1.000000
8.819731,-1.822614,0.311067,-0.970031,0.242980,0.000000
15.330045,3.966326,-1.837629,0.970031,0.242980,0.000000
5.164514,8.166097,2.372034,0.000000,-0.000000,1.000000
-3.514645,-8.291657,-0.391714,0.427555,0.903989,0.000000
11.502980,10.886930,1.423400,0.740951,0.671559,-0.000000
9.558483,-1.982280,-2.372034,0.000000,0.000000,-1.000000
-8.435468,3.134287,1.465456,0.941544,-0.336890,0.000000
-14.141111,-0.859591,2.372034,-0.000000,0.000000,1.000000
-6.843970,-8.292934,-2.372034,0.000000,-0.000000,-1.000000
-12.468147,3.155687,-2.372034,-0.000000,-0.000000,-1.000000
-2.092270,-8.752186,-0.855459,0.242980,0.970031,0.000000
0.864973,14.991203,-2.372034,-0.000000,0.000000,-1.000000
-1.798395,-15.740853,2.286972,-0.146730,-0.989177,0.000000
-6.258724,9.408987,-2.372034,-0.000000,-0.000000,-1.000000
-3.508487,-8.294570,-2.304303,0.427555,0.903989,0.000000
13.005343,-5.958040,2.372034,0.000000,-0.000000,1.000000
-0.749121,14.616165,2.372034,0.000000,0.000000,1.000000
-5.333908,12.822562,2.372034,0.000000,0.000000,1.000000
3.483748,-11.777010,-2.372034,0.000000,0.000000,-1.000000
-6.822548,7.641836,2.372034,0.000000,0.000000,1.000000
-15.773037,-1.581431,0.901588,-0.989177,-0.146730,0.000000
-8.256872,-13.511827,-2.120188,-0.514103,-0.857729,0.000000
3.404154,9.422300,-2.372034,0.000000,0.000000,-1.000000
-13.101038,8.916426,1.977247,-0.803208,0.595699,0.000000
-8.128048,3.860568,2.307472,0.903989,-0.427555,0.000000
-2.955753,12.928391,2.372034,0.000000,0.000000,1.000000
8.668542,2.426195,-1.180806,-0.970031,-0.242980,-0.000000
15.475334,2.602151,2.372034,0.000000,0.000000,1.000000
-13.754090,-5.768161,-2.372034,0.000000,-0.000000,-1.000000
9.959851,-0.098514,2.372034,0.000000,-0.000000,1.000000
-5.199985,-11.400173,2.372034,-0.000000,0.000000,1.000000
15.424653,-3.588631,1.915758,0.970031,-0.242980,0.000000
-1.503622,9.934717,-2.372034,-0.000000,0.000000,-1.000000
-3.320990,13.167733,2.372034,0.000000,0.000000,1.000000
-13.474857,-8.318553,0.068666,-0.857729,-0.514103,0.000000
-6.281245,9.370934,2.372034,0.000000,0.000000,1.000000
0.311720,-15.838144,0.059064,0.049068,-0.998795,0.000000
-13.247606,8.697699,-1.193238,-0.857729,0.514103,0.000000
9.899897,3.095839,-2.372034,0.000000,0.000000,-1.000000
0.234697,-10.610843,-2.372034,0.000000,-0.000000,-1.000000
-6.456472,-6.382948,2.372034,-0.000000,0.000000,1.000000
-3.560548,-8.269947,-1.905077,0.427555,0.903989,0.000000
6.114493,-7.921390,2.372034,-0.000000,-0.000000,1.000000
-10.558439,-0.458963,2.372034,-0.000000,0.000000,1.000000
15.260577,-3.357066,2.372034,0.000000,-0.000000,1.000000
2.064330,8.759184,1.107573,-0.242980,-0.970031,0.000000
-6.124292,6.593486,1.235646,0.671559,-0.740951,0.000000
-8.001858,12.620186,-2.372034,-0.000000,-0.000000,-1.000000
6.101963,6.613723,2.244968,-0.671559,-0.740951,0.000000
-2.448187,-15.644465,0.896624,-0.146730,-0.989177,0.000000
11.735341,1.831234,-2.372034,0.000000,0.000000,-1.000000
12.496922,1.906923,2.372034,0.000000,0.000000,1.000000
8.674501,-11.079436,-2.372034,0.000000,0.000000,-1.000000
12.996699,7.009420,-2.372034,0.000000,0.000000,-1.000000
-8.608313,-3.276161,2.372034,-0.000000,0.000000,1.000000
-7.974937,8.929581,-2.372034,-0.000000,-0.000000,-1.000000
-1.376300,-8.892577,2.061489,0.146730,0.989177,0.000000
-3.974788,-9.365369,2.372034,-0.000000,0.000000,1.000000
-15.401627,-3.680557,-0.563868,-0.970031,-0.242980,0.000000
12.962667,7.279616,-2.372034,-0.000000,0.000000,-1.000000
3.375805,-15.477963,-0.024515,0.242980,-0.970031,0.000000
2.719038,12.836796,2.372034,0.000000,-0.000000,1.000000
-7.431085,-6.439740,-2.372034,0.000000,-0.000000,-1.000000
-3.124375,12.111271,2.372034,0.000000,0.000000,1.000000
-11.671536,9.586244,-2.372034,-0.000000,-0.000000,-1.000000
-0.712206,-15.818469,0.706357,-0.049068,-0.998795,0.000000
10.313935,-3.069970,2.372034,0.000000,-0.000000,1.000000
-4.009791,14.026783,-2.372034,-0.000000,-0.000000,-1.000000
9.890113,-7.556850,2.372034,0.000000,-0.000000,1.000000
-4.982789,7.504248,-1.649761,0.514103,-0.857729,0.000000
-3.448870,-8.322767,-0.664370,0.427555,0.903989,0.000000
-12.241016,-6.448811,-2.372034,0.000000,-0.000000,-1.000000
8.161363,7.854065,2.372034,0.000000,-0.000000,1.000000
14.159974,7.095919,-0.996740,0.903989,0.427555,-0.000000
1.199786,15.794516,-1.545008,0.049068,0.998795,0.000000
15.787132,1.350091,-0.076370,0.998795,0.049068,-0.000000
-4.441090,-12.246811,-2.372034,0.000000,-0.000000,-1.000000
-8.578976,-2.733207,-1.503597,0.941544,0.336890,0.000000
-6.095546,-10.929034,2.372034,-0.000000,0.000000,1.000000
1.447437,10.537404,2.372034,0.000000,0.000000,1.000000
-12.761848,-9.373771,-0.103813,-0.803208,-0.595699,0.000000
-11.720817,-7.208626,2.372034,-0.000000,0.000000,1.000000
15.434916,-1.057728,2.372034,0.000000,-0.000000,1.000000
11.333080,1.448040,2.372034,0.000000,0.000000,1.000000
-9.718724,12.506014,-2.263150,-0.595699,0.803208,0.000000
-7.831836,4.436243,0.331164,0.857729,-0.514103,0.000000
11.206113,6.256192,2.372034,0.000000,0.000000,1.000000
3.670517,12.521333,-2.372034,0.000000,0.000000,-1.000000
7.090294,-5.545241,-0.709995,-0.803208,0.595699,0.000000
9.097071,12.967063,-1.279110,0.595699,0.803208,0.000000
3.653324,10.658714,-2.372034,-0.000000,0.000000,-1.000000
1.572021,11.700160,-2.372034,-0.000000,0.000000,-1.000000
-11.934377,10.307679,-2.372034,-0.000000,-0.000000,-1.000000
-15.807536,0.934753,-1.291812,-0.998795,0.049068,0.000000
-12.303063,4.871398,-2.372034,-0.000000,0.000000,-1.000000
-1.982999,-13.567676,2.372034,-0.000000,-0.000000,1.000000
-0.853994,8.967172,-0.126113,0.049068,-0.998795,0.000000
-8.372633,-3.309897,0.137951,0.941544,0.336890,0.000000
-6.303140,-10.935767,-2.372034,0.000000,-0.000000,-1.000000
-6.976390,-5.698823,-1.802541,0.803208,0.595699,0.000000
-1.285878,-15.790286,-0.481286,-0.049068,-0.998795,0.000000
14.192147,7.027895,0.761613,0.903989,0.427555,-0.000000
3.195068,-11.741959,2.372034,-0.000000,-0.000000,1.000000
-14.302358,6.794873,-1.676462,-0.903989,0.427555,0.000000
-1.522714,-8.870859,-0.196632,0.146730,0.989177,0.000000
15.764243,-1.640714,-0.368947,0.989177,-0.146730,0.000000
11.620355,-10.757427,1.649752,0.740951,-0.671559,0.000000
-1.365319,8.894206,-0.799366,0.146730,-0.989177,0.000000
3.500257,15.446789,-1.048077,0.242980,0.970031,-0.000000
-15.567557,2.966659,-1.799661,-0.989177,0.146730,0.000000
-4.156823,15.282328,0.414629,-0.242980,0.970031,0.000000
-14.546972,-6.277682,0.799833,-0.903989,-0.427555,0.000000
-11.694480,-6.856868,-2.372034,0.000000,-0.000000,-1.000000
11.209413,4.712082,2.372034,0.000000,0.000000,1.000000
-12.215062,10.101269,-1.304401,-0.740951,0.671559,0.000000
-14.004719,7.424178,-1.893774,-0.903989,0.427555,0.000000
1.043595,8.941930,-0.184853,-0.146730,-0.989177,-0.000000
-0.676051,-14.605670,2.372034,-0.000000,-0.000000,1.000000
-11.194124,9.098756,-2.372034,-0.000000,0.000000,-1.000000
8.974184,0.711267,1.327613,-0.998795,-0.049068,-0.000000
-10.019046,-7.679232,-2.372034,0.000000,-0.000000,-1.000000
-15.688719,2.149858,-2.154697,-0.989177,0.146730,0.000000
-11.185397,-11.232466,-1.260035,-0.671559,-0.740951,0.000000
-2.012030,14.468450,-2.372034,-0.000000,0.000000,-1.000000
2.317406,15.663865,-1.240352,0.146730,0.989177,0.000000
0.262217,-14.429433,-2.372034,0.000000,0.000000,-1.000000
-12.828836,-9.283448,-2.067782,-0.803208,-0.595699,0.000000
2.960871,10.991747,2.372034,0.000000,0.000000,1.000000
5.042131,7.463426,-1.882280,-0.595699,-0.803208,-0.000000
-11.166219,-2.719573,-2.372034,0.000000,-0.000000,-1.000000
-6.503036,-14.440387,-0.423160,-0.427555,-0.903989,0.000000
-15.822783,-0.624388,0.693171,-0.998795,-0.049068,0.000000
-2.838678,-8.738900,2.372034,-0.000000,0.000000,1.000000
-6.404374,-12.840352,2.372034,-0.000000,0.000000,1.000000
-7.323139,-5.231287,2.336063,0.803208,0.595699,0.000000
4.354579,-13.860608,2.372034,0.000000,-0.000000,1.000000
15.034644,2.500920,2.372034,0.000000,0.000000,1.000000
10.136720,7.755388,2.372034,0.000000,0.000000,1.000000
-11.998176,5.657545,-2.372034,-0.000000,-0.000000,-1.000000
-13.241551,-8.707802,-2.055058,-0.857729,-0.514103,0.000000
13.565572,5.034482,2.372034,0.000000,0.000000,1.000000
10.451060,-10.417580,-2.372034,0.000000,0.000000,-1.000000
-14.552999,-6.264938,-0.786320,-0.903989,-0.427555,0.000000
15.738570,1.813788,0.964901,0.989177,0.146730,0.000000
4.852736,-12.832196,2.372034,0.000000,-0.000000,1.000000
-10.651727,11.105331,-2.372034,-0.000000,-0.000000,-1.000000
-13.114625,-4.839956,2.372034,-0.000000,0.000000,1.000000
-5.964797,8.434854,-2.372034,-0.000000,0.000000,-1.000000
-1.865275,15.730932,-1.059177,-0.146730,0.989177,0.000000
-6.685030,8.980458,2.372034,0.000000,0.000000,1.000000
7.339026,14.044993,-0.190936,0.427555,0.903989,0.000000
10.282047,-6.199132,-2.372034,0.000000,0.000000,-1.000000
-4.305690,-13.824161,2.372034,-0.000000,0.000000,1.000000
-15.324793,3.987292,-0.855122,-0.970031,0.242980,0.000000
-14.709939,-0.121487,-2.372034,-0.000000,-0.000000,-1.000000
-13.274358,8.653066,-1.680939,-0.857729,0.514103,0.000000
1.131625,13.663985,-2.372034,0.000000,0.000000,-1.000000
-8.206701,-5.025296,2.372034,-0.000000,0.000000,1.000000
12.979668,-9.080076,-2.182477,0.803208,-0.595699,0.000000
-7.555858,-4.896683,-2.195611,0.857729,0.514103,0.000000
-14.456345,3.249123,2.372034,0.000000,0.000000,1.000000
-12.429109,-2.738644,-2.372034,0.000000,-0.000000,-1.000000
8.247307,-7.672090,-2.372034,0.000000,0.000000,-1.000000
-11.642002,-10.733544,0.696092,-0.740951,-0.671559,0.000000
13.640337,-8.042467,1.931718,0.857729,-0.514103,0.000000
-3.652495,12.318402,2.372034,0.000000,0.000000,1.000000
1.139597,15.797473,-0.826279,0.049068,0.998795,0.000000
-10.763575,-4.941736,2.372034,-0.000000,0.000000,1.000000
15.842927,-0.214362,-1.369629,0.998795,-0.049068,0.000000
-15.468316,3.414316,-0.241215,-0.970031,0.242980,0.000000
-2.786548,-15.594274,-0.773137,-0.146730,-0.989177,0.000000
-8.761492,13.209370,-0.903279,-0.514103,0.857729,0.000000
-10.133261,-9.701948,-2.372034,0.000000,-0.000000,-1.000000
11.833676,-10.522063,-0.809528,0.740951,-0.671559,0.000000
5.087279,14.997183,-0.924392,0.336890,0.941544,0.000000
8.500566,9.198361,2.372034,0.000000,0.000000,1.000000
6.651632,-8.319226,2.372034,-0.000000,-0.000000,1.000000
-9.186900,5.691447,2.372034,0.000000,0.000000,1.000000
0.503797,-10.125152,-2.372034,0.000000,-0.000000,-1.000000
3.304062,8.374721,-0.911775,-0.336890,-0.941544,0.000000
-6.255433,-12.063925,2.372034,-0.000000,0.000000,1.000000
-4.748313,-12.282883,2.372034,-0.000000,0.000000,1.000000
-4.287982,-12.128606,-2.372034,0.000000,-0.000000,-1.000000
2.563768,15.627321,-1.278478,0.146730,0.989177,0.000000
11.208953,-11.211116,-0.728025,0.671559,-0.740951,0.000000
5.738303,-7.839299,2.372034,-0.000000,-0.000000,1.000000
-8.937325,1.074635,-2.226411,0.989177,-0.146730,0.000000
11.294349,5.089115,2.372034,0.000000,0.000000,1.000000
-7.503017,-13.963671,-0.174633,-0.514103,-0.857729,0.000000
6.570973,-11.689911,2.372034,0.000000,-0.000000,1.000000
-11.740124,-0.686074,-2.372034,0.000000,-0.000000,-1.000000
-4.177890,-15.277051,0.362815,-0.242980,-0.970031,0.000000
8.138586,3.838288,1.635097,-0.903989,-0.427555,0.000000
-15.851488,0.040102,-0.511628,-0.998795,0.049068,0.000000
