x,y,z,nx,ny,nz
-0.134234,0.127163,-0.283255,-0.428244,0.000000,-0.903663
-0.173105,0.105759,0.261317,-0.552255,0.000000,0.833675
-0.091245,0.184251,0.240296,0.000000,1.000000,0.000000
-0.038484,0.021846,-0.175350,0.214366,0.000000,0.976753
-0.084211,0.184251,0.159037,0.000000,1.000000,0.000000
0.196813,0.184251,0.011751,0.000000,1.000000,0.000000
0.196813,0.184251,0.011751,0.000000,1.000000,0.000000
0.299762,0.142903,-0.091624,0.956324,0.000000,-0.292308
-0.117592,-0.027063,-0.290558,-0.375152,0.000000,-0.926963
0.273176,0.026873,0.153711,0.871508,0.000000,0.490382
0.046205,0.053965,0.310028,0.147405,0.000000,0.989076
0.261474,-0.109010,-0.172868,0.834175,0.000000,-0.551499
-0.164445,0.184251,-0.214022,0.000000,1.000000,0.000000
-0.251296,0.049949,0.187356,-0.801705,0.000000,0.597720
0.162662,0.050911,-0.075957,-0.906081,0.000000,0.423104
0.030969,-0.087638,-0.176832,-0.172509,0.000000,0.985008
0.297166,0.061213,0.099721,0.948045,0.000000,0.318137
0.186889,0.131501,-0.251644,0.596228,0.000000,-0.802815
-0.031562,-0.154869,-0.311859,-0.100692,0.000000,-0.994918
-0.053295,-0.184251,-0.261536,0.000000,-1.000000,0.000000
0.175908,-0.075314,-0.035845,-0.979864,0.000000,0.199666
-0.308380,0.118449,-0.056161,-0.983818,0.000000,-0.179170
0.144955,0.184251,0.128023,0.000000,1.000000,0.000000
-0.166766,-0.152062,0.066464,0.928941,0.000000,-0.370227
-0.092482,-0.050421,-0.153869,0.515156,0.000000,0.857097
-0.143854,-0.129068,-0.107399,0.801313,0.000000,0.598245
0.058115,-0.002786,0.169856,-0.323717,0.000000,-0.946154
-0.123295,-0.173019,-0.288184,-0.393347,0.000000,-0.919390
0.194948,0.184251,-0.087509,0.000000,1.000000,0.000000
0.184662,0.184251,0.036785,0.000000,1.000000,0.000000
-0.189528,0.018541,-0.249662,-0.604648,0.000000,-0.796493
0.226427,0.184251,-0.165816,0.000000,1.000000,0.000000
0.014907,-0.184251,0.222104,0.000000,-1.000000,0.000000
-0.028073,0.113823,-0.177314,0.156378,0.000000,0.987697
0.163453,0.184251,-0.116591,0.000000,1.000000,0.000000
-0.034716,0.103492,0.176134,0.193376,0.000000,-0.981125
0.095009,0.147352,-0.298706,0.303104,0.000000,-0.952957
0.281717,-0.184251,0.050296,0.000000,-1.000000,0.000000
0.159800,-0.040357,0.081808,-0.890135,0.000000,-0.455696
0.051896,-0.117440,0.171859,-0.289075,0.000000,-0.957307
-0.061660,0.029802,-0.168602,0.343468,0.000000,0.939164
0.014907,-0.184251,0.222104,0.000000,-1.000000,0.000000
0.289666,-0.030514,0.119773,0.924117,0.000000,0.382109
0.032920,-0.002328,0.176479,-0.183377,0.000000,-0.983043
-0.142757,0.184251,-0.205345,0.000000,1.000000,0.000000
0.108045,-0.076678,-0.143370,-0.601843,0.000000,0.798615
0.170566,-0.132589,-0.055998,-0.950106,0.000000,0.311926
-0.169996,0.097678,0.057704,0.946933,0.000000,-0.321430
0.249600,-0.130192,0.189610,0.796295,0.000000,0.604908
-0.166857,-0.076653,0.066236,0.929448,0.000000,-0.368953
0.164198,0.008994,-0.072579,-0.914633,0.000000,0.404285
-0.030694,0.078595,-0.176880,0.170974,0.000000,0.985276
0.130492,-0.184251,0.254092,0.000000,-1.000000,0.000000
-0.168929,-0.128788,0.060757,0.940990,0.000000,-0.338435
0.121117,-0.179362,-0.132511,-0.674662,0.000000,0.738127
-0.100620,-0.117294,-0.296863,-0.321008,0.000000,-0.947077
-0.147411,-0.036798,0.102462,0.821126,0.000000,-0.570747
-0.240295,0.067439,0.201271,-0.766610,0.000000,0.642113
-0.214180,-0.155055,0.228864,-0.683296,0.000000,0.730142
-0.088281,-0.081394,0.156317,0.491756,0.000000,-0.870733
-0.102070,-0.150228,-0.147683,0.568564,0.000000,0.822639
0.074006,0.132668,0.163559,-0.412236,0.000000,-0.911077
-0.200831,0.184251,0.106238,0.000000,1.000000,0.000000
-0.209960,0.070938,0.232742,-0.669831,0.000000,0.742514
0.132292,0.003857,0.121356,-0.736908,0.000000,-0.675993
-0.074409,0.184251,0.238068,0.000000,1.000000,0.000000
-0.177245,-0.060735,-0.028505,0.987313,0.000000,0.158784
-0.152877,-0.144495,0.094113,0.851573,0.000000,-0.524237
-0.261110,0.049805,-0.173417,-0.833015,0.000000,-0.553251
-0.169996,0.097678,0.057704,0.946933,0.000000,-0.321430
-0.171851,-0.064650,0.051920,0.957265,0.000000,-0.289213
0.155938,-0.030717,-0.271911,0.497487,0.000000,-0.867472
-0.030241,0.104338,0.176958,0.168450,0.000000,-0.985710
-0.137013,-0.181942,0.116000,0.763206,0.000000,-0.646155
0.216221,0.125469,-0.226937,0.689808,0.000000,-0.723993
0.053011,-0.019066,0.171518,-0.295287,0.000000,-0.955409
0.292913,-0.008971,-0.111598,0.934474,0.000000,-0.356030
0.297830,-0.143521,-0.097721,0.950161,0.000000,-0.311758
0.172426,0.048057,-0.261766,0.550087,0.000000,-0.835107
0.135201,0.100330,-0.118106,-0.753114,0.000000,0.657890
0.244966,-0.151618,0.195560,0.781509,0.000000,0.623893
-0.172232,-0.048628,0.050644,0.959384,0.000000,-0.282103
0.137126,0.184251,0.209603,0.000000,1.000000,0.000000
-0.163795,0.184251,0.113420,0.000000,1.000000,0.000000
-0.167913,0.009519,0.063512,0.935328,0.000000,-0.353781
0.299265,0.092019,-0.093233,0.954741,0.000000,-0.297440
0.179299,-0.125425,-0.008974,-0.998750,0.000000,0.049987
-0.038524,-0.006276,0.311075,-0.122902,0.000000,0.992419
0.112023,-0.023656,0.140283,-0.624002,0.000000,-0.781423
0.126680,-0.145430,-0.127204,-0.705646,0.000000,0.708564
0.170122,0.164661,0.057331,-0.947636,0.000000,-0.319353
0.069533,-0.184251,0.254334,0.000000,-1.000000,0.000000
0.164481,0.089343,0.071935,-0.916209,0.000000,-0.400701
0.306860,0.061490,-0.063946,0.978969,0.000000,-0.204007
-0.273019,-0.184251,0.003869,0.000000,-1.000000,0.000000
-0.224483,-0.157455,0.218768,-0.716164,0.000000,0.697932
0.108713,0.183573,-0.142864,-0.605566,0.000000,0.795795
-0.084403,0.121957,0.158444,0.470153,0.000000,-0.882585
-0.245384,0.184251,0.123942,0.000000,1.000000,0.000000
0.050469,0.144172,0.309362,0.161009,0.000000,0.986953
-0.037131,0.055207,-0.175641,0.206833,0.000000,0.978376
0.245908,-0.038891,0.194374,0.784515,0.000000,0.620110
0.251138,0.184251,0.156819,0.000000,1.000000,0.000000
0.138874,0.130904,0.113765,-0.773571,0.000000,-0.633709
-0.149412,0.165643,-0.099521,0.832275,0.000000,0.554363
-0.200455,0.184251,-0.119740,0.000000,1.000000,0.000000
-0.136685,0.184251,-0.119779,0.000000,1.000000,0.000000
0.221245,0.131628,0.222042,0.705833,0.000000,0.708378
0.129039,0.045029,-0.124809,-0.718789,0.000000,0.695228
-0.156522,-0.171790,-0.087916,0.871880,0.000000,0.489720
-0.159334,-0.184251,0.189365,0.000000,-1.000000,0.000000
0.226574,0.184251,0.098138,0.000000,1.000000,0.000000
-0.301847,0.030179,0.084501,-0.962977,0.000000,0.269583
0.292731,-0.184251,0.067539,0.000000,-1.000000,0.000000
0.072120,0.006877,0.305042,0.230082,0.000000,0.973171
0.277717,-0.024958,0.145345,0.885997,0.000000,0.463691
-0.048068,-0.184251,-0.236355,0.000000,-1.000000,0.000000
0.297166,0.061213,0.099721,0.948045,0.000000,0.318137
0.304336,-0.109356,-0.075044,0.970918,0.000000,-0.239412
0.108744,0.184251,-0.144246,0.000000,1.000000,0.000000
-0.208509,0.184251,-0.031859,0.000000,1.000000,0.000000
0.075066,0.184251,-0.263009,0.000000,1.000000,0.000000
0.108468,0.184251,-0.290953,0.000000,1.000000,0.000000
0.289821,-0.014034,0.119397,0.924612,0.000000,0.380909
-0.146267,-0.016376,0.104089,0.814754,0.000000,-0.579807
0.212433,0.184251,0.067756,0.000000,1.000000,0.000000
0.001134,-0.012008,-0.179519,-0.006318,0.000000,0.999980
0.161532,0.145237,-0.268625,0.515333,0.000000,-0.856990
0.114216,0.127668,-0.138504,-0.636217,0.000000,0.771510
0.264066,0.003503,0.168883,0.842444,0.000000,0.538784
-0.172107,0.064956,0.051064,0.958693,0.000000,-0.284443
-0.074511,0.184251,-0.231161,0.000000,1.000000,0.000000
-0.110204,0.020700,0.141717,0.613870,0.000000,-0.789407
-0.068152,-0.033298,-0.305953,-0.217424,0.000000,-0.976077
-0.079591,-0.184251,-0.276827,0.000000,-1.000000,0.000000
-0.301880,0.010390,-0.084385,-0.963081,0.000000,-0.269211
-0.142975,-0.072548,0.278945,-0.456130,0.000000,0.889913
0.274202,0.154753,0.151872,0.874783,0.000000,0.484515
0.148060,-0.184251,-0.104096,0.000000,-1.000000,0.000000
0.102170,-0.097816,-0.296333,0.325951,0.000000,-0.945387
0.152443,-0.028709,-0.273885,0.486335,0.000000,-0.873772
0.176890,-0.076653,0.030633,-0.985334,0.000000,-0.170635
0.098097,-0.047250,-0.297706,0.312957,0.000000,-0.949767
0.192145,-0.184251,0.149926,0.000000,-1.000000,0.000000
0.266005,-0.184251,-0.019903,0.000000,-1.000000,0.000000
0.157797,0.184251,0.180363,0.000000,1.000000,0.000000
-0.010288,0.039486,-0.313283,-0.032821,0.000000,-0.999461
0.179299,-0.125425,-0.008974,-0.998750,0.000000,0.049987
0.205682,0.049349,-0.236531,0.656184,0.000000,-0.754601
-0.043790,-0.184251,-0.227184,0.000000,-1.000000,0.000000
-0.155737,-0.184251,-0.238851,0.000000,-1.000000,0.000000
0.293280,0.030189,-0.110628,0.935647,0.000000,-0.352936
-0.201493,-0.184251,-0.161252,0.000000,-1.000000,0.000000
-0.071039,-0.076040,0.305296,-0.226634,0.000000,0.973980
-0.088967,-0.184251,-0.244284,0.000000,-1.000000,0.000000
-0.042697,0.006467,0.174372,0.237834,0.000000,-0.971306
0.173750,-0.035511,0.045162,-0.967840,0.000000,-0.251567
0.231582,0.129688,-0.211238,0.738813,0.000000,-0.673910
0.269511,0.165135,0.160050,0.859815,0.000000,0.510606
0.205682,0.049349,-0.236531,0.656184,0.000000,-0.754601
0.101126,-0.017254,0.148331,-0.563305,0.000000,-0.826249
-0.098326,-0.061368,0.150201,0.547709,0.000000,-0.836669
-0.148729,-0.054325,0.275920,-0.474487,0.000000,0.880262
-0.207784,0.111792,0.234687,-0.662890,0.000000,0.748717
-0.146848,0.163962,-0.276925,-0.468488,0.000000,-0.883470
-0.172840,-0.147054,-0.048526,0.962775,0.000000,0.270303
-0.106346,0.006624,0.294860,-0.339273,0.000000,0.940688
0.158175,0.038587,0.270615,0.504624,0.000000,0.863339
-0.299196,-0.083358,-0.093454,-0.954521,0.000000,-0.298145
-0.245761,-0.184251,0.088769,0.000000,-1.000000,0.000000
-0.310914,0.020664,0.039807,-0.991903,0.000000,0.126995
0.030397,0.088404,0.311974,0.096974,0.000000,0.995287
0.228017,0.184251,0.014187,0.000000,1.000000,0.000000
0.118832,-0.119836,-0.134564,-0.661934,0.000000,0.749562
-0.055031,-0.042548,0.308583,-0.175565,0.000000,0.984468
0.177778,0.003020,0.024972,-0.990278,0.000000,-0.139101
-0.134234,0.127163,-0.283255,-0.428244,0.000000,-0.903663
-0.176211,-0.141090,-0.034325,0.981551,0.000000,0.191200
-0.101537,0.101389,0.148050,0.565595,0.000000,-0.824683
0.152069,-0.156333,-0.274093,0.485145,0.000000,-0.874434
0.143930,0.165446,-0.107297,-0.801737,0.000000,0.597677
0.073647,-0.173516,-0.163721,-0.410238,0.000000,0.911978
0.152564,0.184251,-0.139615,0.000000,1.000000,0.000000
0.158175,0.038587,0.270615,0.504624,0.000000,0.863339
0.062135,-0.184251,0.302005,0.000000,-1.000000,0.000000
-0.159772,-0.072454,0.081862,0.889982,0.000000,-0.455996
-0.179377,-0.021187,0.007241,0.999186,0.000000,-0.040333
-0.205904,0.184251,0.051002,0.000000,1.000000,0.000000
-0.177245,-0.060735,-0.028505,0.987313,0.000000,0.158784
0.100082,-0.145029,-0.297045,0.319291,0.000000,-0.947657
0.264754,0.184251,0.129752,0.000000,1.000000,0.000000
0.113727,-0.111202,0.138905,-0.633496,0.000000,-0.773746
-0.053295,-0.184251,-0.261536,0.000000,-1.000000,0.000000
-0.055684,-0.046608,0.170669,0.310177,0.000000,-0.950679
-0.208922,-0.184251,0.201650,0.000000,-1.000000,0.000000
-0.066223,-0.184251,-0.168759,0.000000,-1.000000,0.000000
-0.122776,0.184251,-0.188521,0.000000,1.000000,0.000000
-0.101296,0.184251,-0.230929,0.000000,1.000000,0.000000
0.093976,-0.038560,0.299033,0.299809,0.000000,0.953999
-0.053828,0.040909,0.308795,-0.171726,0.000000,0.985145
-0.155302,-0.137622,0.272274,-0.495458,0.000000,0.868632
0.055118,0.184251,0.207461,0.000000,1.000000,0.000000
-0.178699,0.136411,0.017181,0.995410,0.000000,-0.095705
-0.049401,-0.010408,-0.309534,-0.157602,0.000000,-0.987503
-0.299133,-0.026406,-0.093658,-0.954318,0.000000,-0.298794
-0.064601,-0.167123,-0.306723,-0.206095,0.000000,-0.978532
0.059431,0.184251,-0.296264,0.000000,1.000000,0.000000
-0.230848,-0.184251,-0.165522,0.000000,-1.000000,0.000000
-0.016627,-0.036375,-0.313010,-0.053045,0.000000,-0.998592
-0.143313,-0.119291,-0.108120,0.798299,0.000000,0.602261
0.292731,-0.184251,0.067539,0.000000,-1.000000,0.000000
-0.068152,-0.033298,-0.305953,-0.217424,0.000000,-0.976077
-0.086595,0.079774,-0.301253,-0.276262,0.000000,-0.961082
0.069217,-0.098051,-0.165643,-0.385558,0.000000,0.922684
0.269112,0.184251,0.074858,0.000000,1.000000,0.000000
0.161172,-0.184251,0.259931,0.000000,-1.000000,0.000000
-0.157889,0.110989,0.085438,0.879489,0.000000,-0.475919
0.290916,0.184251,0.031598,0.000000,1.000000,0.000000
0.108468,0.184251,-0.290953,0.000000,1.000000,0.000000
0.293280,0.030189,-0.110628,0.935647,0.000000,-0.352936
0.129499,0.066576,0.124332,-0.721351,0.000000,-0.692570
0.020402,0.064086,-0.312787,0.065088,0.000000,-0.997880
0.022018,0.120537,-0.178168,-0.122646,0.000000,0.992450
-0.221637,0.184251,-0.007472,0.000000,1.000000,0.000000
0.311348,0.081996,0.036253,0.993289,0.000000,0.115657
0.029095,0.084787,-0.177150,-0.162070,0.000000,0.986779
-0.183286,0.047088,-0.254280,-0.584734,0.000000,-0.811225
-0.209252,-0.184251,0.070812,0.000000,-1.000000,0.000000
-0.137013,-0.181942,0.116000,0.763206,0.000000,-0.646155
-0.170472,0.184251,-0.062415,0.000000,1.000000,0.000000
-0.138062,-0.138486,-0.114749,0.769048,0.000000,0.639191
0.176890,-0.076653,0.030633,-0.985334,0.000000,-0.170635
-0.175450,0.084281,-0.038022,0.977314,0.000000,0.211796
-0.248998,-0.101320,0.190399,-0.794375,0.000000,0.607428
-0.252507,0.184251,0.159340,0.000000,1.000000,0.000000
-0.080258,0.184251,-0.263401,0.000000,1.000000,0.000000
0.062135,-0.184251,0.302005,0.000000,-1.000000,0.000000
-0.033121,-0.160153,-0.176441,0.184495,0.000000,0.982834
0.134968,-0.157734,0.282906,0.430585,0.000000,0.902550
-0.031914,-0.184251,0.219622,0.000000,-1.000000,0.000000
-0.280446,-0.027721,-0.140007,-0.894703,0.000000,-0.446661
-0.311728,0.074648,0.032824,-0.994502,0.000000,0.104718
0.169519,-0.083200,-0.059092,-0.944273,0.000000,0.329162
0.287282,0.028746,0.125383,0.916512,0.000000,0.400006
0.132292,0.003857,0.121356,-0.736908,0.000000,-0.675993
-0.165870,-0.114096,-0.068670,0.923951,0.000000,0.382512
-0.181069,0.184251,0.000159,0.000000,1.000000,0.000000
0.200620,0.156556,-0.240839,0.640036,0.000000,-0.768345
0.009023,-0.080198,-0.313322,0.028786,0.000000,-0.999586
0.073727,-0.168226,0.163685,-0.410683,0.000000,-0.911778
0.171139,0.184251,0.155998,0.000000,1.000000,0.000000
-0.097424,0.093008,-0.150788,0.542683,0.000000,0.839938
-0.165870,-0.114096,-0.068670,0.923951,0.000000,0.382512
0.164420,0.167646,0.072073,-0.915872,0.000000,-0.401471
-0.313439,0.094915,0.002818,-0.999960,0.000000,0.008990
-0.079476,-0.141114,-0.160972,0.442705,0.000000,0.896667
0.080537,0.184251,-0.235498,0.000000,1.000000,0.000000
-0.180892,-0.184251,0.244876,0.000000,-1.000000,0.000000
0.138766,0.057139,-0.113897,-0.772970,0.000000,0.634443
0.269112,0.184251,0.074858,0.000000,1.000000,0.000000
-0.273691,-0.121834,-0.152792,-0.873151,0.000000,-0.487450
0.174669,-0.184251,-0.145088,0.000000,-1.000000,0.000000
0.126628,0.157076,-0.127255,-0.705359,0.000000,0.708850
-0.290453,-0.117770,0.117852,-0.926628,0.000000,0.375980
-0.033642,-0.077806,-0.176343,0.187394,0.000000,0.982285
0.172426,0.048057,-0.261766,0.550087,0.000000,-0.835107
-0.224483,-0.157455,0.218768,-0.716164,0.000000,0.697932
0.055366,-0.184251,-0.199725,0.000000,-1.000000,0.000000
-0.282103,-0.175863,0.136638,-0.899988,0.000000,0.435915
-0.102924,-0.132497,-0.147089,0.573320,0.000000,0.819332
-0.310087,0.030315,-0.045807,-0.989264,0.000000,-0.146137
0.057940,0.184251,-0.302626,0.000000,1.000000,0.000000
0.161162,0.097715,-0.079090,-0.897725,0.000000,0.440557
0.179284,0.171640,-0.009266,-0.998667,0.000000,0.051613
0.313282,-0.090897,-0.010323,0.999458,0.000000,-0.032933
-0.289764,0.184251,0.063904,0.000000,1.000000,0.000000
-0.169996,0.097678,0.057704,0.946933,0.000000,-0.321430
0.103836,-0.184251,-0.155726,0.000000,-1.000000,0.000000
0.308604,0.157301,0.054916,0.984533,0.000000,0.175197
-0.280446,-0.027721,-0.140007,-0.894703,0.000000,-0.446661
0.062506,0.106930,-0.168290,-0.348178,0.000000,0.937428
0.070173,0.180055,0.165240,-0.390885,0.000000,-0.920440
0.129617,0.119779,0.124209,-0.722008,0.000000,-0.691885
0.162427,-0.161516,-0.076459,-0.904769,0.000000,0.425902
0.003109,-0.184251,0.265958,0.000000,-1.000000,0.000000
-0.150061,0.080116,0.098541,0.835885,0.000000,-0.548905
0.237102,0.184251,-0.050702,0.000000,1.000000,0.000000
-0.214180,-0.155055,0.228864,-0.683296,0.000000,0.730142
0.282724,0.045293,0.135349,0.901969,0.000000,0.431802
0.113727,-0.111202,0.138905,-0.633496,0.000000,-0.773746
-0.179377,-0.021187,0.007241,0.999186,0.000000,-0.040333
0.089780,0.055929,0.155461,-0.500105,0.000000,-0.865965
0.048511,-0.027960,-0.172844,-0.270224,0.000000,0.962798
-0.177120,-0.183496,-0.029274,0.986615,0.000000,0.163068
-0.039649,0.126265,-0.310934,-0.126491,0.000000,-0.991968
-0.055882,-0.184251,0.194131,0.000000,-1.000000,0.000000
-0.200831,0.184251,0.106238,0.000000,1.000000,0.000000
0.130409,-0.154673,0.123377,-0.726422,0.000000,-0.687249
-0.050150,-0.154246,-0.172376,0.279349,0.000000,0.960190
-0.246669,-0.015521,0.193408,-0.786943,0.000000,0.617026
-0.272856,-0.135342,-0.154278,-0.870488,0.000000,-0.492190
-0.161340,0.083307,-0.078728,0.898712,0.000000,0.438539
0.016564,0.111786,0.313014,0.052843,0.000000,0.998603
0.132749,0.118281,0.283954,0.423508,0.000000,0.905892
-0.292756,0.184251,-0.075280,0.000000,1.000000,0.000000
-0.290142,0.013533,0.118616,-0.925635,0.000000,0.378418
-0.085724,-0.115739,0.301502,-0.273485,0.000000,0.961876
-0.150726,0.132599,0.274834,-0.480860,0.000000,0.876798
-0.273019,-0.184251,0.003869,0.000000,-1.000000,0.000000
-0.159334,-0.184251,0.189365,0.000000,-1.000000,0.000000
0.276494,-0.184251,-0.102615,0.000000,-1.000000,0.000000
0.043519,-0.054224,-0.174168,-0.242414,0.000000,0.970173
-0.302005,0.008455,0.083935,-0.963481,0.000000,0.267776
0.115611,0.181550,0.137342,-0.643987,0.000000,-0.765036
0.097494,0.084724,-0.297904,0.311032,0.000000,-0.950399
-0.311848,0.087302,0.031663,-0.994885,0.000000,0.101014
0.062506,0.106930,-0.168290,-0.348178,0.000000,0.937428
-0.177012,-0.117033,0.029919,0.986015,0.000000,-0.166659
0.118832,-0.119836,-0.134564,-0.661934,0.000000,0.749562
-0.218175,0.184251,0.081163,0.000000,1.000000,0.000000
0.278635,0.054920,-0.143578,0.888924,0.000000,-0.458054
0.205092,0.034509,0.237043,0.654302,0.000000,0.756233
-0.115446,-0.054965,0.137480,0.643070,0.000000,-0.765808
-0.068254,0.094261,-0.166042,0.380198,0.000000,0.924905
-0.289603,0.024182,-0.119926,-0.923914,0.000000,-0.382599
-0.291472,0.143052,0.115307,-0.929880,0.000000,0.367863
0.177434,-0.162378,0.027305,-0.988366,0.000000,-0.152095
0.102170,-0.097816,-0.296333,0.325951,0.000000,-0.945387
-0.206424,0.095376,-0.235883,-0.658552,0.000000,-0.752535
0.268104,0.184251,0.049651,0.000000,1.000000,0.000000
0.267556,-0.043520,-0.163297,0.853579,0.000000,-0.520963
0.021787,0.184251,0.292068,0.000000,1.000000,0.000000
-0.150061,0.080116,0.098541,0.835885,0.000000,-0.548905
0.078286,0.147428,-0.161555,-0.436075,0.000000,0.899910
-0.172098,-0.083194,0.051097,0.958638,0.000000,-0.284628
0.134575,-0.081218,0.118819,-0.749626,0.000000,-0.661862
0.311348,0.081996,0.036253,0.993289,0.000000,0.115657
0.154898,0.053862,0.090748,-0.862829,0.000000,-0.505497
-0.172107,0.064956,0.051064,0.958693,0.000000,-0.284443
-0.064987,0.045376,0.167347,0.361999,0.000000,-0.932178
0.311902,-0.172608,0.031132,0.995055,0.000000,0.099321
0.117546,0.067441,0.135688,-0.654771,0.000000,-0.755827
-0.280883,0.045037,0.139129,-0.896095,0.000000,0.443862
-0.025384,-0.111698,-0.312422,-0.080981,0.000000,-0.996716
0.034786,-0.137134,-0.176121,-0.193767,0.000000,0.981047
-0.034716,0.103492,0.176134,0.193376,0.000000,-0.981125
0.049676,0.124564,-0.172513,-0.276712,0.000000,0.960953
-0.178159,-0.033122,0.022084,0.992405,0.000000,-0.123016
0.310778,0.032215,-0.040857,0.991469,0.000000,-0.130345
-0.059605,0.184251,0.258854,0.000000,1.000000,0.000000
-0.131512,0.069842,-0.122201,0.732565,0.000000,0.680697
-0.248534,-0.184251,0.085349,0.000000,-1.000000,0.000000
0.159529,0.045264,-0.269819,0.508943,0.000000,-0.860800
0.156501,-0.057342,-0.087955,-0.871758,0.000000,0.489937
-0.299021,0.057302,0.094013,-0.953961,0.000000,0.299929
0.185805,-0.111860,0.252445,0.592772,0.000000,0.805371
-0.080008,0.116445,-0.160709,0.445670,0.000000,0.895197
-0.009357,0.184251,0.202018,0.000000,1.000000,0.000000
0.077383,-0.049076,-0.161989,-0.431045,0.000000,0.902330
-0.121960,0.184251,0.140556,0.000000,1.000000,0.000000
0.167514,0.008821,0.264936,0.534418,0.000000,0.845221
-0.021655,-0.184251,-0.296215,0.000000,-1.000000,0.000000
0.291782,-0.184251,-0.068169,0.000000,-1.000000,0.000000
0.119477,-0.184251,-0.211557,0.000000,-1.000000,0.000000
-0.033121,-0.160153,-0.176441,0.184495,0.000000,0.982834
0.275501,0.184251,0.062412,0.000000,1.000000,0.000000
-0.108215,0.097798,0.143241,0.602794,0.000000,-0.797897
-0.178497,-0.012984,0.019168,0.994283,0.000000,-0.106774
-0.142077,0.184251,-0.215761,0.000000,1.000000,0.000000
-0.182587,-0.178071,-0.254782,-0.582506,0.000000,-0.812827
-0.102924,-0.132497,-0.147089,0.573320,0.000000,0.819332
0.184662,0.184251,0.036785,0.000000,1.000000,0.000000
-0.312830,-0.028291,-0.019728,-0.998017,0.000000,-0.062938
0.113325,0.107324,0.139234,-0.631254,0.000000,-0.775576
-0.310206,0.104115,-0.044994,-0.989644,0.000000,-0.143543
-0.085724,-0.115739,0.301502,-0.273485,0.000000,0.961876
0.177778,0.003020,0.024972,-0.990278,0.000000,-0.139101
0.094644,-0.052253,0.152548,-0.527198,0.000000,-0.849742
-0.284039,-0.071566,0.132565,-0.906167,0.000000,0.422921
0.175374,0.137224,-0.038371,-0.976890,0.000000,0.213741
0.009023,-0.080198,-0.313322,0.028786,0.000000,-0.999586
-0.238820,0.110841,-0.203019,-0.761905,0.000000,-0.647689
0.196886,-0.184251,-0.117626,0.000000,-1.000000,0.000000
-0.119773,0.122159,0.133727,0.667173,0.000000,-0.744903
0.045032,-0.071425,-0.173783,-0.250841,0.000000,0.968028
-0.113060,-0.184251,-0.224480,0.000000,-1.000000,0.000000
-0.307596,-0.123268,-0.060305,-0.981319,0.000000,-0.192389
0.219388,-0.184251,0.105828,0.000000,-1.000000,0.000000
-0.012229,0.136455,-0.179106,0.068121,0.000000,0.997677
-0.233607,0.184251,-0.126407,0.000000,1.000000,0.000000
-0.084790,0.120536,0.158238,0.472305,0.000000,-0.881435
0.266271,0.152898,0.165383,0.849481,0.000000,0.527619
-0.056142,-0.164139,0.170519,0.312728,0.000000,-0.949843
0.173110,-0.184251,0.059964,0.000000,-1.000000,0.000000
0.204530,0.144349,-0.237528,0.652509,0.000000,-0.757781
0.069533,-0.184251,0.254334,0.000000,-1.000000,0.000000
0.090480,0.184251,0.280569,0.000000,1.000000,0.000000
-0.136713,0.164133,0.116353,0.761537,0.000000,-0.648121
0.157797,0.184251,0.180363,0.000000,1.000000,0.000000
-0.062240,0.184251,-0.217917,0.000000,1.000000,0.000000
-0.277044,0.052794,-0.146624,-0.883850,0.000000,-0.467771
-0.003134,0.184251,-0.243647,0.000000,1.000000,0.000000
-0.127579,-0.016627,-0.126301,0.710657,0.000000,0.703539
0.021145,-0.184251,-0.263878,0.000000,-1.000000,0.000000
-0.165992,0.148412,-0.068374,0.924631,0.000000,0.380865
-0.001710,-0.119730,0.313447,-0.005457,0.000000,0.999985
-0.057649,-0.184251,-0.240179,0.000000,-1.000000,0.000000
-0.099219,-0.096099,0.149613,0.552683,0.000000,-0.833392
0.267206,0.171851,0.163868,0.852464,0.000000,0.522785
0.178704,0.161255,0.017130,-0.995437,0.000000,-0.095418
-0.254181,-0.153574,0.183423,-0.810910,0.000000,0.585171
-0.166473,-0.104571,0.067194,0.927310,0.000000,-0.374294
-0.254181,-0.153574,0.183423,-0.810910,0.000000,0.585171
0.175374,0.137224,-0.038371,-0.976890,0.000000,0.213741
0.199681,0.184251,-0.193792,0.000000,1.000000,0.000000
-0.143310,-0.171325,0.278773,-0.457199,0.000000,0.889364
0.179458,0.150985,0.004822,-0.999639,0.000000,-0.026861
0.166309,-0.150146,0.067601,-0.926392,0.000000,-0.376561
0.082193,-0.145120,-0.159602,-0.457843,0.000000,0.889033
0.226479,-0.108760,0.216701,0.722533,0.000000,0.691337
-0.050272,-0.184251,-0.263131,0.000000,-1.000000,0.000000
0.058661,-0.184251,0.233801,0.000000,-1.000000,0.000000
-0.173599,-0.025857,-0.045736,0.967003,0.000000,0.254765
-0.025395,-0.184251,0.218976,0.000000,-1.000000,0.000000
-0.071039,-0.076040,0.305296,-0.226634,0.000000,0.973980
-0.179516,0.031407,-0.001625,0.999959,0.000000,0.009054
0.048945,-0.184251,-0.282621,0.000000,-1.000000,0.000000
-0.183402,0.184251,-0.035118,0.000000,1.000000,0.000000
0.044441,0.084913,0.310285,0.141781,0.000000,0.989898
-0.226228,0.184251,-0.186811,0.000000,1.000000,0.000000
0.135950,-0.106739,-0.117243,-0.757286,0.000000,0.653083
0.040487,0.076532,0.174898,-0.225526,0.000000,-0.974237
0.075805,-0.072078,0.304147,0.241841,0.000000,0.970316
0.176584,0.071976,-0.032349,-0.983631,0.000000,0.180195
0.059674,-0.049251,0.169315,-0.332402,0.000000,-0.943138
0.221245,0.131628,0.222042,0.705833,0.000000,0.708378
-0.273986,-0.065151,-0.152261,-0.874094,0.000000,-0.485756
-0.119317,0.026033,-0.134135,0.664631,0.000000,0.747172
-0.032533,-0.056180,-0.311759,-0.103789,0.000000,-0.994599
-0.194974,-0.184251,0.055337,0.000000,-1.000000,0.000000
-0.219027,0.060120,-0.224230,-0.698758,0.000000,-0.715358
-0.074409,0.184251,0.238068,0.000000,1.000000,0.000000
0.301798,-0.184251,0.032073,0.000000,-1.000000,0.000000
0.036915,0.184251,0.237830,0.000000,1.000000,0.000000
0.033697,-0.184251,-0.310897,0.000000,-1.000000,0.000000
0.176890,-0.076653,0.030633,-0.985334,0.000000,-0.170635
0.018649,0.184251,0.249572,0.000000,1.000000,0.000000
0.042488,0.184251,-0.190840,0.000000,1.000000,0.000000
-0.018202,0.121410,0.178598,0.101389,0.000000,-0.994847
0.167594,-0.130380,0.064350,-0.933550,0.000000,-0.358447
0.311348,0.081996,0.036253,0.993289,0.000000,0.115657
-0.178444,0.044143,-0.019650,0.993992,0.000000,0.109455
0.198098,0.157942,0.242918,0.631988,0.000000,0.774978
0.019671,0.184251,0.226589,0.000000,1.000000,0.000000
0.062135,-0.184251,0.302005,0.000000,-1.000000,0.000000
0.154317,-0.074010,0.091733,-0.859592,0.000000,-0.510981
0.168998,-0.008119,-0.060565,-0.941373,0.000000,0.337368
0.132292,0.003857,0.121356,-0.736908,0.000000,-0.675993
0.156501,-0.057342,-0.087955,-0.871758,0.000000,0.489937
0.172482,-0.176677,0.261729,0.550267,0.000000,0.834989
0.218159,-0.184251,0.159266,0.000000,-1.000000,0.000000
0.168998,-0.008119,-0.060565,-0.941373,0.000000,0.337368
-0.262585,-0.009267,0.171175,-0.837722,0.000000,0.546097
-0.104551,0.030321,-0.145937,0.582380,0.000000,0.812917
-0.310362,0.089447,-0.043906,-0.990141,0.000000,-0.140073
0.144955,0.184251,0.128023,0.000000,1.000000,0.000000
0.036915,0.184251,0.237830,0.000000,1.000000,0.000000
0.178005,0.039755,-0.023297,-0.991544,0.000000,0.129770
-0.060319,-0.184251,0.214891,0.000000,-1.000000,0.000000
0.156501,-0.057342,-0.087955,-0.871758,0.000000,0.489937
-0.174459,0.164473,0.042338,0.971793,0.000000,-0.235835
0.173332,0.184251,0.138575,0.000000,1.000000,0.000000
-0.148189,0.177895,0.276210,-0.472765,0.000000,0.881189
0.031978,-0.136932,0.176652,-0.178130,0.000000,-0.984007
0.149102,-0.111456,-0.099985,-0.830546,0.000000,0.556950
-0.213244,0.055859,-0.229737,-0.680309,0.000000,-0.732925
-0.036660,-0.110643,-0.175740,0.204210,0.000000,0.978927
0.272483,0.184251,0.102281,0.000000,1.000000,0.000000
-0.066699,-0.062905,-0.166673,0.371532,0.000000,0.928420
-0.088967,-0.184251,-0.244284,0.000000,-1.000000,0.000000
-0.106721,0.077999,-0.144358,0.594471,0.000000,0.804117
0.177934,-0.184251,-0.042556,0.000000,-1.000000,0.000000
-0.305265,-0.029559,0.071172,-0.973881,0.000000,0.227060
0.213867,0.184251,-0.125043,0.000000,1.000000,0.000000
-0.121062,-0.181277,-0.132561,0.674356,0.000000,0.738407
0.062086,-0.136368,0.168445,-0.345841,0.000000,-0.938293
0.215427,-0.142264,-0.227691,0.687274,0.000000,-0.726398
0.021994,0.184251,0.208027,0.000000,1.000000,0.000000
-0.118350,0.184251,-0.256354,0.000000,1.000000,0.000000
-0.102070,-0.150228,-0.147683,0.568564,0.000000,0.822639
-0.104872,0.184251,-0.247763,0.000000,1.000000,0.000000
-0.150847,-0.179734,0.274768,-0.481244,0.000000,0.876587
-0.104551,0.030321,-0.145937,0.582380,0.000000,0.812917
0.198171,-0.184251,-0.183831,0.000000,-1.000000,0.000000
-0.176211,-0.141090,-0.034325,0.981551,0.000000,0.191200
-0.118078,-0.106677,-0.135226,0.657730,0.000000,0.753254
-0.110045,-0.168640,-0.293500,-0.351076,0.000000,-0.936347
-0.245761,-0.184251,0.088769,0.000000,-1.000000,0.000000
-0.177230,0.077030,0.028601,0.987228,0.000000,-0.159316
0.267090,-0.108338,-0.164057,0.852094,0.000000,-0.523389
-0.059877,0.184251,0.210382,0.000000,1.000000,0.000000
-0.140573,-0.164475,-0.280163,-0.448466,0.000000,-0.893800
0.169519,-0.083200,-0.059092,-0.944273,0.000000,0.329162
-0.179093,-0.155533,-0.012415,0.997606,0.000000,0.069156
-0.113060,-0.184251,-0.224480,0.000000,-1.000000,0.000000
0.060509,-0.052199,0.169018,-0.337053,0.000000,-0.941485
-0.092482,-0.050421,-0.153869,0.515156,0.000000,0.857097
-0.082768,-0.100506,0.159305,0.461045,0.000000,-0.887377
0.255892,-0.184251,0.044883,0.000000,-1.000000,0.000000
0.017882,0.002928,0.312941,0.057047,0.000000,0.998371
-0.119629,0.059729,0.133856,0.666372,0.000000,-0.745620
0.057726,-0.029148,-0.169989,-0.321550,0.000000,0.946892
-0.290453,-0.117770,0.117852,-0.926628,0.000000,0.375980
0.140876,-0.168498,-0.280011,0.449433,0.000000,-0.893314
-0.255159,0.048672,0.182060,-0.814029,0.000000,0.580824
-0.311735,0.047496,0.032763,-0.994522,0.000000,0.104525
-0.200831,0.184251,0.106238,0.000000,1.000000,0.000000
0.206463,-0.105864,-0.235850,0.658674,0.000000,-0.752428
0.209560,-0.136415,0.233102,0.668556,0.000000,0.743662
0.002008,-0.014949,-0.313445,0.006406,0.000000,-0.999979
0.269150,-0.184251,-0.142315,0.000000,-1.000000,0.000000
-0.001636,0.178600,-0.313447,-0.005219,0.000000,-0.999986
0.313342,0.013158,-0.008311,0.999648,0.000000,-0.026513
0.160014,-0.184251,-0.107995,0.000000,-1.000000,0.000000
-0.179256,-0.048714,0.009784,0.998514,0.000000,-0.054500
0.127986,0.112872,0.286132,0.408313,0.000000,0.912842
-0.302005,0.008455,0.083935,-0.963481,0.000000,0.267776
-0.120535,0.077540,0.133040,0.671419,0.000000,-0.741078
-0.203537,-0.184251,0.162365,0.000000,-1.000000,0.000000
-0.049276,0.090520,0.172628,0.274482,0.000000,-0.961592
0.281717,-0.184251,0.050296,0.000000,-1.000000,0.000000
0.313451,0.177864,0.000522,0.999999,0.000000,0.001665
0.079764,-0.007614,0.303133,0.254471,0.000000,0.967080
-0.170088,0.184251,0.170753,0.000000,1.000000,0.000000
-0.248534,-0.184251,0.085349,0.000000,-1.000000,0.000000
0.164420,0.167646,0.072073,-0.915872,0.000000,-0.401471
-0.235897,-0.184251,-0.008293,0.000000,-1.000000,0.000000
-0.038484,0.021846,-0.175350,0.214366,0.000000,0.976753
0.110877,0.004717,0.141191,-0.617620,0.000000,-0.786477
0.149910,0.184251,-0.149948,0.000000,1.000000,0.000000
0.131047,0.084308,-0.122700,-0.729971,0.000000,0.683478
0.149102,-0.111456,-0.099985,-0.830546,0.000000,0.556950
0.136648,0.145698,-0.116429,-0.761174,0.000000,0.648548
-0.113060,-0.184251,-0.224480,0.000000,-1.000000,0.000000
-0.311795,-0.046466,-0.032184,-0.994715,0.000000,-0.102677
-0.121062,-0.181277,-0.132561,0.674356,0.000000,0.738407
0.066507,-0.040025,0.166749,-0.370463,0.000000,-0.928847
-0.060319,-0.184251,0.214891,0.000000,-1.000000,0.000000
0.284875,-0.173686,0.130760,0.908833,0.000000,0.417161
-0.030958,0.184251,0.274462,0.000000,1.000000,0.000000
0.266839,-0.184251,-0.040555,0.000000,-1.000000,0.000000
0.066107,-0.184251,-0.222715,0.000000,-1.000000,0.000000
0.159800,-0.040357,0.081808,-0.890135,0.000000,-0.455696
-0.198195,0.184251,-0.144474,0.000000,1.000000,0.000000
-0.146196,-0.118608,-0.104189,0.814356,0.000000,0.580366
0.181502,-0.014215,0.255556,0.579044,0.000000,0.815296
0.268354,0.184251,-0.012108,0.000000,1.000000,0.000000
-0.052100,0.083172,-0.171797,0.290213,0.000000,0.956962
0.020652,-0.184251,0.286615,0.000000,-1.000000,0.000000
-0.214344,0.009032,0.228711,-0.683817,0.000000,0.729654
0.309701,-0.146481,0.048343,0.988035,0.000000,0.154229
0.149489,0.121964,0.099405,-0.832703,0.000000,-0.553719
0.289666,-0.030514,0.119773,0.924117,0.000000,0.382109
-0.299842,-0.099673,0.091362,-0.956580,0.000000,0.291469
0.236507,-0.038963,-0.205709,0.754525,0.000000,-0.656271
0.267556,-0.043520,-0.163297,0.853579,0.000000,-0.520963
0.224292,0.184251,0.032945,0.000000,1.000000,0.000000
-0.287398,0.069929,0.125118,-0.916881,0.000000,0.399161
-0.273166,-0.072209,0.153728,-0.871476,0.000000,0.490437
0.022984,0.180050,-0.178046,-0.128029,0.000000,0.991770
-0.093268,-0.148412,-0.153393,0.519533,0.000000,0.854450
-0.064270,0.123805,0.167624,0.358004,0.000000,-0.933720
0.157543,-0.163359,-0.086075,-0.877562,0.000000,0.479463
0.049834,0.003217,0.172468,-0.277593,0.000000,-0.960699
0.032003,0.009210,0.311814,0.102099,0.000000,0.994774
0.166683,-0.116302,0.265460,0.531765,0.000000,0.846892
0.235884,0.184251,0.053338,0.000000,1.000000,0.000000
-0.208922,-0.184251,0.201650,0.000000,-1.000000,0.000000
-0.012760,0.165843,-0.313192,-0.040707,0.000000,-0.999171
-0.175089,0.184251,0.218048,0.000000,1.000000,0.000000
0.239645,0.166938,0.202045,0.764535,0.000000,0.644582
-0.156639,0.005723,0.087709,0.872527,0.000000,-0.488566
-0.214691,-0.184251,0.132802,0.000000,-1.000000,0.000000
-0.154243,-0.098654,0.091856,0.859184,0.000000,-0.511667
0.159800,-0.040357,0.081808,-0.890135,0.000000,-0.455696
-0.304946,0.107927,-0.072524,-0.972865,0.000000,-0.231373
0.202593,-0.184251,0.135296,0.000000,-1.000000,0.000000
0.209560,-0.136415,0.233102,0.668556,0.000000,0.743662
0.121324,0.136200,0.132321,-0.675816,0.000000,-0.737071
0.181290,0.184251,0.122100,0.000000,1.000000,0.000000
0.039084,0.184251,0.265199,0.000000,1.000000,0.000000
-0.088281,-0.081394,0.156317,0.491756,0.000000,-0.870733
-0.281180,0.005270,-0.138528,-0.897043,0.000000,-0.441944
-0.019812,-0.170412,0.178426,0.110358,0.000000,-0.993892
-0.044480,-0.028952,0.173925,0.247770,0.000000,-0.968819
0.070173,0.180055,0.165240,-0.390885,0.000000,-0.920440
-0.303208,0.149757,0.079477,-0.967321,0.000000,0.253555
0.009834,0.184251,-0.307106,0.000000,1.000000,0.000000
0.161532,0.145237,-0.268625,0.515333,0.000000,-0.856990
0.083132,0.091169,-0.302227,0.265216,0.000000,-0.964189
0.051896,-0.117440,0.171859,-0.289075,0.000000,-0.957307
-0.033642,-0.077806,-0.176343,0.187394,0.000000,0.982285
-0.093009,0.017234,-0.153550,0.518092,0.000000,0.855325
-0.159951,0.021617,0.081513,0.890976,0.000000,-0.454051
-0.099112,0.184251,-0.226035,0.000000,1.000000,0.000000
0.109794,-0.059106,-0.293594,0.350274,0.000000,-0.936647
-0.152983,0.175885,0.093941,0.852162,0.000000,-0.523279
0.062506,0.106930,-0.168290,-0.348178,0.000000,0.937428
0.144846,-0.184251,0.220436,0.000000,-1.000000,0.000000
0.187046,0.184251,0.155706,0.000000,1.000000,0.000000
-0.053295,-0.184251,-0.261536,0.000000,-1.000000,0.000000
-0.115686,0.156183,0.137278,0.644410,0.000000,-0.764680
-0.253280,-0.029996,-0.184665,-0.808035,0.000000,-0.589135
-0.222239,-0.184251,-0.133314,0.000000,-1.000000,0.000000
0.178704,0.161255,0.017130,-0.995437,0.000000,-0.095418
0.079764,-0.007614,0.303133,0.254471,0.000000,0.967080
-0.083592,-0.056222,0.158874,0.465632,0.000000,-0.884978
-0.058748,-0.061779,0.169638,0.327244,0.000000,-0.944940
-0.055819,-0.023317,-0.308442,-0.178080,0.000000,-0.984016
0.150088,-0.095630,0.098499,-0.836040,0.000000,-0.548669
0.194403,0.184251,0.088879,0.000000,1.000000,0.000000
0.140190,-0.183873,-0.112139,-0.780905,0.000000,0.624650
-0.102070,-0.150228,-0.147683,0.568564,0.000000,0.822639
0.175407,0.176786,0.038224,-0.977070,0.000000,-0.212919
0.111861,-0.062761,-0.140413,-0.623099,0.000000,0.782143
0.290192,-0.184251,0.103080,0.000000,-1.000000,0.000000
-0.123295,-0.173019,-0.288184,-0.393347,0.000000,-0.919390
0.112023,-0.023656,0.140283,-0.624002,0.000000,-0.781423
-0.313439,0.094915,0.002818,-0.999960,0.000000,0.008990
0.305498,0.166398,0.070164,0.974625,0.000000,0.223844
0.296268,-0.068884,0.102359,0.945178,0.000000,0.326555
-0.174301,0.130670,-0.042983,0.970914,0.000000,0.239429
-0.290142,0.013533,0.118616,-0.925635,0.000000,0.378418
-0.047939,-0.184251,0.173351,0.000000,-1.000000,0.000000
0.277717,-0.024958,0.145345,0.885997,0.000000,0.463691
0.113495,0.136497,0.139095,-0.632201,0.000000,-0.774805
0.209693,0.157320,-0.232983,0.668979,0.000000,-0.743281
0.301284,0.144437,-0.086488,0.961180,0.000000,-0.275923
0.030768,-0.143965,0.176867,-0.171387,0.000000,-0.985204
-0.143854,-0.129068,-0.107399,0.801313,0.000000,0.598245
0.266315,0.031052,-0.165314,0.849619,0.000000,-0.527397
-0.293968,0.094712,0.108788,-0.937841,0.000000,0.347065
-0.178699,0.136411,0.017181,0.995410,0.000000,-0.095705
0.135646,-0.184251,0.122945,0.000000,-1.000000,0.000000
0.062492,0.055111,-0.307159,0.199366,0.000000,-0.979925
-0.178776,-0.151592,0.016361,0.995838,0.000000,-0.091138
-0.095826,-0.032802,0.298445,-0.305714,0.000000,0.952124
0.085734,-0.035490,-0.157728,-0.477566,0.000000,0.878596
-0.164430,-0.111967,-0.072051,0.915926,0.000000,0.401347
0.039308,0.011874,0.175167,-0.218960,0.000000,-0.975734
-0.153580,-0.068341,-0.092961,0.855487,0.000000,0.517824
0.033697,-0.184251,-0.310897,0.000000,-1.000000,0.000000
-0.200831,0.184251,0.106238,0.000000,1.000000,0.000000
0.009023,-0.080198,-0.313322,0.028786,0.000000,-0.999586
0.228170,0.184251,-0.020007,0.000000,1.000000,0.000000
-0.156931,0.154468,0.087184,0.874158,0.000000,-0.485642
-0.050887,0.123341,-0.309294,-0.162345,0.000000,-0.986734
-0.156639,0.005723,0.087709,0.872527,0.000000,-0.488566
-0.072191,-0.054731,-0.164368,0.402127,0.000000,0.915584
0.288276,0.114417,0.123081,0.919682,0.000000,0.392664
0.006280,-0.121185,0.179413,-0.034984,0.000000,-0.999388
-0.080526,-0.145393,0.160449,0.448557,0.000000,-0.893754
0.008030,-0.113707,-0.313349,0.025619,0.000000,-0.999672
-0.216618,0.184251,0.091058,0.000000,1.000000,0.000000
0.206481,-0.184251,-0.157230,0.000000,-1.000000,0.000000
0.168971,0.126126,0.060641,-0.941221,0.000000,-0.337791
-0.090547,0.099788,-0.155015,0.504377,0.000000,0.863484
-0.164445,0.184251,-0.214022,0.000000,1.000000,0.000000
-0.012772,-0.092564,0.313191,-0.040746,0.000000,0.999170
-0.253059,-0.086450,0.184968,-0.807329,0.000000,0.590101
0.135902,0.032355,0.282458,0.433566,0.000000,0.901122
-0.049767,0.119522,0.172487,0.277218,0.000000,-0.960807
-0.240679,-0.102238,0.200813,-0.767833,0.000000,0.640650
-0.166312,0.105854,0.067593,0.926411,0.000000,-0.376513
-0.173663,0.128603,-0.045493,0.967358,0.000000,0.253413
0.209693,0.157320,-0.232983,0.668979,0.000000,-0.743281
-0.011512,0.000786,-0.179154,0.064127,0.000000,0.997942
0.046314,0.071954,0.173446,-0.257981,0.000000,-0.966150
0.094156,-0.136040,0.298976,0.300386,0.000000,0.953818
-0.147564,-0.026947,0.276545,-0.470770,0.000000,0.882256
0.202680,-0.184251,0.146967,0.000000,-1.000000,0.000000
0.288614,0.010452,-0.122287,0.920760,0.000000,-0.390129
0.129473,-0.044270,0.285462,0.413055,0.000000,0.910706
-0.050025,0.132226,0.309434,-0.159593,0.000000,0.987183
-0.096489,0.001755,-0.151388,0.537474,0.000000,0.843280
0.156482,-0.121202,0.087988,-0.871653,0.000000,-0.490123
0.281717,-0.184251,0.050296,0.000000,-1.000000,0.000000
-0.049195,-0.101621,0.172651,0.274034,0.000000,-0.961720
0.052361,-0.147830,0.171717,-0.291669,0.000000,-0.956519
0.272015,-0.184251,-0.093240,0.000000,-1.000000,0.000000
-0.104641,-0.158370,-0.295470,-0.333835,0.000000,-0.942632
-0.257802,0.184251,-0.010281,0.000000,1.000000,0.000000
0.085734,-0.035490,-0.157728,-0.477566,0.000000,0.878596
-0.181228,0.184251,0.130243,0.000000,1.000000,0.000000
-0.066455,0.174789,-0.306326,-0.212011,0.000000,-0.977267
0.102254,0.004627,-0.296304,0.326220,0.000000,-0.945294
-0.287570,0.083592,-0.124721,-0.917431,0.000000,-0.397895
-0.102874,0.080838,0.147124,0.573043,0.000000,-0.819525
-0.059103,0.008161,0.307829,-0.188557,0.000000,0.982062
-0.041019,-0.184251,0.305225,0.000000,-1.000000,0.000000
-0.000446,0.065489,-0.313451,-0.001422,0.000000,-0.999999
0.158805,0.029444,0.083724,-0.884591,0.000000,-0.466367
-0.201493,-0.184251,-0.161252,0.000000,-1.000000,0.000000
-0.264676,-0.020772,-0.167925,-0.844390,0.000000,-0.535729
0.170517,-0.184251,-0.110401,0.000000,-1.000000,0.000000
0.011287,-0.184251,-0.241414,0.000000,-1.000000,0.000000
-0.168148,0.081806,0.062886,0.936640,0.000000,-0.350294
0.174811,-0.171582,0.040860,-0.973754,0.000000,-0.227602
0.121726,-0.184251,0.194668,0.000000,-1.000000,0.000000
-0.066223,-0.184251,-0.168759,0.000000,-1.000000,0.000000
0.280533,0.128654,0.139833,0.894980,0.000000,0.446106
0.311998,0.141567,-0.030155,0.995362,0.000000,-0.096202
-0.046839,0.127134,-0.173305,0.260910,0.000000,0.965363
0.115604,0.088084,-0.137347,-0.643953,0.000000,0.765065
-0.121960,0.184251,0.140556,0.000000,1.000000,0.000000
0.110166,-0.061617,-0.141746,-0.613661,0.000000,0.789569
0.313451,0.177864,0.000522,0.999999,0.000000,0.001665
-0.112610,0.070191,-0.139812,0.627276,0.000000,0.778797
0.228393,-0.117628,-0.214682,0.728639,0.000000,-0.684897
-0.155302,-0.005058,-0.090054,0.865082,0.000000,0.501631
0.222322,-0.107592,0.220964,0.709269,0.000000,0.704938
0.272674,0.184251,0.129730,0.000000,1.000000,0.000000
0.000476,-0.018343,-0.313451,0.001517,0.000000,-0.999999
-0.286715,0.005856,0.126676,-0.914701,0.000000,0.404131
0.220156,-0.101232,0.223122,0.702361,0.000000,0.711821
0.008824,0.184251,0.234497,0.000000,1.000000,0.000000
-0.171851,-0.064650,0.051920,0.957265,0.000000,-0.289213
0.266839,-0.184251,-0.040555,0.000000,-1.000000,0.000000
0.117761,0.159674,-0.135503,-0.655964,0.000000,0.754792
-0.254766,-0.091807,0.182610,-0.812775,0.000000,0.582577
0.309194,0.036711,-0.051490,0.986416,0.000000,-0.164268
0.133090,0.158841,0.283794,0.424594,0.000000,0.905384
-0.038401,0.146579,0.175368,0.213905,0.000000,-0.976855
-0.083592,-0.056222,0.158874,0.465632,0.000000,-0.884978
0.167735,0.013847,0.063982,-0.934334,0.000000,-0.356398
0.301798,-0.184251,0.032073,0.000000,-1.000000,0.000000
0.025913,-0.058645,0.312379,0.082669,0.000000,0.996577
-0.167732,-0.183123,-0.063988,0.934321,0.000000,0.356432
-0.156492,0.128605,-0.087970,0.871710,0.000000,0.490022
0.096033,-0.184251,-0.289690,0.000000,-1.000000,0.000000
0.172631,-0.184251,0.058617,0.000000,-1.000000,0.000000
-0.254954,0.184251,0.050210,0.000000,1.000000,0.000000
0.016360,-0.023504,0.313025,0.052194,0.000000,0.998637
0.172872,-0.168802,0.048414,-0.962949,0.000000,-0.269682
0.067887,0.184251,-0.233453,0.000000,1.000000,0.000000
-0.082764,-0.088261,0.159307,0.461024,0.000000,-0.887388
0.110442,0.033833,-0.141531,-0.615199,0.000000,0.788372
0.158175,0.038587,0.270615,0.504624,0.000000,0.863339
-0.273986,-0.065151,-0.152261,-0.874094,0.000000,-0.485756
-0.254181,-0.153574,0.183423,-0.810910,0.000000,0.585171
-0.131635,0.060242,-0.284472,-0.419955,0.000000,-0.907545
-0.165870,-0.114096,-0.068670,0.923951,0.000000,0.382512
-0.055819,-0.023317,-0.308442,-0.178080,0.000000,-0.984016
0.181290,0.184251,0.122100,0.000000,1.000000,0.000000
0.030768,-0.143965,0.176867,-0.171387,0.000000,-0.985204
-0.056470,0.184251,-0.182406,0.000000,1.000000,0.000000
-0.112825,0.161754,0.139639,0.628473,0.000000,-0.777831
0.038001,-0.150316,0.175455,-0.211680,0.000000,-0.977339
-0.049276,0.090520,0.172628,0.274482,0.000000,-0.961592
-0.118078,-0.106677,-0.135226,0.657730,0.000000,0.753254
0.148959,-0.184251,0.178204,0.000000,-1.000000,0.000000
0.282080,-0.050294,-0.136685,0.899916,0.000000,-0.436064
-0.152906,0.017110,0.094065,0.851736,0.000000,-0.523972
0.147432,-0.174047,0.276615,0.470350,0.000000,0.882480
-0.173394,0.184251,-0.085832,0.000000,1.000000,0.000000
0.162413,-0.087256,-0.076488,-0.904693,0.000000,0.426064
0.129005,-0.097795,0.124845,-0.718599,0.000000,-0.695425
0.153791,0.184251,-0.242119,0.000000,1.000000,0.000000
0.154910,0.146566,0.272497,0.494208,0.000000,0.869343
0.227939,-0.057168,0.215165,0.727190,0.000000,0.686437
-0.008067,-0.184251,0.222030,0.000000,-1.000000,0.000000
-0.084403,0.121957,0.158444,0.470153,0.000000,-0.882585
0.220381,-0.184251,0.030739,0.000000,-1.000000,0.000000
0.154317,-0.074010,0.091733,-0.859592,0.000000,-0.510981
0.175535,0.047313,0.037630,-0.977785,0.000000,-0.209608
-0.017917,-0.171035,-0.178627,0.099801,0.000000,0.995007
-0.310962,-0.083412,0.039430,-0.992056,0.000000,0.125794
-0.130748,0.184251,-0.185224,0.000000,1.000000,0.000000
0.311592,0.010067,-0.034092,0.994068,0.000000,-0.108764
0.308749,-0.169344,-0.054091,0.984998,0.000000,-0.172565
0.160712,-0.184251,0.121851,0.000000,-1.000000,0.000000
-0.062017,0.044914,0.168471,0.345452,0.000000,-0.938436
-0.114769,0.179739,0.138046,0.639300,0.000000,-0.768958
0.098097,-0.047250,-0.297706,0.312957,0.000000,-0.949767
-0.088967,-0.184251,-0.244284,0.000000,-1.000000,0.000000
-0.059103,0.008161,0.307829,-0.188557,0.000000,0.982062
0.162330,0.054411,0.076666,-0.904227,0.000000,-0.427052
0.010388,0.069407,-0.179222,-0.057863,0.000000,0.998325
-0.219027,0.060120,-0.224230,-0.698758,0.000000,-0.715358
0.057940,0.184251,-0.302626,0.000000,1.000000,0.000000
-0.190656,-0.184251,-0.190700,0.000000,-1.000000,0.000000
0.313096,-0.008866,0.014921,0.998866,0.000000,0.047601
-0.106434,-0.184251,0.178095,0.000000,-1.000000,0.000000
-0.186367,-0.184251,0.010942,0.000000,-1.000000,0.000000
-0.188686,-0.047085,-0.250299,-0.601961,0.000000,-0.798525
0.020067,-0.153131,-0.178398,-0.111779,0.000000,0.993733
-0.275281,-0.171781,-0.149908,-0.878225,0.000000,-0.478248
-0.063488,0.023594,-0.167922,0.353648,0.000000,0.935379
0.292913,-0.008971,-0.111598,0.934474,0.000000,-0.356030
-0.242013,0.081445,-0.199203,-0.772089,0.000000,-0.635515
-0.179439,0.145980,0.005493,0.999532,0.000000,-0.030596
-0.025395,-0.184251,0.218976,0.000000,-1.000000,0.000000
-0.172325,0.062716,0.050325,0.959904,0.000000,-0.280328
0.094241,-0.184251,-0.276409,0.000000,-1.000000,0.000000
0.115500,-0.180768,-0.137435,-0.643372,0.000000,0.765554
0.196813,0.184251,0.011751,0.000000,1.000000,0.000000
0.121324,0.136200,0.132321,-0.675816,0.000000,-0.737071
0.159529,0.045264,-0.269819,0.508943,0.000000,-0.860800
-0.178594,0.111678,0.018237,0.994827,0.000000,-0.101584
0.061367,-0.022825,0.168709,-0.341831,0.000000,-0.939761
-0.280446,-0.027721,-0.140007,-0.894703,0.000000,-0.446661
-0.090747,-0.062774,-0.154898,0.505489,0.000000,0.862833
-0.118350,0.184251,-0.256354,0.000000,1.000000,0.000000
0.251138,0.184251,0.156819,0.000000,1.000000,0.000000
-0.064987,0.045376,0.167347,0.361999,0.000000,-0.932178
0.264754,0.184251,0.129752,0.000000,1.000000,0.000000
0.255892,-0.184251,0.044883,0.000000,-1.000000,0.000000
-0.143310,-0.171325,0.278773,-0.457199,0.000000,0.889364
-0.034153,0.110767,0.176244,0.190242,0.000000,-0.981737
0.149173,-0.065305,0.275680,0.475904,0.000000,0.879497
0.293280,0.030189,-0.110628,0.935647,0.000000,-0.352936
0.259331,-0.184251,0.064814,0.000000,-1.000000,0.000000
0.130492,-0.184251,0.254092,0.000000,-1.000000,0.000000
0.219263,0.178703,-0.223999,0.699512,0.000000,-0.714620
-0.173496,0.182652,0.261058,-0.553501,0.000000,0.832848
-0.006955,-0.108800,-0.179388,0.038742,0.000000,0.999249
-0.115686,0.156183,0.137278,0.644410,0.000000,-0.764680
-0.124675,-0.105264,-0.287590,-0.397748,0.000000,-0.917495
0.007345,0.011788,0.313366,0.023433,0.000000,0.999725
-0.308380,0.118449,-0.056161,-0.983818,0.000000,-0.179170
0.200277,-0.184251,0.049256,0.000000,-1.000000,0.000000
-0.051047,-0.169942,-0.172113,0.284347,0.000000,0.958721
0.061781,0.184251,-0.236647,0.000000,1.000000,0.000000
-0.033121,-0.160153,-0.176441,0.184495,0.000000,0.982834
-0.152976,0.184251,0.169617,0.000000,1.000000,0.000000
0.244966,-0.151618,0.195560,0.781509,0.000000,0.623893
0.002923,0.184251,-0.240068,0.000000,1.000000,0.000000
0.233437,-0.167404,-0.209187,0.744730,0.000000,-0.667366
0.146266,0.184251,0.230630,0.000000,1.000000,0.000000
-0.079546,0.129284,-0.303191,-0.253773,0.000000,-0.967264
0.062086,-0.136368,0.168445,-0.345841,0.000000,-0.938293
0.051899,-0.116204,0.171858,-0.289092,0.000000,-0.957301
0.156376,0.075611,0.088177,-0.871062,0.000000,-0.491173
0.146266,0.184251,0.230630,0.000000,1.000000,0.000000
0.237572,0.125402,0.204479,0.757921,0.000000,0.652346
0.219388,-0.184251,0.105828,0.000000,-1.000000,0.000000
-0.166993,-0.168522,0.065893,0.930203,0.000000,-0.367046
0.087753,0.184251,0.188821,0.000000,1.000000,0.000000
-0.032748,0.184251,-0.206969,0.000000,1.000000,0.000000
0.080537,0.184251,-0.235498,0.000000,1.000000,0.000000
0.308749,-0.169344,-0.054091,0.984998,0.000000,-0.172565
0.113727,-0.111202,0.138905,-0.633496,0.000000,-0.773746
