x,y,z,nx,ny,nz
-6.550992,7.225217,-22.590606,-0.649448,0.760406,0.000000
6.698586,-0.143086,3.405214,-1.000000,0.000000,0.000000
-1.729338,1.448634,-36.275570,0.773010,-0.634393,0.000000
6.714445,-2.277222,12.170499,0.923880,-0.382683,0.000000
-0.444152,-2.222573,30.910988,0.290284,0.956940,0.000000
4.354081,0.014010,33.788624,1.000000,0.000000,0.000000
2.160175,6.333373,14.796534,0.382684,0.923879,0.000000
-8.738478,-4.377838,-26.065622,-0.923879,-0.382684,0.000000
-1.951838,1.133721,11.700148,0.881921,-0.471397,0.000000
3.961214,-5.870079,3.943132,0.522498,-0.852640,0.000000
-8.849162,4.110625,-37.378189,-0.923879,0.382684,0.000000
-2.316094,-6.268789,16.155129,-0.382684,-0.923879,0.000000
2.229398,-6.734255,-4.289560,0.382683,-0.923880,0.000000
-5.912950,-3.891256,9.805995,-0.852640,-0.522498,0.000000
5.700581,7.556230,-39.271446,0.000000,0.000000,-1.000000
-2.894405,3.685344,-39.271446,0.000000,-0.000000,-1.000000
-3.784192,-8.984375,-32.964696,-0.382684,-0.923879,0.000000
-2.078355,0.897026,30.338732,0.881921,-0.471397,0.000000
-7.869015,5.797202,-16.539691,-0.760406,0.649448,0.000000
2.354117,6.253040,18.145744,0.382684,0.923879,0.000000
4.354081,-0.544275,-2.447315,1.000000,0.000000,0.000000
3.766142,-8.991851,-37.031122,0.382684,-0.923879,0.000000
-3.396722,6.095760,-39.271446,0.000000,0.000000,-1.000000
-4.184831,1.848059,-39.271446,0.000000,0.000000,-1.000000
-6.752174,2.181165,2.402494,-0.972370,0.233445,0.000000
-7.522736,6.202643,-20.687467,-0.760406,0.649448,0.000000
-6.808432,1.946833,3.672582,-0.972370,0.233445,0.000000
0.252511,7.076798,-5.211971,0.078459,0.996917,-0.000000
0.802227,-2.113952,25.825060,-0.290284,0.956940,0.000000
-6.730581,7.071834,-23.910518,-0.649448,0.760406,0.000000
3.758532,5.528838,14.374147,0.522499,0.852640,0.000000
-8.445213,4.876375,-27.893526,-0.852640,0.522499,0.000000
2.344607,6.686534,13.300382,0.382683,0.923880,-0.000000
6.441783,2.935488,5.274383,0.923880,0.382683,-0.000000
-1.680543,-9.622173,-17.424965,-0.233445,-0.972370,0.000000
-9.101385,-3.501705,-20.253295,-0.923879,-0.382684,0.000000
-2.719130,-6.101846,17.227028,-0.382684,-0.923879,0.000000
2.940822,6.439573,9.735286,0.382683,0.923880,-0.000000
-7.422881,6.319557,-24.239826,-0.760406,0.649448,0.000000
6.698586,0.217285,-14.163268,-1.000000,0.000000,0.000000
2.321319,9.468337,-13.961041,0.233445,0.972370,-0.000000
7.253187,-6.518244,-20.581569,0.760406,-0.649448,0.000000
6.698586,0.510463,10.609370,-1.000000,0.000000,0.000000
0.201476,2.246871,18.342691,-0.098017,-0.995185,0.000000
9.405981,2.581052,-22.305507,0.972370,0.233445,-0.000000
6.257763,1.172253,35.336385,0.000000,-1.000000,0.000000
4.354081,-0.994907,3.634735,1.000000,0.000000,0.000000
-9.353177,2.800995,-25.592493,-0.972370,0.233445,0.000000
-6.974731,-1.254150,0.716406,-0.972370,-0.233445,-0.000000
-5.781427,4.105882,-4.686404,-0.852640,0.522498,0.000000
-9.752410,-0.334967,-15.670382,-0.996917,-0.078460,0.000000
1.307560,-6.961908,-5.728612,0.233445,-0.972370,0.000000
-4.743698,5.252469,3.275054,-0.649448,0.760406,0.000000
6.075861,3.625410,12.652721,0.852640,0.522498,-0.000000
-6.570464,-1.238043,29.558264,-0.972370,-0.233445,-0.000000
-8.798310,4.233391,-25.515398,-0.923879,0.382684,0.000000
6.930178,1.439727,7.683184,0.972370,0.233445,-0.000000
-3.946908,5.878846,-3.731489,-0.522498,0.852640,0.000000
5.927625,3.107770,22.881824,0.852640,0.522499,0.000000
2.121569,0.777117,-17.087279,-0.956940,-0.290284,0.000000
-6.959292,-1.318456,5.654762,-0.972370,-0.233445,-0.000000
-0.471003,2.214428,-7.602890,0.290284,-0.956940,0.000000
-1.587032,-9.644623,-19.885328,-0.233445,-0.972370,0.000000
-5.771740,4.841317,-39.271446,0.000000,0.000000,-1.000000
4.946423,1.172253,-31.848817,0.000000,-1.000000,-0.000000
3.467161,-6.172835,3.017724,0.522498,-0.852640,0.000000
1.178344,-6.584796,26.455031,0.233445,-0.972370,0.000000
3.281580,-5.821114,34.795612,0.522499,-0.852640,0.000000
-6.052690,3.663220,-10.850131,-0.852640,0.522498,0.000000
-5.665985,-3.534728,15.453686,-0.852640,-0.522499,-0.000000
4.354081,-0.356703,-7.759824,1.000000,0.000000,0.000000
3.305044,5.806736,15.362692,0.522499,0.852640,0.000000
-7.498664,-6.230827,-22.951522,-0.760406,-0.649448,0.000000
-1.421433,-1.751662,-19.590833,0.634393,0.773010,-0.000000
1.889944,1.249517,-14.268162,-0.881921,-0.471397,0.000000
-0.363048,2.230958,38.805910,0.098017,-0.995185,0.000000
2.117212,-6.767528,4.615430,0.233445,-0.972370,0.000000
2.210752,0.483120,7.215566,-0.956940,-0.290284,0.000000
1.980285,1.080502,25.241994,-0.881921,-0.471397,0.000000
2.156302,0.662619,36.019749,-0.956940,-0.290284,0.000000
-2.164497,-6.331583,13.639151,-0.382684,-0.923879,0.000000
3.732679,-5.544680,16.840795,0.522499,-0.852640,0.000000
-9.442213,2.430132,-18.517106,-0.972370,0.233445,0.000000
8.717329,4.428896,-38.560497,0.923879,0.382684,-0.000000
-1.965371,-8.783454,-12.890798,-0.000000,-0.000000,1.000000
-1.662451,6.468573,24.958233,-0.233445,0.972370,0.000000
2.355836,-6.252328,21.885311,0.382684,-0.923879,0.000000
8.098322,5.442450,-29.492511,0.852640,0.522499,-0.000000
2.097001,-0.858108,7.341239,-0.956940,0.290284,0.000000
-8.364554,-5.007999,-14.011290,-0.852640,-0.522499,0.000000
0.198202,2.247194,-26.534186,-0.098017,-0.995185,0.000000
-5.890643,3.180222,-39.271446,0.000000,0.000000,-1.000000
0.656162,2.158261,-0.441339,-0.290284,-0.956940,0.000000
2.439999,-6.647021,9.024576,0.382683,-0.923880,0.000000
-0.732497,-6.640938,26.037121,-0.078459,-0.996917,0.000000
7.092531,-0.052603,12.246527,0.996917,-0.078459,0.000000
9.503665,2.174166,-24.902590,0.972370,0.233445,0.000000
0.661018,-7.044647,-1.051064,0.078459,-0.996917,0.000000
0.836051,2.103692,-7.827767,-0.290284,-0.956940,0.000000
1.476709,-1.706297,-29.375925,-0.634393,0.773010,0.000000
6.436994,-1.172253,31.558553,0.000000,1.000000,-0.000000
4.587023,-4.864380,24.841128,0.649448,-0.760406,0.000000
0.823335,2.107549,11.054701,-0.290284,-0.956940,0.000000
1.862121,1.286838,4.548924,-0.773010,-0.634393,0.000000
3.941865,-5.856212,13.496894,0.000000,-0.000000,1.000000
-6.083483,-3.612970,13.233521,-0.852640,-0.522498,0.000000
-1.707375,1.475396,33.153464,0.773010,-0.634393,0.000000
-4.239535,-8.615865,-39.271446,0.000000,-0.000000,-1.000000
-1.094456,7.010535,7.165621,-0.078459,0.996917,0.000000
-2.250442,-0.165220,-30.576745,0.995185,0.098017,-0.000000
1.664557,1.527570,-21.953698,-0.773010,-0.634393,0.000000
3.451096,6.182680,4.550639,0.522498,0.852640,-0.000000
-9.664873,1.447223,-20.933498,-0.996917,0.078460,0.000000
6.698586,-1.167990,-22.766458,-1.000000,0.000000,0.000000
4.354081,-0.091397,3.944484,1.000000,0.000000,0.000000
-8.042535,5.533487,-20.374390,-0.852640,0.522499,0.000000
-0.799817,2.114683,22.731400,0.290284,-0.956940,0.000000
-4.405393,8.727065,-28.667532,-0.382684,0.923879,0.000000
-6.652083,-2.427777,-0.103364,-0.923880,-0.382683,-0.000000
4.299585,-8.770892,-17.669773,0.382684,-0.923879,0.000000
6.698586,0.220559,-17.661701,-1.000000,0.000000,0.000000
2.003417,6.386714,29.382561,0.233445,0.972370,0.000000
-1.749348,-2.056206,39.271446,0.000000,-0.000000,1.000000
1.272249,-9.678643,-14.036700,0.078460,-0.996917,0.000000
-4.429963,-3.917100,-39.271446,0.000000,-0.000000,-1.000000
3.140318,-9.251076,-17.193327,0.382684,-0.923879,0.000000
0.682801,9.725034,-12.959796,0.078460,0.996917,-0.000000
-1.776656,6.849288,-2.169825,-0.233445,0.972370,0.000000
-8.625971,-4.581405,-22.599906,-0.852640,-0.522499,-0.000000
4.354081,0.364460,27.184313,1.000000,0.000000,0.000000
1.755018,-1.417343,-34.836107,-0.773010,0.634393,0.000000
4.354081,-0.636738,-13.188826,1.000000,0.000000,0.000000
2.907749,-0.840013,-39.271446,0.000000,0.000000,-1.000000
-6.786856,7.023770,-36.574317,-0.649448,0.760406,0.000000
-5.475408,8.078126,-22.981036,-0.522499,0.852640,0.000000
2.238334,-0.288155,6.803706,-0.995185,0.098017,0.000000
1.800406,-3.677915,-39.271446,0.000000,0.000000,-1.000000
-4.422107,5.527134,2.494570,-0.649448,0.760406,0.000000
5.204963,-1.172253,31.002845,0.000000,1.000000,-0.000000
-2.241567,0.255329,-5.550380,0.995185,-0.098017,0.000000
-5.306047,4.069898,27.790953,-0.760406,0.649448,0.000000
-4.875998,-4.573420,38.049658,-0.760406,-0.649448,0.000000
1.091089,1.974626,23.974203,-0.471397,-0.881921,0.000000
5.471241,-4.487549,-3.975377,0.760406,-0.649448,0.000000
5.583762,3.668904,36.810201,0.852640,0.522499,-0.000000
-0.513646,-7.056246,-10.704484,-0.078459,-0.996917,0.000000
-1.693347,9.619099,-29.812850,-0.233445,0.972370,0.000000
-6.764869,-2.128287,-10.468147,-0.972370,-0.233445,0.000000
-6.155643,3.495216,3.250164,-0.852640,0.522498,0.000000
5.054253,-1.172253,-12.495298,0.000000,1.000000,-0.000000
1.797635,-1.365415,-12.297933,-0.773010,0.634393,0.000000
1.645260,-1.551084,-19.307985,-0.773010,0.634393,0.000000
5.094580,8.311497,-27.084883,0.522499,0.852640,0.000000
6.183445,-1.172253,-15.486919,0.000000,1.000000,0.000000
8.312583,-5.092809,-35.187863,0.852640,-0.522499,0.000000
-1.908986,9.567329,-17.205635,-0.233445,0.972370,0.000000
-2.704384,-6.537509,-4.490957,-0.382683,-0.923880,0.000000
6.578023,-1.206556,21.431262,0.972370,-0.233445,0.000000
4.182934,5.209505,14.348784,0.649448,0.760406,0.000000
3.723916,-5.550050,27.968460,0.522499,-0.852640,0.000000
0.335349,9.752380,-35.519825,0.078460,0.996917,0.000000
6.738088,7.065422,-18.031980,0.649448,0.760406,0.000000
0.567962,-2.185016,-6.020102,-0.290284,0.956940,0.000000
-5.426678,3.925242,25.053920,-0.852640,0.522499,0.000000
6.698586,0.654486,-11.739887,-1.000000,0.000000,0.000000
-1.816126,-1.342883,-16.038590,0.773010,0.634393,-0.000000
-5.104979,-0.494762,-39.271446,0.000000,0.000000,-1.000000
4.354081,-0.046410,38.008596,1.000000,0.000000,0.000000
-7.054389,-0.537235,-10.779148,-0.996917,-0.078459,-0.000000
-7.016466,1.019095,-12.095419,-0.996917,0.078459,0.000000
-5.277490,4.103334,16.634387,-0.760406,0.649448,0.000000
-6.680479,0.230075,30.344810,-0.996917,0.078459,0.000000
-0.874503,2.090393,33.836560,0.471397,-0.881921,0.000000
9.569483,-1.900013,-20.912615,0.972370,-0.233445,0.000000
4.031347,5.827102,-1.361361,0.522498,0.852640,0.000000
9.100700,3.503359,-17.360649,0.923879,0.382684,-0.000000
4.354081,1.154665,31.757393,1.000000,0.000000,0.000000
2.245186,0.218583,-33.509425,-0.995185,-0.098017,0.000000
-0.111089,2.255774,21.538332,0.098017,-0.995185,0.000000
1.218894,-1.906312,21.135519,-0.471397,0.881921,0.000000
-1.772752,1.395734,4.539082,0.773010,-0.634393,0.000000
3.334063,9.170824,-27.458280,0.382684,0.923879,-0.000000
6.330614,2.166836,14.857022,0.923879,0.382684,0.000000
0.569425,-8.317713,-39.271446,0.000000,0.000000,-1.000000
-1.959122,-1.120095,4.634935,0.881921,0.471397,0.000000
6.244715,2.374214,23.905351,0.923879,0.382684,0.000000
-6.319088,-3.228498,3.657645,-0.852640,-0.522498,0.000000
8.878946,-4.038720,-17.842936,0.923879,-0.382684,0.000000
-5.808327,7.859513,-35.301863,-0.649448,0.760406,0.000000
-6.404521,1.929245,33.793282,-0.972370,0.233445,0.000000
2.205257,-3.155949,-39.271446,0.000000,0.000000,-1.000000
6.496273,1.172253,-32.733078,0.000000,-1.000000,-0.000000
-5.439659,4.124296,-39.271446,0.000000,0.000000,-1.000000
4.354081,-0.357403,14.690069,1.000000,0.000000,0.000000
-2.555087,9.412214,-25.638553,-0.233445,0.972370,0.000000
5.096587,4.926212,10.946943,0.760406,0.649448,-0.000000
-0.472150,5.133954,39.271446,-0.000000,0.000000,1.000000
1.481201,1.702611,-21.800319,-0.634393,-0.773010,0.000000
-5.830118,-3.266887,22.451925,-0.852640,-0.522499,-0.000000
4.914384,-1.172253,-7.263040,0.000000,1.000000,-0.000000
-6.427147,2.970823,1.728155,-0.923880,0.382683,0.000000
-7.772110,5.910663,-21.387316,-0.760406,0.649448,0.000000
6.936184,6.889406,-14.186770,0.760406,0.649448,-0.000000
0.665850,2.155322,-11.486914,-0.290284,-0.956940,0.000000
5.806243,-1.543935,39.271446,0.000000,-0.000000,1.000000
5.680224,4.242861,4.506942,0.760406,0.649448,0.000000
0.243806,-2.242702,-4.140415,-0.098017,0.995185,0.000000
-4.541362,-4.903378,14.120695,-0.649448,-0.760406,-0.000000
4.351902,-5.587094,-7.641060,0.649448,-0.760406,0.000000
5.961929,-7.728324,-29.397813,0.649448,-0.760406,0.000000
-7.210637,-4.489717,-12.890798,0.000000,-0.000000,1.000000
6.691334,2.333019,-6.646560,0.923880,0.382683,0.000000
-8.569156,-4.674120,-15.100319,-0.852640,-0.522499,0.000000
8.982005,1.840262,-12.890798,0.000000,-0.000000,1.000000
-8.495980,-3.450466,-39.271446,0.000000,0.000000,-1.000000
6.654844,2.421113,-6.687265,0.923880,0.382683,0.000000
-6.725927,2.249504,4.149363,-0.923880,0.382683,0.000000
3.771302,-8.989714,-25.989296,0.382684,-0.923879,0.000000
1.383001,1.783202,-37.305802,-0.634393,-0.773010,0.000000
-8.775074,4.289488,-38.461750,-0.923879,0.382684,0.000000
6.467765,-1.665814,13.734482,0.972370,-0.233445,0.000000
6.008757,-3.734912,-10.828128,0.852640,-0.522498,0.000000
6.372009,2.064668,32.632028,0.972370,0.233445,-0.000000
-8.406360,4.939778,-35.929364,-0.852640,0.522499,0.000000
-9.125514,-1.874841,-12.890798,0.000000,-0.000000,1.000000
6.557180,7.219932,-25.762505,0.649448,0.760406,0.000000
-2.560252,-9.410974,-13.958646,-0.233445,-0.972370,0.000000
9.435437,-2.458356,-31.578933,0.972370,-0.233445,0.000000
-6.410824,-1.902991,28.663697,-0.972370,-0.233445,0.000000
-7.451982,4.804620,-12.890798,-0.000000,-0.000000,1.000000
-1.577371,-9.646943,-37.240806,-0.233445,-0.972370,0.000000
-6.370407,-7.379451,-32.627246,-0.649448,-0.760406,-0.000000
3.983158,3.492313,39.271446,0.000000,-0.000000,1.000000
-6.897518,-1.575765,3.327802,-0.972370,-0.233445,0.000000
-3.145312,-6.354871,10.126504,-0.382683,-0.923880,0.000000
-4.726465,4.745285,34.058438,-0.649448,0.760406,0.000000
4.354081,-0.772656,22.950523,1.000000,0.000000,0.000000
7.898551,-1.488476,-12.890798,0.000000,-0.000000,1.000000
-5.725840,3.343386,39.271446,-0.000000,-0.000000,1.000000
7.340792,6.415671,-14.304923,0.760406,0.649448,-0.000000
9.700834,-0.990299,-24.284577,0.996917,-0.078460,0.000000
4.435950,-1.172253,-18.115179,0.000000,1.000000,-0.000000
5.099709,-1.172253,11.145339,0.000000,1.000000,-0.000000
4.871992,-4.578111,23.795672,0.760406,-0.649448,0.000000
-2.911883,6.451560,-11.356164,-0.382683,0.923880,0.000000
-1.598729,1.606159,7.167161,0.634393,-0.773010,0.000000
-6.622280,-0.969566,22.807306,-0.996917,-0.078459,0.000000
7.753700,5.629864,-12.890798,0.000000,-0.000000,1.000000
-4.519802,-5.443695,-11.468841,-0.649448,-0.760406,0.000000
-2.241610,0.254892,28.463199,0.995185,-0.098017,0.000000
2.763027,-6.513218,-4.087691,0.382683,-0.923880,0.000000
-1.748471,9.605865,-32.697348,-0.233445,0.972370,0.000000
-2.155095,-7.615483,-12.890798,-0.000000,-0.000000,1.000000
5.804877,1.172253,-5.115355,-0.000000,-1.000000,0.000000
3.677675,-6.043833,-5.504529,0.522498,-0.852640,0.000000
0.326932,-2.234515,27.884951,-0.098017,0.995185,0.000000
3.423892,7.817176,-12.890798,-0.000000,0.000000,1.000000
-3.274052,-6.291172,11.824393,-0.522498,-0.852640,0.000000
-1.356373,-6.542055,16.442373,-0.233445,-0.972370,0.000000
-1.477684,-1.705497,30.571359,0.634393,0.773010,0.000000
4.438997,1.172253,16.575261,0.000000,-1.000000,0.000000
1.829528,-1.326552,18.984905,-0.773010,0.634393,0.000000
-9.582684,-1.845027,-14.696719,-0.972370,-0.233445,0.000000
-0.485396,-2.210062,20.535802,0.290284,0.956940,0.000000
-7.081458,-0.193290,-8.419587,-0.996917,-0.078459,-0.000000
-4.533274,5.432188,0.772880,-0.649448,0.760406,0.000000
-1.540514,-6.905981,0.107435,-0.233445,-0.972370,0.000000
4.022921,-5.346169,36.182614,0.649448,-0.760406,0.000000
-0.148113,2.252127,-12.894559,0.098017,-0.995185,0.000000
4.710311,1.172253,-36.368847,0.000000,-1.000000,-0.000000
3.657129,5.590978,37.125499,0.522499,0.852640,-0.000000
-0.884561,2.085018,11.116761,0.471397,-0.881921,0.000000
-9.694226,1.074257,-36.510166,-0.996917,0.078460,0.000000
-3.106703,6.370863,13.365597,-0.382683,0.923880,0.000000
-4.077955,5.798541,-9.441238,-0.522498,0.852640,0.000000
-1.696040,-1.489207,36.747869,0.773010,0.634393,0.000000
3.549488,-9.081592,-12.944300,0.382684,-0.923879,0.000000
-9.129798,3.433110,-18.541116,-0.923879,0.382684,0.000000
-9.135142,3.420208,-13.182698,-0.923879,0.382684,0.000000
-7.702435,-5.992241,-23.095519,-0.760406,-0.649448,0.000000
-1.734066,1.442873,-6.809232,0.773010,-0.634393,0.000000
1.383616,6.535515,27.000604,0.233445,0.972370,-0.000000
-0.284728,7.074262,-3.822787,-0.078459,0.996917,0.000000
6.753669,2.174939,-3.528593,0.972370,0.233445,-0.000000
8.292857,-5.124998,-21.901385,0.852640,-0.522499,0.000000
4.500538,-1.172253,-0.541823,0.000000,1.000000,-0.000000
-8.171089,5.323706,-26.234190,-0.852640,0.522499,0.000000
7.236114,-6.538233,-21.126673,0.760406,-0.649448,0.000000
0.866340,7.760507,-12.890798,-0.000000,0.000000,1.000000
4.762252,1.172253,-2.093910,0.000000,-1.000000,0.000000
-4.925987,4.514890,31.980277,-0.760406,0.649448,0.000000
0.471412,2.214304,-9.856237,-0.290284,-0.956940,0.000000
5.098969,-1.172253,-34.792276,0.000000,1.000000,0.000000
-0.181248,2.248864,27.830620,0.098017,-0.995185,0.000000
7.621977,-6.086446,-37.943813,0.760406,-0.649448,0.000000
-1.705491,1.477691,15.239291,0.773010,-0.634393,0.000000
2.249529,-0.174496,6.063101,-0.995185,0.098017,0.000000
-9.633012,-1.635395,-16.491680,-0.972370,-0.233445,-0.000000
7.590158,6.123702,-31.572752,0.760406,0.649448,0.000000
2.836117,6.053388,17.957074,0.382684,0.923879,0.000000
1.644786,1.551662,23.518790,-0.773010,-0.634393,0.000000
4.656377,1.172253,-23.854664,0.000000,-1.000000,0.000000
2.269509,-6.288085,32.628124,0.382684,-0.923879,0.000000
9.671568,-1.362148,-14.001036,0.996917,-0.078460,0.000000
-3.706375,-6.026245,8.585610,-0.522498,-0.852640,0.000000
0.740517,-3.923151,-39.271446,0.000000,0.000000,-1.000000
-6.884978,1.627996,-2.694705,-0.972370,0.233445,0.000000
4.252723,-7.789126,-12.890798,0.000000,0.000000,1.000000
-1.598072,-6.484028,20.699899,-0.233445,-0.972370,0.000000
7.061508,0.446785,9.279291,0.996917,0.078459,-0.000000
4.719362,-5.273254,-1.798263,0.649448,-0.760406,0.000000
4.828416,-4.749705,-39.271446,0.000000,-0.000000,-1.000000
6.516496,-1.261413,39.271446,0.000000,-0.000000,1.000000
4.354081,0.978813,8.496858,1.000000,0.000000,0.000000
0.509642,9.738662,-13.353237,0.078460,0.996917,-0.000000
-3.829075,-5.951054,0.674430,-0.522498,-0.852640,0.000000
8.783848,-4.268305,-29.871820,0.923879,-0.382684,0.000000
-5.383271,4.590549,-9.035859,-0.760406,0.649448,0.000000
-6.996717,1.162573,10.333710,-0.972370,0.233445,0.000000
0.551188,9.735393,-20.512270,0.078460,0.996917,-0.000000
3.760940,-5.721384,-39.271446,0.000000,0.000000,-1.000000
-2.165725,-0.631556,-10.493689,0.956940,0.290284,-0.000000
9.375168,-2.709398,-29.176641,0.972370,-0.233445,0.000000
0.043626,-3.109355,-39.271446,0.000000,0.000000,-1.000000
4.741005,8.528168,-19.747545,0.522499,0.852640,-0.000000
-0.126800,-2.254226,25.972173,0.098017,0.995185,0.000000
2.112922,0.805622,35.868196,-0.956940,-0.290284,0.000000
-2.653219,9.388655,-13.433418,-0.233445,0.972370,0.000000
-7.409319,6.335437,-35.403195,-0.760406,0.649448,0.000000
-1.934254,-6.811452,-12.509625,-0.233445,-0.972370,0.000000
-6.562041,-1.273125,28.513988,-0.972370,-0.233445,-0.000000
2.751552,-9.365048,-37.879197,0.233445,-0.972370,0.000000
-5.877543,-0.337580,39.271446,0.000000,-0.000000,1.000000
6.089293,2.749437,29.943238,0.923879,0.382684,-0.000000
1.543252,1.651687,-13.832564,-0.634393,-0.773010,0.000000
-0.865430,9.710661,-15.033377,-0.078460,0.996917,0.000000
2.243852,-0.232128,-33.608361,-0.995185,0.098017,0.000000
-0.461291,2.217374,32.692604,0.290284,-0.956940,0.000000
-2.242283,-0.248060,-11.861130,0.995185,0.098017,-0.000000
1.523310,7.361044,-39.271446,0.000000,0.000000,-1.000000
-2.768726,6.510858,7.503711,-0.382683,0.923880,0.000000
5.544484,4.401792,-2.306762,0.760406,0.649448,0.000000
5.924139,-3.872996,-10.284134,0.852640,-0.522498,0.000000
-6.607078,1.085535,16.298406,-0.972370,0.233445,0.000000
6.400594,-1.172253,29.758097,0.000000,1.000000,-0.000000
2.878575,-6.465357,-11.547015,0.382683,-0.923880,0.000000
9.331758,0.321130,-12.890798,0.000000,-0.000000,1.000000
9.011458,-3.718808,-22.453198,0.923879,-0.382684,0.000000
0.230772,6.680424,35.202778,0.078459,0.996917,-0.000000
-9.598029,-1.781113,-15.133720,-0.972370,-0.233445,0.000000
6.304634,3.784269,-12.890798,-0.000000,0.000000,1.000000
8.897973,3.992784,-32.761802,0.923879,0.382684,0.000000
-1.558945,1.638808,-33.271511,0.634393,-0.773010,0.000000
6.135957,2.636779,24.350588,0.923879,0.382684,-0.000000
-8.814156,-4.195137,-13.234716,-0.923879,-0.382684,0.000000
1.283937,-1.864502,-37.504280,-0.634393,0.773010,0.000000
-3.216949,-5.860720,22.590695,-0.522499,-0.852640,0.000000
-8.398729,-1.831341,-12.890798,0.000000,-0.000000,1.000000
2.766847,6.082081,26.954282,0.382684,0.923879,0.000000
3.724008,-6.015439,11.314564,0.522498,-0.852640,0.000000
-6.108274,2.703611,27.637763,-0.923879,0.382684,0.000000
2.250765,0.161947,-16.573028,-0.995185,-0.098017,0.000000
-4.227193,0.658476,39.271446,-0.000000,0.000000,1.000000
-1.084116,6.795584,13.496894,-0.000000,-0.000000,1.000000
-5.738788,-4.174292,8.867970,-0.760406,-0.649448,-0.000000
4.602149,-5.373363,10.499150,0.649448,-0.760406,0.000000
-1.896395,1.237448,-26.800066,0.881921,-0.471397,0.000000
4.895230,-1.172253,12.503435,0.000000,1.000000,-0.000000
-6.113795,7.598619,-18.726014,-0.649448,0.760406,0.000000
6.039481,1.172253,-10.019397,0.000000,-1.000000,-0.000000
-6.656534,0.534321,31.995197,-0.996917,0.078459,0.000000
-1.826695,6.429141,35.273071,-0.233445,0.972370,0.000000
6.639823,2.457376,-12.827139,0.923880,0.382683,0.000000
2.385085,-6.669767,-11.128342,0.382683,-0.923880,0.000000
-6.978455,-1.238636,3.380278,-0.972370,-0.233445,-0.000000
-1.993371,6.797259,-4.859150,-0.233445,0.972370,0.000000
-6.230518,3.373031,-2.550426,-0.852640,0.522498,0.000000
-4.872154,4.577921,31.279929,-0.760406,0.649448,0.000000
-1.733841,-1.443147,-9.936237,0.773010,0.634393,-0.000000
-8.859928,-4.084633,-30.190305,-0.923879,-0.382684,0.000000
-7.053691,0.546112,-12.867633,-0.996917,0.078459,0.000000
-5.902556,7.779033,-37.973589,-0.649448,0.760406,0.000000
-9.684662,1.195773,-13.768273,-0.996917,0.078460,0.000000
6.698586,0.667864,-8.703135,-1.000000,0.000000,0.000000
-6.158470,-2.582428,21.679282,-0.923879,-0.382684,-0.000000
6.522465,2.740704,2.080594,0.923880,0.382683,-0.000000
-4.053897,-8.872659,-20.210761,-0.382684,-0.923879,0.000000
2.242901,-0.241790,6.088106,-0.995185,0.098017,0.000000
4.526905,8.659369,-23.726493,0.522499,0.852640,-0.000000
-9.366969,-2.743550,-26.706094,-0.972370,-0.233445,0.000000
-2.745078,4.904085,39.271446,0.000000,0.000000,1.000000
1.900577,-6.411403,15.282488,0.233445,-0.972370,0.000000
-5.459320,8.087984,-37.544674,-0.522499,0.852640,0.000000
-6.708122,2.292488,-6.508740,-0.923880,0.382683,0.000000
-2.225740,-0.416024,30.874165,0.995185,0.098017,0.000000
-7.058924,0.479620,13.495103,-0.996917,0.078459,0.000000
6.405412,-3.023296,0.075424,0.923880,-0.382683,0.000000
3.703055,-4.292586,39.271446,0.000000,-0.000000,1.000000
-4.214703,-5.704274,-2.334037,-0.649448,-0.760406,0.000000
4.852139,4.601355,31.793712,0.760406,0.649448,-0.000000
-6.399456,-7.354641,-33.522594,-0.649448,-0.760406,-0.000000
6.056105,2.829559,31.340860,0.923879,0.382684,-0.000000
6.648760,1.172253,-14.750666,0.000000,-1.000000,-0.000000
2.684838,9.381064,-26.700205,0.233445,0.972370,0.000000
-6.160828,-3.486755,2.874918,-0.852640,-0.522498,0.000000
-0.371546,9.749531,-16.158425,-0.078460,0.996917,0.000000
-6.650554,-0.610314,30.401714,-0.996917,-0.078459,0.000000
-8.120577,5.406134,-38.251125,-0.852640,0.522499,0.000000
-3.243594,9.208298,-25.513238,-0.382684,0.923879,0.000000
-0.016881,2.265052,23.174245,0.098017,-0.995185,0.000000
4.354081,1.020695,-16.280987,1.000000,0.000000,0.000000
1.994624,-9.546769,-35.971281,0.233445,-0.972370,0.000000
2.714331,-6.533389,-1.929794,0.382683,-0.923880,0.000000
4.177654,5.735916,-3.849549,0.649448,0.760406,-0.000000
6.476634,-1.172253,13.471878,0.000000,1.000000,-0.000000
-7.650059,-6.053567,-26.170417,-0.760406,-0.649448,0.000000
-6.986963,1.847198,-12.890798,-0.000000,0.000000,1.000000
8.955009,-3.855086,-28.585939,0.923879,-0.382684,0.000000
6.565851,1.172253,-6.249245,0.000000,-1.000000,-0.000000
-1.351014,-1.809452,-14.366758,0.634393,0.773010,0.000000
1.428273,-6.524794,25.151237,0.233445,-0.972370,0.000000
-2.203910,6.315257,33.786293,-0.382684,0.923879,0.000000
-4.642927,-8.588270,-29.589473,-0.522499,-0.852640,0.000000
-0.280581,2.239080,6.070567,0.098017,-0.995185,0.000000
1.754693,-6.854561,6.079699,0.233445,-0.972370,0.000000
5.435921,3.910158,23.865030,0.852640,0.522499,-0.000000
-2.247578,0.194297,29.465313,0.995185,-0.098017,0.000000
2.190413,-0.550168,-3.863954,-0.956940,0.290284,0.000000
9.704575,-0.942759,-39.001334,0.996917,-0.078460,0.000000
8.326222,-5.070552,-18.918726,0.852640,-0.522499,0.000000
9.427213,-2.492612,-34.360579,0.972370,-0.233445,0.000000
4.703717,1.172253,-16.544706,0.000000,-1.000000,0.000000
4.375991,-5.044618,29.974740,0.649448,-0.760406,0.000000
-1.640057,-6.891341,-12.890798,0.000000,-0.000000,1.000000
4.354081,0.798385,8.190289,1.000000,0.000000,0.000000
-7.034457,0.790500,12.169497,-0.996917,0.078459,0.000000
-6.827940,1.865577,-4.009991,-0.972370,0.233445,0.000000
5.136718,-4.268156,35.012719,0.760406,-0.649448,0.000000
-6.937389,6.887996,-31.357614,-0.760406,0.649448,0.000000
4.558135,-8.640231,-36.368727,0.522499,-0.852640,0.000000
5.118026,-4.290042,27.291419,0.760406,-0.649448,0.000000
-1.533457,-1.659726,6.624088,0.634393,0.773010,-0.000000
6.978140,1.239950,11.218006,0.972370,0.233445,-0.000000
-6.056428,-2.828780,14.826826,-0.923879,-0.382684,-0.000000
-9.476565,-2.287048,-26.905574,-0.972370,-0.233445,-0.000000
-6.509647,-1.491362,26.191413,-0.972370,-0.233445,-0.000000
7.046376,0.639052,-8.650222,0.996917,0.078459,0.000000
4.602144,4.968488,13.496894,0.000000,-0.000000,1.000000
-4.573751,4.875715,25.980845,-0.649448,0.760406,0.000000
-5.383723,-3.978950,13.967459,-0.760406,-0.649448,0.000000
-6.234285,-7.495710,-25.446878,-0.649448,-0.760406,0.000000
5.256440,-4.127980,37.783423,0.760406,-0.649448,0.000000
-7.701356,-5.993505,-24.613182,-0.760406,-0.649448,0.000000
4.354081,-0.359718,-2.104142,1.000000,0.000000,0.000000
-6.408266,3.016404,-7.734938,-0.923880,0.382683,0.000000
1.154254,-6.998714,-0.995636,0.233445,-0.972370,0.000000
9.752144,-0.338339,-18.581971,0.996917,-0.078460,0.000000
2.213927,0.472654,-6.926289,-0.956940,-0.290284,0.000000
2.234775,-0.324296,2.762920,-0.995185,0.098017,0.000000
6.698586,-0.283065,4.525630,-1.000000,0.000000,0.000000
-0.413387,-2.226000,-12.097816,0.098017,0.995185,-0.000000
4.000538,-8.894761,-32.628761,0.382684,-0.923879,0.000000
4.354081,0.074104,24.284613,1.000000,0.000000,0.000000
4.372484,5.047613,24.177800,0.649448,0.760406,0.000000
-1.633019,-1.565999,-30.000200,0.773010,0.634393,0.000000
9.465887,2.331525,-33.588332,0.972370,0.233445,0.000000
-5.017111,-8.358971,-13.650906,-0.522499,-0.852640,0.000000
6.010157,1.172253,6.594813,-0.000000,-1.000000,0.000000
-2.183281,0.573681,-13.978098,0.956940,-0.290284,0.000000
-0.536663,-2.194510,25.745989,0.290284,0.956940,0.000000
5.132702,4.883928,-1.365983,0.760406,0.649448,-0.000000
1.503848,-1.684025,-23.673882,-0.634393,0.773010,0.000000
-5.440895,2.012048,-39.271446,0.000000,0.000000,-1.000000
-6.072110,3.631530,-4.821686,-0.852640,0.522498,0.000000
5.455977,-3.877429,18.175961,0.852640,-0.522499,0.000000
-1.146643,-1.944932,13.565527,0.471397,0.881921,-0.000000
7.538699,6.183952,-16.065236,0.760406,0.649448,-0.000000
-0.744133,2.131575,20.298264,0.290284,-0.956940,0.000000
-1.516407,1.673719,0.862753,0.634393,-0.773010,0.000000
4.354081,0.637381,9.815472,1.000000,0.000000,0.000000
-5.605668,4.330156,3.394774,-0.760406,0.649448,0.000000
6.493671,1.557907,29.768346,0.972370,0.233445,0.000000
-9.767901,-0.138133,-18.920310,-0.996917,-0.078460,-0.000000
-7.497048,-6.232719,-30.829744,-0.760406,-0.649448,0.000000
1.221606,-7.763368,-39.271446,0.000000,0.000000,-1.000000
-7.029885,0.848591,-9.764015,-0.996917,0.078459,0.000000
0.647623,-7.045702,3.466552,0.078459,-0.996917,0.000000
-6.040541,2.867132,25.101599,-0.923879,0.382684,0.000000
-2.717949,-6.102335,29.106618,-0.382684,-0.923879,0.000000
6.301630,-1.172253,12.979229,0.000000,1.000000,-0.000000
-1.977376,-1.085943,-21.571307,0.881921,0.471397,-0.000000
2.715749,9.373643,-37.286087,0.233445,0.972370,0.000000
4.462597,8.698777,-31.477696,0.522499,0.852640,-0.000000
0.276951,-6.676790,22.260443,0.078459,-0.996917,0.000000
8.392993,-4.961592,-26.772664,0.852640,-0.522499,0.000000
2.949944,-6.435795,-4.440683,0.382683,-0.923880,0.000000
-0.997844,-2.024466,-15.015223,0.471397,0.881921,-0.000000
-2.043461,-0.962307,-16.681733,0.881921,0.471397,-0.000000
6.546262,-1.338853,24.514398,0.972370,-0.233445,0.000000
-7.930648,5.716070,-22.095971,-0.852640,0.522499,0.000000
-3.043772,5.966843,19.647129,-0.522499,0.852640,0.000000
-1.846126,-1.306328,16.387073,0.773010,0.634393,-0.000000
-2.205026,0.501997,-20.999577,0.956940,-0.290284,0.000000
-1.857937,-1.291936,3.572734,0.773010,0.634393,-0.000000
-2.227273,0.400463,17.529687,0.995185,-0.098017,0.000000
-4.357360,5.234230,13.496894,-0.000000,0.000000,1.000000
-1.878448,-1.266943,-29.829091,0.773010,0.634393,-0.000000
-4.511717,8.668676,-22.556725,-0.522499,0.852640,0.000000
1.833559,1.321641,4.115753,-0.773010,-0.634393,0.000000
-9.023648,3.689379,-20.822385,-0.923879,0.382684,0.000000
-1.589250,-1.613937,27.188833,0.634393,0.773010,-0.000000
2.159736,0.651299,-25.996656,-0.956940,-0.290284,0.000000
-6.325523,3.216163,2.077420,-0.923880,0.382683,0.000000
-2.250167,-0.168015,-10.924829,0.995185,0.098017,-0.000000
4.354081,0.899708,-11.092495,1.000000,0.000000,0.000000
-4.593813,-4.858581,34.790668,-0.649448,-0.760406,0.000000
0.646057,2.161326,-16.595377,-0.290284,-0.956940,0.000000
7.686534,-6.010859,-28.986257,0.760406,-0.649448,0.000000
-2.570836,-0.973857,39.271446,0.000000,-0.000000,1.000000
6.698586,0.022714,-31.233554,-1.000000,0.000000,0.000000
3.612629,5.618247,16.240608,0.522499,0.852640,0.000000
-9.729518,0.625826,-27.285623,-0.996917,0.078460,0.000000
-1.491123,-1.694468,20.043645,0.634393,0.773010,0.000000
0.635506,-2.164526,-12.714632,-0.290284,0.956940,0.000000
1.975256,6.801609,0.666724,0.233445,0.972370,0.000000
-6.345242,3.168559,-12.251770,-0.923880,0.382683,0.000000
3.401357,9.142950,-33.218022,0.382684,0.923879,0.000000
0.472106,-7.059515,5.881531,0.078459,-0.996917,0.000000
-8.357346,-2.330837,-12.890798,0.000000,-0.000000,1.000000
-2.239942,-0.271828,-8.007920,0.995185,0.098017,0.000000
9.745670,-0.420601,-25.735413,0.996917,-0.078460,0.000000
-1.256377,-5.647174,39.271446,-0.000000,0.000000,1.000000
2.904244,-6.025169,18.670943,0.382684,-0.923879,0.000000
0.049821,-3.103654,39.271446,0.000000,-0.000000,1.000000
1.265482,-2.388296,39.271446,0.000000,0.000000,1.000000
-2.146125,6.760587,-5.211207,-0.233445,0.972370,0.000000
1.181851,-1.926113,35.848903,-0.471397,0.881921,0.000000
-7.040607,2.247055,-39.271446,0.000000,-0.000000,-1.000000
0.300939,-2.237075,-9.363915,-0.098017,0.995185,0.000000
-1.766086,-1.403856,-23.203504,0.773010,0.634393,-0.000000
-5.811595,4.056651,-10.854705,-0.852640,0.522498,0.000000
-1.627298,-1.572970,27.608286,0.773010,0.634393,0.000000
4.414066,3.161685,39.271446,0.000000,-0.000000,1.000000
6.041528,-1.172253,20.729740,0.000000,1.000000,-0.000000
-6.597426,2.559731,-0.216332,-0.923880,0.382683,0.000000
2.040288,0.968244,17.018432,-0.881921,-0.471397,0.000000
5.737601,4.175681,2.359262,0.760406,0.649448,0.000000
2.234494,-0.327146,-24.035967,-0.995185,0.098017,0.000000
4.854132,-4.599022,16.741524,0.760406,-0.649448,0.000000
6.023235,7.675964,-16.971252,0.649448,0.760406,-0.000000
7.381866,-5.034578,-39.271446,0.000000,-0.000000,-1.000000
-5.982582,3.007060,39.197562,-0.923879,0.382684,0.000000
-2.874841,-3.278683,-39.271446,0.000000,0.000000,-1.000000
1.011069,-7.017098,8.234082,0.078459,-0.996917,0.000000
-6.822422,-1.888562,7.756358,-0.972370,-0.233445,0.000000
-6.678688,-0.252831,17.524177,-0.996917,-0.078459,-0.000000
4.191621,-8.815612,-17.500988,0.382684,-0.923879,0.000000
-4.512970,-8.667909,-20.578676,-0.522499,-0.852640,0.000000
6.554200,-7.222478,-16.581265,0.649448,-0.760406,0.000000
-1.759287,7.536221,-39.271446,0.000000,0.000000,-1.000000
3.238854,6.312742,9.467181,0.522498,0.852640,-0.000000
-5.695862,-4.224552,12.377066,-0.760406,-0.649448,0.000000
-6.786650,2.037562,1.392074,-0.972370,0.233445,0.000000
-1.667342,6.875532,1.751139,-0.233445,0.972370,0.000000
0.049758,-7.092755,-3.480303,0.078459,-0.996917,0.000000
6.698586,0.965844,-4.024599,-1.000000,0.000000,0.000000
-0.920558,7.024221,9.215155,-0.078459,0.996917,0.000000
-0.696048,2.146161,-8.403389,0.290284,-0.956940,0.000000
6.708945,2.290500,2.035166,0.923880,0.382683,0.000000
0.859366,-7.866160,-39.271446,0.000000,0.000000,-1.000000
6.338993,1.172253,-16.432416,0.000000,-1.000000,-0.000000
-6.420072,2.987903,0.807403,-0.923880,0.382683,0.000000
-7.017952,1.000217,8.013979,-0.996917,0.078459,0.000000
-5.923532,7.761119,-15.415859,-0.649448,0.760406,0.000000
-7.016352,-1.020544,2.184680,-0.996917,-0.078459,0.000000
4.271191,7.534746,-12.890798,-0.000000,0.000000,1.000000
-9.337592,2.865913,-24.673805,-0.972370,0.233445,0.000000
-6.925686,1.458434,9.098749,-0.972370,0.233445,0.000000
-1.063807,6.715586,-39.271446,0.000000,0.000000,-1.000000
-2.791930,6.071691,22.654483,-0.382684,0.923879,0.000000
6.415439,-1.883770,29.253293,0.972370,-0.233445,0.000000
-1.278135,1.869263,28.908693,0.634393,-0.773010,0.000000
-0.439764,-7.062060,5.658193,-0.078459,-0.996917,0.000000
2.202276,6.315934,34.793660,0.382684,0.923879,-0.000000
5.178615,1.172253,-36.706509,0.000000,-1.000000,-0.000000
-4.044242,-8.876658,-31.326399,-0.382684,-0.923879,0.000000
9.748158,0.388986,-36.408429,0.996917,0.078460,0.000000
-5.192072,-4.203345,26.958259,-0.760406,-0.649448,0.000000
-4.505896,7.993970,-12.890798,-0.000000,-0.000000,1.000000
-5.047437,-8.340387,-32.192235,-0.522499,-0.852640,0.000000
3.437639,-6.190927,-0.688706,0.522498,-0.852640,0.000000
-0.359309,6.670308,33.689226,-0.078459,0.996917,0.000000
-9.274657,-3.083389,-30.645201,-0.923879,-0.382684,-0.000000
-2.985393,-6.421111,-8.306348,-0.382683,-0.923880,0.000000
7.059033,0.478233,-11.308552,0.996917,0.078459,0.000000
-0.841677,2.101985,15.392190,0.290284,-0.956940,0.000000
-2.224474,0.428881,-21.272364,0.995185,-0.098017,0.000000
5.595525,4.342031,2.750214,0.760406,0.649448,0.000000
-8.799392,-4.230780,-14.473021,-0.923879,-0.382684,0.000000
-6.960666,6.860742,-28.503161,-0.760406,0.649448,0.000000
1.756463,6.446002,39.193287,0.233445,0.972370,-0.000000
-2.173531,-0.605823,12.235002,0.956940,0.290284,0.000000
-3.877361,-1.556603,39.271446,0.000000,-0.000000,1.000000
4.991709,1.172253,14.078411,0.000000,-1.000000,0.000000
9.371044,-2.726574,-34.454580,0.972370,-0.233445,0.000000
-9.696730,-1.042442,-20.278440,-0.996917,-0.078460,0.000000
4.397192,-1.172253,-17.637715,0.000000,1.000000,-0.000000
-9.084855,-3.541611,-26.715313,-0.923879,-0.382684,-0.000000
5.442546,1.172253,16.958596,0.000000,-1.000000,0.000000
5.890230,-3.168793,23.017550,0.852640,-0.522499,0.000000
-0.779752,2.120770,30.994856,0.290284,-0.956940,0.000000
-2.149001,0.686687,-37.330121,0.956940,-0.290284,0.000000
6.698586,-0.109274,-20.213445,-1.000000,0.000000,0.000000
-5.208899,4.794712,-11.734386,-0.760406,0.649448,0.000000
-1.669917,-6.466780,19.975944,-0.233445,-0.972370,0.000000
-4.708183,5.282802,11.775438,-0.649448,0.760406,0.000000
-0.248421,6.679035,16.651915,-0.078459,0.996917,0.000000
1.085125,1.977814,-35.288004,-0.471397,-0.881921,0.000000
5.133647,-4.271752,21.134792,0.760406,-0.649448,0.000000
-1.758410,-1.413210,-10.764723,0.773010,0.634393,-0.000000
-9.752259,0.336881,-15.275102,-0.996917,0.078460,0.000000
6.296815,-7.442305,-30.162002,0.649448,-0.760406,0.000000
-1.982409,6.799891,5.107262,-0.233445,0.972370,0.000000
-1.622204,-1.579178,8.294686,0.773010,0.634393,0.000000
-4.638028,4.820818,33.043492,-0.649448,0.760406,0.000000
1.876693,-1.269081,33.452686,-0.773010,0.634393,0.000000
-5.441412,8.098959,-24.812028,-0.522499,0.852640,0.000000
-2.170037,8.703667,-12.890798,-0.000000,-0.000000,1.000000
-6.693251,0.067788,19.035376,-0.996917,0.078459,0.000000
8.683105,-4.488172,-17.265973,0.852640,-0.522499,0.000000
2.266632,0.000848,-25.931177,-0.995185,-0.098017,0.000000
5.263316,1.172253,26.260754,0.000000,-1.000000,0.000000
2.970620,5.997675,25.432680,0.382684,0.923879,0.000000
9.778423,-0.004443,-37.840369,0.996917,-0.078460,0.000000
6.104281,3.579031,3.281938,0.852640,0.522498,0.000000
1.924876,1.184164,-30.834136,-0.881921,-0.471397,0.000000
6.698586,-0.816300,-3.659743,-1.000000,0.000000,0.000000
2.254918,0.119777,-11.071864,-0.995185,-0.098017,0.000000
-6.599729,6.067395,-39.271446,0.000000,0.000000,-1.000000
6.957971,-1.323959,-8.247557,0.972370,-0.233445,0.000000
5.814147,3.292949,13.587681,0.852640,0.522499,0.000000
-2.248140,0.188597,10.554706,0.995185,-0.098017,0.000000
-8.761814,-4.321500,-27.751132,-0.923879,-0.382684,0.000000
-1.610563,1.593362,12.241536,0.773010,-0.634393,0.000000
5.209455,3.077158,-39.271446,0.000000,0.000000,-1.000000
-8.936389,-3.900039,-32.710868,-0.923879,-0.382684,-0.000000
3.273937,-6.291243,8.319653,0.522498,-0.852640,0.000000
5.629518,-1.172253,28.814815,0.000000,1.000000,-0.000000
3.973831,5.388096,22.633213,0.649448,0.760406,-0.000000
1.933897,-1.167288,3.989779,-0.881921,0.471397,0.000000
5.351738,4.016400,15.030209,0.760406,0.649448,0.000000
2.177368,0.593172,-25.758476,-0.956940,-0.290284,0.000000
-3.545649,6.124738,8.507997,-0.522498,0.852640,0.000000
8.303498,0.786449,-12.890798,0.000000,-0.000000,1.000000
6.685586,-2.346895,-2.953926,0.923880,-0.382683,0.000000
5.723246,-1.172253,-14.050274,0.000000,1.000000,0.000000
4.494412,-5.465380,8.029482,0.649448,-0.760406,0.000000
-2.260412,0.063991,-29.601622,0.995185,-0.098017,0.000000
6.010923,3.731378,6.475334,0.852640,0.522498,-0.000000
-6.515729,-2.756965,1.841239,-0.923880,-0.382683,0.000000
-3.083674,-5.942391,26.357732,-0.522499,-0.852640,0.000000
-2.760562,-6.084684,13.712201,-0.382684,-0.923879,0.000000
8.172804,5.320907,-24.768730,0.852640,0.522499,-0.000000
2.263055,0.037163,-8.443928,-0.995185,-0.098017,0.000000
6.524545,-1.429310,27.310905,0.972370,-0.233445,0.000000
-7.526270,-4.025151,-12.890798,0.000000,-0.000000,1.000000
5.166834,1.172253,35.864527,0.000000,-1.000000,0.000000
7.034532,0.789547,-4.988531,0.996917,0.078459,-0.000000
1.523089,-1.668234,-29.428466,-0.634393,0.773010,0.000000
5.653277,-3.555466,30.776916,0.852640,-0.522499,0.000000
-6.630303,0.867616,22.618421,-0.996917,0.078459,0.000000
-5.514383,-2.909122,-39.271446,0.000000,0.000000,-1.000000
7.074567,0.280851,5.220328,0.996917,0.078459,0.000000
6.770790,7.037492,-19.793327,0.649448,0.760406,0.000000
7.046814,0.633490,11.923678,0.996917,0.078459,-0.000000
-5.680929,-7.952182,-24.543971,-0.522499,-0.852640,0.000000
4.561210,-8.638347,-35.672032,0.522499,-0.852640,0.000000
-6.681695,7.113586,-22.197960,-0.649448,0.760406,0.000000
4.734586,-5.260252,-1.426274,0.649448,-0.760406,0.000000
-5.124253,-4.282751,25.430256,-0.760406,-0.649448,0.000000
0.393403,-9.747811,-32.807100,0.078460,-0.996917,0.000000
-1.293137,-1.856952,-36.154073,0.634393,0.773010,-0.000000
-3.652754,3.528422,-39.271446,0.000000,0.000000,-1.000000
0.717913,2.139529,14.623647,-0.290284,-0.956940,0.000000
5.666026,-3.534662,22.654324,0.852640,-0.522499,0.000000
-2.017546,-1.010790,-23.213836,0.881921,0.471397,-0.000000
1.327083,9.674328,-31.249408,0.078460,0.996917,0.000000
-1.758708,1.412847,-14.442647,0.773010,-0.634393,0.000000
2.018506,1.008995,-34.076421,-0.881921,-0.471397,0.000000
-2.119317,-9.516833,-17.890501,-0.233445,-0.972370,0.000000
9.242869,1.276781,-12.890798,0.000000,-0.000000,1.000000
-0.870862,-7.028132,2.013159,-0.078459,-0.996917,0.000000
5.496827,-1.172253,25.986150,0.000000,1.000000,-0.000000
-5.565856,8.022699,-37.978027,-0.522499,0.852640,0.000000
-1.561776,1.636485,-32.679397,0.634393,-0.773010,0.000000
6.698586,-1.038641,4.263824,-1.000000,0.000000,0.000000
1.272192,-6.562265,33.159640,0.233445,-0.972370,0.000000
5.527636,-8.046120,-27.828733,0.522499,-0.852640,0.000000
4.470996,1.172253,34.497363,0.000000,-1.000000,0.000000
-9.764905,-0.176201,-30.801315,-0.996917,-0.078460,-0.000000
0.488029,-6.660178,25.221736,0.078459,-0.996917,0.000000
6.314051,3.236718,7.810267,0.852640,0.522498,0.000000
1.910474,1.211109,-29.487237,-0.881921,-0.471397,0.000000
-2.265541,0.011916,-20.618204,0.995185,-0.098017,0.000000
6.376637,7.374131,-21.422698,0.649448,0.760406,-0.000000
1.887301,1.254461,28.059971,-0.881921,-0.471397,0.000000
-6.607020,-1.085777,28.653587,-0.972370,-0.233445,-0.000000
-5.795078,4.083606,-8.289882,-0.852640,0.522498,0.000000
1.682164,-1.506116,-9.061554,-0.773010,0.634393,0.000000
-6.235850,-3.364331,-6.627011,-0.852640,-0.522498,0.000000
5.337194,1.172253,30.305179,0.000000,-1.000000,0.000000
1.593705,-1.610281,-14.027511,-0.634393,0.773010,0.000000
4.354081,-0.789489,8.623790,1.000000,0.000000,0.000000
-2.112514,0.806969,-28.781076,0.956940,-0.290284,0.000000
1.997208,-1.048840,12.769872,-0.881921,0.471397,0.000000
9.701088,-0.987067,-35.925312,0.996917,-0.078460,0.000000
0.695913,6.643817,28.055577,0.078459,0.996917,0.000000
0.704093,2.143721,25.129246,-0.290284,-0.956940,0.000000
-6.077327,2.778325,33.024933,-0.923879,0.382684,0.000000
7.662879,-6.038555,-20.389570,0.760406,-0.649448,0.000000
-2.030157,-0.987197,15.937615,0.881921,0.471397,0.000000
-2.139586,-0.717725,-35.725084,0.956940,0.290284,-0.000000
5.038437,-1.172253,-21.337541,0.000000,1.000000,-0.000000
5.638484,1.172253,-8.760305,-0.000000,-1.000000,0.000000
-2.114660,9.517951,-29.470887,-0.233445,0.972370,0.000000
-5.556525,-8.028417,-24.852824,-0.522499,-0.852640,0.000000
-3.079194,7.809573,-39.271446,0.000000,0.000000,-1.000000
7.082486,6.718109,-37.516634,0.760406,0.649448,0.000000
-2.266116,-9.481590,-20.614876,-0.233445,-0.972370,0.000000
-5.827704,-3.270827,23.639414,-0.852640,-0.522499,-0.000000
-6.650127,2.432501,-11.812199,-0.923880,0.382683,0.000000
6.136985,1.172253,14.199320,-0.000000,-1.000000,0.000000
6.440289,-1.780260,37.264287,0.972370,-0.233445,0.000000
-4.564300,-5.405689,13.065624,-0.649448,-0.760406,0.000000
0.130238,2.253888,-18.923553,-0.098017,-0.995185,0.000000
4.981498,6.756817,-12.890798,-0.000000,0.000000,1.000000
-5.271903,-8.202834,-35.634502,-0.522499,-0.852640,0.000000
-3.903942,-5.905176,-2.609997,-0.522498,-0.852640,0.000000
1.812935,-6.840578,-10.582063,0.233445,-0.972370,0.000000
1.410438,9.667768,-21.171122,0.078460,0.996917,0.000000
-6.255026,-2.349322,33.529873,-0.923879,-0.382684,0.000000
0.985403,-9.701219,-22.183076,0.078460,-0.996917,0.000000
4.956600,4.479047,30.110345,0.760406,0.649448,-0.000000
-8.859081,4.086679,-21.485267,-0.923879,0.382684,0.000000
-2.490265,6.626200,8.504789,-0.382683,0.923880,0.000000
-4.078049,5.798483,11.264229,-0.522498,0.852640,0.000000
-9.462681,-2.344879,-25.662856,-0.972370,-0.233445,0.000000
-4.004420,5.843603,7.069211,-0.522498,0.852640,0.000000
4.783192,1.172253,-2.019199,0.000000,-1.000000,0.000000
4.442790,-1.172253,-3.224364,0.000000,1.000000,-0.000000
-3.151307,-5.900946,27.912890,-0.522499,-0.852640,0.000000
-3.543331,-9.084143,-17.302609,-0.382684,-0.923879,0.000000
3.595037,-5.629028,14.806605,0.522499,-0.852640,0.000000
0.676237,2.152171,11.827610,-0.290284,-0.956940,0.000000
3.238264,6.313104,2.205238,0.522498,0.852640,-0.000000
-1.768271,-9.601112,-38.535996,-0.233445,-0.972370,0.000000
-4.058890,8.870591,-13.097420,-0.382684,0.923879,0.000000
4.990786,-4.439020,29.641285,0.760406,-0.649448,0.000000
0.528339,2.197035,-15.085150,-0.290284,-0.956940,0.000000
8.835421,-4.143797,-27.300182,0.923879,-0.382684,0.000000
6.060904,2.817972,33.962479,0.923879,0.382684,-0.000000
-2.119891,6.766885,-6.294264,-0.233445,0.972370,0.000000
-2.204869,-0.502514,8.482339,0.956940,0.290284,-0.000000
-6.577385,-2.608116,2.386329,-0.923880,-0.382683,-0.000000
7.311334,-6.450162,-19.268699,0.760406,-0.649448,0.000000
5.764946,1.172253,-38.074002,0.000000,-1.000000,-0.000000
4.354081,0.697122,34.839270,1.000000,0.000000,0.000000
6.777228,-7.031994,-35.858855,0.649448,-0.760406,0.000000
6.698586,0.734314,3.826873,-1.000000,0.000000,0.000000
1.728715,-6.860798,8.431899,0.233445,-0.972370,0.000000
-6.347868,-7.398702,-33.362141,-0.649448,-0.760406,-0.000000
1.104401,-9.691854,-12.938181,0.078460,-0.996917,0.000000
0.234982,6.680093,34.034914,0.078459,0.996917,-0.000000
-0.300716,-7.073004,8.706493,-0.078459,-0.996917,0.000000
5.914901,3.888071,-2.927902,0.852640,0.522498,-0.000000
-0.747554,-2.130537,-24.114824,0.290284,0.956940,-0.000000
2.150988,-0.680136,-8.598588,-0.956940,0.290284,0.000000
-0.651764,2.159594,-14.167718,0.290284,-0.956940,0.000000
-6.837961,1.823839,3.819096,-0.972370,0.233445,0.000000
-6.362776,3.126228,10.430421,-0.923880,0.382683,0.000000
-1.194988,9.684724,-29.627165,-0.078460,0.996917,0.000000
0.929360,2.061072,-20.556713,-0.471397,-0.881921,0.000000
7.665698,-6.035255,-31.921882,0.760406,-0.649448,0.000000
6.163786,2.569594,35.881240,0.923879,0.382684,-0.000000
9.422421,-2.512571,-32.375212,0.972370,-0.233445,0.000000
2.032269,-0.983247,-31.548423,-0.881921,0.471397,0.000000
-2.464743,-6.636772,-2.361025,-0.382683,-0.923880,0.000000
-0.915606,6.626527,36.310737,-0.078459,0.996917,0.000000
-5.131603,-8.288810,-31.170027,-0.522499,-0.852640,0.000000
1.934392,1.166360,2.605058,-0.881921,-0.471397,0.000000
4.467192,1.172253,24.498004,0.000000,-1.000000,0.000000
-6.094044,3.595737,12.216020,-0.852640,0.522498,0.000000
8.271378,5.160049,-26.862395,0.852640,0.522499,-0.000000
-8.541867,-4.718651,-13.651893,-0.852640,-0.522499,0.000000
0.468276,-9.741918,-23.186092,0.078460,-0.996917,0.000000
3.110124,5.034020,-39.271446,0.000000,0.000000,-1.000000
2.862613,9.338384,-34.524138,0.233445,0.972370,0.000000
1.406090,6.938253,-7.524620,0.233445,0.972370,0.000000
-2.733028,9.369495,-34.021934,-0.233445,0.972370,0.000000
8.801954,4.224594,-33.576269,0.923879,0.382684,-0.000000
4.399013,-3.934426,-39.271446,0.000000,-0.000000,-1.000000
1.795933,-1.367488,-37.680863,-0.773010,0.634393,0.000000
-9.485630,-2.249288,-27.618614,-0.972370,-0.233445,-0.000000
-0.924080,-7.023944,12.265995,-0.078459,-0.996917,0.000000
-6.450295,-7.311221,-27.882123,-0.649448,-0.760406,-0.000000
-2.037961,-0.972597,25.207896,0.881921,0.471397,0.000000
6.273571,1.172253,20.670972,-0.000000,-1.000000,0.000000
-1.065991,1.988041,-1.500066,0.471397,-0.881921,0.000000
-0.260878,-2.241021,19.897734,0.098017,0.995185,0.000000
1.625324,3.285279,-39.271446,0.000000,-0.000000,-1.000000
-9.702273,0.972012,-36.624598,-0.996917,0.078460,0.000000
6.172996,3.466898,-8.444958,0.852640,0.522498,0.000000
3.510732,6.146135,-10.649256,0.522498,0.852640,0.000000
4.419133,-5.529674,-10.741133,0.649448,-0.760406,0.000000
-7.683526,6.014382,-17.311157,-0.760406,0.649448,0.000000
8.255962,-5.185206,-14.813853,0.852640,-0.522499,0.000000
5.935052,3.855189,-12.000668,0.852640,0.522498,0.000000
-2.311963,-6.700055,8.209912,-0.382683,-0.923880,0.000000
-1.167883,-1.933578,-13.773471,0.471397,0.881921,-0.000000
1.605695,6.385058,-39.271446,0.000000,0.000000,-1.000000
4.613170,6.798686,-39.271446,0.000000,0.000000,-1.000000
-1.968678,1.102217,-12.345927,0.881921,-0.471397,0.000000
-6.646983,-3.660732,-39.271446,0.000000,0.000000,-1.000000
-5.748754,7.910393,-16.412696,-0.649448,0.760406,0.000000
4.354081,-0.881237,-17.650739,1.000000,0.000000,0.000000
-9.587561,-1.824715,-14.905784,-0.972370,-0.233445,0.000000
1.377352,6.945153,4.657776,0.233445,0.972370,-0.000000
4.999835,-1.172253,1.902642,0.000000,1.000000,-0.000000
2.046429,-9.534332,-26.160549,0.233445,-0.972370,0.000000
-9.760213,0.235818,-19.971495,-0.996917,0.078460,0.000000
4.354081,0.269204,-1.180075,1.000000,0.000000,0.000000
-6.528071,-1.414623,34.029719,-0.972370,-0.233445,0.000000
-2.265053,-0.016878,8.877275,0.995185,0.098017,-0.000000
-3.583120,5.636330,37.949675,-0.522499,0.852640,0.000000
5.894486,3.921385,-12.159792,0.852640,0.522498,0.000000
