x,y,z,nx,ny,nz
27.568916,12.438298,-2.610857,0.903989,0.427555,0.000000
-14.832407,16.034922,-3.961768,0.000000,0.000000,-1.000000
3.705635,20.334011,-3.174247,0.956940,0.290285,-0.000000
-0.065579,23.131197,3.961768,-0.000000,0.000000,1.000000
-2.602236,-23.359016,3.961768,0.000000,-0.000000,1.000000
10.802851,28.252201,1.151808,0.336890,0.941544,0.000000
-11.994997,27.778582,3.176393,-0.427555,0.903989,0.000000
-10.036255,16.006358,3.961768,-0.000000,0.000000,1.000000
-13.873073,-15.337464,3.961768,0.000000,-0.000000,1.000000
25.106496,-6.873620,3.961768,-0.000000,0.000000,1.000000
-15.821054,-15.812756,3.852988,-0.773010,0.634394,0.000000
-1.868479,30.184740,0.974446,-0.049068,0.998795,0.000000
-30.031538,3.636407,-1.090984,-0.989177,0.146730,0.000000
-15.466121,-11.313879,2.611919,-0.773010,-0.634394,0.000000
29.306037,-7.458598,1.115258,0.970031,-0.242980,0.000000
-26.706422,7.671864,3.961768,-0.000000,-0.000000,1.000000
7.460795,29.305487,-3.379293,0.242980,0.970031,0.000000
1.496086,27.765626,3.961768,0.000000,-0.000000,1.000000
-25.392537,-2.300552,0.893117,0.773011,0.634393,0.000000
-16.090260,16.257453,3.961768,-0.000000,-0.000000,1.000000
21.628571,3.507535,3.961768,0.000000,0.000000,1.000000
-22.362944,15.991229,3.961768,-0.000000,-0.000000,1.000000
-10.421116,8.079637,3.961768,-0.000000,0.000000,1.000000
-17.568818,-24.619204,-1.091586,-0.595699,-0.803208,0.000000
-25.777092,15.539523,3.961768,0.000000,-0.000000,1.000000
-18.193198,-24.156133,-1.972338,-0.595699,-0.803208,0.000000
6.439241,-16.341335,-3.961768,0.000000,0.000000,-1.000000
8.244147,26.753109,-3.961768,0.000000,-0.000000,-1.000000
-11.805196,-12.277794,3.961768,0.000000,-0.000000,1.000000
23.698851,-3.393410,3.244982,-0.290285,0.956940,0.000000
19.851247,-10.130057,2.683916,-0.471397,-0.881921,0.000000
-27.650476,-12.265854,-1.464416,-0.903989,-0.427555,-0.000000
-19.176657,0.217846,3.102026,-0.995185,-0.098017,0.000000
26.169639,-0.764549,3.135610,-0.956940,0.290285,0.000000
13.740659,-26.952945,-1.693554,0.427555,-0.903989,0.000000
2.955242,-30.131351,-0.342683,0.049068,-0.998795,0.000000
-7.493120,10.364351,1.580435,0.634393,-0.773010,0.000000
28.201283,-10.945156,-2.888787,0.941544,-0.336890,0.000000
-23.919608,-18.512114,-1.329496,-0.803208,-0.595699,0.000000
27.648337,3.136695,3.961768,0.000000,-0.000000,1.000000
-2.189880,-28.620813,-3.961768,0.000000,-0.000000,-1.000000
-13.268439,5.428621,-3.961768,0.000000,-0.000000,-1.000000
11.098212,-28.146519,0.017971,0.336890,-0.941544,0.000000
18.203650,3.142653,3.961768,0.000000,0.000000,1.000000
15.868834,15.867020,2.044177,0.634393,-0.773011,0.000000
8.140353,14.044942,-3.961768,0.000000,0.000000,-1.000000
-10.537844,21.914093,3.041437,0.995185,-0.098017,0.000000
-17.205930,21.793879,-3.961768,0.000000,0.000000,-1.000000
12.321161,27.624318,-2.577188,0.427555,0.903989,0.000000
24.192535,18.144115,0.419066,0.803208,0.595699,-0.000000
-22.044883,-3.486946,-1.445953,-0.098017,0.995185,0.000000
-0.676021,-13.359263,-3.961768,0.000000,0.000000,-1.000000
26.362928,-12.443864,3.961768,-0.000000,0.000000,1.000000
0.961904,-30.229278,1.665979,0.049068,-0.998795,0.000000
10.532540,-21.224098,-1.820147,-0.995185,-0.098017,0.000000
12.611214,2.191964,-3.403260,-0.995185,-0.098017,0.000000
13.290523,8.451105,3.961768,-0.000000,0.000000,1.000000
3.032694,24.656763,3.961768,0.000000,-0.000000,1.000000
-25.861566,1.598159,1.179978,0.881921,-0.471397,0.000000
12.530846,-2.666574,-1.044521,-0.956940,0.290285,0.000000
15.962290,-4.126274,-3.961768,0.000000,-0.000000,-1.000000
-14.608659,-26.499886,0.389049,-0.514103,-0.857729,0.000000
-10.521925,-7.301116,-2.651741,0.773010,0.634393,-0.000000
-15.623901,0.676133,-3.961768,0.000000,-0.000000,-1.000000
-26.256725,-15.014349,-1.831703,-0.857729,-0.514103,-0.000000
-12.522796,-13.586935,3.961768,0.000000,-0.000000,1.000000
14.167758,25.670330,3.961768,0.000000,-0.000000,1.000000
9.598280,-24.704340,-3.961768,0.000000,0.000000,-1.000000
-2.721586,-13.257054,3.961768,0.000000,-0.000000,1.000000
-2.084675,30.174119,-3.492974,-0.049068,0.998795,0.000000
12.549316,25.670314,-3.961768,0.000000,0.000000,-1.000000
-18.652956,20.640339,3.961768,-0.000000,-0.000000,1.000000
-8.099114,-9.867025,-1.928730,0.634393,0.773010,-0.000000
7.957296,18.187101,3.166637,-0.290285,0.956940,0.000000
25.125942,2.588305,-3.289200,-0.634393,-0.773011,0.000000
-4.063906,-13.113769,3.961768,0.000000,-0.000000,1.000000
19.759925,1.980893,2.728640,0.773011,-0.634393,0.000000
-14.121465,-6.822577,3.961768,-0.000000,0.000000,1.000000
14.182215,26.663826,3.961768,0.000000,-0.000000,1.000000
4.186272,12.069850,2.791034,-0.290285,-0.956940,0.000000
17.889682,-24.381236,1.312424,0.595699,-0.803208,0.000000
24.635420,6.242558,-3.961768,0.000000,0.000000,-1.000000
-22.086844,5.498652,3.961768,-0.000000,-0.000000,1.000000
-0.097589,-22.120455,3.961768,-0.000000,0.000000,1.000000
-18.611236,23.846094,3.608621,-0.595699,0.803208,0.000000
14.473342,-22.732849,3.961768,-0.000000,-0.000000,1.000000
13.214155,23.836464,3.961768,0.000000,-0.000000,1.000000
7.533273,-15.951393,3.961768,-0.000000,-0.000000,1.000000
17.017556,-22.907178,-3.961768,0.000000,-0.000000,-1.000000
24.398306,3.111551,3.961768,-0.000000,0.000000,1.000000
-14.760074,-15.296745,3.961768,0.000000,-0.000000,1.000000
-16.459322,-10.360312,0.036885,-0.471397,-0.881921,0.000000
-4.880343,-24.415685,-1.397518,-0.634394,0.773010,0.000000
26.645699,12.638804,-3.961768,0.000000,0.000000,-1.000000
0.137366,13.785893,-3.961768,0.000000,0.000000,-1.000000
10.066131,-18.038175,-3.961768,0.000000,0.000000,-1.000000
14.743155,23.467733,3.961768,0.000000,-0.000000,1.000000
4.587755,-19.016476,3.903437,0.634393,-0.773011,0.000000
-3.290514,13.511972,-3.961768,0.000000,0.000000,-1.000000
-21.618864,-21.176906,0.908884,-0.740951,-0.671559,0.000000
-6.334221,-29.587679,-2.849656,-0.242980,-0.970031,0.000000
-16.934578,10.106282,1.337836,-0.471397,0.881921,0.000000
-16.772662,22.057491,3.961768,-0.000000,-0.000000,1.000000
-19.220796,-9.910794,-0.306194,0.290284,-0.956941,0.000000
5.715575,-29.723123,-0.454328,0.146730,-0.989177,0.000000
26.609175,-10.080983,-3.961768,0.000000,-0.000000,-1.000000
-28.791445,-9.295767,-3.056072,-0.941544,-0.336890,-0.000000
2.898842,12.460388,3.123108,-0.290285,-0.956940,0.000000
-11.128697,-22.668442,3.961768,0.000000,-0.000000,1.000000
7.936718,-10.000300,-2.826666,-0.634393,0.773010,0.000000
-15.220078,-11.742231,1.667839,-0.881921,-0.471397,0.000000
22.739109,-19.940907,-1.077131,0.740951,-0.671559,0.000000
-25.829001,15.727964,3.916715,-0.857729,0.514103,0.000000
12.303187,3.417062,-3.058227,-0.956940,-0.290285,0.000000
-0.617739,12.766261,-2.076912,0.098017,-0.995185,-0.000000
-6.496339,18.095099,-0.483104,-0.098017,0.995185,0.000000
8.825222,17.215779,3.961768,0.000000,-0.000000,1.000000
25.305083,-9.250017,-3.961768,0.000000,-0.000000,-1.000000
20.906605,-21.863850,1.441813,0.671559,-0.740951,0.000000
-20.220422,16.366763,0.946203,0.471397,-0.881921,0.000000
-13.378559,-6.882388,-3.961768,0.000000,0.000000,-1.000000
-19.842529,-8.125403,3.961768,0.000000,-0.000000,1.000000
-10.506825,-28.358121,-3.514885,-0.336890,-0.941544,0.000000
-21.558755,-10.983727,-3.961768,0.000000,0.000000,-1.000000
16.334368,-6.250250,-3.961768,0.000000,0.000000,-1.000000
-12.522175,27.353352,-3.961768,0.000000,0.000000,-1.000000
-13.874758,26.889521,-3.955542,-0.427555,0.903989,0.000000
-2.373998,-29.438254,-3.961768,0.000000,-0.000000,-1.000000
8.913964,-9.198295,3.520106,-0.634393,0.773010,0.000000
-16.296708,5.058530,3.961768,-0.000000,0.000000,1.000000
2.096135,30.173556,-0.736813,0.049068,0.998795,0.000000
21.145017,-5.324628,3.961768,-0.000000,-0.000000,1.000000
21.875970,-13.823261,1.518766,-0.995185,0.098017,0.000000
-23.384170,12.446601,3.961768,-0.000000,-0.000000,1.000000
26.095858,-1.007771,-3.575890,-0.956940,0.290285,0.000000
21.374428,-3.289811,-2.325392,0.290285,0.956940,-0.000000
21.833448,14.109856,1.058959,-0.956940,-0.290285,0.000000
14.189132,4.976391,3.961768,0.000000,-0.000000,1.000000
-15.701161,-20.196813,3.961768,-0.000000,0.000000,1.000000
21.289749,15.362569,-0.777490,-0.773011,-0.634393,0.000000
2.863769,12.471027,2.903269,-0.290285,-0.956940,0.000000
25.561272,16.174643,-1.651498,0.857729,0.514103,-0.000000
9.174176,24.398800,3.145820,-0.634394,-0.773010,0.000000
7.355489,17.622571,3.961768,0.000000,-0.000000,1.000000
23.210121,6.582820,-3.961768,0.000000,0.000000,-1.000000
-4.727387,-16.150666,3.961768,0.000000,-0.000000,1.000000
-20.771971,-10.744618,0.891655,0.634394,-0.773010,0.000000
5.704028,24.891907,-3.705689,0.290283,-0.956941,0.000000
6.269684,29.603845,0.106824,0.242980,0.970031,-0.000000
-11.912648,24.502991,-3.961768,0.000000,-0.000000,-1.000000
17.939947,21.988406,-3.961768,0.000000,-0.000000,-1.000000
20.386919,16.265534,2.898844,-0.634393,-0.773011,0.000000
15.084609,-6.083334,-3.961768,0.000000,0.000000,-1.000000
-14.866948,26.345074,0.424467,-0.514103,0.857729,0.000000
-3.759239,12.199389,3.837413,0.290285,-0.956940,0.000000
-3.548953,-16.243049,-3.961768,0.000000,-0.000000,-1.000000
-5.759605,25.930815,3.961768,-0.000000,-0.000000,1.000000
9.837660,23.731403,3.128624,-0.773010,-0.634394,0.000000
16.825784,16.529715,-1.840397,0.471397,-0.881921,0.000000
19.956878,22.724634,-1.497754,0.671559,0.740951,0.000000
-2.739115,-29.635839,3.961768,-0.000000,0.000000,1.000000
-15.359412,-3.329688,-3.961768,0.000000,0.000000,-1.000000
-20.207672,-5.372402,-3.961768,0.000000,0.000000,-1.000000
4.521818,29.900200,3.880852,0.146730,0.989177,-0.000000
-16.300880,10.472558,2.706771,-0.634394,0.773010,0.000000
16.257671,-23.229829,-3.961768,0.000000,-0.000000,-1.000000
-18.853906,7.164767,-3.961768,0.000000,-0.000000,-1.000000
20.142543,2.447115,2.902805,0.773011,-0.634393,0.000000
2.644292,21.235641,-3.961768,0.000000,-0.000000,-1.000000
28.907055,2.525675,-3.961768,0.000000,0.000000,-1.000000
28.931568,-8.904148,3.557422,0.941544,-0.336890,0.000000
10.154501,27.139489,-3.961768,0.000000,0.000000,-1.000000
-14.734867,-22.212641,-3.961768,0.000000,0.000000,-1.000000
12.167341,-5.811332,-3.961768,0.000000,0.000000,-1.000000
-10.942921,-20.134515,-3.961768,0.000000,-0.000000,-1.000000
-3.673404,19.984361,-3.961768,0.000000,0.000000,-1.000000
-22.802031,-3.542878,0.408532,0.098017,0.995185,0.000000
-23.820105,-14.151887,-3.961768,0.000000,0.000000,-1.000000
-17.503570,-20.144064,3.961768,0.000000,-0.000000,1.000000
-28.978105,8.767778,2.629923,-0.970031,0.242980,0.000000
-9.641063,-28.667896,1.398896,-0.336890,-0.941544,0.000000
-19.483724,-1.468117,3.228764,-0.881921,0.471397,0.000000
-14.778328,6.965093,-3.961768,0.000000,0.000000,-1.000000
29.235192,-7.741428,2.577867,0.970031,-0.242980,0.000000
12.150256,-7.495019,3.961768,-0.000000,-0.000000,1.000000
17.058623,-6.899792,-3.961768,0.000000,0.000000,-1.000000
13.423779,-3.394015,3.961768,-0.000000,-0.000000,1.000000
24.678549,17.488801,0.562808,0.803208,0.595699,0.000000
-17.357676,24.775798,1.055444,-0.595699,0.803208,0.000000
-18.872853,3.896250,3.961768,-0.000000,0.000000,1.000000
-9.466411,-8.587264,-3.315699,0.773010,0.634393,-0.000000
3.480003,21.750645,0.884987,0.995185,-0.098017,0.000000
-0.098593,-30.271690,-1.741616,-0.049068,-0.998795,0.000000
-29.087696,-8.330267,-2.769720,-0.970031,-0.242980,-0.000000
2.905484,29.987242,3.961768,0.000000,-0.000000,1.000000
-28.700790,8.451482,3.961768,-0.000000,-0.000000,1.000000
14.964570,14.426537,-3.961768,0.000000,-0.000000,-1.000000
18.015284,-3.903778,-3.961768,0.000000,-0.000000,-1.000000
14.212699,26.208882,3.961768,0.000000,-0.000000,1.000000
-9.707516,19.302056,1.308268,0.773010,0.634394,0.000000
24.328040,17.961408,-0.817271,0.803208,0.595699,0.000000
15.149084,-14.819098,3.949112,0.881921,0.471397,0.000000
23.897663,-3.333101,0.790248,-0.290285,0.956940,0.000000
13.808248,5.262591,3.961768,0.000000,-0.000000,1.000000
-20.673054,2.903607,1.072977,-0.634393,-0.773011,0.000000
21.188585,6.807518,3.961768,0.000000,-0.000000,1.000000
-28.832776,5.004500,-3.961768,0.000000,0.000000,-1.000000
8.304390,-18.292391,-3.854017,-0.290285,-0.956940,0.000000
-10.242053,28.452858,1.653424,-0.336890,0.941544,0.000000
-6.392606,-18.105316,-0.829498,-0.098017,-0.995185,0.000000
24.626870,11.657085,3.961768,0.000000,-0.000000,1.000000
-4.538304,-28.953212,-3.961768,0.000000,0.000000,-1.000000
25.837577,-7.843762,3.961768,-0.000000,0.000000,1.000000
22.922926,-17.273308,-3.961768,0.000000,0.000000,-1.000000
30.184708,1.869146,-0.070835,0.998795,0.049068,-0.000000
30.253087,-0.477260,-2.393700,0.998795,-0.049068,0.000000
19.310681,16.756089,2.674033,-0.290285,-0.956940,0.000000
15.324553,11.546771,2.441217,0.881921,0.471397,0.000000
-30.071456,-3.367299,-0.337318,-0.989177,-0.146730,-0.000000
-29.879858,-4.658950,-3.105892,-0.989177,-0.146730,-0.000000
-15.363465,11.473973,-1.681665,-0.881921,0.471397,0.000000
13.218088,-19.231541,3.961768,-0.000000,0.000000,1.000000
3.177042,12.375997,0.327631,-0.290285,-0.956940,0.000000
29.048232,-8.487813,-1.938023,0.970031,-0.242980,0.000000
15.155363,3.840102,-3.961768,0.000000,0.000000,-1.000000
-6.766108,18.068529,1.044910,-0.098017,0.995185,0.000000
25.522139,-16.239932,-1.220066,0.857729,-0.514103,0.000000
-12.060031,4.218642,-1.522030,0.956940,-0.290285,0.000000
12.455090,2.916308,-2.211892,-0.956940,-0.290285,0.000000
16.292178,6.545294,-3.961768,0.000000,0.000000,-1.000000
-27.501114,-0.969167,-3.961768,0.000000,0.000000,-1.000000
-19.799177,-16.591923,1.008680,0.471397,0.881921,0.000000
-12.285292,-3.476055,3.536118,0.956940,0.290285,0.000000
-28.919053,8.939126,3.376036,-0.941544,0.336890,0.000000
-20.837125,-20.415493,-3.961768,0.000000,0.000000,-1.000000
-4.185167,14.921695,-3.961768,0.000000,0.000000,-1.000000
-9.923397,-8.030424,2.799211,0.773010,0.634393,0.000000
-21.130625,21.660811,2.989926,-0.671559,0.740951,0.000000
-28.425933,10.317304,-2.610440,-0.941544,0.336890,0.000000
-10.603348,-19.364762,-3.961768,0.000000,-0.000000,-1.000000
-10.515979,-17.999992,-3.961768,0.000000,0.000000,-1.000000
12.346675,21.647528,-3.961768,0.000000,0.000000,-1.000000
-21.278656,15.376086,-3.125886,0.773011,-0.634393,0.000000
9.165184,-13.341191,3.961768,-0.000000,0.000000,1.000000
-5.982940,24.976513,-0.540842,-0.290283,-0.956941,0.000000
2.737938,-23.765929,-3.961768,0.000000,0.000000,-1.000000
-0.010049,-12.826113,-2.834926,0.098017,0.995185,0.000000
-5.997405,28.673645,3.961768,-0.000000,-0.000000,1.000000
-24.890906,-2.781193,3.915593,0.634393,0.773011,0.000000
5.163658,18.578237,0.700628,0.471397,0.881921,-0.000000
-9.732026,19.331921,-0.075918,0.773010,0.634394,0.000000
1.783327,12.651461,0.750896,-0.098017,-0.995185,0.000000
-26.022045,4.365023,-3.961768,0.000000,-0.000000,-1.000000
27.417200,-3.271588,-3.961768,0.000000,-0.000000,-1.000000
-12.699068,1.299965,-2.763332,0.995185,-0.098017,0.000000
13.871184,-16.848475,3.961768,-0.000000,-0.000000,1.000000
0.224240,-29.011298,3.961768,0.000000,-0.000000,1.000000
6.297357,29.596913,-0.187274,0.242980,0.970031,-0.000000
-7.571580,-15.776295,-3.961768,0.000000,-0.000000,-1.000000
13.877598,-26.888178,-0.689534,0.427555,-0.903989,0.000000
-16.049023,16.014897,1.854189,-0.634393,-0.773011,0.000000
-25.819282,7.486067,3.961768,-0.000000,-0.000000,1.000000
25.372507,-12.143894,3.961768,-0.000000,0.000000,1.000000
26.341105,-1.230951,3.961768,-0.000000,-0.000000,1.000000
29.898117,-2.911604,3.961768,-0.000000,-0.000000,1.000000
-5.286731,-24.679589,2.531449,-0.471397,0.881921,0.000000
-8.631817,10.605297,-3.961768,0.000000,-0.000000,-1.000000
9.866624,-28.587189,-1.629075,0.336890,-0.941544,0.000000
-28.775540,-9.340217,0.005766,-0.941544,-0.336890,-0.000000
21.249388,-8.565345,-3.961768,0.000000,0.000000,-1.000000
11.602258,27.964334,-0.560821,0.427555,0.903989,-0.000000
24.406895,12.890535,3.961768,0.000000,-0.000000,1.000000
21.618260,14.770454,-2.398797,-0.881921,-0.471397,0.000000
-13.800441,-21.496224,3.961768,-0.000000,0.000000,1.000000
9.945069,13.473575,3.961768,-0.000000,0.000000,1.000000
-28.814309,-9.231864,-2.234690,-0.941544,-0.336890,-0.000000
-18.875330,9.844581,0.229384,0.098017,0.995185,-0.000000
-22.065219,-3.488949,1.892824,-0.098017,0.995185,0.000000
-4.116004,12.091165,-2.385641,0.290285,-0.956940,0.000000
8.544577,-9.501443,2.542317,-0.634393,0.773010,0.000000
-23.604114,3.422148,3.390472,0.290285,-0.956940,0.000000
-7.704143,18.111502,-1.963317,0.098017,0.995185,-0.000000
-19.268571,1.423059,3.961768,0.000000,-0.000000,1.000000
10.534535,21.244353,-3.449182,-0.995185,0.098017,0.000000
-13.449746,-17.225148,3.961768,0.000000,-0.000000,1.000000
10.681516,20.447886,-3.961768,0.000000,0.000000,-1.000000
-23.395984,3.484379,1.023315,0.098017,-0.995185,0.000000
16.765463,-1.854323,-3.961768,0.000000,0.000000,-1.000000
-16.546531,16.897623,-3.961768,0.000000,0.000000,-1.000000
-29.473075,-6.197234,3.961768,0.000000,-0.000000,1.000000
-9.449787,11.892660,-3.961768,0.000000,-0.000000,-1.000000
7.711425,-10.185193,-3.344217,-0.634393,0.773010,0.000000
-15.939117,15.924700,2.015720,-0.634393,-0.773011,0.000000
-13.924855,-26.865827,2.622931,-0.427555,-0.903989,0.000000
29.675086,5.985277,-1.973715,0.970031,0.242980,0.000000
-28.304257,-9.296949,3.961768,0.000000,-0.000000,1.000000
11.957739,-4.555851,-0.386126,-0.956940,0.290285,0.000000
1.133687,-23.776134,3.961768,0.000000,-0.000000,1.000000
-14.073736,-26.795411,-2.742756,-0.427555,-0.903989,0.000000
-8.838151,-27.029356,-3.961768,0.000000,-0.000000,-1.000000
-18.824362,18.955806,3.961768,-0.000000,-0.000000,1.000000
-14.675523,-21.059315,-3.961768,0.000000,-0.000000,-1.000000
28.259235,10.783194,2.507487,0.941544,0.336890,-0.000000
9.850053,8.119794,-0.449148,-0.773010,-0.634393,0.000000
23.629481,-18.903305,-1.460245,0.803208,-0.595699,0.000000
18.005334,6.444568,-3.961768,0.000000,0.000000,-1.000000
11.143280,-28.130393,-1.227148,0.336890,-0.941544,0.000000
-20.912317,3.048909,-2.751429,-0.471397,-0.881921,0.000000
15.814163,18.402995,-3.961768,0.000000,0.000000,-1.000000
7.620524,-27.038889,3.961768,0.000000,-0.000000,1.000000
6.380416,-18.106517,-3.480570,0.098017,-0.995185,0.000000
-1.891678,23.311808,3.961768,0.000000,-0.000000,1.000000
-21.623896,-3.365486,3.048134,-0.290285,0.956940,0.000000
-12.584725,-27.415804,3.961768,-0.000000,0.000000,1.000000
-4.350495,-15.391108,-3.961768,0.000000,-0.000000,-1.000000
-22.878954,11.441759,-3.961768,0.000000,0.000000,-1.000000
-25.507132,-2.160916,0.357798,0.773011,0.634393,-0.000000
-6.286125,25.068483,0.081539,-0.290283,-0.956941,0.000000
-6.207733,11.156361,-2.505598,0.471397,-0.881921,0.000000
7.121295,-10.668051,-2.003787,-0.471397,0.881921,0.000000
26.365848,-5.541746,3.961768,-0.000000,-0.000000,1.000000
29.631393,6.159706,-0.296854,0.970031,0.242980,0.000000
-22.849029,-8.635877,3.961768,0.000000,-0.000000,1.000000
11.534072,-15.226716,-3.961768,0.000000,0.000000,-1.000000
-13.612995,-4.567701,-3.961768,0.000000,0.000000,-1.000000
11.371458,-14.451386,3.961768,-0.000000,-0.000000,1.000000
7.029591,-25.146975,2.390620,-0.098017,0.995185,0.000000
-22.523565,18.571822,3.961768,-0.000000,0.000000,1.000000
-19.905387,-16.535152,2.533811,0.471397,0.881921,0.000000
21.574218,-7.590758,-3.961768,0.000000,-0.000000,-1.000000
-17.908052,24.367611,-1.705950,-0.595699,0.803208,0.000000
17.684043,-21.339758,-3.961768,0.000000,0.000000,-1.000000
5.670750,-18.310229,-0.200109,0.290285,-0.956940,0.000000
-30.126774,2.994375,-3.916102,-0.989177,0.146730,0.000000
21.754854,-21.026865,2.846184,0.740951,-0.671559,0.000000
-29.343327,7.309730,-3.728539,-0.970031,0.242980,0.000000
-14.906446,-26.321400,1.227420,-0.514103,-0.857729,0.000000
-12.401491,27.586325,0.726196,-0.427555,0.903989,0.000000
10.297343,-25.913385,-3.961768,0.000000,0.000000,-1.000000
-1.587609,-12.670737,-0.107400,0.098017,0.995185,-0.000000
-6.883083,18.057008,2.684819,-0.098017,0.995185,0.000000
-19.437843,3.945378,3.961768,-0.000000,0.000000,1.000000
5.732009,-18.291646,2.290237,0.290285,-0.956940,0.000000
-10.428009,-12.286756,-3.961768,0.000000,0.000000,-1.000000
-17.140268,19.553542,3.961768,-0.000000,-0.000000,1.000000
-0.869553,-14.317346,3.961768,0.000000,-0.000000,1.000000
-13.922233,26.867067,0.492182,-0.427555,0.903989,0.000000
7.203572,-29.369918,2.680801,0.242980,-0.970031,0.000000
-22.575330,-4.733061,-3.961768,0.000000,0.000000,-1.000000
-6.335036,11.088316,-2.482633,0.471397,-0.881921,0.000000
12.827068,-0.000351,-3.141149,-0.995185,0.098017,0.000000
3.323911,-13.603458,-3.961768,0.000000,0.000000,-1.000000
-14.388768,-5.665298,3.961768,0.000000,-0.000000,1.000000
7.963282,-9.978499,-0.798377,-0.634393,0.773010,0.000000
-10.682694,7.093901,2.683804,0.881921,-0.471397,0.000000
-21.831290,15.870007,-3.961768,0.000000,0.000000,-1.000000
-21.569270,14.862107,3.898644,0.881921,-0.471397,0.000000
-27.372725,12.411249,3.961768,-0.000000,-0.000000,1.000000
27.942349,-2.021320,-3.961768,0.000000,0.000000,-1.000000
-17.113203,10.034360,0.144243,-0.290284,0.956941,0.000000
-16.761579,-8.042462,-3.961768,0.000000,-0.000000,-1.000000
9.102450,9.030751,-2.539193,-0.773010,-0.634393,0.000000
17.677573,-16.830988,-3.073128,0.290285,0.956940,0.000000
8.721728,18.498830,2.695436,-0.471397,0.881921,0.000000
16.620631,-16.420058,-2.910326,0.471397,0.881921,-0.000000
10.365898,16.663414,3.961768,0.000000,-0.000000,1.000000
-10.475767,20.820113,-2.537117,0.956940,0.290285,-0.000000
-3.485168,-28.521586,-3.961768,0.000000,0.000000,-1.000000
4.470150,27.032495,3.961768,-0.000000,0.000000,1.000000
16.239337,4.414211,3.961768,0.000000,-0.000000,1.000000
-12.668778,-14.349787,-3.961768,0.000000,0.000000,-1.000000
-9.901973,-19.539002,-1.940584,0.773010,-0.634394,0.000000
-25.832112,15.722773,-2.863617,-0.857729,0.514103,0.000000
-0.729097,12.755293,2.392714,0.098017,-0.995185,0.000000
25.411654,14.165234,3.961768,0.000000,-0.000000,1.000000
16.643578,-16.432323,2.448546,0.471397,0.881921,0.000000
21.539809,11.776924,2.214101,-0.881921,0.471397,0.000000
0.055342,-12.821652,3.018644,-0.098017,0.995185,0.000000
-8.430710,-29.062536,-0.558720,-0.242980,-0.970031,0.000000
-21.650764,-3.497065,3.961768,0.000000,-0.000000,1.000000
9.634583,-18.900663,-3.961768,0.000000,0.000000,-1.000000
20.899113,-5.675149,-3.961768,0.000000,-0.000000,-1.000000
24.743431,2.902223,-1.828428,-0.634393,-0.773011,0.000000
-19.977436,2.245931,-2.279237,-0.773011,-0.634393,0.000000
19.201478,-23.408342,3.080087,0.595699,-0.803208,0.000000
-23.655043,-18.868839,0.161402,-0.803208,-0.595699,0.000000
26.793008,-2.190956,3.961768,-0.000000,-0.000000,1.000000
0.709677,-12.757206,-3.471987,-0.098017,0.995185,0.000000
-22.532365,18.043932,-3.961768,0.000000,-0.000000,-1.000000
-19.352609,7.369663,3.961768,-0.000000,-0.000000,1.000000
19.569044,-22.632840,-3.961768,0.000000,-0.000000,-1.000000
9.998520,-24.569303,3.961768,-0.000000,0.000000,1.000000
-4.263541,23.813355,-1.710833,-0.773011,-0.634393,0.000000
-18.342770,-19.911614,-3.961768,0.000000,0.000000,-1.000000
1.051582,23.134207,3.961768,0.000000,-0.000000,1.000000
-11.107115,-11.807952,-3.961768,0.000000,0.000000,-1.000000
19.354058,-19.855502,-3.961768,0.000000,-0.000000,-1.000000
20.266251,10.351882,3.298126,-0.471397,0.881921,0.000000
-6.248751,26.978620,3.961768,-0.000000,0.000000,1.000000
-3.604765,30.036232,2.539612,-0.146730,0.989177,0.000000
11.486420,-15.237335,3.961768,-0.000000,-0.000000,1.000000
24.447136,-17.602067,-3.961768,0.000000,0.000000,-1.000000
20.423595,-2.698882,1.743848,0.634393,0.773011,0.000000
-21.819525,14.155753,2.307001,0.956940,-0.290285,0.000000
24.971984,6.831620,3.961768,0.000000,-0.000000,1.000000
-20.500217,10.521595,-0.593181,0.634394,0.773010,0.000000
24.410365,14.495094,-3.961768,0.000000,0.000000,-1.000000
26.411758,-14.755694,1.818873,0.857729,-0.514103,0.000000
-6.657865,28.482202,-3.961768,0.000000,-0.000000,-1.000000
-21.638421,-10.710196,3.961768,0.000000,-0.000000,1.000000
-11.286069,-10.450218,3.961768,0.000000,-0.000000,1.000000
-7.487401,10.369045,-1.103873,0.634393,-0.773010,0.000000
-12.310108,-3.394249,-0.518382,0.956940,0.290285,-0.000000
-26.245535,-14.886463,3.961768,0.000000,-0.000000,1.000000
-3.834568,-29.113484,-3.961768,0.000000,0.000000,-1.000000
15.033941,-12.168780,-0.875629,0.956941,-0.290284,0.000000
-20.647891,-22.098336,-2.920288,-0.671559,-0.740951,-0.000000
-3.139160,23.635723,-3.961768,0.000000,0.000000,-1.000000
26.204411,-0.560317,1.049218,-0.995185,0.098017,0.000000
-20.890007,-17.887635,3.961768,-0.000000,0.000000,1.000000
29.661556,-6.039291,1.378491,0.970031,-0.242980,0.000000
3.010479,-20.421792,-3.961768,0.000000,0.000000,-1.000000
-19.573581,23.072034,2.515946,-0.671559,0.740951,0.000000
20.535638,16.143484,3.190306,-0.634393,-0.773011,0.000000
-23.611774,4.206375,3.961768,0.000000,0.000000,1.000000
-3.728814,16.621518,3.961768,0.000000,0.000000,1.000000
13.457737,25.477128,-3.961768,0.000000,0.000000,-1.000000
-17.272028,-24.839319,3.425333,-0.595699,-0.803208,0.000000
-3.461427,29.243198,3.961768,0.000000,-0.000000,1.000000
1.064124,29.058106,-3.961768,0.000000,0.000000,-1.000000
6.182683,17.375954,-3.961768,0.000000,0.000000,-1.000000
6.372838,14.271571,-3.961768,0.000000,0.000000,-1.000000
12.763419,-16.383741,-3.961768,0.000000,0.000000,-1.000000
17.459709,2.749485,-3.961768,0.000000,-0.000000,-1.000000
-17.677933,-20.366174,3.961768,0.000000,-0.000000,1.000000
22.615523,-12.922082,-3.961768,0.000000,0.000000,-1.000000
-1.246112,27.652675,-3.961768,0.000000,-0.000000,-1.000000
15.827744,22.918507,-3.961768,0.000000,0.000000,-1.000000
-23.450312,-12.333157,3.961768,0.000000,0.000000,1.000000
30.080999,3.302968,-2.748571,0.989177,0.146730,0.000000
-17.667020,5.736262,3.961768,-0.000000,-0.000000,1.000000
-21.477383,15.034017,3.542600,0.881921,-0.471397,0.000000
11.112068,28.141561,-0.310350,0.336890,0.941544,0.000000
18.045770,-8.143740,-3.961768,0.000000,-0.000000,-1.000000
-14.777514,15.970422,3.961768,-0.000000,-0.000000,1.000000
-21.770158,17.001856,-3.961768,0.000000,-0.000000,-1.000000
-13.908005,26.873796,2.583999,-0.427555,0.903989,0.000000
15.596392,-25.907862,0.699414,0.514103,-0.857729,0.000000
-5.122369,11.736500,-1.574428,0.471397,-0.881921,0.000000
-1.105217,19.872623,3.961768,-0.000000,0.000000,1.000000
6.460976,-29.555929,-0.748642,0.242980,-0.970031,0.000000
18.650558,16.871707,-0.332978,-0.098017,-0.995185,0.000000
19.995100,-10.206948,-1.959483,-0.471397,-0.881921,0.000000
24.119315,13.130174,3.961768,0.000000,-0.000000,1.000000
-1.522063,29.603726,3.961768,-0.000000,0.000000,1.000000
-3.281760,12.344231,1.613018,0.290285,-0.956940,0.000000
-10.568354,-21.587724,-2.705330,0.995185,-0.098017,0.000000
-1.845320,-20.268362,3.961768,0.000000,-0.000000,1.000000
-24.997262,-2.693910,2.509792,0.634393,0.773011,0.000000
-12.133546,3.976295,1.180744,0.956940,-0.290285,0.000000
-19.185437,-0.306990,-1.779442,-0.995185,0.098017,0.000000
-12.374433,11.518451,-3.961768,0.000000,0.000000,-1.000000
22.896476,-3.533576,2.813667,-0.098017,0.995185,0.000000
-9.689625,-23.911784,-3.314614,0.773010,0.634394,-0.000000
-11.767171,-7.131336,3.961768,0.000000,-0.000000,1.000000
-5.822480,-24.927839,0.085910,-0.290283,0.956941,0.000000
11.653971,12.730281,-3.961768,0.000000,-0.000000,-1.000000
22.846803,19.314558,3.961768,0.000000,-0.000000,1.000000
1.411456,13.609961,-3.961768,0.000000,-0.000000,-1.000000
20.000556,-16.484284,-0.649949,-0.471397,0.881921,0.000000
-22.245941,-8.719258,3.961768,0.000000,-0.000000,1.000000
24.050139,9.390614,3.961768,0.000000,-0.000000,1.000000
-10.116032,28.497949,-3.623252,-0.336890,0.941544,0.000000
5.445209,14.233484,3.961768,0.000000,-0.000000,1.000000
-10.937158,22.612102,-3.961768,0.000000,0.000000,-1.000000
5.865442,26.254756,3.961768,0.000000,-0.000000,1.000000
-7.703462,29.069401,-3.961768,0.000000,-0.000000,-1.000000
-9.424243,-27.175793,3.961768,-0.000000,0.000000,1.000000
16.161446,8.784401,-3.961768,0.000000,-0.000000,-1.000000
-0.108083,-20.338776,-3.961768,0.000000,-0.000000,-1.000000
-3.359799,-20.717625,-3.961768,0.000000,0.000000,-1.000000
-21.363809,11.447650,-0.618700,0.881921,0.471397,0.000000
-22.851123,3.538043,-2.220444,0.098017,-0.995185,0.000000
-19.813991,-21.389598,3.961768,0.000000,-0.000000,1.000000
-12.671136,1.583557,-3.753985,0.995185,-0.098017,0.000000
-23.783630,-18.695460,0.491690,-0.803208,-0.595699,0.000000
13.355445,4.230973,-3.961768,0.000000,0.000000,-1.000000
-6.931012,-29.438191,1.028718,-0.242980,-0.970031,0.000000
27.231966,4.817890,3.961768,-0.000000,0.000000,1.000000
-27.854573,-3.665372,3.961768,0.000000,-0.000000,1.000000
-9.794510,17.468961,-3.961768,0.000000,0.000000,-1.000000
-28.010393,7.517761,3.961768,-0.000000,-0.000000,1.000000
-10.353517,22.774929,2.732071,0.956940,-0.290286,0.000000
11.197866,28.110862,2.749915,0.336890,0.941544,0.000000
-26.685761,14.298545,-1.966738,-0.857729,0.514103,0.000000
-1.460624,12.683244,-2.610950,0.098017,-0.995185,-0.000000
15.870215,15.868154,-3.176413,0.634393,-0.773011,0.000000
-15.397522,26.027061,-1.149234,-0.514103,0.857729,0.000000
-1.619998,-21.062540,3.961768,0.000000,-0.000000,1.000000
8.051821,-14.627045,-3.961768,0.000000,0.000000,-1.000000
10.831386,18.800507,3.961768,0.000000,-0.000000,1.000000
20.498244,2.760144,0.892302,0.634393,-0.773011,0.000000
-3.653658,-30.028979,-3.605668,-0.146730,-0.989177,0.000000
-13.055899,-4.732117,-3.961768,0.000000,0.000000,-1.000000
15.362189,15.988275,-3.961768,0.000000,0.000000,-1.000000
-28.923196,-8.927547,-1.187016,-0.941544,-0.336890,-0.000000
-5.613381,16.118012,-3.961768,0.000000,0.000000,-1.000000
-17.697162,-3.597080,3.961768,0.000000,-0.000000,1.000000
-23.344147,19.273351,0.347716,-0.740951,0.671559,0.000000
-0.093984,17.890674,3.961768,-0.000000,0.000000,1.000000
-14.839625,-13.561825,0.302555,-0.995185,0.098017,0.000000
-17.916199,-3.301273,3.961768,0.000000,-0.000000,1.000000
-22.103000,-20.642745,-3.617447,-0.740951,-0.671559,0.000000
-5.947692,29.684500,-2.395622,-0.242980,0.970031,0.000000
-4.494470,29.904256,-2.505168,-0.146730,0.989177,0.000000
7.405210,10.436497,1.430014,-0.634393,-0.773010,0.000000
1.872987,24.700270,3.961768,0.000000,-0.000000,1.000000
-15.526087,-22.267784,3.961768,-0.000000,0.000000,1.000000
23.118606,-15.840784,-3.961768,0.000000,0.000000,-1.000000
-9.867830,-19.497398,-1.326785,0.773010,-0.634394,0.000000
-7.296434,-16.522528,3.961768,0.000000,0.000000,1.000000
10.473004,20.811004,-3.546306,-0.956940,0.290285,0.000000
-11.303640,-5.932193,-0.551047,0.881921,0.471397,-0.000000
18.200920,-7.696207,3.961768,-0.000000,0.000000,1.000000
4.130850,-28.863922,3.961768,0.000000,-0.000000,1.000000
10.558229,21.707116,-3.475530,-0.995185,-0.098017,0.000000
29.080445,6.632418,3.961768,0.000000,-0.000000,1.000000
-15.464057,25.987181,3.400531,-0.514103,0.857729,0.000000
-25.970028,-2.623159,-3.961768,0.000000,0.000000,-1.000000
14.515041,-10.129495,3.961768,-0.000000,0.000000,1.000000
10.978138,-28.189482,-3.903892,0.336890,-0.941544,0.000000
-16.813936,2.466901,3.961768,-0.000000,0.000000,1.000000
17.791787,-9.851891,1.426295,0.098017,-0.995185,0.000000
-21.171432,-21.623826,0.234215,-0.671559,-0.740951,-0.000000
4.071374,-23.579199,3.809446,0.773011,0.634393,-0.000000
23.149489,-6.806712,-3.961768,0.000000,-0.000000,-1.000000
-15.857269,-15.981077,3.961768,0.000000,-0.000000,1.000000
11.796284,-27.872567,0.755759,0.427555,-0.903989,0.000000
-19.215335,-0.610552,2.604249,-0.995185,0.098017,0.000000
-0.345812,-19.418166,3.961768,-0.000000,0.000000,1.000000
6.309326,-25.075521,3.081877,0.290283,0.956941,0.000000
8.262414,18.279657,-3.487520,-0.290285,0.956940,0.000000
3.756883,-20.196028,-1.008584,0.881921,-0.471397,0.000000
-10.199168,-17.879614,-3.961768,0.000000,-0.000000,-1.000000
-18.466050,-22.907559,-3.961768,0.000000,-0.000000,-1.000000
-20.169903,2.480453,-3.017396,-0.773011,-0.634393,0.000000
-12.734328,-0.941963,-1.527381,0.995185,0.098017,-0.000000
4.397121,14.813591,-3.961768,0.000000,-0.000000,-1.000000
-19.666322,-7.692728,-3.961768,0.000000,0.000000,-1.000000
-20.911517,20.969454,-3.961768,0.000000,0.000000,-1.000000
16.662867,25.268642,3.714339,0.514103,0.857729,-0.000000
-21.230205,17.498829,3.961768,-0.000000,0.000000,1.000000
-10.507469,20.969549,1.451972,0.995185,0.098017,0.000000
16.787540,-25.193916,0.722903,0.514103,-0.857729,0.000000
-3.129489,22.313053,-3.961768,0.000000,0.000000,-1.000000
22.726582,-8.985395,-3.961768,0.000000,0.000000,-1.000000
-15.997339,15.972481,3.786571,-0.634393,-0.773011,0.000000
8.315656,12.849626,-3.961768,0.000000,0.000000,-1.000000
-3.123086,-30.107682,1.219673,-0.146730,-0.989177,0.000000
-9.976676,-7.965503,3.495270,0.773010,0.634393,0.000000
3.267115,30.086317,-0.472060,0.146730,0.989177,-0.000000
30.034939,3.613480,-0.330268,0.989177,0.146730,0.000000
-5.207170,18.554979,2.068165,-0.471397,0.881921,0.000000
27.942974,-11.539033,3.961768,-0.000000,0.000000,1.000000
10.350240,7.672639,3.961768,0.000000,-0.000000,1.000000
-10.018500,-7.914541,2.086000,0.773010,0.634393,0.000000
-27.481804,12.622482,-0.443050,-0.903989,0.427555,0.000000
4.066964,-14.938885,-3.961768,0.000000,0.000000,-1.000000
10.640905,-7.156138,0.987156,-0.773010,0.634393,0.000000
23.323752,-7.820970,3.961768,-0.000000,0.000000,1.000000
-5.013827,11.794517,1.883629,0.471397,-0.881921,0.000000
24.688732,-4.165863,-3.961768,0.000000,0.000000,-1.000000
-9.379579,-28.431542,3.961768,-0.000000,0.000000,1.000000
9.182321,9.555861,-3.961768,0.000000,-0.000000,-1.000000
-8.211267,-16.885308,3.961768,0.000000,-0.000000,1.000000
-27.089883,13.172255,3.961768,-0.000000,-0.000000,1.000000
16.785905,10.185749,-2.641865,0.471397,0.881921,-0.000000
15.227404,20.234886,-3.961768,0.000000,0.000000,-1.000000
-1.273356,-29.051358,-3.961768,0.000000,-0.000000,-1.000000
-23.752608,-3.377102,3.748831,0.290285,0.956940,0.000000
14.860108,13.769792,-3.584523,0.995185,-0.098017,0.000000
-19.544825,10.009086,-0.838038,0.290284,0.956941,-0.000000
3.502516,21.979221,-1.458072,0.995185,-0.098017,0.000000
24.723275,-2.918765,1.244639,-0.634393,0.773011,0.000000
29.975555,4.013810,0.637354,0.989177,0.146730,0.000000
21.807367,14.195833,-3.764951,-0.956940,-0.290285,0.000000
-4.841358,-24.383692,0.069330,-0.634394,0.773010,0.000000
28.561887,1.682307,3.961768,-0.000000,-0.000000,1.000000
-6.698127,-27.620446,-3.961768,0.000000,0.000000,-1.000000
-18.863558,-18.362780,3.961768,0.000000,-0.000000,1.000000
23.336351,-11.054454,3.961768,-0.000000,0.000000,1.000000
-4.015789,12.121565,1.680222,0.290285,-0.956940,0.000000
6.748543,25.121780,-3.423032,0.098017,-0.995185,0.000000
29.930917,-4.314737,1.264220,0.989177,-0.146730,0.000000
-16.118970,25.594641,-1.042236,-0.514103,0.857729,0.000000
20.131376,-22.566478,-2.668981,0.671559,-0.740951,0.000000
11.491088,21.421295,3.961768,0.000000,-0.000000,1.000000
-2.110024,-30.172874,1.304475,-0.049068,-0.998795,0.000000
11.409564,15.861824,3.961768,0.000000,-0.000000,1.000000
-13.964452,13.343360,3.961768,-0.000000,-0.000000,1.000000
-21.796922,14.230265,-3.860450,0.956940,-0.290285,0.000000
10.568757,21.600227,-2.833783,-0.995185,-0.098017,0.000000
14.178568,-22.456062,3.961768,-0.000000,-0.000000,1.000000
5.023917,11.789123,2.856765,-0.471397,-0.881921,0.000000
12.619241,2.110457,2.818125,-0.995185,-0.098017,0.000000
-1.782201,-12.651572,-3.566427,0.098017,0.995185,-0.000000
-3.772221,24.362618,3.961768,-0.000000,0.000000,1.000000
2.924907,-24.184952,3.961768,0.000000,-0.000000,1.000000
17.886292,-8.622585,3.961768,-0.000000,0.000000,1.000000
-7.272003,-10.560399,-3.961768,0.000000,0.000000,-1.000000
-25.574865,16.151965,-1.448762,-0.857729,0.514103,0.000000
-15.491566,-16.552707,-3.961768,0.000000,0.000000,-1.000000
-17.590713,16.804639,-1.110603,-0.290285,-0.956940,0.000000
-10.503194,-22.265898,1.525302,0.995185,0.098017,0.000000
11.036359,-13.356574,3.961768,-0.000000,-0.000000,1.000000
-3.217075,17.508686,3.961768,0.000000,0.000000,1.000000
-25.101274,2.608549,-3.171878,0.634393,-0.773011,0.000000
12.595805,-11.214585,-3.961768,0.000000,-0.000000,-1.000000
16.698995,-9.099938,-3.961768,0.000000,-0.000000,-1.000000
-10.581548,28.331385,-2.390441,-0.336890,0.941544,0.000000
-22.334254,20.387596,2.951361,-0.740951,0.671559,0.000000
24.444272,7.526138,3.961768,0.000000,-0.000000,1.000000
-22.187355,3.500979,-2.211925,-0.098017,-0.995185,0.000000
-2.053830,16.400292,3.961768,0.000000,-0.000000,1.000000
0.035128,-30.274807,2.350761,0.049068,-0.998795,0.000000
-9.586367,24.037604,2.729744,0.773010,-0.634394,0.000000
-27.129864,6.063730,3.961768,-0.000000,-0.000000,1.000000
15.185556,-14.887331,-2.334494,0.881921,0.471397,-0.000000
19.354538,-23.270563,2.303752,0.671559,-0.740951,0.000000
15.317457,15.134101,-2.804446,0.881921,-0.471397,0.000000
16.113063,-20.927237,-3.961768,0.000000,-0.000000,-1.000000
10.213362,12.399039,-3.961768,0.000000,-0.000000,-1.000000
16.654296,-16.438053,-2.040591,0.471397,0.881921,-0.000000
-20.244366,-7.540516,-3.961768,0.000000,0.000000,-1.000000
8.398340,-10.113652,3.961768,-0.000000,-0.000000,1.000000
2.139545,30.171424,-2.986675,0.049068,0.998795,0.000000
3.959618,23.375302,-1.265207,0.881921,-0.471397,0.000000
22.191985,-20.539867,3.961768,0.000000,-0.000000,1.000000
4.721692,-11.969881,-3.961768,0.000000,0.000000,-1.000000
-28.284922,-10.711403,-0.982107,-0.941544,-0.336890,0.000000
-12.556608,-11.907084,-3.961768,0.000000,0.000000,-1.000000
-0.710397,-20.543491,3.961768,-0.000000,0.000000,1.000000
-7.312139,-29.342724,-2.379813,-0.242980,-0.970031,0.000000
20.665851,-17.329611,-3.961768,0.000000,0.000000,-1.000000
-7.584396,10.289443,-0.457893,0.634393,-0.773010,0.000000
16.923215,16.581793,1.907096,0.471397,-0.881921,0.000000
3.726368,-22.926376,-2.361114,0.956940,0.290285,0.000000
4.077162,12.102948,-2.320451,-0.290285,-0.956940,0.000000
-13.548568,2.305652,3.961768,0.000000,-0.000000,1.000000
-19.151995,-9.889923,2.048223,0.290284,-0.956941,0.000000
9.320899,15.376196,-3.961768,0.000000,0.000000,-1.000000
20.308961,6.298384,-3.961768,0.000000,0.000000,-1.000000
-6.645832,29.126570,3.961768,-0.000000,0.000000,1.000000
-14.586840,-4.920475,-3.961768,0.000000,0.000000,-1.000000
22.983515,-3.525004,-1.067334,-0.098017,0.995185,0.000000
0.390308,30.257358,-1.688658,0.049068,0.998795,-0.000000
-7.768112,-29.228508,-1.980034,-0.242980,-0.970031,0.000000
-30.169182,-2.185176,-2.988994,-0.998795,-0.049068,-0.000000
-29.910254,4.454039,3.579841,-0.989177,0.146730,0.000000
10.818613,25.487839,3.961768,0.000000,-0.000000,1.000000
-18.412775,9.217408,-3.961768,0.000000,0.000000,-1.000000
-0.435000,12.784259,1.673719,0.098017,-0.995185,-0.000000
-14.809514,-21.231284,3.961768,-0.000000,0.000000,1.000000
-2.325913,-24.005522,-3.961768,0.000000,0.000000,-1.000000
22.273506,16.718478,-3.961768,0.000000,0.000000,-1.000000
-18.909532,6.511580,3.961768,-0.000000,-0.000000,1.000000
-30.220946,1.131507,1.045534,-0.998795,0.049068,0.000000
27.280547,-0.855400,-3.961768,0.000000,-0.000000,-1.000000
-17.538544,16.788814,3.119609,-0.290285,-0.956940,0.000000
5.876985,24.944373,3.161869,0.290283,-0.956941,0.000000
-4.358383,-29.924443,3.944671,-0.146730,-0.989177,0.000000
-0.585986,28.423921,-3.961768,0.000000,-0.000000,-1.000000
16.106367,21.466003,3.961768,0.000000,-0.000000,1.000000
23.315728,-9.332028,-3.961768,0.000000,0.000000,-1.000000
-5.366185,-24.722058,1.967137,-0.471397,0.881921,0.000000
7.351273,-29.332921,-1.715804,0.242980,-0.970031,0.000000
0.550170,14.479913,-3.961768,0.000000,-0.000000,-1.000000
-25.151058,16.851696,3.909449,-0.803208,0.595699,0.000000
-21.580367,-11.852801,3.327871,0.881921,-0.471397,0.000000
-15.407152,10.812499,-3.961768,0.000000,0.000000,-1.000000
-19.358513,16.741579,-2.129918,0.290285,-0.956940,0.000000
-0.834646,-20.379521,-3.961768,0.000000,-0.000000,-1.000000
-26.996282,-13.649032,1.448008,-0.903989,-0.427555,0.000000
15.282185,-11.626036,-0.877478,0.881921,-0.471397,0.000000
-20.729148,-7.813380,-3.961768,0.000000,0.000000,-1.000000
5.612322,-13.027406,3.961768,-0.000000,-0.000000,1.000000
-28.777685,9.334223,-2.756825,-0.941544,0.336890,0.000000
-14.299900,-13.523710,-3.961768,0.000000,0.000000,-1.000000
2.208702,14.932975,-3.961768,0.000000,-0.000000,-1.000000
-0.509648,-27.324992,3.961768,-0.000000,0.000000,1.000000
-14.962189,12.405315,-2.622769,-0.956941,0.290284,0.000000
22.182349,8.381559,3.961768,0.000000,-0.000000,1.000000
21.604462,19.369686,3.961768,0.000000,-0.000000,1.000000
-25.920484,-1.487930,0.564803,0.881921,0.471397,-0.000000
17.414292,9.943026,2.984737,0.290284,0.956941,0.000000
-10.030707,24.466117,3.961768,-0.000000,-0.000000,1.000000
4.843800,18.806345,-3.421416,0.634393,0.773011,-0.000000
4.356681,23.926846,-1.841732,0.773011,-0.634393,0.000000
-30.227915,0.989652,-1.201843,-0.998795,0.049068,0.000000
-11.174294,-6.174182,1.438532,0.881921,0.471397,0.000000
-5.250421,-12.351732,3.961768,0.000000,-0.000000,1.000000
27.158360,-13.306346,2.862407,0.903989,-0.427555,0.000000
22.121090,-3.708034,3.961768,-0.000000,-0.000000,1.000000
3.566408,-17.226247,3.961768,0.000000,-0.000000,1.000000
-24.893386,-2.779159,-2.070493,0.634393,0.773011,-0.000000
-14.569288,-24.567054,3.961768,-0.000000,0.000000,1.000000
-21.384636,-20.134429,-3.961768,0.000000,-0.000000,-1.000000
-5.312513,11.634866,-3.000273,0.471397,-0.881921,0.000000
-2.083227,-27.064556,3.961768,-0.000000,0.000000,1.000000
25.057555,2.644429,-2.009740,-0.634393,-0.773011,0.000000
19.223084,-23.115890,3.961768,-0.000000,0.000000,1.000000
10.821900,15.489609,3.961768,0.000000,-0.000000,1.000000
6.175385,-27.319209,3.961768,0.000000,-0.000000,1.000000
-17.818597,23.413538,3.961768,-0.000000,-0.000000,1.000000
-30.215362,-1.245172,1.521463,-0.998795,-0.049068,0.000000
-17.246899,22.303744,3.961768,-0.000000,-0.000000,1.000000
2.563597,23.282454,3.961768,-0.000000,0.000000,1.000000
30.233401,0.877981,3.470219,0.998795,0.049068,-0.000000
-19.324013,4.828447,3.961768,-0.000000,0.000000,1.000000
4.214849,24.364545,3.961768,-0.000000,0.000000,1.000000
15.060607,14.613279,-0.201113,0.956941,-0.290284,0.000000
-9.317411,24.931704,3.961768,-0.000000,0.000000,1.000000
29.449777,-6.150181,-3.961768,0.000000,-0.000000,-1.000000
14.445010,-14.889739,-3.961768,0.000000,-0.000000,-1.000000
-3.987413,-19.172370,-3.961768,0.000000,-0.000000,-1.000000
6.852454,25.132015,-0.121129,0.098017,-0.995185,0.000000
16.020720,-5.314439,3.961768,-0.000000,0.000000,1.000000
2.412874,30.021345,-3.961768,0.000000,0.000000,-1.000000
-4.331324,12.025849,2.836256,0.290285,-0.956940,0.000000
-18.633577,9.820770,-0.594235,0.098017,0.995185,0.000000
-22.911858,19.750308,3.793890,-0.740951,0.671559,0.000000
-21.349368,15.273516,-3.541776,0.881921,-0.471397,0.000000
-21.168229,15.510642,-1.164490,0.773011,-0.634393,0.000000
3.045600,29.194586,-3.961768,0.000000,0.000000,-1.000000
22.095245,20.651301,3.553438,0.740951,0.671559,-0.000000
15.707265,22.938599,-3.961768,0.000000,0.000000,-1.000000
23.351051,-19.265733,-2.426155,0.740951,-0.671559,0.000000
-15.301262,-19.978614,-3.961768,0.000000,-0.000000,-1.000000
-25.337379,-16.548186,1.270070,-0.857729,-0.514103,0.000000
22.695421,19.989109,3.593514,0.740951,0.671559,-0.000000
-19.994071,22.690924,2.034354,-0.671559,0.740951,0.000000
12.189564,3.791627,-0.391400,-0.956940,-0.290285,0.000000
-9.921341,8.032930,1.688404,0.773010,-0.634393,0.000000
13.739859,4.540997,-3.961768,0.000000,0.000000,-1.000000
15.488910,1.054600,3.961768,0.000000,-0.000000,1.000000
-5.707433,24.892940,1.581644,-0.290283,-0.956941,0.000000
-11.692066,-14.563184,3.961768,0.000000,-0.000000,1.000000
29.844081,4.900143,1.506507,0.989177,0.146730,-0.000000
-14.949478,15.255115,3.961768,-0.000000,-0.000000,1.000000
3.581896,12.253185,3.045930,-0.290285,-0.956940,0.000000
9.624076,23.991655,-2.017697,-0.773010,-0.634394,0.000000
25.457206,-3.360454,3.961768,-0.000000,0.000000,1.000000
-10.373524,-18.929981,-3.961768,0.000000,-0.000000,-1.000000
26.494990,-14.616829,-3.557761,0.857729,-0.514103,0.000000
12.424797,3.016170,1.021120,-0.956940,-0.290285,0.000000
10.956375,-23.686744,3.961768,-0.000000,-0.000000,1.000000
-20.180153,-5.546555,3.961768,0.000000,-0.000000,1.000000
-5.155367,-18.083768,3.961768,-0.000000,0.000000,1.000000
-11.113432,11.669666,3.961768,-0.000000,-0.000000,1.000000
3.485699,-21.383560,3.772628,0.995185,-0.098017,0.000000
25.623359,-2.019294,-1.184930,-0.773011,0.634393,0.000000
-25.344766,8.351023,-3.961768,0.000000,0.000000,-1.000000
16.533472,-25.346199,-1.518517,0.514103,-0.857729,0.000000
-2.296447,12.624063,3.961768,0.000000,-0.000000,1.000000
-1.696615,21.241047,3.961768,0.000000,-0.000000,1.000000
-14.516109,19.085348,3.961768,-0.000000,-0.000000,1.000000
12.737300,-5.812126,-3.961768,0.000000,-0.000000,-1.000000
3.319644,21.458507,-3.961768,0.000000,0.000000,-1.000000
29.810668,-3.864362,3.961768,-0.000000,0.000000,1.000000
-2.242879,12.606199,-3.664805,0.098017,-0.995185,-0.000000
18.279868,-16.890329,1.436085,0.098017,0.995185,0.000000
2.956571,30.131286,0.201641,0.049068,0.998795,0.000000
5.300702,13.268216,-3.961768,0.000000,0.000000,-1.000000
-21.922442,13.342723,-3.835658,0.995185,0.098017,-0.000000
-8.634214,9.427879,-3.081701,0.634393,-0.773010,0.000000
9.669461,-12.594188,-3.961768,0.000000,0.000000,-1.000000
-22.237058,14.065605,3.961768,-0.000000,0.000000,1.000000
-23.608562,14.115797,3.961768,-0.000000,0.000000,1.000000
-17.612814,-23.695142,3.961768,-0.000000,0.000000,1.000000
26.159039,-15.177329,-2.450440,0.857729,-0.514103,0.000000
-19.533836,10.005753,-1.430759,0.290284,0.956941,-0.000000
-19.306229,-22.893256,-3.961768,0.000000,0.000000,-1.000000
3.548740,-20.851227,-2.708718,0.956940,-0.290285,0.000000
-16.382939,21.565210,-3.961768,0.000000,0.000000,-1.000000
-16.662176,-18.273518,3.961768,0.000000,-0.000000,1.000000
-27.235172,-3.419230,3.961768,0.000000,-0.000000,1.000000
-21.847749,12.631436,-2.101312,0.956940,0.290285,-0.000000
26.461825,-14.672161,2.700008,0.857729,-0.514103,0.000000
19.069202,8.710092,-3.961768,0.000000,0.000000,-1.000000
12.732397,-0.961565,2.718527,-0.995185,0.098017,0.000000
-21.517592,-3.333239,-2.389152,-0.290285,0.956940,0.000000
20.722483,15.990144,-1.950301,-0.634393,-0.773011,0.000000
-3.496050,21.913576,2.306913,-0.995185,-0.098017,0.000000
6.769335,29.478689,-3.373795,0.242980,0.970031,0.000000
9.672971,-9.779041,3.961768,-0.000000,0.000000,1.000000
-3.105796,-21.003371,-3.961768,0.000000,0.000000,-1.000000
-0.418356,-20.352220,-3.961768,0.000000,-0.000000,-1.000000
-29.248532,7.688174,-2.709890,-0.970031,0.242980,0.000000
-17.264654,5.484143,-3.961768,0.000000,-0.000000,-1.000000
-15.020824,11.235539,3.961768,-0.000000,-0.000000,1.000000
-25.322456,2.385945,-0.783426,0.773011,-0.634393,0.000000
-29.154442,5.619169,-3.961768,0.000000,-0.000000,-1.000000
-22.459128,-20.249819,1.745601,-0.740951,-0.671559,0.000000
-10.392391,7.458954,-3.254931,0.773010,-0.634393,0.000000
-17.871023,24.395074,-1.035046,-0.595699,0.803208,0.000000
-20.445230,16.278040,-3.961768,0.000000,-0.000000,-1.000000
12.094955,-7.569186,3.961768,-0.000000,-0.000000,1.000000
-15.355128,-15.204578,-2.404829,-0.881921,0.471397,0.000000
-3.946455,15.793995,-3.961768,0.000000,0.000000,-1.000000
12.460288,-2.899172,0.151138,-0.956940,0.290285,0.000000
1.409841,-22.116341,3.961768,0.000000,-0.000000,1.000000
-15.769555,4.741525,3.961768,-0.000000,0.000000,1.000000
17.051613,-21.887024,-3.961768,0.000000,-0.000000,-1.000000
0.236607,-24.726572,3.961768,0.000000,-0.000000,1.000000
-19.437928,8.726217,3.961768,-0.000000,-0.000000,1.000000
-21.576748,-5.851020,-3.961768,0.000000,0.000000,-1.000000
0.225070,21.223412,3.961768,0.000000,-0.000000,1.000000
-1.685734,-28.420185,3.961768,-0.000000,0.000000,1.000000
3.737005,-30.016616,0.938560,0.146730,-0.989177,0.000000
0.699796,-16.361221,3.961768,-0.000000,-0.000000,1.000000
29.976631,-1.907676,3.961768,-0.000000,0.000000,1.000000
7.162441,25.133891,-1.695466,-0.098017,-0.995185,0.000000
-8.229673,18.269726,-0.096182,0.290285,0.956940,-0.000000
1.227013,25.174938,3.961768,0.000000,-0.000000,1.000000
-17.826044,-9.243493,3.961768,0.000000,0.000000,1.000000
