x,y,z,nx,ny,nz
0.331808,0.041974,0.203450,0.852506,0.000000,0.522718
0.083186,-0.129330,-0.263510,0.000000,-1.000000,0.000000
0.555235,-0.111940,-0.150898,0.964997,0.000000,-0.262260
-0.174479,0.020822,0.489857,-0.335535,0.000000,0.942028
0.479833,0.094386,-0.063463,0.991367,0.000000,-0.131120
0.284171,-0.129330,-0.139224,0.000000,-1.000000,0.000000
-0.108217,0.108731,-0.524777,-0.201965,0.000000,-0.979393
0.184457,0.078262,0.449716,0.379483,0.000000,0.925199
0.294438,0.129330,-0.202829,0.000000,1.000000,0.000000
-0.312220,0.053488,-0.232395,-0.802177,0.000000,-0.597086
0.001650,0.062008,-0.389212,0.004239,0.000000,-0.999991
-0.049908,-0.034675,-0.386002,-0.128226,0.000000,-0.991745
0.320545,-0.009204,-0.220770,0.823567,0.000000,-0.567219
-0.401472,-0.016340,0.361595,-0.743045,0.000000,0.669242
-0.162012,0.057912,0.353894,-0.416253,0.000000,0.909249
-0.355659,0.087080,-0.158100,-0.913783,0.000000,-0.406202
-0.095917,-0.102202,-0.011317,0.993111,0.000000,0.117173
0.320312,-0.085693,0.391648,0.633086,0.000000,0.774081
-0.513189,-0.042666,0.167125,-0.950850,0.000000,0.309653
0.565144,-0.129330,-0.069627,0.000000,-1.000000,0.000000
-0.118022,-0.129330,-0.352415,0.000000,-1.000000,0.000000
0.389066,0.073092,-0.010799,0.999615,0.000000,-0.027746
0.296310,-0.068769,-0.384295,0.610615,0.000000,-0.791928
0.387624,-0.129330,-0.408310,0.000000,-1.000000,0.000000
-0.013570,-0.068002,0.095624,0.140500,0.000000,-0.990081
-0.182840,-0.053468,-0.457249,-0.371287,0.000000,-0.928518
0.348339,0.129330,-0.224804,0.000000,1.000000,0.000000
-0.470729,-0.084547,-0.179653,-0.934271,0.000000,-0.356563
-0.224173,0.129330,0.060620,0.000000,1.000000,0.000000
-0.024446,0.024631,0.388447,-0.062809,0.000000,0.998026
0.437339,-0.129330,-0.178728,0.000000,-1.000000,0.000000
0.193843,0.016876,-0.337511,0.498035,0.000000,-0.867157
0.089356,-0.019220,-0.036656,-0.925179,0.000000,0.379530
0.404204,-0.070006,-0.408159,0.703656,0.000000,-0.710541
0.495919,0.021289,0.172680,0.944387,0.000000,0.328837
0.083967,-0.048133,0.047724,-0.869386,0.000000,-0.494133
-0.174406,0.129330,-0.264258,0.000000,1.000000,0.000000
-0.393246,-0.031490,0.326137,-0.769728,0.000000,0.638372
0.084346,-0.129330,0.092361,0.000000,-1.000000,0.000000
0.401401,0.047821,0.361239,0.743314,0.000000,0.668942
0.546380,0.099835,-0.133979,0.971227,0.000000,-0.238157
0.014489,-0.090588,-0.388946,0.037226,0.000000,-0.999307
0.182603,0.088560,0.458311,0.370130,0.000000,0.928980
0.324051,0.025823,0.392682,0.636486,0.000000,0.771288
-0.373139,-0.056818,0.403617,-0.678839,0.000000,0.734287
-0.028700,-0.084808,0.092219,0.297160,0.000000,-0.954828
-0.097946,-0.084834,0.515379,-0.186704,0.000000,0.982416
0.035939,-0.019188,-0.387553,0.092337,0.000000,-0.995728
0.402776,0.082178,-0.368451,0.737848,0.000000,-0.674967
-0.350455,-0.109385,-0.399157,-0.659775,0.000000,-0.751463
0.386144,-0.035143,-0.048803,0.992108,0.000000,-0.125387
0.187032,0.097316,-0.341332,0.480536,0.000000,-0.876975
0.500340,0.106563,-0.171318,0.946078,0.000000,-0.323940
-0.030084,0.129330,-0.139024,0.000000,1.000000,0.000000
0.012586,0.100508,-0.389012,0.032336,0.000000,-0.999477
0.025225,-0.129330,0.246686,0.000000,-1.000000,0.000000
-0.190563,0.075704,-0.339374,-0.489608,0.000000,-0.871943
-0.161391,0.084725,0.529231,-0.291692,0.000000,0.956512
0.186159,0.087411,-0.341809,0.478292,0.000000,-0.878201
-0.219524,-0.084765,-0.321400,-0.564017,0.000000,-0.825763
-0.388867,-0.028812,-0.016463,-0.999105,0.000000,-0.042298
-0.182469,0.042117,-0.458906,-0.369481,0.000000,-0.929238
0.384171,0.104524,-0.295937,0.792204,0.000000,-0.610256
0.085411,-0.069181,-0.045089,-0.884338,0.000000,0.466847
0.533378,-0.129330,0.153481,0.000000,-1.000000,0.000000
-0.151467,-0.107054,-0.553915,-0.263764,0.000000,-0.964587
0.550357,0.075742,-0.152981,0.963471,0.000000,-0.267813
0.095990,-0.059361,-0.010682,-0.993864,0.000000,0.110605
0.315755,-0.027309,0.227568,0.811260,0.000000,0.584685
-0.402387,-0.046734,0.407942,-0.702243,0.000000,0.711937
0.113224,-0.129330,0.484885,0.000000,-1.000000,0.000000
-0.386488,-0.086671,-0.045997,-0.992992,0.000000,-0.118178
-0.387514,0.102232,0.036358,-0.995627,0.000000,0.093413
0.419984,-0.129330,0.261139,0.000000,-1.000000,0.000000
-0.162347,0.042146,0.526660,-0.294580,0.000000,0.955627
0.423234,0.129330,0.158340,0.000000,1.000000,0.000000
-0.394505,0.028151,0.330925,-0.766144,0.000000,0.642669
0.387949,0.105823,-0.031372,0.996746,0.000000,-0.080604
0.401788,-0.129330,0.156826,0.000000,-1.000000,0.000000
0.557476,0.087362,0.148529,0.966291,0.000000,0.257450
-0.392874,0.024155,-0.406707,-0.694770,0.000000,-0.719232
-0.503533,-0.108146,-0.170309,-0.947283,0.000000,-0.320398
0.019016,-0.053171,0.388751,0.048857,0.000000,0.998806
0.354813,-0.082900,0.159989,0.911611,0.000000,0.411055
-0.012778,0.045527,0.389006,-0.032831,0.000000,0.999461
0.151386,0.116817,-0.554103,0.263550,0.000000,-0.964646
0.127879,0.129113,-0.541500,0.229834,0.000000,-0.973230
-0.360382,0.000611,-0.401231,-0.668220,0.000000,-0.743963
-0.388905,0.122451,-0.015542,-0.999202,0.000000,-0.039932
0.099990,-0.129330,-0.105474,0.000000,-1.000000,0.000000
0.390794,0.007133,-0.317299,0.776329,0.000000,-0.630327
0.520240,-0.069197,0.103192,0.980890,0.000000,0.194564
-0.317634,-0.032667,0.224938,-0.816088,0.000000,0.577927
0.389107,-0.109920,0.009204,0.999720,0.000000,0.023647
-0.314802,0.007323,0.228885,-0.808811,0.000000,0.588068
0.387242,-0.027532,-0.039142,0.994930,0.000000,-0.100567
-0.072550,-0.074276,-0.489866,-0.146503,0.000000,-0.989210
-0.157059,0.021417,0.540421,-0.279077,0.000000,0.960269
-0.151871,-0.129330,0.548753,0.000000,-1.000000,0.000000
0.178384,-0.129330,-0.004341,0.000000,-1.000000,0.000000
0.180508,0.127527,-0.467265,0.360354,0.000000,-0.932816
-0.151851,0.118733,0.553019,-0.264785,0.000000,0.964308
-0.313319,0.022772,0.230911,-0.805000,0.000000,0.593274
-0.332130,-0.016171,0.202924,-0.853332,0.000000,0.521367
0.092280,-0.097938,-0.509981,0.178057,0.000000,-0.984020
0.504495,0.078395,0.170001,0.947644,0.000000,0.319329
0.306040,-0.129330,0.163001,0.000000,-1.000000,0.000000
-0.159724,-0.129330,-0.365851,0.000000,-1.000000,0.000000
0.547230,0.109335,0.135061,0.970867,0.000000,0.239618
-0.377586,-0.129330,-0.394015,0.000000,-1.000000,0.000000
0.073440,0.129330,-0.176774,0.000000,1.000000,0.000000
-0.505644,-0.085871,-0.087846,-0.985242,0.000000,-0.171166
-0.026264,0.129330,-0.319018,0.000000,1.000000,0.000000
0.116076,0.129330,-0.141576,0.000000,1.000000,0.000000
0.388383,0.129310,-0.025445,0.997861,0.000000,-0.065376
-0.353573,0.105655,-0.162711,-0.908425,0.000000,-0.418048
-0.483975,-0.100052,-0.176152,-0.939693,0.000000,-0.342019
0.499806,0.054634,-0.171485,0.945875,0.000000,-0.324532
-0.343874,0.044294,-0.182316,-0.883506,0.000000,-0.468420
-0.199534,0.104240,0.334178,-0.512657,0.000000,0.858593
0.343612,-0.094797,-0.182809,0.882833,0.000000,-0.469686
0.518004,0.004373,-0.100762,0.981601,0.000000,-0.190941
0.403162,-0.037933,0.370574,0.736236,0.000000,0.676725
0.036154,0.129330,-0.147256,0.000000,1.000000,0.000000
0.181798,-0.072519,0.461837,0.366283,0.000000,0.930503
-0.163242,0.055787,0.353328,-0.419412,0.000000,0.907796
0.177589,-0.043058,-0.346339,0.456275,0.000000,-0.889839
0.058059,0.129330,0.124716,0.000000,1.000000,0.000000
-0.172148,0.022977,0.497662,-0.326907,0.000000,0.945056
-0.230283,0.104488,0.313781,-0.591661,0.000000,0.806187
-0.014970,-0.044542,0.388927,-0.038462,0.000000,0.999260
0.048310,0.125623,-0.083632,-0.500194,0.000000,0.865913
0.323393,-0.075871,0.216578,0.830883,0.000000,0.556446
0.518261,-0.079080,0.101040,0.981521,0.000000,0.191356
-0.431525,0.129330,0.260512,0.000000,1.000000,0.000000
0.318563,0.118329,0.391155,0.631487,0.000000,0.775386
-0.228533,0.069376,0.315058,-0.587162,0.000000,0.809469
0.176311,0.082312,-0.346991,0.452991,0.000000,-0.891515
0.001595,0.129330,-0.167622,0.000000,1.000000,0.000000
-0.487052,-0.129330,-0.084152,0.000000,-1.000000,0.000000
-0.117788,0.000357,-0.533115,-0.215739,0.000000,-0.976451
-0.076587,-0.069587,0.058844,0.792969,0.000000,-0.609262
-0.314313,0.129330,0.057943,0.000000,1.000000,0.000000
0.333435,0.129330,0.060534,0.000000,1.000000,0.000000
0.389194,-0.092188,-0.004121,0.999944,0.000000,-0.010588
0.195843,0.033909,0.336354,0.503174,0.000000,0.864185
0.317021,-0.018669,0.225802,0.814512,0.000000,0.580146
0.166245,-0.129330,0.392692,0.000000,-1.000000,0.000000
-0.067293,0.031232,-0.069281,0.696742,0.000000,0.717322
0.028447,-0.025261,0.388174,0.073089,0.000000,0.997325
-0.387541,-0.121805,-0.036068,-0.995697,0.000000,-0.092668
-0.081832,0.129330,-0.056662,0.000000,1.000000,0.000000
-0.321981,-0.045833,-0.392113,-0.634607,0.000000,-0.772835
0.247337,-0.129330,-0.281148,0.000000,-1.000000,0.000000
-0.450066,-0.129330,0.128240,0.000000,-1.000000,0.000000
0.151471,-0.103846,0.553906,0.263774,0.000000,0.964584
0.001268,-0.013734,0.389213,0.003258,0.000000,0.999995
0.277828,-0.129330,-0.176272,0.000000,-1.000000,0.000000
-0.093837,0.123719,-0.022862,0.971580,0.000000,0.236712
-0.324854,0.116825,-0.214379,-0.834639,0.000000,-0.550797
0.201235,-0.129330,0.140169,0.000000,-1.000000,0.000000
0.448722,-0.021135,-0.184662,0.924755,0.000000,-0.380563
-0.322377,-0.028896,0.392223,-0.634967,0.000000,0.772539
0.388242,-0.093543,-0.027504,0.997500,0.000000,-0.070664
0.046767,-0.124608,0.386396,0.120158,0.000000,0.992755
-0.092609,0.047712,0.510299,-0.178564,0.000000,0.983928
-0.003497,-0.129330,-0.123786,0.000000,-1.000000,0.000000
-0.214402,0.129330,-0.066607,0.000000,1.000000,0.000000
0.069051,0.006497,-0.067528,-0.714945,0.000000,0.699181
-0.103695,0.072896,-0.520699,-0.195311,0.000000,-0.980741
-0.313768,0.071348,0.230300,-0.806155,0.000000,0.591704
-0.071165,-0.018042,-0.065297,0.736833,0.000000,0.676075
0.083383,-0.129330,0.129417,0.000000,-1.000000,0.000000
-0.387361,0.029059,0.037953,-0.995234,0.000000,0.097512
-0.328003,-0.129330,0.437700,0.000000,-1.000000,0.000000
-0.494521,0.100134,0.173102,-0.943847,0.000000,0.330383
-0.543315,-0.034369,0.130128,-0.972496,0.000000,0.232919
0.216573,-0.119705,-0.323396,0.556434,0.000000,-0.830892
-0.013851,-0.076739,0.095584,0.143412,0.000000,-0.989663
-0.056726,0.010954,0.078168,0.587336,0.000000,-0.809343
0.384682,0.007924,0.297477,0.791064,0.000000,0.611734
-0.072438,-0.017673,-0.489746,-0.146317,0.000000,-0.989238
-0.369712,0.077463,-0.403007,-0.676012,0.000000,-0.736891
-0.029707,0.129330,-0.458966,0.000000,1.000000,0.000000
-0.158557,0.016481,-0.355455,-0.407375,0.000000,-0.913261
-0.003268,0.122683,-0.096527,0.033835,0.000000,0.999427
-0.382634,0.038643,0.405194,-0.686577,0.000000,0.727057
-0.535189,0.051501,-0.159119,-0.958532,0.000000,-0.284984
0.386250,-0.009568,-0.047952,0.992382,0.000000,-0.123202
0.176799,-0.114311,-0.481627,0.344603,0.000000,-0.938749
0.063009,0.092983,-0.073198,-0.652388,0.000000,0.757885
-0.352876,-0.057929,0.164218,-0.906633,0.000000,0.421920
0.200531,0.129330,-0.331021,0.000000,1.000000,0.000000
0.093705,0.008392,-0.023400,-0.970206,0.000000,0.242282
-0.529845,-0.075809,0.113980,-0.977635,0.000000,0.210309
-0.084976,-0.002673,0.045904,0.879830,0.000000,-0.475289
-0.355593,-0.044856,-0.158248,-0.913615,0.000000,-0.406581
-0.390708,0.065652,-0.317000,-0.776553,0.000000,-0.630052
-0.324728,0.011257,-0.214570,-0.834314,0.000000,-0.551290
0.395190,-0.067738,0.333609,0.764132,0.000000,0.645060
-0.083667,-0.129330,0.333126,0.000000,-1.000000,0.000000
0.196080,-0.017500,0.336216,0.503782,0.000000,0.863831
0.167304,0.087478,0.351423,0.429849,0.000000,0.902901
0.021114,-0.074061,0.094246,-0.218608,0.000000,-0.975813
-0.354410,0.091082,0.160880,-0.910575,0.000000,0.413344
0.294959,-0.042052,0.383843,0.609315,0.000000,0.792928
0.176407,0.110302,0.346943,0.453236,0.000000,0.891390
-0.072958,-0.129330,0.068279,0.000000,-1.000000,0.000000
0.400160,-0.002956,-0.355142,0.747926,0.000000,-0.663782
-0.432997,0.129330,0.135058,0.000000,1.000000,0.000000
-0.089168,-0.129330,-0.161653,0.000000,-1.000000,0.000000
0.473501,0.002850,0.178950,0.935425,0.000000,0.353525
-0.326065,0.066362,0.393226,-0.638307,0.000000,0.769782
0.388650,-0.020476,0.020974,0.998547,0.000000,0.053888
0.393542,-0.097299,0.327247,0.768898,0.000000,0.639371
0.510663,0.031371,-0.167977,0.949928,0.000000,-0.312469
-0.225939,0.059235,0.316923,-0.580498,0.000000,0.814262
-0.093682,0.012366,0.023492,0.969969,0.000000,-0.243229
0.090056,-0.041376,-0.034899,-0.932433,0.000000,0.361343
-0.551434,0.071398,-0.140487,-0.969046,0.000000,-0.246881
0.350996,-0.009264,0.168199,0.901803,0.000000,0.432148
-0.181435,0.044266,0.344340,-0.466155,0.000000,0.884703
0.010708,0.047531,-0.389068,0.027512,0.000000,-0.999621
-0.386764,-0.123430,-0.043620,-0.993700,0.000000,-0.112071
-0.340289,0.015971,-0.188923,-0.874295,0.000000,-0.485395
0.521237,-0.052118,0.164318,0.953731,0.000000,0.300660
-0.179183,-0.036786,-0.345517,-0.460369,0.000000,-0.887728
-0.334253,-0.057096,0.199409,-0.858786,0.000000,0.512335
0.224894,-0.011240,-0.317665,0.577815,0.000000,-0.816168
-0.403063,-0.006487,0.408023,-0.702769,0.000000,0.711418
0.032293,-0.070639,0.091023,-0.334363,0.000000,-0.942444
0.116790,0.129330,0.010874,0.000000,1.000000,0.000000
0.009750,0.129330,-0.473395,0.000000,1.000000,0.000000
-0.062965,-0.074632,-0.073236,0.651937,0.000000,0.758273
-0.389122,-0.078525,0.008539,-0.999759,0.000000,0.021940
0.389174,-0.055558,0.005651,0.999895,0.000000,0.014518
0.156901,-0.129330,-0.327520,0.000000,-1.000000,0.000000
0.200069,-0.006989,-0.333858,0.514033,0.000000,-0.857771
0.106691,-0.129330,0.219693,0.000000,-1.000000,0.000000
-0.013507,-0.018433,0.388981,-0.034702,0.000000,0.999398
-0.131593,0.017320,0.544487,-0.234919,0.000000,0.972015
0.490558,0.112062,-0.073194,0.989051,0.000000,-0.147572
-0.533704,-0.129138,-0.159692,-0.958033,0.000000,-0.286658
0.388526,-0.107593,0.023148,0.998230,0.000000,0.059474
-0.383765,-0.035914,0.294727,-0.793100,0.000000,0.609091
0.006882,-0.124542,-0.096337,-0.071259,0.000000,0.997458
-0.227862,-0.017470,0.315543,-0.585439,0.000000,0.810717
0.066956,0.109957,0.483752,0.137103,0.000000,0.990557
0.154223,0.041816,0.547387,0.271186,0.000000,0.962527
0.098425,0.002955,-0.515828,0.187429,0.000000,-0.982278
-0.159260,0.082331,-0.355141,-0.409182,0.000000,-0.912453
-0.148645,-0.129330,-0.077677,0.000000,-1.000000,0.000000
-0.484355,0.056377,-0.067500,-0.990429,0.000000,-0.138027
0.460814,0.035024,0.182034,0.930063,0.000000,0.367400
-0.388537,-0.049913,-0.022972,-0.998257,0.000000,-0.059022
0.106173,0.090127,0.522945,0.198970,0.000000,0.980006
0.010585,-0.118605,-0.389072,0.027195,0.000000,-0.999630
-0.139942,0.035757,0.551016,-0.246156,0.000000,0.969230
0.044432,0.129330,-0.155908,0.000000,1.000000,0.000000
-0.488045,-0.093424,0.070865,-0.989622,0.000000,0.143694
-0.095466,0.059873,0.014639,0.988447,0.000000,-0.151567
0.308029,-0.129330,0.007955,0.000000,-1.000000,0.000000
0.014494,0.065979,0.095488,-0.150073,0.000000,-0.988675
0.136144,-0.129330,0.034677,0.000000,-1.000000,0.000000
-0.389215,0.112636,0.000803,-0.999998,0.000000,0.002063
0.530876,0.113212,-0.115173,0.977266,0.000000,-0.212017
-0.530533,-0.073442,-0.160901,-0.956958,0.000000,-0.290228
0.055960,0.129330,-0.087384,0.000000,1.000000,0.000000
0.027844,-0.063999,0.092481,-0.288298,0.000000,-0.957541
-0.344658,0.012995,0.180830,-0.885520,0.000000,0.464601
-0.022240,-0.083028,-0.388580,-0.057140,0.000000,-0.998366
0.020088,-0.018428,-0.388697,0.051611,0.000000,-0.998667
-0.228253,-0.037134,-0.315261,-0.586443,0.000000,-0.809991
-0.099284,-0.129330,-0.040259,0.000000,-1.000000,0.000000
0.235312,-0.129330,0.153337,0.000000,-1.000000,0.000000
0.143395,-0.129330,-0.160830,0.000000,-1.000000,0.000000
0.321392,0.086866,0.219535,0.825744,0.000000,0.564045
-0.050809,0.087415,0.082137,0.526075,0.000000,-0.850438
0.388678,0.075213,0.020457,0.998618,0.000000,0.052559
-0.386814,-0.020841,0.043166,-0.993831,0.000000,0.110906
-0.318471,-0.034536,0.391129,-0.631403,0.000000,0.775455
-0.387469,0.080281,0.036835,-0.995512,0.000000,0.094639
0.348261,-0.129330,-0.167580,0.000000,-1.000000,0.000000
-0.399384,0.021200,0.351495,-0.750679,0.000000,0.660668
0.329037,-0.054544,-0.207902,0.845386,0.000000,-0.534156
-0.342873,0.066051,-0.184193,-0.880933,0.000000,-0.473241
0.020065,0.092314,-0.094475,-0.207751,0.000000,0.978182
0.091392,0.129330,-0.529235,0.000000,1.000000,0.000000
0.240444,0.129330,0.091278,0.000000,1.000000,0.000000
0.479313,0.129330,-0.313408,0.000000,1.000000,0.000000
0.478543,-0.046991,0.177632,0.937497,0.000000,0.347992
-0.093221,0.071565,0.025258,0.965198,0.000000,-0.261519
0.011539,-0.020283,0.389044,0.029646,0.000000,0.999560
-0.449010,0.039942,0.184603,-0.924884,0.000000,0.380250
-0.019568,-0.129330,0.174682,0.000000,-1.000000,0.000000
-0.387254,0.128883,0.039024,-0.994961,0.000000,0.100264
-0.389208,-0.099278,0.002355,-0.999982,0.000000,0.006051
0.429992,0.129330,0.211515,0.000000,1.000000,0.000000
-0.214783,-0.129330,0.211990,0.000000,-1.000000,0.000000
-0.547801,0.084257,0.135790,-0.970624,0.000000,0.240600
-0.341375,-0.102072,0.186953,-0.877086,0.000000,0.480334
-0.146368,-0.129330,0.015226,0.000000,-1.000000,0.000000
0.303323,-0.006217,-0.386575,0.617300,0.000000,-0.786728
-0.388534,0.033424,-0.023030,-0.998248,0.000000,-0.059169
0.416161,-0.129330,-0.100740,0.000000,-1.000000,0.000000
-0.344177,0.056170,0.181744,-0.884283,0.000000,0.466951
0.096567,0.103436,0.001718,-0.999842,0.000000,-0.017784
0.352344,0.084562,0.165355,0.905267,0.000000,0.424842
-0.388849,0.002863,-0.016875,-0.999060,0.000000,-0.043356
0.402081,0.129330,-0.344103,0.000000,1.000000,0.000000
0.405435,0.007705,0.408303,0.704610,0.000000,0.709594
0.047179,0.129330,0.528173,0.000000,1.000000,0.000000
0.317638,-0.051893,-0.224933,0.816099,0.000000,-0.577913
-0.327331,-0.110224,0.210577,-0.841003,0.000000,0.541030
0.343622,-0.099625,-0.182791,0.882858,0.000000,-0.469641
0.482101,-0.129330,0.260036,0.000000,-1.000000,0.000000
0.057312,-0.044226,-0.077740,-0.593398,0.000000,0.804909
0.235354,-0.112339,0.309995,0.604689,0.000000,0.796462
-0.008166,-0.028380,0.389130,-0.020982,0.000000,0.999780
-0.408653,-0.106877,-0.408533,-0.707211,0.000000,-0.707003
-0.391917,-0.050895,0.321273,-0.773364,0.000000,0.633963
-0.496493,-0.038043,-0.172505,-0.944608,0.000000,-0.328202
0.226101,-0.006661,0.316807,0.580915,0.000000,0.813964
0.015189,0.016627,0.095380,-0.157265,0.000000,-0.987556
0.106449,-0.129330,-0.464436,0.000000,-1.000000,0.000000
0.096215,0.028759,0.008413,-0.996199,0.000000,-0.087111
0.060846,-0.033828,0.075006,-0.629993,0.000000,-0.776601
-0.136796,-0.129330,0.136242,0.000000,-1.000000,0.000000
0.501268,-0.042089,0.171027,0.946429,0.000000,0.322911
-0.351106,-0.095974,0.167969,-0.902086,0.000000,0.431557
0.357895,-0.093035,0.400730,0.666120,0.000000,0.745844
-0.166496,-0.129330,-0.328843,0.000000,-1.000000,0.000000
-0.011554,-0.032756,-0.389044,-0.029686,0.000000,-0.999559
0.101532,-0.129330,0.346706,0.000000,-1.000000,0.000000
-0.119650,-0.129330,-0.463506,0.000000,-1.000000,0.000000
0.389186,0.010970,-0.004792,0.999924,0.000000,-0.012313
-0.336300,0.008581,0.195937,-0.864045,0.000000,0.503414
-0.357348,0.054725,0.400618,-0.665656,0.000000,0.746259
0.058603,-0.129330,0.083868,0.000000,-1.000000,0.000000
-0.359545,0.096824,0.149051,-0.923768,0.000000,0.382952
0.369252,-0.077017,-0.402923,0.675631,0.000000,-0.737240
0.525929,-0.056687,0.162617,0.955373,0.000000,0.295401
0.311227,0.089789,0.233723,0.799626,0.000000,0.600499
0.342111,-0.040580,-0.397264,0.652548,0.000000,-0.757747
-0.065771,0.028070,-0.070726,0.680989,0.000000,0.732293
-0.132519,0.129330,0.139078,0.000000,1.000000,0.000000
-0.545102,-0.105012,0.155165,-0.961793,0.000000,0.273778
0.387918,0.084284,0.031751,0.996667,0.000000,0.081578
-0.388861,0.093679,-0.016613,-0.999089,0.000000,-0.042683
0.071267,-0.096691,-0.488481,0.144366,0.000000,-0.989524
-0.095912,0.047817,0.011362,0.993056,0.000000,-0.117642
-0.570167,0.129330,0.085354,0.000000,1.000000,0.000000
-0.033734,-0.129330,0.305206,0.000000,-1.000000,0.000000
-0.068182,0.052219,-0.068406,0.705945,0.000000,0.708267
-0.046298,0.072795,0.386452,-0.118953,0.000000,0.992900
0.389412,-0.003566,-0.312563,0.779859,0.000000,-0.625956
0.166357,-0.093358,0.515431,0.307151,0.000000,0.951661
-0.193155,-0.041367,0.337905,-0.496267,0.000000,0.868170
-0.167526,0.039281,-0.512005,-0.310973,0.000000,-0.950419
0.007409,0.077836,-0.389145,0.019035,0.000000,-0.999819
-0.281532,-0.129330,0.457900,0.000000,-1.000000,0.000000
-0.235498,0.097271,-0.309886,-0.605057,0.000000,-0.796182
0.022255,-0.018531,-0.388579,0.057180,0.000000,-0.998364
-0.154625,0.129330,-0.408760,0.000000,1.000000,0.000000
-0.536516,-0.083506,0.158602,-0.958976,0.000000,0.283488
-0.210560,-0.040710,-0.327343,-0.540985,0.000000,-0.841033
-0.243725,0.129330,0.044076,0.000000,1.000000,0.000000
-0.184863,0.049109,0.447735,-0.381636,0.000000,0.924313
0.471756,-0.129330,-0.185137,0.000000,-1.000000,0.000000
0.030286,-0.070724,0.388035,0.077814,0.000000,0.996968
-0.267720,-0.129330,-0.489828,0.000000,-1.000000,0.000000
-0.044487,-0.060720,0.085726,0.460613,0.000000,-0.887601
0.153709,-0.101975,-0.357578,0.394919,0.000000,-0.918716
0.361257,-0.128631,-0.401405,0.668957,0.000000,-0.743301
-0.388391,0.057765,0.025314,-0.997883,0.000000,0.065039
-0.147065,0.035461,-0.556392,-0.255543,0.000000,-0.966798
0.164220,0.060714,0.352874,0.421927,0.000000,0.906630
0.182809,-0.105994,0.457387,0.371136,0.000000,0.928579
0.319182,0.003923,0.222736,0.820066,0.000000,0.572269
0.088759,0.129330,0.086507,0.000000,1.000000,0.000000
0.176539,-0.026209,0.482575,0.343560,0.000000,0.939131
-0.125399,-0.006020,-0.539477,-0.226409,0.000000,-0.974032
0.205296,0.129330,0.088295,0.000000,1.000000,0.000000
0.096263,0.002241,0.007844,-0.996697,0.000000,-0.081213
-0.314375,-0.052194,0.229471,-0.807714,0.000000,0.589574
0.372807,0.030824,0.403559,0.678566,0.000000,0.734540
-0.513093,0.060826,0.167157,-0.950815,0.000000,0.309760
-0.536155,-0.129330,0.154933,0.000000,-1.000000,0.000000
0.225653,0.055799,-0.317127,0.579763,0.000000,-0.814785
0.388497,0.088291,-0.406084,0.691287,0.000000,-0.722580
0.184229,0.056921,-0.450812,0.378292,0.000000,-0.925686
-0.035050,-0.129330,0.115941,0.000000,-1.000000,0.000000
-0.352243,-0.081958,0.165569,-0.905009,0.000000,0.425392
-0.490906,-0.087837,0.073519,-0.988971,0.000000,0.148110
-0.020549,0.129330,0.121075,0.000000,1.000000,0.000000
-0.046914,0.129330,0.126519,0.000000,1.000000,0.000000
-0.091976,-0.129330,0.232739,0.000000,-1.000000,0.000000
-0.021153,-0.021622,-0.094237,0.219020,0.000000,0.975720
0.123648,-0.088950,-0.538034,0.223976,0.000000,-0.974595
-0.031987,0.107076,0.091132,0.331187,0.000000,-0.943565
0.140072,0.084485,-0.551117,0.246329,0.000000,-0.969186
-0.457682,0.111349,-0.182744,-0.928707,0.000000,-0.370815
0.200727,-0.129330,-0.524660,0.000000,-1.000000,0.000000
0.036737,-0.118953,-0.089322,-0.380373,0.000000,0.924833
-0.349489,-0.126442,0.171307,-0.897932,0.000000,0.440133
0.300746,-0.029508,0.385750,0.614855,0.000000,0.788640
-0.088309,0.107756,-0.039111,0.914338,0.000000,0.404952
-0.317711,-0.129330,-0.363770,0.000000,-1.000000,0.000000
-0.173042,0.129330,-0.509581,0.000000,1.000000,0.000000
0.250125,-0.129330,0.099464,0.000000,-1.000000,0.000000
0.151825,0.040912,0.358382,0.390080,0.000000,0.920781
-0.328267,0.073614,-0.209115,-0.843408,0.000000,-0.537274
0.065525,0.059038,-0.482156,0.134662,0.000000,-0.990892
-0.037558,-0.129330,0.110725,0.000000,-1.000000,0.000000
-0.186492,0.069247,0.341627,-0.479150,0.000000,0.877733
-0.378239,-0.049013,-0.404485,-0.683013,0.000000,-0.730406
-0.094445,0.062424,0.020205,0.977873,0.000000,-0.209199
-0.398746,0.063127,-0.348591,-0.752868,0.000000,-0.658171
-0.552901,0.016766,0.142413,-0.968392,0.000000,0.249432
0.022119,-0.101560,0.388586,0.056829,0.000000,0.998384
0.392596,0.041928,-0.406668,0.694549,0.000000,-0.719445
0.069683,0.097051,0.066876,-0.721486,0.000000,-0.692429
-0.069395,-0.129330,-0.075779,0.000000,-1.000000,0.000000
-0.434413,0.129330,-0.176106,0.000000,1.000000,0.000000
-0.483441,-0.017625,0.066676,-0.990623,0.000000,0.136626
-0.345955,-0.129330,0.218204,0.000000,-1.000000,0.000000
-0.507197,-0.096387,-0.089421,-0.984811,0.000000,-0.173627
0.384504,-0.118600,-0.405484,0.688085,0.000000,-0.725631
-0.085599,0.125642,-0.503408,-0.167633,0.000000,-0.985849
0.096074,-0.087641,0.009894,-0.994739,0.000000,-0.102441
-0.142968,0.129330,0.252051,0.000000,1.000000,0.000000
0.069318,-0.129330,0.151730,0.000000,-1.000000,0.000000
-0.120309,0.129330,-0.195495,0.000000,1.000000,0.000000
0.403380,-0.089040,0.371793,0.735310,0.000000,0.677730
0.400903,-0.093745,-0.358745,0.745201,0.000000,-0.666839
-0.269191,0.129330,-0.078487,0.000000,1.000000,0.000000
-0.345135,-0.077719,0.179919,-0.886745,0.000000,0.462260
0.005554,-0.119024,0.096422,-0.057510,0.000000,-0.998345
-0.314012,-0.091908,-0.229967,-0.806783,0.000000,-0.590848
-0.326637,0.030980,-0.211653,-0.839219,0.000000,-0.543794
0.184255,0.117725,0.450691,0.378423,0.000000,0.925633
0.293862,0.129330,0.114974,0.000000,1.000000,0.000000
-0.203275,0.129330,0.144984,0.000000,1.000000,0.000000
-0.504938,0.094486,0.169858,-0.947810,0.000000,0.318837
0.198770,0.099771,0.334633,0.510694,0.000000,0.859762
0.495603,-0.049671,0.172775,0.944265,0.000000,0.329186
0.028917,-0.011890,-0.388140,0.074295,0.000000,-0.997236
0.347709,0.085426,0.174891,0.893360,0.000000,0.449342
-0.388979,0.028972,0.013567,-0.999392,0.000000,0.034858
-0.358778,0.015194,-0.150888,-0.921797,0.000000,-0.387672
0.031678,0.097390,-0.387924,0.081389,0.000000,-0.996682
0.027750,0.106698,0.092510,-0.287319,0.000000,-0.957835
-0.044886,0.096442,-0.386619,-0.115325,0.000000,-0.993328
-0.178328,0.023738,-0.475906,-0.350887,0.000000,-0.936418
-0.157404,0.129330,0.207781,0.000000,1.000000,0.000000
-0.353593,-0.087012,-0.399834,-0.662462,0.000000,-0.749095
-0.352463,0.068845,-0.165101,-0.905574,0.000000,-0.424188
-0.183071,0.048292,0.343473,-0.470359,0.000000,0.882475
0.191218,-0.097995,0.339005,0.491292,0.000000,0.870995
-0.095327,-0.059676,0.015519,0.987006,0.000000,-0.160683
-0.388451,-0.127930,0.024381,-0.998036,0.000000,0.062641
0.153148,-0.008701,0.357819,0.393480,0.000000,0.919333
-0.172653,-0.126501,0.348826,-0.443591,0.000000,0.896229
0.388924,-0.112231,-0.015062,0.999251,0.000000,-0.038699
0.339634,0.099300,-0.190098,0.872613,0.000000,-0.488413
-0.048578,0.010382,-0.386172,-0.124811,0.000000,-0.992181
-0.048512,0.127205,0.083515,0.502288,0.000000,-0.864700
-0.136637,0.042567,0.548462,-0.241738,0.000000,0.970341
0.219348,-0.129330,0.157456,0.000000,-1.000000,0.000000
-0.345712,0.091925,0.178807,-0.888227,0.000000,0.459404
0.327300,-0.035562,0.210626,0.840923,0.000000,0.541154
-0.346561,-0.087512,-0.177155,-0.890410,0.000000,-0.455159
-0.047808,0.048375,-0.386268,-0.122832,0.000000,-0.992428
-0.095808,-0.019148,0.012203,0.991986,0.000000,-0.126350
-0.317116,-0.058418,0.225668,-0.814756,0.000000,0.579803
-0.098411,0.084073,0.515815,-0.187407,0.000000,0.982282
-0.012745,-0.129330,-0.455617,0.000000,-1.000000,0.000000
-0.351609,-0.074983,0.166912,-0.903380,0.000000,0.428841
-0.136725,0.129330,-0.099817,0.000000,1.000000,0.000000
0.552346,-0.039984,0.141682,0.968641,0.000000,0.248466
0.493721,0.044265,0.076169,0.988308,0.000000,0.152473
-0.220897,-0.110148,0.320458,-0.567545,0.000000,0.823342
-0.109253,0.129330,-0.018240,0.000000,1.000000,0.000000
0.149084,0.121554,-0.359531,0.383037,0.000000,-0.923733
-0.093107,-0.033692,-0.510779,-0.179329,0.000000,-0.983789
-0.244388,0.129330,0.253507,0.000000,1.000000,0.000000
-0.174789,-0.129330,0.436371,0.000000,-1.000000,0.000000
0.389077,0.093280,-0.010371,0.999645,0.000000,-0.026645
-0.004077,-0.129330,-0.571968,0.000000,-1.000000,0.000000
-0.028989,0.020107,-0.388134,-0.074481,0.000000,-0.997222
-0.080234,-0.047164,-0.053765,0.830728,0.000000,0.556678
0.321374,-0.060208,0.219561,0.825698,0.000000,0.564112
0.319167,-0.129330,0.474508,0.000000,-1.000000,0.000000
-0.263576,-0.129330,0.047617,0.000000,-1.000000,0.000000
-0.026598,-0.050053,-0.388306,-0.068338,0.000000,-0.997662
-0.313134,-0.129330,-0.428574,0.000000,-1.000000,0.000000
0.488610,0.021759,0.174840,0.941536,0.000000,0.336912
-0.166714,-0.029969,-0.514391,-0.308312,0.000000,-0.951285
-0.406850,-0.088317,0.393914,-0.718436,0.000000,0.695593
0.114422,0.129330,-0.525353,0.000000,1.000000,0.000000
-0.457753,-0.129330,0.282824,0.000000,-1.000000,0.000000
0.189814,0.112578,-0.339793,0.487684,0.000000,-0.873020
-0.388456,-0.013652,0.024307,-0.998048,0.000000,0.062453
0.088699,0.078706,0.038218,-0.918377,0.000000,-0.395707
-0.349051,-0.088002,-0.172197,-0.896807,0.000000,-0.442422
-0.319172,-0.111690,-0.222750,-0.820040,0.000000,-0.572306
0.171215,0.094178,-0.349534,0.439898,0.000000,-0.898048
0.454882,0.129330,0.003213,0.000000,1.000000,0.000000
-0.083452,-0.129330,-0.109988,0.000000,-1.000000,0.000000
0.070461,0.098005,0.066056,-0.729540,0.000000,-0.683938
-0.195185,-0.114662,-0.336736,-0.501484,0.000000,-0.865167
-0.183449,-0.117600,-0.343271,-0.471331,0.000000,-0.881956
-0.187292,-0.120657,0.341190,-0.481203,0.000000,0.876609
-0.400679,0.064961,0.357648,-0.746031,0.000000,0.665911
0.115600,0.091226,-0.531243,0.212627,0.000000,-0.977133
0.177684,-0.129330,0.115769,0.000000,-1.000000,0.000000
-0.065183,-0.129330,-0.213203,0.000000,-1.000000,0.000000
0.039758,0.098816,-0.387180,0.102148,0.000000,-0.994769
-0.314804,-0.011117,-0.228882,-0.808817,0.000000,-0.588061
0.096525,-0.108993,-0.514040,0.184552,0.000000,-0.982823
0.390952,0.088220,-0.406438,0.693244,0.000000,-0.720703
-0.300407,0.129330,0.193110,0.000000,1.000000,0.000000
-0.511093,-0.102468,-0.093434,-0.983697,0.000000,-0.179832
-0.093236,0.057399,-0.025203,0.965354,0.000000,0.260945
-0.168289,0.128099,0.350952,-0.432381,0.000000,0.901691
-0.115272,-0.068427,-0.530961,-0.212159,0.000000,-0.977235
-0.202267,-0.004670,-0.332531,-0.519678,0.000000,-0.854362
0.221135,-0.015114,-0.320293,0.568157,0.000000,-0.822920
0.012005,0.015689,-0.095833,-0.124299,0.000000,0.992245
0.340673,-0.103720,-0.188230,0.875282,0.000000,-0.483613
0.035630,0.129330,-0.299490,0.000000,1.000000,0.000000
0.093857,0.120913,-0.022781,-0.971784,0.000000,0.235871
-0.335568,0.012366,-0.197188,-0.862164,0.000000,-0.506629
-0.447882,-0.129330,-0.256814,0.000000,-1.000000,0.000000
-0.093480,0.093991,-0.024280,0.967884,0.000000,0.251397
0.358730,0.010851,-0.400899,0.666826,0.000000,-0.745213
0.174860,0.129330,-0.190522,0.000000,1.000000,0.000000
0.402576,0.015662,-0.367366,0.738671,0.000000,-0.674066
0.511576,0.098369,0.167671,0.950262,0.000000,0.311451
0.345654,-0.109070,-0.178920,0.888078,0.000000,-0.459693
0.014181,-0.129330,0.117733,0.000000,-1.000000,0.000000
-0.080304,0.081311,0.053660,0.831457,0.000000,-0.555588
-0.300491,-0.026464,0.385668,-0.614613,0.000000,0.788829
-0.540324,-0.067988,0.126433,-0.973698,0.000000,0.227841
-0.116090,-0.073675,0.531664,-0.213325,0.000000,0.976981
-0.314784,0.129330,-0.071584,0.000000,1.000000,0.000000
0.450297,-0.015118,-0.184337,0.925457,0.000000,-0.378852
0.324208,0.107728,0.215355,0.832979,0.000000,0.553305
0.156627,-0.032494,0.541499,0.277857,0.000000,0.960622
0.556554,0.116985,0.147283,0.966722,0.000000,0.255828
0.071904,0.050984,0.489171,0.145429,0.000000,0.989369
-0.334624,-0.101735,0.198785,-0.859739,0.000000,0.510733
-0.163232,0.091475,-0.353333,-0.419386,0.000000,-0.907808
0.317789,-0.058197,-0.224719,0.816486,0.000000,-0.577365
-0.086236,0.129330,0.080567,0.000000,1.000000,0.000000
-0.321832,-0.012591,-0.218890,-0.826873,0.000000,-0.562388
0.311130,0.129330,0.181687,0.000000,1.000000,0.000000
-0.061004,0.129330,0.175069,0.000000,1.000000,0.000000
0.155165,-0.040050,-0.356949,0.398662,0.000000,-0.917098
0.039030,-0.056981,0.088345,-0.404110,0.000000,-0.914710
-0.041352,0.129330,0.100048,0.000000,1.000000,0.000000
0.146139,-0.012748,-0.555703,0.254333,0.000000,-0.967117
0.162149,0.047967,-0.353831,0.416603,0.000000,-0.909088
0.470682,-0.024952,0.179664,0.934252,0.000000,0.356614
0.382404,-0.129330,0.123390,0.000000,-1.000000,0.000000
-0.298612,-0.129330,0.349892,0.000000,-1.000000,0.000000
0.492365,-0.089792,0.173744,0.943009,0.000000,0.332766
0.204544,0.129330,-0.506471,0.000000,1.000000,0.000000
0.393905,0.010426,0.328620,0.767870,0.000000,0.640605
0.118437,-0.129330,0.133244,0.000000,-1.000000,0.000000
-0.379927,-0.107344,0.404761,-0.684385,0.000000,0.729121
-0.499171,0.124929,-0.171682,-0.945633,0.000000,-0.325236
-0.341905,-0.114436,-0.185984,-0.878446,0.000000,-0.477842
-0.391931,0.035303,0.406576,-0.694022,0.000000,0.719954
0.062985,0.129330,-0.347565,0.000000,1.000000,0.000000
0.399390,0.129265,-0.351526,0.750656,0.000000,-0.660694
-0.152435,0.007557,0.551648,-0.266344,0.000000,0.963878
0.371365,-0.015742,-0.403304,0.677378,0.000000,-0.735636
0.401615,0.104468,0.362326,0.742491,0.000000,0.669856
0.326259,-0.090253,-0.212235,0.838248,0.000000,-0.545289
0.162408,-0.093883,-0.526495,0.294765,0.000000,-0.955570
0.116297,-0.129330,0.472140,0.000000,-1.000000,0.000000
-0.090834,-0.118681,-0.508577,-0.175821,0.000000,-0.984422
0.525443,-0.087716,-0.108965,0.979167,0.000000,-0.203058
0.220387,-0.010619,0.320809,0.566233,0.000000,0.824245
-0.087380,0.129330,0.488745,0.000000,1.000000,0.000000
-0.270491,-0.129330,-0.028983,0.000000,-1.000000,0.000000
-0.402345,-0.034104,0.366134,-0.739606,0.000000,0.673040
0.218487,-0.129330,-0.088721,0.000000,-1.000000,0.000000
0.009969,0.037719,-0.389088,0.025614,0.000000,-0.999672
0.158780,-0.053552,0.355356,0.407949,0.000000,0.913005
0.251035,-0.129330,-0.150111,0.000000,-1.000000,0.000000
0.162786,-0.117008,-0.353538,0.418242,0.000000,-0.908336
-0.183405,0.084623,-0.454677,-0.374087,0.000000,-0.927394
0.101521,0.129330,0.319390,0.000000,1.000000,0.000000
0.314253,-0.041813,-0.229638,0.807402,0.000000,-0.590002
0.257783,0.129330,-0.233917,0.000000,1.000000,0.000000
-0.095646,-0.100043,0.013412,0.990311,0.000000,-0.138869
0.388956,0.122417,0.014206,0.999334,0.000000,0.036500
-0.037303,0.088003,-0.387424,-0.095841,0.000000,-0.995397
-0.401812,0.079523,-0.363338,-0.741725,0.000000,-0.670704
-0.408506,0.015561,0.407214,-0.708226,0.000000,0.705986
-0.389034,0.003412,-0.011891,-0.999533,0.000000,-0.030551
0.542026,-0.053258,0.156416,0.960794,0.000000,0.277262
-0.022535,-0.128838,0.388563,-0.057899,0.000000,0.998322
0.327124,-0.027678,-0.393509,0.639261,0.000000,-0.768990
0.450394,-0.113329,-0.184316,0.925501,0.000000,-0.378746
-0.108210,-0.129330,-0.164270,0.000000,-1.000000,0.000000
-0.463595,0.076745,-0.181386,-0.931257,0.000000,-0.364364
-0.085036,0.129330,0.215634,0.000000,1.000000,0.000000
-0.319459,-0.081690,-0.222340,-0.820776,0.000000,-0.571250
-0.195866,0.023171,0.336341,-0.503233,0.000000,0.864151
0.073955,0.129330,0.404010,0.000000,1.000000,0.000000
0.358234,-0.058920,-0.152174,0.920400,0.000000,-0.390977
0.298004,0.129330,0.356355,0.000000,1.000000,0.000000
0.509059,0.011957,-0.168511,0.949339,0.000000,-0.314254
0.408569,0.032647,0.407776,0.707794,0.000000,0.706419
0.494389,-0.115511,0.173141,0.943796,0.000000,0.330530
0.201643,-0.041762,-0.332910,0.518075,0.000000,-0.855335
-0.262308,-0.129330,-0.350109,0.000000,-1.000000,0.000000
0.244307,-0.129330,-0.115644,0.000000,-1.000000,0.000000
-0.350248,-0.094713,-0.169751,-0.899881,0.000000,-0.436135
0.538573,-0.091695,0.124301,0.974385,0.000000,0.224885
0.339212,-0.016053,-0.190850,0.871528,0.000000,-0.490346
0.011423,-0.118301,0.095904,-0.118278,0.000000,-0.992981
0.490803,0.036743,-0.073423,0.988995,0.000000,-0.147951
0.372089,-0.107292,0.403433,0.677975,0.000000,0.735085
-0.164378,0.078145,-0.352801,-0.422331,0.000000,-0.906442
0.321029,-0.111139,0.220067,0.824810,0.000000,0.565411
0.223484,-0.047727,0.318659,0.574190,0.000000,0.818722
0.487770,0.041789,0.070612,0.989683,0.000000,0.143271
-0.213640,-0.129330,-0.034207,0.000000,-1.000000,0.000000
-0.181395,-0.129330,-0.464646,0.000000,-1.000000,0.000000
0.034086,0.005889,0.387720,0.087576,0.000000,0.996158
-0.099288,0.129330,0.150817,0.000000,1.000000,0.000000
-0.200085,-0.060664,0.333849,-0.514071,0.000000,0.857747
-0.179703,-0.092257,-0.470528,-0.356783,0.000000,-0.934187
0.099225,0.129330,0.268758,0.000000,1.000000,0.000000
-0.243963,0.129330,-0.323977,0.000000,1.000000,0.000000
-0.029696,0.129330,0.295409,0.000000,1.000000,0.000000
0.177469,-0.035696,-0.479151,0.347325,0.000000,-0.937745
-0.149774,0.014558,-0.359244,-0.384809,0.000000,-0.922996
0.153862,-0.129330,-0.167877,0.000000,-1.000000,0.000000
-0.149178,0.042666,0.359492,-0.383279,0.000000,0.923633
0.516123,0.088341,-0.166118,0.951910,0.000000,-0.306379
0.528393,-0.028637,0.161704,0.956225,0.000000,0.292634
-0.194297,-0.113742,-0.337250,-0.499202,0.000000,-0.866486
0.229236,-0.012078,0.314547,0.588969,0.000000,0.808156
0.232469,-0.129330,0.170084,0.000000,-1.000000,0.000000
-0.094580,-0.093211,-0.019562,0.979275,0.000000,0.202537
-0.407239,0.023525,-0.396824,-0.716206,0.000000,-0.697889
0.122746,0.129330,0.059906,0.000000,1.000000,0.000000
-0.315725,0.084632,0.227610,-0.811183,0.000000,0.584793
-0.168162,0.050076,0.510110,-0.313084,0.000000,0.949725
0.089093,-0.129330,-0.424434,0.000000,-1.000000,0.000000
-0.375885,-0.056449,-0.404091,-0.681091,0.000000,-0.732198
0.187149,0.115887,0.341268,0.480837,0.000000,0.876810
-0.217084,0.110239,0.323053,-0.557748,0.000000,0.830010
0.384294,0.109846,-0.296306,0.791931,0.000000,-0.610611
0.381036,-0.129330,0.083129,0.000000,-1.000000,0.000000
-0.554626,0.092642,0.144699,-0.967611,0.000000,0.252445
0.209632,0.129330,0.327052,0.000000,1.000000,0.000000
0.484366,0.049454,0.067510,0.990426,0.000000,0.138043
-0.096556,0.007048,0.002259,0.999726,0.000000,-0.023394
0.206460,-0.041194,0.329944,0.530452,0.000000,0.847715
0.084702,-0.075241,0.502508,0.166214,0.000000,0.986090
0.012963,-0.011873,0.389000,0.033306,0.000000,0.999445
-0.387889,0.082657,0.032112,-0.996591,0.000000,0.082505
0.312106,-0.027350,0.232547,0.801886,0.000000,0.597477
-0.453842,0.127353,0.183586,-0.927026,0.000000,0.374996
0.155822,0.037277,0.356663,0.400348,0.000000,0.916363
0.191498,0.129330,-0.171024,0.000000,1.000000,0.000000
0.296561,-0.056515,0.384379,0.610856,0.000000,0.791742
0.389213,0.086809,0.001428,0.999993,0.000000,0.003669
-0.498450,-0.009864,0.080713,-0.987142,0.000000,0.159845
-0.547877,0.075846,-0.135887,-0.970592,0.000000,-0.240731
-0.301094,-0.044013,0.385862,-0.615186,0.000000,0.788382
0.356409,-0.014599,-0.156400,0.915712,0.000000,-0.401835
-0.130941,-0.129330,0.137195,0.000000,-1.000000,0.000000
-0.315417,-0.035313,-0.228037,-0.810392,0.000000,-0.585888
0.143880,0.071687,0.554010,0.251367,0.000000,0.967892
-0.153719,-0.129330,0.098902,0.000000,-1.000000,0.000000
0.329538,0.125238,0.207108,0.846672,0.000000,0.532116
-0.291089,-0.129330,0.358828,0.000000,-1.000000,0.000000
0.388070,0.126735,0.029833,0.997058,0.000000,0.076649
-0.320903,0.055548,0.220250,-0.824487,0.000000,0.565881
0.190190,0.095981,-0.339583,0.488649,0.000000,-0.872481
-0.326937,-0.050871,0.211189,-0.839991,0.000000,0.542601
-0.546467,-0.027828,-0.134090,-0.971190,0.000000,-0.238307
0.053973,-0.098857,0.080094,-0.558832,0.000000,-0.829281
-0.128986,0.129330,0.088888,0.000000,1.000000,0.000000
-0.256726,-0.129330,-0.036873,0.000000,-1.000000,0.000000
-0.122183,0.069577,0.536817,-0.221930,0.000000,0.975063
0.173284,0.078105,0.493914,0.331054,0.000000,0.943612
0.093728,-0.129330,0.192178,0.000000,-1.000000,0.000000
0.404406,0.058754,0.377760,0.730771,0.000000,0.682622
0.065285,-0.129330,0.078315,0.000000,-1.000000,0.000000
0.070450,-0.113617,0.066067,-0.729435,0.000000,-0.684050
-0.027467,0.114851,0.388245,-0.070569,0.000000,0.997507
-0.311015,0.010125,0.234004,-0.799083,0.000000,0.601221
0.355494,0.075128,-0.158470,0.913361,0.000000,-0.407151
0.056122,0.019075,0.078603,-0.581078,0.000000,-0.813848
0.049958,0.015528,0.082658,-0.517257,0.000000,-0.855830
0.356487,0.013525,-0.156223,0.915912,0.000000,-0.401378
-0.180532,0.023027,-0.467165,-0.360463,0.000000,-0.932774
-0.222800,-0.127858,-0.319138,-0.572433,0.000000,-0.819951
-0.157907,-0.129330,-0.093657,0.000000,-1.000000,0.000000
0.464865,0.126826,0.181086,0.931798,0.000000,0.362976
0.388589,-0.087144,-0.022079,0.998390,0.000000,-0.056726
0.185063,0.116578,0.342404,0.475476,0.000000,0.879729
-0.080050,0.038080,0.054039,0.828825,0.000000,-0.559509
-0.172091,0.129330,0.462122,0.000000,1.000000,0.000000
0.033478,-0.129330,-0.323519,0.000000,-1.000000,0.000000
0.388510,0.129330,-0.088391,0.000000,1.000000,0.000000
-0.480915,-0.053774,-0.064420,-0.991147,0.000000,-0.132768
0.371341,-0.022916,0.403300,0.677358,0.000000,0.735653
0.354866,0.121958,-0.400103,0.663548,0.000000,-0.748133
0.087643,0.108013,-0.040580,-0.907449,0.000000,0.420162
-0.326405,0.052237,-0.212011,-0.838622,0.000000,-0.544714
-0.481559,0.072328,0.176818,-0.938721,0.000000,0.344678
0.139547,0.101604,-0.550713,0.245630,0.000000,-0.969364
-0.387874,-0.099965,-0.032288,-0.996553,0.000000,-0.082957
0.004762,-0.030099,0.096465,-0.049300,0.000000,-0.998784
-0.353382,0.114094,0.163125,-0.907934,0.000000,0.419113
0.192410,0.129330,-0.023021,0.000000,1.000000,0.000000
-0.004852,-0.066630,-0.389185,-0.012465,0.000000,-0.999922
-0.223475,-0.028197,-0.318665,-0.574169,0.000000,-0.818737
0.214818,-0.000047,-0.324564,0.551925,0.000000,-0.833894
-0.094615,0.071439,-0.019393,0.979633,0.000000,0.200796
0.333901,0.009761,0.199997,0.857882,0.000000,0.513847
-0.355391,0.129330,0.355980,0.000000,1.000000,0.000000
-0.387416,0.112431,0.037387,-0.995376,0.000000,0.096058
0.421153,-0.129330,-0.387890,0.000000,-1.000000,0.000000
0.503288,-0.032406,-0.085479,0.985882,0.000000,-0.167444
0.178143,0.100298,0.346055,0.457697,0.000000,0.889108
0.020978,0.122116,-0.388650,0.053898,0.000000,-0.998546
0.163760,0.115712,-0.353088,0.420743,0.000000,-0.907180
0.102936,0.129330,0.189602,0.000000,1.000000,0.000000
0.521626,-0.002659,-0.164179,0.953869,0.000000,-0.300224
-0.171736,0.074280,-0.498998,-0.325427,0.000000,-0.945567
-0.350080,0.021342,0.170096,-0.899451,0.000000,0.437022
0.321160,-0.129330,-0.308785,0.000000,-1.000000,0.000000
0.472563,0.065728,-0.179190,0.935036,0.000000,-0.354554
-0.453843,-0.129330,-0.019371,0.000000,-1.000000,0.000000
0.358312,0.023929,-0.151991,0.920600,0.000000,-0.390506
0.053032,0.129330,0.403995,0.000000,1.000000,0.000000
-0.347169,0.036614,-0.175962,-0.891971,0.000000,-0.452094
-0.382275,-0.001988,-0.405137,-0.686287,0.000000,-0.727331
-0.236746,-0.014407,-0.308934,-0.608264,0.000000,-0.793735
-0.388812,0.081012,-0.017727,-0.998962,0.000000,-0.045545
0.149278,-0.058670,-0.359451,0.383536,0.000000,-0.923526
0.521617,0.087579,0.164182,0.953866,0.000000,0.300234
0.355482,0.121706,-0.158497,0.913330,0.000000,-0.407221
-0.163858,0.025846,-0.522518,-0.299226,0.000000,-0.954182
-0.387381,-0.086952,-0.037749,-0.995286,0.000000,-0.096988
0.027185,0.046518,0.388265,0.069845,0.000000,0.997558
0.389215,-0.020439,-0.000054,1.000000,0.000000,-0.000138
-0.503287,-0.110847,0.085478,-0.985882,0.000000,0.167442
0.529144,-0.122983,0.161424,0.956482,0.000000,0.291790
0.368875,-0.129330,-0.369684,0.000000,-1.000000,0.000000
-0.003665,0.129330,0.154675,0.000000,1.000000,0.000000
0.083098,-0.062704,0.500887,0.163665,0.000000,0.986516
-0.144278,-0.090193,0.554310,-0.251892,0.000000,0.967755
-0.149756,0.075833,0.359252,-0.384765,0.000000,0.923015
0.435135,-0.129330,-0.146420,0.000000,-1.000000,0.000000
-0.353856,0.022432,-0.162094,-0.909152,0.000000,-0.416464
-0.010950,-0.012200,0.389061,-0.028134,0.000000,0.999604
-0.398766,-0.086880,0.348681,-0.752801,0.000000,0.658249
-0.002030,-0.002779,-0.096561,0.021022,0.000000,0.999779
-0.301103,-0.018805,0.385865,-0.615194,0.000000,0.788375
0.153813,0.129330,-0.421792,0.000000,1.000000,0.000000
-0.076782,0.129330,0.186120,0.000000,1.000000,0.000000
0.308161,-0.129330,-0.167573,0.000000,-1.000000,0.000000
-0.334265,0.055213,0.199387,-0.858818,0.000000,0.512280
0.096518,-0.023069,-0.003523,-0.999335,0.000000,0.036475
0.124133,-0.129330,0.295160,0.000000,-1.000000,0.000000
0.036221,-0.011673,0.089533,-0.375025,0.000000,-0.927015
-0.342530,-0.110271,0.184829,-0.880054,0.000000,0.474875
0.387214,-0.063865,-0.305350,0.785222,0.000000,-0.619214
-0.096253,-0.097899,-0.007965,0.996594,0.000000,0.082469
-0.386638,-0.061347,-0.044717,-0.993378,0.000000,-0.114891
0.338142,0.121302,0.396314,0.649068,0.000000,0.760730
0.069746,0.129330,0.123495,0.000000,1.000000,0.000000
-0.333389,-0.129330,-0.018721,0.000000,-1.000000,0.000000
0.010686,-0.095706,0.389069,0.027456,0.000000,0.999623
0.518193,0.057170,0.100966,0.981542,0.000000,0.191246
-0.241358,-0.129330,0.313809,0.000000,-1.000000,0.000000
0.093627,-0.072577,0.023708,-0.969405,0.000000,-0.245465
-0.497510,-0.051722,-0.079801,-0.987379,0.000000,-0.158376
0.457383,0.121654,-0.182810,0.928577,0.000000,-0.371140
-0.397616,0.055624,-0.343619,-0.756613,0.000000,-0.653863
0.105701,-0.126085,-0.522520,0.198275,0.000000,-0.980146
-0.276583,0.129330,0.020215,0.000000,1.000000,0.000000
0.492499,-0.016071,-0.173705,0.943062,0.000000,-0.332618
-0.200307,-0.129330,-0.398642,0.000000,-1.000000,0.000000
-0.369389,0.129330,0.367789,0.000000,1.000000,0.000000
0.131123,-0.129330,-0.191248,0.000000,-1.000000,0.000000
-0.089370,0.129330,0.295795,0.000000,1.000000,0.000000
-0.175650,0.097817,0.485767,-0.340045,0.000000,0.940409
0.152637,-0.070916,0.551171,0.266888,0.000000,0.963728
0.113806,0.129330,-0.038871,0.000000,1.000000,0.000000
0.388993,0.023855,-0.311160,0.780903,0.000000,-0.624652
0.406638,0.016323,-0.392378,0.719612,0.000000,-0.694377
0.221727,-0.129330,0.089561,0.000000,-1.000000,0.000000
-0.295087,-0.129330,0.023191,0.000000,-1.000000,0.000000
0.304779,0.129330,-0.384551,0.000000,1.000000,0.000000
0.114582,0.028344,-0.530365,0.211171,0.000000,-0.977449
-0.356881,0.007361,0.155320,-0.916925,0.000000,0.399059
0.032447,0.090616,0.387861,0.083365,0.000000,0.996519
-0.041259,-0.012534,-0.387022,-0.106006,0.000000,-0.994365
0.155231,0.050475,-0.356920,0.398829,0.000000,-0.917025
-0.400751,-0.031136,-0.358002,-0.745764,0.000000,-0.666210
-0.075776,-0.129330,-0.083908,0.000000,-1.000000,0.000000
0.011047,-0.066116,-0.389059,0.028382,0.000000,-0.999597
0.472414,-0.087393,0.179228,0.934974,0.000000,0.354716
0.393719,0.102365,0.327916,0.768397,0.000000,0.639973
-0.240933,-0.129330,0.145296,0.000000,-1.000000,0.000000
0.357431,0.083150,0.154050,0.918338,0.000000,0.395797
0.335723,0.105982,0.196922,0.862564,0.000000,0.505947
0.211707,-0.129330,-0.039440,0.000000,-1.000000,0.000000
0.113713,0.120071,0.529612,0.209925,0.000000,0.977717
0.006921,0.129330,0.378047,0.000000,1.000000,0.000000
-0.190329,0.033815,-0.339505,-0.489006,0.000000,-0.872280
0.135825,-0.129330,0.030380,0.000000,-1.000000,0.000000
0.235771,0.124597,0.309679,0.605759,0.000000,0.795648
-0.253905,0.129330,0.271243,0.000000,1.000000,0.000000
-0.017592,-0.019428,0.094966,0.182150,0.000000,-0.983271
-0.004789,-0.117231,-0.096463,0.049585,0.000000,0.998770
0.348176,-0.129330,-0.267684,0.000000,-1.000000,0.000000
-0.338257,0.035208,0.192538,-0.869075,0.000000,0.494681
0.357469,-0.127055,0.153962,0.918436,0.000000,0.395571
0.163460,-0.112532,0.523620,0.297990,0.000000,0.954569
0.214891,0.021290,-0.324516,0.552113,0.000000,-0.833769
-0.071903,0.067229,-0.064483,0.744477,0.000000,0.667648
-0.348931,-0.091819,-0.398822,-0.658464,0.000000,-0.752612
0.511737,-0.056841,0.167616,0.950321,0.000000,0.311272
-0.054054,-0.129330,0.374286,0.000000,-1.000000,0.000000
-0.044310,0.129330,0.479042,0.000000,1.000000,0.000000
-0.178166,0.099462,0.346043,-0.457757,0.000000,0.889078
-0.481345,0.129330,0.302130,0.000000,1.000000,0.000000
0.142651,-0.029107,-0.553082,0.249748,0.000000,-0.968311
0.485085,-0.082326,0.175842,0.940137,0.000000,0.340797
-0.072620,-0.110603,0.489941,-0.146619,0.000000,0.989193
0.398753,-0.110705,0.348620,0.752846,0.000000,0.658196
0.034860,-0.129330,-0.564736,0.000000,-1.000000,0.000000
-0.384656,-0.129330,0.240073,0.000000,-1.000000,0.000000
0.387650,0.067416,-0.034878,0.995977,0.000000,-0.089610
0.317874,0.129330,0.215877,0.000000,1.000000,0.000000
-0.249575,0.129330,0.366148,0.000000,1.000000,0.000000
0.164390,-0.109320,0.521035,0.300886,0.000000,0.953660
-0.194071,-0.123353,0.337380,-0.498620,0.000000,0.866821
