x,y,z,nx,ny,nz
21.453711,33.253956,8.798687,-0.000000,1.000000,0.000000
21.703076,26.450488,0.248236,0.995185,0.000000,-0.098016
30.106007,-1.271653,17.077026,0.000000,0.000000,1.000000
-16.295252,3.820874,-17.077026,0.000000,0.000000,-1.000000
-30.723780,33.253956,-1.034144,-0.000000,1.000000,0.000000
34.113636,-13.464487,6.292744,1.000000,0.000000,-0.000000
34.113636,-6.284525,13.740311,1.000000,-0.000000,0.000000
16.835361,19.266901,-7.167009,-0.896873,0.000000,0.442289
-13.690736,-19.132867,-17.077026,0.000000,0.000000,-1.000000
11.210070,-4.010972,5.279065,-0.881921,0.000000,-0.471397
-2.915452,-1.202193,12.047379,0.290285,0.000000,-0.956940
34.113636,-28.642436,-9.859959,1.000000,0.000000,-0.000000
-18.962842,4.106081,-17.077026,0.000000,0.000000,-1.000000
-26.108052,18.811467,17.077026,0.000000,-0.000000,1.000000
27.941585,-13.554736,-17.077026,0.000000,0.000000,-1.000000
30.497983,-29.110391,-17.077026,0.000000,0.000000,-1.000000
27.881403,-25.004168,17.077026,0.000000,0.000000,1.000000
-34.113636,16.998740,-9.364720,-1.000000,0.000000,0.000000
23.462702,13.221704,3.534129,0.634393,0.000000,-0.773011
6.976193,-33.253956,-11.036050,0.000000,-1.000000,0.000000
-34.113636,-18.358041,15.556840,-1.000000,0.000000,0.000000
11.837886,-16.239573,-17.077026,0.000000,0.000000,-1.000000
-9.050097,-13.958350,-8.479147,0.773011,-0.000000,0.634393
-30.220200,-26.709955,-1.667029,0.956940,-0.000000,0.290286
28.393203,-23.648848,-17.077026,0.000000,0.000000,-1.000000
10.874553,2.414145,17.077026,0.000000,0.000000,1.000000
-16.291622,-32.069064,17.077026,0.000000,0.000000,1.000000
19.675435,-26.145858,-17.077026,0.000000,0.000000,-1.000000
-4.962206,17.964890,-14.655498,-0.000000,1.000000,0.000000
-30.009458,-15.517748,-17.077026,0.000000,0.000000,-1.000000
32.527190,30.598324,17.077026,0.000000,0.000000,1.000000
34.113636,13.871440,16.688532,1.000000,-0.000000,0.000000
27.797394,26.703085,-4.101491,-0.290284,0.000000,0.956941
-21.116441,33.253956,9.852066,0.000000,1.000000,0.000000
-9.177119,5.113820,17.077026,0.000000,-0.000000,1.000000
7.259724,-10.342780,-17.077026,0.000000,0.000000,-1.000000
23.115714,2.792411,-17.077026,0.000000,0.000000,-1.000000
32.329544,16.219195,17.077026,0.000000,0.000000,1.000000
-22.849884,-33.253956,-14.317432,0.000000,-1.000000,0.000000
26.922077,23.733784,-17.077026,0.000000,0.000000,-1.000000
24.887441,33.253956,13.631637,0.000000,1.000000,-0.000000
30.990692,33.253956,-4.663123,0.000000,1.000000,-0.000000
-27.176125,30.463596,4.289951,0.290284,0.000000,-0.956941
-34.113636,18.022808,11.398064,-1.000000,0.000000,0.000000
-29.362132,2.775739,2.998975,0.773011,0.000000,-0.634393
-15.963794,-33.253956,7.149223,0.000000,-1.000000,0.000000
33.466234,5.322113,-17.077026,0.000000,0.000000,-1.000000
-30.462448,-13.835708,-17.077026,0.000000,0.000000,-1.000000
34.113636,3.884278,15.123207,1.000000,-0.000000,0.000000
19.237197,33.253956,-2.126498,0.000000,1.000000,-0.000000
16.944104,-23.946027,-17.077026,0.000000,0.000000,-1.000000
-34.113636,18.192943,-7.994867,-1.000000,0.000000,0.000000
-34.113636,-0.343083,-7.553423,-1.000000,0.000000,0.000000
19.547243,16.545878,-17.077026,0.000000,0.000000,-1.000000
-8.484487,2.919597,-17.077026,0.000000,0.000000,-1.000000
34.113636,5.812043,-5.092601,1.000000,0.000000,-0.000000
12.394959,-28.241297,0.404621,-0.995185,-0.000000,-0.098017
11.116777,-23.368440,-5.453605,-0.881921,0.000000,0.471397
-5.174507,9.085185,-11.265958,0.471397,-0.000000,0.881921
7.680444,20.207774,17.077026,0.000000,-0.000000,1.000000
-10.504456,-33.253956,-10.605692,0.000000,-1.000000,0.000000
-34.113636,12.198924,-13.226715,-1.000000,0.000000,0.000000
23.899043,7.171721,3.820864,0.471396,-0.000000,-0.881921
-19.115680,30.187532,17.077026,-0.000000,0.000000,1.000000
1.513108,16.792201,12.285782,-0.098017,0.000000,-0.995185
2.014386,11.272036,17.077026,0.000000,-0.000000,1.000000
-7.880889,17.964890,-12.504515,0.000000,1.000000,-0.000000
-22.386136,5.448941,-2.389267,-0.881922,0.000000,0.471396
25.093029,13.924370,4.302657,0.290284,0.000000,-0.956941
21.822472,7.940596,1.058498,0.956940,-0.000000,-0.290286
-6.898101,-16.473326,-17.077026,0.000000,0.000000,-1.000000
-4.019085,-3.839498,17.077026,0.000000,-0.000000,1.000000
20.778869,4.985846,-17.077026,0.000000,0.000000,-1.000000
16.431367,25.547647,7.986227,-0.896873,0.000000,-0.442289
34.113636,-5.876637,-5.058292,1.000000,0.000000,-0.000000
-12.121459,17.964890,-3.302768,-0.000000,1.000000,0.000000
15.741180,-24.096018,-17.077026,0.000000,0.000000,-1.000000
-7.871029,-12.769632,17.077026,0.000000,0.000000,1.000000
29.706553,14.881355,2.579295,-0.773010,0.000000,-0.634394
11.684380,-7.898277,4.112097,-0.956940,0.000000,-0.290285
23.802414,-25.280211,-17.077026,0.000000,0.000000,-1.000000
-11.299904,-2.775531,5.110998,0.881921,0.000000,-0.471397
6.100646,-20.821280,10.770926,-0.471397,0.000000,-0.881921
13.817494,17.964890,4.096670,0.000000,1.000000,-0.000000
8.814144,9.381276,8.766656,-0.773011,0.000000,-0.634393
30.636002,-33.253956,-3.003924,-0.000000,-1.000000,0.000000
-23.221419,33.024286,-17.077026,0.000000,0.000000,-1.000000
14.785764,28.353118,17.077026,0.000000,-0.000000,1.000000
-33.902119,-33.253956,12.610089,0.000000,-1.000000,0.000000
-20.575038,-29.367441,-17.077026,0.000000,0.000000,-1.000000
-21.704602,13.890395,0.263734,-0.995185,-0.000000,-0.098016
23.257140,-1.621405,3.365429,0.634394,0.000000,-0.773010
8.150231,-30.801114,-9.320032,-0.634393,0.000000,0.773011
4.558921,-10.853958,-17.077026,0.000000,0.000000,-1.000000
-25.873104,-23.701182,4.411317,-0.098017,0.000000,-0.995185
5.501922,-23.855368,-11.090951,-0.471397,0.000000,0.881921
-22.248322,-8.353291,17.077026,0.000000,-0.000000,1.000000
27.901144,16.595308,17.077026,0.000000,0.000000,1.000000
-31.768482,33.253956,-14.076768,0.000000,1.000000,0.000000
30.513233,-14.253218,0.359508,-0.995185,0.000000,-0.098016
-5.532798,-16.535490,-11.074447,0.471397,0.000000,0.881921
27.091374,-9.763282,-4.315660,-0.290284,0.000000,0.956941
-8.717417,-14.646335,-8.854554,0.634393,0.000000,0.773011
-18.156838,32.882820,2.310282,0.997859,0.000000,-0.065403
19.494032,-0.781072,17.077026,0.000000,0.000000,1.000000
-19.234229,31.788732,-17.077026,0.000000,0.000000,-1.000000
18.351461,33.253956,1.860005,0.000000,1.000000,0.000000
34.113636,-4.155026,-8.516739,1.000000,0.000000,-0.000000
-17.772218,-33.253956,8.970637,0.000000,-1.000000,0.000000
-2.988442,5.535949,12.025237,0.290285,0.000000,-0.956940
-12.122750,-8.590316,-2.666984,0.956940,0.000000,0.290285
23.206114,26.515972,-3.323553,0.634393,0.000000,0.773010
-29.465358,-27.408627,2.873194,0.773010,-0.000000,-0.634394
-30.120789,-11.321873,1.866064,0.881922,-0.000000,-0.471395
-5.685663,16.182304,-17.077026,0.000000,0.000000,-1.000000
34.113636,22.431335,14.819011,1.000000,-0.000000,0.000000
-30.363454,-19.069065,-1.194786,0.956940,-0.000000,0.290286
-7.997644,22.542970,-16.425737,0.442289,-0.000000,0.896873
8.031414,-6.292547,17.077026,0.000000,0.000000,1.000000
34.113636,21.783393,-13.753103,1.000000,0.000000,-0.000000
-2.589085,-31.693631,17.077026,0.000000,0.000000,1.000000
26.404351,-21.925417,17.077026,0.000000,0.000000,1.000000
34.113636,-30.817846,10.518477,1.000000,0.000000,-0.000000
22.231944,17.306129,17.077026,0.000000,0.000000,1.000000
29.995676,-33.253956,-15.176076,0.000000,-1.000000,0.000000
29.504085,33.253956,-12.453963,0.000000,1.000000,-0.000000
34.113636,-9.642478,10.501152,1.000000,-0.000000,0.000000
-25.037156,-26.516672,4.285708,-0.290284,0.000000,-0.956941
17.814062,29.902594,-17.077026,0.000000,0.000000,-1.000000
7.580645,-8.289695,-9.787478,-0.634393,0.000000,0.773011
0.035848,-6.512362,12.431280,-0.098017,0.000000,-0.995185
19.155027,-12.292953,17.077026,0.000000,0.000000,1.000000
-28.847144,-28.279985,3.466359,0.634393,-0.000000,-0.773011
-9.593343,-32.940655,-7.817199,0.773011,0.000000,0.634393
-30.700950,-25.315775,-17.077026,0.000000,0.000000,-1.000000
-34.113636,31.254314,3.323085,-1.000000,0.000000,0.000000
-22.027965,8.834226,-17.077026,0.000000,0.000000,-1.000000
-1.292088,-33.253956,-14.727617,0.000000,-1.000000,0.000000
15.588822,31.404405,-17.077026,0.000000,0.000000,-1.000000
34.113636,16.828164,13.801524,1.000000,-0.000000,0.000000
8.437126,-9.479947,17.077026,0.000000,0.000000,1.000000
7.387096,33.253956,-17.075710,-0.000000,1.000000,0.000000
-7.047353,-0.110423,17.077026,0.000000,-0.000000,1.000000
-32.010767,33.253956,-14.319828,0.000000,1.000000,0.000000
3.637343,-23.784384,-11.828395,-0.290285,0.000000,0.956940
-3.926395,-1.364510,-11.740712,0.290285,0.000000,0.956940
-0.487987,17.964890,-13.080323,0.000000,1.000000,0.000000
-10.315406,8.211744,-17.077026,0.000000,0.000000,-1.000000
7.579967,15.689599,9.788035,-0.634393,0.000000,-0.773011
19.303034,-16.378383,17.077026,0.000000,0.000000,1.000000
-21.977389,15.549747,-1.569190,-0.956940,0.000000,0.290286
6.755988,12.400920,-10.420638,-0.471397,0.000000,0.881921
-29.120818,-1.261710,17.077026,0.000000,-0.000000,1.000000
-34.113636,20.558422,-2.577776,-1.000000,0.000000,0.000000
34.113636,4.461504,-15.329805,1.000000,0.000000,-0.000000
22.095150,29.834548,1.844869,0.881922,0.000000,-0.471396
3.306026,4.677957,17.077026,0.000000,-0.000000,1.000000
-1.472859,4.545988,-17.077026,0.000000,0.000000,-1.000000
-12.725577,29.844824,17.077026,-0.000000,0.000000,1.000000
-3.102187,9.584493,-11.990733,0.290285,-0.000000,0.956940
-22.765011,-33.253956,4.007866,0.000000,-1.000000,0.000000
-34.113636,-14.091808,-11.912878,-1.000000,0.000000,0.000000
-9.717522,19.054436,-17.077026,0.000000,0.000000,-1.000000
34.113636,13.302836,-2.244820,1.000000,-0.000000,0.000000
29.867844,21.883643,-2.339291,-0.881922,0.000000,0.471396
34.113636,18.677927,-9.453330,1.000000,-0.000000,0.000000
34.113636,8.163497,-12.788375,1.000000,0.000000,-0.000000
-22.044108,-23.712455,1.749376,-0.881922,-0.000000,-0.471394
34.113636,-7.157530,-8.455110,1.000000,0.000000,-0.000000
17.956650,-29.579119,-17.077026,0.000000,0.000000,-1.000000
-11.155277,13.873345,5.381576,0.881921,0.000000,-0.471397
-34.113636,15.347087,7.911728,-1.000000,0.000000,0.000000
-28.409607,-18.321748,17.077026,0.000000,-0.000000,1.000000
-30.160308,-16.983352,1.792129,0.881922,-0.000000,-0.471395
-34.113636,-4.193083,-11.098547,-1.000000,0.000000,0.000000
-32.578009,-4.359402,-17.077026,0.000000,0.000000,-1.000000
-12.067581,-24.251404,2.848851,0.956940,0.000000,-0.290285
9.930696,-24.105794,7.406134,-0.773011,0.000000,-0.634393
-28.170136,20.629258,3.905364,0.471397,0.000000,-0.881921
-24.843742,33.253956,6.308563,-0.000000,1.000000,-0.000000
-34.113636,11.610779,7.678401,-1.000000,0.000000,0.000000
-22.135022,-19.963273,-17.077026,0.000000,0.000000,-1.000000
9.233886,11.294680,-17.077026,0.000000,0.000000,-1.000000
17.250073,29.343890,-6.018083,-0.946930,0.000000,0.321439
-34.113636,-15.089828,-6.199501,-1.000000,0.000000,0.000000
-14.656712,-33.253956,-14.032829,0.000000,-1.000000,0.000000
30.092479,33.253956,8.447563,0.000000,1.000000,-0.000000
12.520858,33.197502,17.077026,0.000000,-0.000000,1.000000
21.627379,29.881555,17.077026,0.000000,-0.000000,1.000000
-27.040520,-6.327225,-4.331086,0.290284,-0.000000,0.956941
-25.094623,-12.847688,4.303140,-0.290284,0.000000,-0.956941
30.444039,33.253956,15.661951,0.000000,1.000000,-0.000000
21.827917,-13.979434,-1.076449,0.956940,0.000000,0.290286
8.133340,-32.474875,-9.333893,-0.634393,0.000000,0.773011
30.204401,33.253956,-8.926421,0.000000,1.000000,-0.000000
21.531006,-29.956146,-17.077026,0.000000,0.000000,-1.000000
33.698658,33.253956,-1.237842,0.000000,1.000000,-0.000000
34.113636,30.177505,16.327716,1.000000,-0.000000,0.000000
10.737538,5.610896,6.163110,-0.881921,0.000000,-0.471397
-18.224496,30.225549,-1.278026,0.997859,0.000000,0.065403
-5.167968,-13.461970,17.077026,0.000000,0.000000,1.000000
29.138131,33.253956,-9.578025,-0.000000,1.000000,-0.000000
29.959559,-19.914321,-2.167705,-0.881922,0.000000,0.471396
-11.109583,27.362626,14.548829,0.555570,0.000000,-0.831470
6.322543,-15.692489,-10.652320,-0.471397,0.000000,0.881921
-24.104707,32.856603,17.077026,-0.000000,0.000000,1.000000
1.803929,-4.768200,-17.077026,0.000000,0.000000,-1.000000
23.586250,8.109054,-3.635523,0.634393,-0.000000,0.773010
10.888000,-33.253956,-16.711988,0.000000,-1.000000,0.000000
-8.740142,17.964890,12.452507,-0.000000,1.000000,0.000000
-12.854209,-20.028826,-17.077026,0.000000,0.000000,-1.000000
8.677330,-3.165787,-17.077026,0.000000,0.000000,-1.000000
26.283884,28.762724,17.077026,0.000000,-0.000000,1.000000
-0.148220,6.791288,12.420212,0.098017,-0.000000,-0.995185
-6.604224,4.809207,17.077026,0.000000,-0.000000,1.000000
32.596413,-12.978949,17.077026,0.000000,0.000000,1.000000
-10.435724,-14.528346,6.727765,0.881921,0.000000,-0.471397
34.113636,-13.770752,16.823967,1.000000,-0.000000,0.000000
-13.960586,1.488498,-17.077026,0.000000,0.000000,-1.000000
26.198368,-14.232878,17.077026,0.000000,0.000000,1.000000
17.934290,30.202853,-17.077026,0.000000,0.000000,-1.000000
21.967474,12.468208,-1.536504,0.956940,-0.000000,0.290286
13.139294,16.822775,17.077026,0.000000,-0.000000,1.000000
11.166873,-20.001186,5.359882,-0.881921,0.000000,-0.471397
11.192024,30.574203,14.484002,-0.659346,0.000000,-0.751840
21.740692,2.782254,-0.630158,0.995185,-0.000000,0.098016
20.162159,29.354111,-17.077026,0.000000,0.000000,-1.000000
-12.362029,13.706143,0.738965,0.995185,-0.000000,-0.098017
18.427808,-33.253956,2.286096,0.000000,-1.000000,0.000000
17.687443,18.503077,-4.723345,-0.980785,0.000000,0.195090
-1.809449,-2.378296,-12.256595,0.098017,0.000000,0.995185
-1.583031,-3.410362,-12.278896,0.098017,0.000000,0.995185
22.791108,23.267157,17.077026,0.000000,-0.000000,1.000000
4.160060,17.964890,15.130789,-0.000000,1.000000,0.000000
2.321504,-31.122263,17.077026,0.000000,0.000000,1.000000
-20.989989,17.733866,17.077026,0.000000,-0.000000,1.000000
-34.113636,28.518190,-7.311430,-1.000000,0.000000,0.000000
-1.984695,-2.737656,12.239335,0.098017,0.000000,-0.995185
-29.997235,-15.230225,17.077026,0.000000,-0.000000,1.000000
10.344532,-23.258553,-17.077026,0.000000,0.000000,-1.000000
9.881812,-5.185688,7.465699,-0.773011,0.000000,-0.634393
-2.658333,-6.288270,17.077026,0.000000,0.000000,1.000000
34.113636,13.777218,4.236328,1.000000,-0.000000,0.000000
34.113636,22.945430,17.062659,1.000000,-0.000000,0.000000
6.725812,-2.478903,-10.436768,-0.471397,0.000000,0.881921
23.035998,-28.568954,17.077026,0.000000,0.000000,1.000000
-18.331107,-31.477395,-17.077026,0.000000,0.000000,-1.000000
22.943673,-22.805836,-3.094672,0.773011,-0.000000,0.634393
-34.113636,-4.784238,-7.762183,-1.000000,0.000000,0.000000
34.113636,-32.854085,-1.141565,1.000000,0.000000,-0.000000
32.748440,-7.124442,17.077026,0.000000,0.000000,1.000000
-10.585355,17.964890,-11.364299,-0.000000,1.000000,0.000000
-34.113636,32.238855,-7.554622,-1.000000,0.000000,0.000000
34.113636,26.986417,3.489751,1.000000,-0.000000,0.000000
3.263558,-8.272229,-17.077026,0.000000,0.000000,-1.000000
26.694031,5.716290,-17.077026,0.000000,0.000000,-1.000000
16.542232,-33.253956,-5.426511,0.000000,-1.000000,0.000000
25.695875,-22.591000,-17.077026,0.000000,0.000000,-1.000000
-27.506602,-9.093900,-17.077026,0.000000,0.000000,-1.000000
20.817005,-27.619288,17.077026,0.000000,0.000000,1.000000
16.073815,22.430907,-8.711270,-0.896873,0.000000,0.442289
-24.670863,-16.288435,-4.174594,-0.290284,0.000000,0.956941
15.156375,29.793761,-17.077026,0.000000,0.000000,-1.000000
-34.113636,16.227977,-15.098049,-1.000000,0.000000,0.000000
25.784780,12.742963,-17.077026,0.000000,0.000000,-1.000000
34.113636,-11.107526,-7.346994,1.000000,0.000000,-0.000000
8.191177,9.808353,9.286428,-0.634393,0.000000,-0.773011
-25.561282,33.253956,7.342594,-0.000000,1.000000,-0.000000
30.471514,-0.994505,-0.783095,-0.995185,0.000000,0.098016
-8.186915,-2.332570,-9.289925,0.634393,0.000000,0.773011
-34.113636,14.981076,-12.160360,-1.000000,0.000000,0.000000
-12.382133,0.060103,0.534847,0.995185,-0.000000,-0.098017
-3.077914,-28.284703,-11.998096,0.290285,0.000000,0.956940
-29.543144,23.434532,-17.077026,0.000000,0.000000,-1.000000
-11.743113,5.059125,3.918481,0.956940,0.000000,-0.290285
30.472624,-6.126419,0.771826,-0.995185,0.000000,-0.098016
21.741226,2.134806,0.635581,0.995185,0.000000,-0.098016
-6.078297,-7.761661,10.782872,0.471397,0.000000,-0.881921
34.113636,12.851894,-10.617744,1.000000,0.000000,-0.000000
-2.881867,-32.996517,12.057566,0.290285,0.000000,-0.956940
-26.105226,33.253956,-5.512495,0.000000,1.000000,0.000000
-33.364369,30.229277,-17.077026,0.000000,0.000000,-1.000000
34.113636,25.227738,-9.059031,1.000000,-0.000000,0.000000
9.454208,-25.457959,7.986736,-0.773011,0.000000,-0.634393
-8.797770,18.502831,17.077026,0.000000,-0.000000,1.000000
-34.113636,-1.156589,12.809644,-1.000000,0.000000,0.000000
34.113636,16.898409,3.940152,1.000000,-0.000000,0.000000
-26.211002,33.253956,13.109162,0.000000,1.000000,0.000000
9.905432,28.743302,17.077026,0.000000,-0.000000,1.000000
-2.688725,-20.228311,12.116155,0.290285,0.000000,-0.956940
21.726449,-24.446381,-0.485553,0.995185,-0.000000,0.098017
17.906581,-33.253956,4.102305,-0.000000,-1.000000,0.000000
11.496536,-7.873098,4.731336,-0.956940,0.000000,-0.290285
-24.864735,-25.330356,4.233405,-0.290284,0.000000,-0.956941
21.740035,23.697682,0.623493,0.995185,0.000000,-0.098016
9.742370,15.832030,-17.077026,0.000000,0.000000,-1.000000
-22.277688,-33.253956,-10.454839,0.000000,-1.000000,0.000000
-34.113636,-22.120615,-15.447793,-1.000000,0.000000,0.000000
-25.735651,33.253956,-15.836130,-0.000000,1.000000,0.000000
22.689176,5.545495,-2.784567,0.773011,0.000000,0.634393
-17.686412,14.082376,17.077026,0.000000,-0.000000,1.000000
12.285381,-22.309500,-1.517185,-0.995185,0.000000,0.098017
14.990055,-33.253956,-9.226521,0.000000,-1.000000,0.000000
19.493515,17.435390,-17.077026,0.000000,0.000000,-1.000000
-16.619998,13.078588,17.077026,0.000000,-0.000000,1.000000
16.544410,29.209256,17.077026,0.000000,-0.000000,1.000000
19.847771,-6.698715,-17.077026,0.000000,0.000000,-1.000000
-12.892994,9.094418,-17.077026,0.000000,0.000000,-1.000000
-30.521620,-4.334799,0.274357,0.995185,-0.000000,-0.098016
25.658020,3.917066,17.077026,0.000000,0.000000,1.000000
-30.003845,-33.253956,-12.236209,-0.000000,-1.000000,0.000000
-34.113636,-31.184230,5.993378,-1.000000,0.000000,0.000000
-28.683637,7.948620,3.600546,0.634393,0.000000,-0.773011
17.664442,-1.026976,17.077026,0.000000,0.000000,1.000000
1.933946,-27.582305,-12.244333,-0.098017,0.000000,0.995185
-32.234644,-33.253956,16.854767,0.000000,-1.000000,0.000000
-3.650926,-29.882760,17.077026,0.000000,0.000000,1.000000
-0.953208,8.813917,-17.077026,0.000000,0.000000,-1.000000
-28.342235,27.898118,-17.077026,0.000000,0.000000,-1.000000
-9.784538,3.725325,-17.077026,0.000000,0.000000,-1.000000
23.593147,17.671400,-3.641183,0.634393,-0.000000,0.773010
10.840287,17.964890,6.688398,0.000000,1.000000,-0.000000
34.113636,-22.835689,8.455690,1.000000,0.000000,-0.000000
-8.228552,29.613426,17.077026,-0.000000,0.000000,1.000000
7.461624,-31.535236,17.077026,0.000000,0.000000,1.000000
9.390945,-23.952889,-8.063822,-0.773011,0.000000,0.634393
-34.113636,28.342616,2.112429,-1.000000,0.000000,0.000000
-10.431745,17.964890,-13.962281,0.000000,1.000000,-0.000000
12.400965,12.889426,0.343641,-0.995185,0.000000,-0.098017
-0.630320,0.349012,-17.077026,0.000000,0.000000,-1.000000
30.469871,-17.541959,-0.799778,-0.995185,0.000000,0.098016
15.581993,17.964890,2.047926,-0.000000,1.000000,-0.000000
-34.113636,19.487591,7.351590,-1.000000,0.000000,0.000000
-12.129965,-14.131790,2.643199,0.956940,0.000000,-0.290285
-27.532180,33.253956,14.043840,0.000000,1.000000,0.000000
-12.012831,-0.232812,3.029341,0.956940,0.000000,-0.290285
21.808587,-10.274712,-1.012727,0.956940,0.000000,0.290286
-10.646438,17.964890,11.698981,-0.000000,1.000000,-0.000000
34.113636,-13.169909,14.757840,1.000000,-0.000000,0.000000
14.854134,-23.812157,-17.077026,0.000000,0.000000,-1.000000
26.792716,-25.613186,-17.077026,0.000000,0.000000,-1.000000
-3.584038,-33.253956,-13.233542,0.000000,-1.000000,0.000000
6.963022,-9.320057,10.294348,-0.634393,0.000000,-0.773011
16.430643,-13.709524,-17.077026,0.000000,0.000000,-1.000000
28.598935,21.853263,-3.670059,-0.634393,0.000000,0.773010
9.220838,-19.588039,-8.271099,-0.773011,0.000000,0.634393
-25.563754,-7.983791,17.077026,0.000000,-0.000000,1.000000
23.086686,12.953310,-3.225541,0.634393,0.000000,0.773010
26.895057,-5.046201,-4.358044,-0.098017,0.000000,0.995185
-28.357737,-27.512393,-3.805090,0.471397,-0.000000,0.881921
-2.742788,16.335583,-12.099755,0.290285,-0.000000,0.956940
0.088997,11.776130,12.426045,-0.098017,0.000000,-0.995185
-10.779601,-21.632984,17.077026,0.000000,0.000000,1.000000
-17.736431,23.712009,17.077026,0.000000,-0.000000,1.000000
29.581834,-30.107578,-17.077026,0.000000,0.000000,-1.000000
-0.904145,-6.518223,12.345760,0.098017,-0.000000,-0.995185
34.113636,20.570275,6.155669,1.000000,-0.000000,0.000000
-27.228057,-1.435915,17.077026,0.000000,-0.000000,1.000000
26.383312,13.575783,4.408447,-0.098017,0.000000,-0.995185
-3.828872,9.970403,17.077026,0.000000,-0.000000,1.000000
-34.113636,-22.897974,-5.855145,-1.000000,0.000000,0.000000
-2.713335,17.964890,15.029737,0.000000,1.000000,0.000000
3.539967,14.944807,-17.077026,0.000000,0.000000,-1.000000
8.363717,-15.493506,17.077026,0.000000,0.000000,1.000000
-34.113636,25.291524,11.319029,-1.000000,0.000000,0.000000
2.334848,14.749928,17.077026,0.000000,-0.000000,1.000000
-30.373986,6.677075,-1.160066,0.956940,0.000000,0.290286
-2.305529,15.133851,17.077026,0.000000,-0.000000,1.000000
-12.528106,-27.355049,-17.077026,0.000000,0.000000,-1.000000
12.908899,17.964890,11.635118,-0.000000,1.000000,0.000000
-26.003009,-27.457336,4.424112,-0.098017,0.000000,-0.995185
34.113636,-4.196093,-15.649499,1.000000,0.000000,-0.000000
34.113636,-24.899236,13.800825,1.000000,-0.000000,0.000000
26.396818,14.038307,-17.077026,0.000000,0.000000,-1.000000
34.113636,-2.668304,5.971556,1.000000,-0.000000,0.000000
10.416329,-8.166550,-17.077026,0.000000,0.000000,-1.000000
-11.262338,11.413849,-5.181279,0.881921,-0.000000,0.471397
-22.346744,31.088666,-17.077026,0.000000,0.000000,-1.000000
10.110326,32.028819,17.077026,0.000000,-0.000000,1.000000
-30.887860,4.673333,-17.077026,0.000000,0.000000,-1.000000
10.623899,13.718802,-6.375714,-0.881921,0.000000,0.471397
34.113636,-14.083424,-4.668426,1.000000,0.000000,-0.000000
-11.177826,-5.022173,-5.339390,0.881921,0.000000,0.471397
14.140258,32.000473,11.583988,-0.751840,0.000000,-0.659346
-5.593644,-14.679530,11.041924,0.471397,0.000000,-0.881921
-19.167146,15.329276,-17.077026,0.000000,0.000000,-1.000000
-28.892736,19.754550,3.428943,0.634393,0.000000,-0.773011
-34.113636,0.005566,1.380616,-1.000000,0.000000,0.000000
-26.774876,-28.072638,4.369881,0.098017,0.000000,-0.995185
34.113636,8.749452,4.304509,1.000000,-0.000000,0.000000
14.261809,17.964890,-4.415031,-0.000000,1.000000,0.000000
10.414267,5.794227,6.767908,-0.881921,0.000000,-0.471397
12.172452,-5.947473,2.503138,-0.956940,0.000000,-0.290285
-10.219113,-32.585903,7.054696,0.773011,0.000000,-0.634393
7.633699,17.964890,10.747951,-0.000000,1.000000,0.000000
17.613381,-32.694877,-17.077026,0.000000,0.000000,-1.000000
-7.405614,-10.529645,-9.931123,0.634393,-0.000000,0.773011
-34.113636,-9.654393,9.563057,-1.000000,0.000000,0.000000
4.922485,-1.364542,-11.400666,-0.471397,0.000000,0.881921
4.914397,-9.254083,-11.404989,-0.471397,0.000000,0.881921
11.859971,9.690923,3.533252,-0.956940,0.000000,-0.290285
-5.889567,5.086903,-10.883750,0.471397,-0.000000,0.881921
5.237698,-2.051336,17.077026,0.000000,0.000000,1.000000
-26.199860,-13.129845,-4.426515,0.098017,-0.000000,0.995185
-1.180556,16.483895,-17.077026,0.000000,0.000000,-1.000000
-33.805868,-33.253956,-5.256158,0.000000,-1.000000,0.000000
25.320678,4.063569,4.356908,0.098017,0.000000,-0.995185
12.104629,-5.448589,-2.726721,-0.956940,0.000000,0.290285
-24.384034,-33.253956,-6.807327,-0.000000,-1.000000,0.000000
-0.130803,-3.324030,12.421928,0.098017,-0.000000,-0.995185
-5.496714,-8.130725,-17.077026,0.000000,0.000000,-1.000000
-16.142035,-9.224798,17.077026,0.000000,-0.000000,1.000000
0.596430,-33.253956,-15.243063,0.000000,-1.000000,0.000000
-1.559473,-5.263805,-17.077026,0.000000,0.000000,-1.000000
-5.455520,-20.053079,11.115753,0.471397,0.000000,-0.881921
28.611550,-33.253956,-6.968317,-0.000000,-1.000000,0.000000
-23.224759,-30.020530,17.077026,0.000000,0.000000,1.000000
-11.967002,-5.148276,-17.077026,0.000000,0.000000,-1.000000
11.513701,-17.897298,-4.674751,-0.956940,0.000000,0.290285
21.885392,15.049110,17.077026,0.000000,0.000000,1.000000
34.113636,-24.583084,-8.567081,1.000000,0.000000,-0.000000
34.113636,-32.391102,-13.922706,1.000000,0.000000,-0.000000
29.572284,0.004329,17.077026,0.000000,0.000000,1.000000
-9.161012,-1.736249,-8.343997,0.773011,-0.000000,0.634393
14.510958,-2.404248,-17.077026,0.000000,0.000000,-1.000000
22.603668,-3.873077,-17.077026,0.000000,0.000000,-1.000000
-33.255626,21.323265,-17.077026,0.000000,0.000000,-1.000000
34.113636,8.543446,4.317641,1.000000,-0.000000,0.000000
28.041331,-6.947886,3.974212,-0.471397,-0.000000,-0.881921
34.113636,-19.691571,-15.664493,1.000000,0.000000,-0.000000
-27.718592,-21.100277,-4.125396,0.290284,0.000000,0.956941
-8.134204,-11.150443,-17.077026,0.000000,0.000000,-1.000000
-10.544189,11.501853,6.524841,0.881921,0.000000,-0.471397
-16.123522,-29.583847,17.077026,0.000000,0.000000,1.000000
-22.082248,4.608242,1.820730,-0.881922,-0.000000,-0.471394
25.681400,27.319200,4.392436,0.098017,0.000000,-0.995185
-34.113636,-26.383722,9.296570,-1.000000,0.000000,0.000000
-34.113636,-22.256529,2.146323,-1.000000,0.000000,0.000000
34.113636,-13.040608,-8.322950,1.000000,0.000000,-0.000000
9.090243,13.978464,17.077026,0.000000,-0.000000,1.000000
-10.564101,-23.802178,-17.077026,0.000000,0.000000,-1.000000
10.733628,-28.257430,-6.170425,-0.881921,0.000000,0.471397
9.715198,16.293096,-7.668719,-0.773011,0.000000,0.634393
-30.079593,-12.003073,1.943137,0.881922,-0.000000,-0.471395
-8.878605,12.207569,-17.077026,0.000000,0.000000,-1.000000
-15.891983,-33.253956,13.074112,0.000000,-1.000000,0.000000
31.918792,4.644531,17.077026,0.000000,0.000000,1.000000
23.819211,32.500402,-17.077026,0.000000,0.000000,-1.000000
22.608332,-32.592722,2.686059,0.773011,-0.000000,-0.634393
-27.450908,16.790613,-4.206597,0.290284,0.000000,0.956941
17.016111,21.601758,-17.077026,0.000000,0.000000,-1.000000
4.451028,9.642686,17.077026,0.000000,-0.000000,1.000000
34.113636,-33.196292,10.424244,1.000000,0.000000,-0.000000
-22.804056,-33.253956,-12.813359,0.000000,-1.000000,0.000000
34.113636,13.437256,-4.862038,1.000000,-0.000000,0.000000
10.823530,31.201154,-17.077026,0.000000,0.000000,-1.000000
6.625205,17.964890,14.352075,0.000000,1.000000,-0.000000
-13.636780,-21.406133,-17.077026,0.000000,0.000000,-1.000000
-11.328962,14.935904,-5.056634,0.881921,-0.000000,0.471397
-19.834550,33.253956,11.173001,0.000000,1.000000,0.000000
-9.162373,-9.816651,17.077026,0.000000,0.000000,1.000000
-30.156548,-24.246909,-1.799164,0.881922,0.000000,0.471396
-5.643659,-26.800915,-17.077026,0.000000,0.000000,-1.000000
30.386544,25.790857,-17.077026,0.000000,0.000000,-1.000000
-34.113636,27.109732,15.012180,-1.000000,0.000000,0.000000
-25.434217,-17.617594,4.368091,-0.098017,0.000000,-0.995185
13.439964,-33.253956,11.862329,0.000000,-1.000000,0.000000
-26.562785,26.407109,-4.390770,0.098017,0.000000,0.995185
34.113636,6.276501,-6.325617,1.000000,0.000000,-0.000000
-27.064975,6.434590,-17.077026,0.000000,0.000000,-1.000000
-15.831202,31.142023,-17.077026,0.000000,0.000000,-1.000000
4.770703,-14.260327,17.077026,0.000000,0.000000,1.000000
10.543621,-19.337012,-6.525903,-0.881921,0.000000,0.471397
-34.113636,13.362290,-8.855764,-1.000000,0.000000,0.000000
-17.114475,-33.253956,8.666677,0.000000,-1.000000,0.000000
24.373212,3.517560,-17.077026,0.000000,0.000000,-1.000000
32.606438,-3.558160,-17.077026,0.000000,0.000000,-1.000000
-34.113636,-18.549268,3.973904,-1.000000,0.000000,0.000000
-34.113636,8.567762,-12.165377,-1.000000,0.000000,0.000000
0.194841,10.750357,17.077026,0.000000,-0.000000,1.000000
9.109365,-26.234368,8.406929,-0.773011,0.000000,-0.634393
16.537516,17.964890,4.466667,-0.000000,1.000000,0.000000
28.627510,19.018493,3.646608,-0.634394,0.000000,-0.773010
11.786716,-1.384950,3.774742,-0.956940,0.000000,-0.290285
-34.113636,-29.868688,1.114912,-1.000000,0.000000,0.000000
7.070959,-2.405966,-17.077026,0.000000,0.000000,-1.000000
-21.862519,15.582267,17.077026,0.000000,-0.000000,1.000000
11.915227,16.068384,3.351097,-0.956940,0.000000,-0.290285
-19.584756,-24.853665,-17.077026,0.000000,0.000000,-1.000000
-17.241047,-33.253956,-9.783766,0.000000,-1.000000,0.000000
-7.426118,-22.399060,9.914295,0.634393,0.000000,-0.773011
-8.843588,-33.170438,8.730779,0.773011,0.000000,-0.634393
16.745019,9.119516,17.077026,0.000000,0.000000,1.000000
34.113636,8.319328,-0.067637,1.000000,-0.000000,0.000000
-34.113636,29.940553,-3.788650,-1.000000,0.000000,0.000000
-21.834584,-23.003159,-1.098425,-0.956940,0.000000,0.290286
16.586497,33.253956,16.042162,0.000000,1.000000,-0.000000
-34.113636,10.217285,4.140889,-1.000000,0.000000,0.000000
30.280332,32.184365,17.077026,0.000000,-0.000000,1.000000
7.933784,-1.262152,-9.497665,-0.634393,0.000000,0.773011
1.930244,-2.597397,-17.077026,0.000000,0.000000,-1.000000
29.472675,6.900052,2.864277,-0.773010,0.000000,-0.634393
-21.491342,-33.253956,1.699637,0.000000,-1.000000,-0.000000
-1.516858,-14.788713,12.285413,0.098017,-0.000000,-0.995185
34.113636,-6.940816,11.876761,1.000000,-0.000000,0.000000
10.930787,8.013940,5.801567,-0.881921,0.000000,-0.471397
18.851969,10.883358,17.077026,0.000000,0.000000,1.000000
-26.798641,-8.796816,17.077026,0.000000,-0.000000,1.000000
0.242216,-12.262731,12.410954,-0.098017,0.000000,-0.995185
34.113636,-12.376734,-6.776467,1.000000,0.000000,-0.000000
34.113636,28.722649,4.457941,1.000000,-0.000000,0.000000
-1.306482,-9.452593,12.306133,0.098017,0.000000,-0.995185
-30.590754,0.496394,-17.077026,0.000000,0.000000,-1.000000
29.529695,-14.351660,-17.077026,0.000000,0.000000,-1.000000
34.113636,-25.858229,4.927344,1.000000,0.000000,-0.000000
34.113636,-1.399677,-14.369975,1.000000,0.000000,-0.000000
10.394857,31.640594,-15.026394,-0.555570,0.000000,0.831470
-23.158313,-2.794697,17.077026,0.000000,-0.000000,1.000000
-17.246863,26.690515,-6.027540,0.946930,0.000000,0.321439
-10.336508,-12.561764,6.911650,0.773011,0.000000,-0.634393
24.635172,-18.047372,4.163768,0.290284,0.000000,-0.956941
11.725367,-6.473409,-3.976982,-0.956940,0.000000,0.290285
-29.390343,10.738979,2.964600,0.773011,0.000000,-0.634393
11.601516,-30.683673,4.385265,-0.956940,0.000000,-0.290285
-19.474185,2.536203,17.077026,0.000000,-0.000000,1.000000
23.191693,10.473238,3.311718,0.634394,0.000000,-0.773010
-21.132395,-7.717796,17.077026,0.000000,-0.000000,1.000000
15.659282,33.253956,-11.776787,-0.000000,1.000000,0.000000
-34.113636,-32.244259,-7.044899,-1.000000,0.000000,0.000000
-3.936008,14.445865,-11.737796,0.290285,-0.000000,0.956940
9.844476,-23.056222,7.511193,-0.773011,0.000000,-0.634393
34.113636,5.285878,6.919300,1.000000,-0.000000,0.000000
-22.391448,-20.517262,-2.399204,-0.881922,0.000000,0.471396
-34.113636,3.371136,-6.424891,-1.000000,0.000000,0.000000
-11.593086,-25.216664,4.413053,0.956940,0.000000,-0.290285
-0.844160,-6.494797,-12.351668,0.098017,0.000000,0.995185
-30.534697,-21.846966,0.141583,0.995185,-0.000000,-0.098016
22.134839,-30.647076,-1.919121,0.881922,-0.000000,0.471396
10.677754,5.616156,6.274958,-0.881921,0.000000,-0.471397
4.855074,-9.792687,-17.077026,0.000000,0.000000,-1.000000
-15.877477,33.253956,-17.010307,-0.000000,1.000000,0.000000
-11.946755,6.819698,17.077026,0.000000,-0.000000,1.000000
-10.844748,9.572745,-5.962534,0.881921,-0.000000,0.471397
28.780950,-33.253956,-3.739695,-0.000000,-1.000000,0.000000
-4.755361,2.449424,17.077026,0.000000,-0.000000,1.000000
-14.441098,23.526119,-11.240947,0.751840,0.000000,0.659346
-13.693741,17.964890,-5.098759,-0.000000,1.000000,0.000000
-25.128940,21.599419,17.077026,0.000000,-0.000000,1.000000
8.488290,23.729383,-17.077026,0.000000,0.000000,-1.000000
-32.973091,33.253956,-2.088734,-0.000000,1.000000,0.000000
30.186543,17.163182,17.077026,0.000000,0.000000,1.000000
-10.024901,12.552963,17.077026,0.000000,-0.000000,1.000000
34.064791,-33.253956,-6.209602,-0.000000,-1.000000,0.000000
-23.987357,-5.572047,-3.868069,-0.471397,0.000000,0.881921
34.113636,21.292938,2.974882,1.000000,-0.000000,0.000000
19.716908,33.253956,7.728922,-0.000000,1.000000,0.000000
-3.204102,4.431597,17.077026,0.000000,-0.000000,1.000000
17.575858,26.997091,-17.077026,0.000000,0.000000,-1.000000
-30.207539,-33.253956,15.535578,0.000000,-1.000000,0.000000
19.297102,33.253956,10.877704,0.000000,1.000000,-0.000000
-16.759919,24.673987,17.077026,-0.000000,0.000000,1.000000
-11.453889,-7.174884,4.822912,0.881921,0.000000,-0.471397
34.113636,27.669768,-16.004110,1.000000,0.000000,-0.000000
13.286393,17.964890,-11.604339,-0.000000,1.000000,-0.000000
-6.015766,-5.184208,-10.816295,0.471397,0.000000,0.881921
10.231782,6.598513,-17.077026,0.000000,0.000000,-1.000000
-34.113636,-2.289249,13.008965,-1.000000,0.000000,0.000000
-27.371190,-29.275320,4.230779,0.290284,0.000000,-0.956941
-1.659835,-4.639446,12.271331,0.098017,0.000000,-0.995185
-34.113636,19.746927,-4.870159,-1.000000,0.000000,0.000000
31.788987,-33.253956,7.219232,-0.000000,-1.000000,0.000000
30.804578,-10.885424,-17.077026,0.000000,0.000000,-1.000000
23.572116,14.356335,-17.077026,0.000000,0.000000,-1.000000
-11.195956,11.474430,5.305471,0.881921,0.000000,-0.471397
11.800632,-30.735843,3.728867,-0.956940,0.000000,-0.290285
-34.113636,-22.570814,-15.958534,-1.000000,0.000000,0.000000
7.135913,-33.253956,11.305880,-0.000000,-1.000000,0.000000
-3.927925,-27.501415,-17.077026,0.000000,0.000000,-1.000000
34.113636,23.032056,7.201500,1.000000,-0.000000,0.000000
-34.113636,8.982639,9.407084,-1.000000,0.000000,0.000000
-14.139725,-1.305449,17.077026,0.000000,-0.000000,1.000000
34.113636,19.528266,10.995167,1.000000,-0.000000,0.000000
17.749855,28.327360,-17.077026,0.000000,0.000000,-1.000000
-24.676356,29.265921,17.077026,-0.000000,0.000000,1.000000
-18.000772,29.317690,-3.148134,0.980785,0.000000,0.195090
-15.679794,21.556952,-9.416975,0.831470,0.000000,0.555570
-16.814347,23.405527,7.209620,0.896873,0.000000,-0.442289
34.113636,20.914565,-7.309420,1.000000,-0.000000,0.000000
17.569528,21.913543,5.076998,-0.946930,-0.000000,-0.321439
23.813794,-16.964744,-17.077026,0.000000,0.000000,-1.000000
-9.214191,-21.414782,-17.077026,0.000000,0.000000,-1.000000
3.988074,-33.253956,12.583644,0.000000,-1.000000,0.000000
20.174025,-22.479102,-17.077026,0.000000,0.000000,-1.000000
17.073610,-33.253956,7.515552,-0.000000,-1.000000,0.000000
24.747671,-31.840011,4.197894,0.290284,0.000000,-0.956941
-34.113636,15.744265,10.544338,-1.000000,0.000000,0.000000
8.385556,-22.839563,9.126905,-0.634393,-0.000000,-0.773011
-17.274564,31.869147,-5.945935,0.946930,0.000000,0.321439
-21.129394,-25.343601,-17.077026,0.000000,0.000000,-1.000000
-31.814545,-2.020566,17.077026,0.000000,-0.000000,1.000000
12.911114,21.669749,12.976401,-0.659346,0.000000,-0.751840
-26.669875,-32.900803,4.380222,0.098017,0.000000,-0.995185
26.321256,33.253956,-4.549302,0.000000,1.000000,-0.000000
23.541602,19.120576,-17.077026,0.000000,0.000000,-1.000000
20.834217,12.179293,-17.077026,0.000000,0.000000,-1.000000
33.969334,-4.881173,17.077026,0.000000,0.000000,1.000000
28.482537,14.820185,-3.738382,-0.471397,0.000000,0.881921
6.093861,-24.314949,17.077026,0.000000,0.000000,1.000000
-11.624810,-18.951951,-4.308474,0.956940,-0.000000,0.290285
28.989261,9.727697,3.349726,-0.634393,0.000000,-0.773011
-18.087130,25.418256,2.713984,0.980785,0.000000,-0.195090
-34.113636,30.445327,13.197836,-1.000000,0.000000,0.000000
34.113636,-14.344802,-7.050188,1.000000,0.000000,-0.000000
19.036118,27.445980,17.077026,0.000000,-0.000000,1.000000
11.511806,-28.011654,4.680999,-0.956940,0.000000,-0.290285
12.894768,0.717910,17.077026,0.000000,0.000000,1.000000
3.387563,7.093008,-11.904165,-0.290285,0.000000,0.956940
19.669356,33.253956,2.219307,-0.000000,1.000000,0.000000
26.990717,-26.845127,-4.346194,-0.290284,0.000000,0.956941
-9.075930,17.964890,13.239070,-0.000000,1.000000,0.000000
-17.200174,-18.379315,-17.077026,0.000000,0.000000,-1.000000
30.511262,-13.051662,0.379524,-0.995185,0.000000,-0.098016
-2.501044,-9.092154,-12.173088,0.290285,-0.000000,0.956940
18.779656,16.473542,17.077026,0.000000,0.000000,1.000000
23.670605,28.059979,3.698761,0.471396,0.000000,-0.881922
11.647634,14.857962,17.077026,0.000000,-0.000000,1.000000
-12.052364,7.369782,-17.077026,0.000000,0.000000,-1.000000
-34.113636,19.265290,0.622568,-1.000000,0.000000,0.000000
-34.113636,-17.341279,-13.108441,-1.000000,0.000000,0.000000
-34.113636,-20.706694,16.854683,-1.000000,0.000000,0.000000
16.752341,20.902145,17.077026,0.000000,-0.000000,1.000000
34.113636,32.870141,-7.463057,1.000000,-0.000000,0.000000
28.284365,-28.630379,-3.844308,-0.471397,0.000000,0.881921
26.669141,-32.720116,-4.380295,-0.098017,0.000000,0.995185
34.113636,26.232071,3.688555,1.000000,-0.000000,0.000000
17.015860,-21.581229,17.077026,0.000000,0.000000,1.000000
-25.513189,21.089873,-17.077026,0.000000,0.000000,-1.000000
3.734045,-2.015318,17.077026,0.000000,0.000000,1.000000
2.050539,4.141837,17.077026,0.000000,-0.000000,1.000000
21.717800,11.476299,0.397731,0.995185,0.000000,-0.098016
33.206718,-3.833134,-17.077026,0.000000,0.000000,-1.000000
20.559195,-33.253956,3.417463,0.000000,-1.000000,0.000000
28.136148,-4.359593,3.923531,-0.471397,-0.000000,-0.881921
-16.930740,30.974160,6.958806,0.946930,0.000000,-0.321439
-34.113636,15.153649,-7.121029,-1.000000,0.000000,0.000000
7.993057,-11.410292,-17.077026,0.000000,0.000000,-1.000000
12.728929,33.253956,-15.976999,-0.000000,1.000000,0.000000
-23.307258,9.581371,3.406560,-0.634393,0.000000,-0.773011
-4.285976,-14.165712,-11.631635,0.290285,0.000000,0.956940
33.740328,33.253956,14.087226,0.000000,1.000000,-0.000000
-18.680187,-4.983795,17.077026,0.000000,-0.000000,1.000000
21.843272,4.999486,-1.127066,0.956940,0.000000,0.290286
18.076450,26.739997,-2.767676,-0.980785,0.000000,0.195090
30.630586,-22.676805,17.077026,0.000000,0.000000,1.000000
-20.031287,-16.612079,-17.077026,0.000000,0.000000,-1.000000
-30.060035,-16.809294,-1.979727,0.881922,-0.000000,0.471396
-32.482626,3.095176,-17.077026,0.000000,0.000000,-1.000000
-24.014261,33.253956,12.900895,0.000000,1.000000,0.000000
11.995644,28.076127,-13.779246,-0.659346,0.000000,0.751840
25.651550,-2.397863,4.389496,0.098017,0.000000,-0.995185
25.267041,23.464873,-17.077026,0.000000,0.000000,-1.000000
-8.204768,-25.950521,17.077026,0.000000,0.000000,1.000000
-0.535097,2.598842,-17.077026,0.000000,0.000000,-1.000000
-17.291801,28.055762,-17.077026,0.000000,0.000000,-1.000000
-14.430967,-33.253956,13.171377,0.000000,-1.000000,0.000000
-34.113636,31.838698,15.078042,-1.000000,0.000000,0.000000
30.084253,32.897741,-1.934419,-0.881922,0.000000,0.471396
4.347983,-22.268800,11.612825,-0.290285,-0.000000,-0.956940
-12.860582,24.306066,13.020716,0.659346,0.000000,-0.751840
22.522201,19.482295,-2.581107,0.773011,0.000000,0.634393
-33.442304,-33.253956,-5.690444,0.000000,-1.000000,0.000000
23.296356,3.975326,3.397613,0.634393,-0.000000,-0.773011
-34.113636,-2.895703,-1.695335,-1.000000,0.000000,0.000000
30.478181,-5.357927,0.715399,-0.995185,0.000000,-0.098016
-34.113636,7.801649,-9.279958,-1.000000,0.000000,0.000000
30.394064,-21.132100,1.093878,-0.956940,-0.000000,-0.290286
-15.436679,31.213894,-17.077026,0.000000,0.000000,-1.000000
22.819954,-13.086830,-17.077026,0.000000,0.000000,-1.000000
-25.705686,-33.253956,7.984764,0.000000,-1.000000,0.000000
33.729238,33.253956,-16.579607,-0.000000,1.000000,-0.000000
24.768184,33.253956,-4.580645,-0.000000,1.000000,-0.000000
24.722406,33.253956,4.902280,-0.000000,1.000000,0.000000
-34.113636,28.012382,-14.733030,-1.000000,0.000000,0.000000
-27.125648,-1.435602,-17.077026,0.000000,0.000000,-1.000000
-12.384571,-4.436820,-0.510093,0.995185,0.000000,0.098017
-9.540541,18.850572,-15.597229,0.555570,-0.000000,0.831470
-5.564347,-9.195486,-11.057584,0.471397,-0.000000,0.881921
-11.594810,-4.655898,-17.077026,0.000000,0.000000,-1.000000
-34.113636,18.207675,-5.389220,-1.000000,0.000000,0.000000
-7.094167,2.005166,-10.186720,0.634393,-0.000000,0.773011
-34.113636,1.367338,-3.876937,-1.000000,0.000000,0.000000
3.022763,-33.253956,12.617441,0.000000,-1.000000,0.000000
7.851953,5.013390,17.077026,0.000000,0.000000,1.000000
19.747517,-2.855051,17.077026,0.000000,0.000000,1.000000
34.113636,-9.479702,9.027450,1.000000,-0.000000,0.000000
28.041145,-8.448529,-3.974311,-0.471397,0.000000,0.881921
-26.943753,0.933123,17.077026,0.000000,-0.000000,1.000000
19.037948,13.410076,17.077026,0.000000,0.000000,1.000000
-9.026422,9.142934,-8.507995,0.773011,-0.000000,0.634393
34.113636,11.318444,11.748937,1.000000,-0.000000,0.000000
-10.171898,-1.571736,7.112228,0.773011,0.000000,-0.634393
11.113321,-10.223126,5.460070,-0.881921,0.000000,-0.471397
-9.635889,3.015844,7.765357,0.773011,0.000000,-0.634393
-28.106848,-22.167477,3.939192,0.471398,0.000000,-0.881921
-26.111331,33.253956,12.906641,0.000000,1.000000,0.000000
-10.339868,19.669973,15.063137,0.555570,0.000000,-0.831470
14.130702,33.253956,12.154655,0.000000,1.000000,-0.000000
18.217060,20.869297,-1.391475,-0.997859,0.000000,0.065403
-22.514199,-19.489781,17.077026,0.000000,-0.000000,1.000000
-30.256180,13.781140,1.548417,0.956940,0.000000,-0.290285
-20.060635,-1.123665,17.077026,0.000000,-0.000000,1.000000
-18.560703,27.367049,17.077026,-0.000000,0.000000,1.000000
-14.368221,-33.253956,2.486470,0.000000,-1.000000,0.000000
24.948733,20.419851,4.258885,0.290284,0.000000,-0.956941
1.273970,-31.770214,17.077026,0.000000,0.000000,1.000000
21.791201,-13.695133,-0.955414,0.956940,0.000000,0.290286
22.638207,33.253956,6.349418,-0.000000,1.000000,0.000000
-27.273489,31.129361,4.260416,0.290284,0.000000,-0.956941
-21.953211,22.189513,-1.489485,-0.956940,0.000000,0.290286
28.799440,-29.714133,3.505509,-0.634393,-0.000000,-0.773010
-2.492607,4.348322,17.077026,0.000000,-0.000000,1.000000
11.346563,-9.671273,5.023706,-0.881921,0.000000,-0.471397
-24.181760,1.259859,-3.971980,-0.471397,0.000000,0.881921
29.953840,-33.253956,-14.112812,0.000000,-1.000000,0.000000
31.447084,-23.166420,17.077026,0.000000,0.000000,1.000000
34.113636,5.745013,-6.613401,1.000000,0.000000,-0.000000
-8.480349,29.307899,16.187693,0.442289,0.000000,-0.896873
-6.522896,13.039038,-17.077026,0.000000,0.000000,-1.000000
-27.133898,-33.253956,-6.593591,-0.000000,-1.000000,0.000000
-9.341517,1.411444,17.077026,0.000000,-0.000000,1.000000
33.324292,-33.253956,-12.385094,-0.000000,-1.000000,0.000000
8.220704,-21.608437,-9.262196,-0.634393,0.000000,0.773011
-27.620961,33.253956,11.288156,-0.000000,1.000000,-0.000000
34.113636,-22.173459,9.579157,1.000000,0.000000,-0.000000
13.898105,9.862898,-17.077026,0.000000,0.000000,-1.000000
-31.585001,-33.253956,13.457253,0.000000,-1.000000,0.000000
-21.894176,-29.770439,1.294875,-0.956940,-0.000000,-0.290286
-7.672227,-30.765842,17.077026,0.000000,0.000000,1.000000
14.452167,-10.062125,17.077026,0.000000,0.000000,1.000000
12.375553,1.963418,0.601655,-0.995185,-0.000000,-0.098017
-4.785021,-20.818570,-11.474142,0.471397,-0.000000,0.881921
-14.074533,11.062342,17.077026,0.000000,-0.000000,1.000000
-34.113636,8.069521,-11.777221,-1.000000,0.000000,0.000000
18.212086,24.567000,1.467368,-0.997859,0.000000,-0.065403
-0.155605,10.819647,17.077026,0.000000,-0.000000,1.000000
28.528575,-12.396997,17.077026,0.000000,0.000000,1.000000
-9.373102,-9.318879,-8.085564,0.773011,-0.000000,0.634393
-34.113636,-15.947447,5.315147,-1.000000,0.000000,0.000000
-27.270843,24.984887,4.261219,0.290284,0.000000,-0.956941
-34.113636,15.751329,-12.034634,-1.000000,0.000000,0.000000
13.167021,-27.278703,-17.077026,0.000000,0.000000,-1.000000
-19.420022,18.022883,-17.077026,0.000000,0.000000,-1.000000
-16.068945,-33.253956,-8.437583,0.000000,-1.000000,0.000000
-17.053107,-21.751934,-17.077026,0.000000,0.000000,-1.000000
3.293181,-25.230830,-17.077026,0.000000,0.000000,-1.000000
34.113636,-1.325486,0.579035,1.000000,0.000000,-0.000000
0.636935,-6.525023,-12.372078,-0.098017,0.000000,0.995185
26.899230,-24.671198,-4.357633,-0.098017,0.000000,0.995185
33.183472,-22.350435,-17.077026,0.000000,0.000000,-1.000000
29.846722,-25.569576,-2.378809,-0.881922,0.000000,0.471396
23.875427,-2.366551,3.808241,0.471396,-0.000000,-0.881921
-34.113636,-26.031176,-4.900484,-1.000000,0.000000,0.000000
-28.498583,-20.516914,-3.729806,0.471397,0.000000,0.881921
-23.513752,18.882427,3.576024,-0.634394,-0.000000,-0.773010
23.576876,2.097301,-3.627830,0.634393,-0.000000,0.773010
12.385615,14.243254,17.077026,0.000000,-0.000000,1.000000
30.198232,10.909240,-17.077026,0.000000,0.000000,-1.000000
27.330373,29.041864,-4.243160,-0.290284,0.000000,0.956941
19.530803,-32.412009,17.077026,0.000000,0.000000,1.000000
26.150319,-5.630614,-4.431394,-0.098017,0.000000,0.995185
23.828910,25.871088,-17.077026,0.000000,0.000000,-1.000000
10.958517,-26.274251,-5.749687,-0.881921,0.000000,0.471397
17.663755,18.152323,-4.799414,-0.946930,0.000000,0.321439
-16.010141,-33.253956,-2.994627,0.000000,-1.000000,0.000000
-30.529417,-6.024119,-0.195187,0.995185,-0.000000,0.098019
3.933815,-30.800019,17.077026,0.000000,0.000000,1.000000
27.553267,1.938552,-17.077026,0.000000,0.000000,-1.000000
11.726039,13.307248,-3.974765,-0.956940,0.000000,0.290285
34.113636,16.558197,-13.565112,1.000000,0.000000,-0.000000
-12.415885,-30.097803,0.192152,0.995185,0.000000,-0.098017
-20.075979,16.836390,-17.077026,0.000000,0.000000,-1.000000
12.198784,-4.250302,-2.396412,-0.995185,0.000000,0.098017
9.762559,-3.456674,17.077026,0.000000,0.000000,1.000000
-17.831380,22.365717,3.999727,0.980785,0.000000,-0.195090
26.433039,16.642137,17.077026,0.000000,0.000000,1.000000
24.942525,-33.253956,10.343279,-0.000000,-1.000000,0.000000
22.710500,23.585588,17.077026,0.000000,-0.000000,1.000000
12.204626,-14.459147,2.337100,-0.995185,0.000000,-0.098017
-13.161612,-33.253956,14.468337,0.000000,-1.000000,0.000000
6.327211,-1.053061,17.077026,0.000000,0.000000,1.000000
-21.736355,10.183875,-0.586132,-0.995185,0.000000,0.098016
-10.426325,-22.656211,-17.077026,0.000000,0.000000,-1.000000
-7.363003,-3.938255,-9.966092,0.634393,-0.000000,0.773011
-34.113636,-24.064894,-10.020731,-1.000000,0.000000,0.000000
-11.337312,5.293225,-17.077026,0.000000,0.000000,-1.000000
3.804333,-18.659144,11.777740,-0.290285,-0.000000,-0.956940
22.077379,1.910839,-1.811622,0.881922,0.000000,0.471396
-26.820232,-28.990364,17.077026,0.000000,0.000000,1.000000
-2.490059,-1.981157,12.176420,0.290285,0.000000,-0.956940
-11.068879,-0.301802,17.077026,0.000000,-0.000000,1.000000
-16.625668,33.253956,11.819081,0.000000,1.000000,0.000000
14.581405,18.638874,11.060830,-0.831470,0.000000,-0.555570
10.318538,28.129041,15.077388,-0.555570,0.000000,-0.831470
-34.113636,-26.987492,2.452119,-1.000000,0.000000,0.000000
29.545065,-32.972208,-2.776070,-0.773011,0.000000,0.634393
-27.394556,-33.253956,14.056557,0.000000,-1.000000,0.000000
-30.486974,10.163822,-0.626119,0.995185,-0.000000,0.098016
22.934777,-1.301306,17.077026,0.000000,0.000000,1.000000
-34.113636,-8.827150,-7.745977,-1.000000,0.000000,0.000000
32.288858,33.253956,-12.672558,0.000000,1.000000,-0.000000
-34.113636,32.054001,1.193451,-1.000000,0.000000,0.000000
34.113636,-16.426868,-14.513323,1.000000,0.000000,-0.000000
11.669253,11.099555,-17.077026,0.000000,0.000000,-1.000000
-29.894202,-19.388717,2.289979,0.881921,-0.000000,-0.471397
-9.864930,-1.980192,-17.077026,0.000000,0.000000,-1.000000
-34.113636,-16.018905,11.944408,-1.000000,0.000000,0.000000
13.427459,27.383574,-12.396781,-0.751840,0.000000,0.659346
34.113636,-22.711678,16.467012,1.000000,-0.000000,0.000000
-26.878937,-15.290400,-4.359632,0.098017,0.000000,0.995185
