x,y,z,nx,ny,nz
-5.215267,6.328492,26.548731,-0.659346,0.751840,0.000000
-23.299032,2.930840,-4.577840,0.000000,-0.555570,0.831470
41.714623,8.705860,-1.117313,0.000000,0.997859,-0.065403
-8.072472,-1.431718,30.236862,-0.980785,-0.195090,0.000000
42.640566,-0.393412,-5.420498,0.000000,0.065403,0.997859
-41.288678,0.086470,-5.440616,0.000000,-0.065403,0.997859
2.573403,-7.782499,4.339663,0.321439,-0.946930,0.000000
-29.999392,-4.320289,-7.637071,0.000000,-0.442289,-0.896873
18.412426,-4.966782,-7.217220,0.000000,-0.555570,-0.831470
37.768698,8.456429,2.341495,0.000000,0.946930,0.321439
-1.512358,8.407904,2.484445,0.000000,0.946930,0.321439
-8.166028,-0.735941,14.712410,-0.997859,-0.065403,0.000000
31.931748,7.781756,4.026898,-0.000000,0.896873,0.442289
-33.137886,2.857157,8.281385,0.000000,0.321439,0.946930
-21.397559,7.933965,3.718248,-0.000000,0.896873,0.442289
-39.105357,-1.311759,-5.280168,-0.000000,0.195090,0.980785
-41.767804,6.870716,-5.451795,0.000000,0.751840,-0.659346
31.988813,-6.741406,-5.599245,0.000000,-0.751840,-0.659346
-27.570796,5.398230,-0.718219,0.000000,-0.980785,0.195090
9.967722,8.261484,2.915785,-0.000000,0.946930,0.321439
16.142211,6.238837,-6.172315,0.000000,0.751840,-0.659346
-30.975265,-5.402061,0.674696,0.000000,0.997859,-0.065403
-1.473594,-4.643776,4.759970,0.321439,0.946930,-0.000000
-2.904401,1.483545,-5.235606,0.000000,-0.321440,0.946930
-2.930667,-3.534019,-4.129180,0.000000,0.659346,0.751840
-41.545834,6.914141,5.402279,0.000000,0.751840,0.659346
-21.179181,8.055697,3.471401,0.000000,0.896873,0.442289
-44.550240,-6.059364,6.337893,0.000000,-0.659346,0.751840
36.590752,-2.482815,8.408457,0.000000,-0.321440,0.946930
-27.732823,-4.311077,-7.641614,0.000000,-0.442289,-0.896873
-33.824802,-5.345241,-0.984616,-0.000000,0.980785,0.195090
3.708283,-0.116900,-5.438621,0.000000,0.065403,0.997859
26.844631,2.833268,8.289495,-0.000000,0.321440,0.946930
5.912915,0.222131,-8.764534,0.000000,0.065403,-0.997859
-3.612259,-7.357805,22.559226,-0.442289,-0.896873,0.000000
-39.460079,4.197665,-3.455927,0.000000,-0.751840,0.659346
7.568647,-4.279189,-7.657339,0.000000,-0.442289,-0.896873
-32.445496,-7.648496,-4.297121,0.000000,-0.896873,-0.442289
-0.596632,4.842349,28.384191,0.065404,-0.997859,0.000000
41.331661,-4.359221,3.258027,0.000000,0.831470,-0.555570
-2.436192,4.229700,30.256360,0.442289,-0.896873,0.000000
14.113378,1.709752,5.158818,0.000000,-0.321440,-0.946930
19.987405,6.714641,-5.629765,0.000000,0.751840,-0.659346
4.869889,0.176448,26.651559,-0.997859,-0.065404,0.000000
47.761467,-8.491431,0.030358,1.000000,-0.000000,0.000000
-30.829062,4.630652,-2.851801,-0.000000,-0.831470,0.555570
24.619825,0.168337,-8.768059,0.000000,0.065403,-0.997859
-41.802134,-4.707041,-7.390774,0.000000,-0.555570,-0.831470
2.030933,4.429551,22.502948,-0.442289,-0.896873,-0.000000
2.747213,8.448760,-2.364087,0.000000,0.946930,-0.321439
27.824804,-3.580288,4.088603,0.000000,0.659346,-0.751840
-19.459516,-0.382877,8.753998,-0.000000,-0.065403,0.997859
-29.992671,6.237331,-6.174033,0.000000,0.751840,-0.659346
-3.985270,-6.992778,33.694603,0.000000,-0.000000,1.000000
1.090505,-4.749516,17.390351,-0.195090,0.980785,0.000000
-17.790362,3.414696,-8.083661,0.000000,0.442289,-0.896873
-11.451344,-2.197894,4.975643,-0.000000,0.442289,-0.896872
-15.442183,-5.581981,6.756546,-0.000000,-0.659346,0.751840
2.805408,-7.703744,29.988544,0.321439,-0.946930,0.000000
-44.864296,5.928825,6.452372,-0.000000,0.659346,0.751840
-29.091031,5.188302,7.069206,0.000000,0.555570,0.831470
-5.221685,-5.409334,-6.907953,0.000000,-0.659346,-0.751840
1.073938,-8.143639,5.959102,0.195090,-0.980785,0.000000
-0.931698,-4.781105,32.764357,0.195090,0.980785,0.000000
3.910170,7.210892,21.732764,0.442289,0.896873,0.000000
4.409804,-6.911522,33.504508,0.555570,-0.831470,0.000000
-4.502629,6.849498,31.979934,-0.555570,0.831470,0.000000
46.573380,2.057849,5.040655,-0.000000,-0.321440,-0.946930
-47.761467,-6.043246,0.358509,-1.000000,0.000000,-0.000000
-35.584439,5.332848,1.046917,0.000000,-0.980785,-0.195090
-3.119520,8.727610,-0.785473,0.000000,0.997859,-0.065403
-24.564141,-2.749148,-8.318050,0.000000,-0.321439,-0.946930
1.334959,4.690836,28.583858,-0.321439,-0.946930,0.000000
-5.651480,-8.376911,2.575748,0.000000,-0.946930,0.321439
3.023778,7.629618,12.633281,0.321439,0.946930,0.000000
6.943187,-4.362415,32.079874,0.831470,-0.555570,0.000000
-9.904268,-5.135027,-1.779840,-0.000000,0.946930,0.321440
-31.720067,-0.718769,8.731982,-0.000000,-0.065403,0.997859
10.556846,7.701786,4.189060,0.000000,0.896872,0.442289
26.758848,5.276237,-7.010449,0.000000,0.555570,-0.831470
-30.957438,3.952250,7.818568,-0.000000,0.442289,0.896873
3.501447,-4.430059,33.694603,0.000000,-0.000000,1.000000
24.711037,5.451680,-6.870817,0.000000,0.659346,-0.751840
37.044838,-5.054966,-2.015691,0.000000,0.946930,0.321440
19.121565,-0.212626,-8.765156,0.000000,-0.065403,-0.997859
-11.442435,-0.914309,-5.359226,0.000000,0.195090,0.980785
26.493217,-6.221287,-6.192327,0.000000,-0.751840,-0.659346
-21.839544,6.055402,-6.341367,0.000000,0.659346,-0.751840
14.848001,5.016260,2.115530,0.000000,-0.896873,-0.442289
6.753070,4.646945,32.307625,0.831470,0.555570,0.000000
5.508878,-4.158896,-7.716662,0.000000,-0.442289,-0.896873
6.936761,4.560574,-7.488640,0.000000,0.555570,-0.831470
41.725011,3.963246,3.723230,-0.000000,-0.751840,-0.659346
7.013978,8.543481,-1.952818,0.000000,0.980785,-0.195090
47.761467,0.390482,-6.783705,1.000000,0.000000,-0.000000
43.589178,4.310216,7.642039,0.000000,0.442289,0.896873
17.814782,-8.727495,-0.787225,0.000000,-0.997859,-0.065403
41.975138,-4.978894,-2.191301,0.000000,0.896873,0.442289
-19.668202,-0.125793,5.438038,0.000000,0.065403,-0.997859
-2.754827,-3.707136,-7.939445,0.000000,-0.442289,-0.896873
15.721438,-8.264568,-2.906698,0.000000,-0.946930,-0.321439
5.295363,-0.531754,-8.744240,0.000000,-0.065403,-0.997859
-4.579759,1.662183,21.650833,0.946930,-0.321440,0.000000
28.352094,-6.770570,5.565990,0.000000,-0.751840,0.659346
-31.741224,7.283355,-4.867805,0.000000,0.831470,-0.555570
-32.396953,8.539410,-1.973282,0.000000,0.980785,-0.195090
20.313280,-6.439586,5.943404,0.000000,-0.751840,0.659346
-4.708520,5.551885,33.694603,-0.000000,-0.000000,1.000000
-27.160590,7.736261,-4.119153,0.000000,0.896873,-0.442289
-36.517432,1.349327,8.663522,-0.000000,0.195090,0.980785
4.362355,-2.167194,31.135891,-0.896873,0.442289,0.000000
-24.259302,-2.533330,4.810224,-0.000000,0.442289,-0.896872
30.452246,-3.070558,-4.484483,0.000000,0.555570,0.831470
12.689184,7.077950,-5.175216,0.000000,0.831470,-0.555570
-1.585395,-8.041904,31.852756,-0.195090,-0.980785,-0.000000
-25.754767,4.115506,-3.549611,0.000000,-0.751840,0.659346
-5.286530,2.263862,-4.943111,0.000000,-0.442289,0.896873
-4.842585,0.593035,25.681818,0.997859,-0.065404,0.000000
0.084637,-8.706738,-1.103919,0.000000,-0.997859,-0.065403
-42.505299,-3.553539,4.112061,0.000000,0.659346,-0.751840
15.563066,-4.907589,2.335894,-0.000000,0.896873,-0.442289
-17.996477,-7.338155,4.785791,0.000000,-0.831470,0.555570
-3.028596,-5.618950,33.694603,0.000000,-0.000000,1.000000
7.960051,-5.166114,7.084031,0.000000,-0.555570,0.831470
34.258240,-3.876186,3.822502,-0.000000,0.751840,-0.659346
-0.775056,0.203438,-8.765759,0.000000,0.065403,-0.997859
-39.643300,7.452853,-4.614133,0.000000,0.831470,-0.555570
-20.406601,5.405439,-6.911369,0.000000,0.659346,-0.751840
38.012934,3.622753,4.051362,-0.000000,-0.659346,-0.751840
11.227217,2.112179,-8.511782,0.000000,0.195090,-0.980785
11.400116,3.697977,7.943962,0.000000,0.442289,0.896873
44.423456,4.183076,7.704738,-0.000000,0.442289,0.896873
-47.761467,1.649812,6.499735,-1.000000,0.000000,-0.000000
3.212178,-3.661773,9.264788,-0.659346,0.751840,-0.000000
5.750195,5.859372,32.861366,0.659346,0.751840,0.000000
-4.784242,6.661330,30.808543,-0.555570,0.831470,0.000000
26.640309,0.621388,-5.405555,0.000000,-0.065403,0.997859
1.237358,-4.720305,6.888473,-0.195090,0.980785,0.000000
4.155232,2.548829,6.914473,-0.831470,-0.555570,0.000000
18.100316,-5.868464,-6.505307,0.000000,-0.659346,-0.751840
-7.386749,3.553567,18.636030,-0.896873,0.442288,0.000000
17.787344,-1.537809,5.217185,0.000000,0.321440,-0.946930
-27.265720,-1.645831,8.604544,0.000000,-0.195090,0.980785
-47.559265,-8.360071,-2.625356,0.000000,-0.946930,-0.321439
-4.650232,-1.454576,26.365062,0.946930,0.321439,0.000000
-18.167832,4.300336,3.338853,0.000000,-0.751840,-0.659346
39.455720,-3.478099,8.052394,0.000000,-0.442289,0.896873
18.079123,-3.153245,4.429233,0.000000,0.555570,-0.831470
-18.299610,4.547580,-2.976128,-0.000000,-0.831470,0.555570
-4.859183,-0.339791,23.620154,0.997859,0.065404,0.000000
-1.342792,-8.090161,27.477341,-0.195090,-0.980785,-0.000000
41.766734,-0.592859,-8.740235,0.000000,-0.065403,-0.997859
19.226843,4.804156,-2.545635,0.000000,-0.896873,0.442289
-24.327230,0.024539,-8.777484,0.000000,0.065403,-0.997859
0.247588,5.413552,-0.499380,0.000000,-0.997859,0.065403
-4.174570,7.068701,31.489635,-0.555570,0.831470,-0.000000
-5.299423,6.254689,13.882342,-0.659346,0.751840,0.000000
-44.802189,-6.432228,-5.951794,0.000000,-0.751840,-0.659346
7.056604,8.768827,0.156628,-0.000000,0.997859,0.065403
43.942115,-4.415557,3.173713,0.000000,0.831470,-0.555570
-46.292938,-7.722622,4.146810,0.000000,-0.896873,0.442289
4.815990,0.756322,15.425603,-0.980785,-0.195090,-0.000000
-39.704926,7.637547,-4.319324,0.000000,0.896873,-0.442289
-24.302975,-0.948692,-8.716912,0.000000,-0.065403,-0.997859
17.392199,4.181431,7.705549,0.000000,0.442290,0.896872
33.603605,3.573646,-4.094428,0.000000,-0.659346,0.751840
-33.795460,-4.612072,2.879608,-0.000000,0.831470,-0.555570
-9.533235,2.416662,8.430913,-0.000000,0.321440,0.946930
-43.306409,-6.342885,-6.053672,0.000000,-0.751840,-0.659346
-3.012214,5.275034,-7.011253,0.000000,0.555570,-0.831470
41.500237,5.225322,-1.513841,0.000000,-0.946930,0.321440
34.936070,8.773068,0.091913,-0.000000,0.997859,0.065403
-25.492480,8.266101,2.902183,0.000000,0.946930,0.321439
-35.148853,-8.677847,1.277310,0.000000,-0.980785,0.195090
-7.819930,1.180447,-5.306288,0.000000,-0.195090,0.980785
35.940559,-5.373306,-0.843521,0.000000,0.980785,0.195090
47.761467,7.153964,4.075449,1.000000,-0.000000,0.000000
9.429966,-8.581442,1.761977,0.000000,-0.980785,0.195090
-4.241940,-2.411372,7.744056,0.896873,0.442289,0.000000
2.579152,7.780548,4.929530,0.321439,0.946930,-0.000000
-19.199704,-8.743628,-0.541081,0.000000,-0.997859,-0.065403
2.515926,0.712264,-5.399415,0.000000,-0.195090,0.980785
7.340139,-2.509269,4.822090,0.000000,0.442288,-0.896873
47.761467,-6.703266,4.012230,1.000000,-0.000000,0.000000
-47.761467,-4.059651,4.132968,-1.000000,0.000000,0.000000
25.590075,8.295328,2.816084,-0.000000,0.946930,0.321439
0.594816,-4.842468,16.164309,-0.065404,0.997859,0.000000
-7.124504,-4.085346,26.321181,-0.896873,-0.442289,0.000000
1.348520,-4.686233,19.573993,-0.321439,0.946930,0.000000
-11.571252,8.679824,1.267373,0.000000,0.980785,0.195090
7.291854,-0.265176,33.694603,0.000000,-0.000000,1.000000
33.892038,-6.843804,-5.482483,0.000000,-0.751840,-0.659346
35.862120,-2.031720,5.049525,0.000000,0.321440,-0.946930
35.206160,2.544061,-8.387667,0.000000,0.321439,-0.946930
20.324102,-0.368992,-5.422098,0.000000,0.065403,0.997859
-19.361801,-8.026239,-3.531135,-0.000000,-0.896873,-0.442289
5.505646,-4.640586,-7.435178,0.000000,-0.555570,-0.831470
27.021755,7.557768,-4.457118,0.000000,0.831470,-0.555570
36.534413,7.004023,-5.285855,0.000000,0.831470,-0.555570
27.017247,5.351677,-0.952260,0.000000,-0.980785,0.195090
-30.646067,-8.770005,0.138655,-0.000000,-0.997859,0.065403
-46.950758,8.240852,-2.976564,0.000000,0.946930,-0.321439
8.169638,-0.680857,20.423537,0.997859,-0.065403,0.000000
-46.227881,4.658528,2.810082,-0.000000,-0.831470,-0.555570
-36.130578,-7.237506,4.936423,0.000000,-0.831470,0.555570
7.383010,-7.098211,5.144893,0.000000,-0.831470,0.555570
-2.586503,-7.778053,15.831993,-0.321439,-0.946930,0.000000
4.426128,2.037876,13.738707,-0.896872,-0.442289,-0.000000
17.866403,-4.971713,-2.205863,-0.000000,0.896873,0.442289
26.859241,-7.483881,-4.567697,0.000000,-0.831470,-0.555570
-9.140491,1.029879,5.336237,-0.000000,-0.195090,-0.980785
42.154884,-5.297091,1.226680,0.000000,0.980785,-0.195090
19.058622,5.331216,1.055124,0.000000,-0.980785,-0.195090
-18.058941,7.952734,3.680189,-0.000000,0.896873,0.442289
-19.380631,5.318410,-1.119505,0.000000,-0.980785,0.195090
47.761467,-6.334857,-0.951944,1.000000,0.000000,-0.000000
28.297839,6.473152,-5.905130,0.000000,0.751840,-0.659346
-7.695621,2.290517,-4.929966,0.000000,-0.442289,0.896873
-2.148629,4.371510,18.833844,0.442289,-0.896873,0.000000
-44.018320,8.073315,-3.435675,0.000000,0.896873,-0.442289
14.835268,4.063427,3.608996,-0.000000,-0.751840,-0.659346
3.936306,-2.876475,23.587261,-0.831470,0.555570,-0.000000
7.589095,-2.369377,-4.891077,0.000000,0.442289,0.896873
27.951355,-3.891135,-3.805457,0.000000,0.751840,0.659346
-40.834188,-5.430288,-0.244035,-0.000000,0.997859,0.065403
38.605013,-3.551605,-8.016145,0.000000,-0.442289,-0.896873
-18.937495,4.919089,2.312574,0.000000,-0.896873,-0.442289
0.757835,-8.164593,3.782975,0.065403,-0.997859,0.000000
11.463047,3.050012,8.215920,-0.000000,0.321440,0.946930
-24.675857,-5.428917,0.264961,0.000000,0.997859,-0.065403
-7.353260,-3.621476,30.554385,-0.896873,-0.442289,0.000000
5.263454,7.952705,3.680249,0.000000,0.896873,0.442289
-31.319814,3.742091,3.946705,0.000000,-0.659346,-0.751840
11.338687,-8.751583,0.419711,-0.000000,-0.997859,0.065403
-24.765817,-0.074820,-5.441379,0.000000,0.065403,0.997859
-13.828365,5.275665,1.334398,0.000000,-0.980785,-0.195090
29.775320,0.409139,-8.752276,0.000000,0.065403,-0.997859
-44.313451,-3.565795,-4.101313,-0.000000,0.659346,0.751840
-8.484122,8.579083,1.773836,0.000000,0.980785,0.195090
-0.522526,-4.847206,12.099687,0.065404,0.997859,-0.000000
-7.240429,3.850275,12.623203,-0.896873,0.442289,0.000000
14.557239,-3.653472,4.024422,0.000000,0.659346,-0.751840
-36.453343,1.322968,-5.277939,0.000000,-0.195090,0.980785
-10.369543,-4.221470,7.685804,0.000000,-0.442290,0.896872
34.315688,-1.405021,8.652444,0.000000,-0.195090,0.980785
-33.403965,-8.752980,-0.398397,0.000000,-0.997859,-0.065403
-37.932547,7.073363,-5.182080,0.000000,0.831470,-0.555570
-7.172298,2.155203,33.694603,-0.000000,-0.000000,1.000000
36.910538,8.778805,-0.004385,0.000000,0.997859,-0.065403
4.612709,-1.565114,22.471568,-0.946930,0.321439,0.000000
-29.187100,-8.247856,2.955932,0.000000,-0.946930,0.321439
-8.257355,-3.811945,7.887759,-0.000000,-0.442289,0.896873
5.172594,-2.029403,33.694603,0.000000,-0.000000,1.000000
21.670491,3.006693,-4.527157,0.000000,-0.555570,0.831470
21.888373,5.693755,-6.658523,0.000000,0.659346,-0.751840
-23.600989,3.664964,4.014344,0.000000,-0.659346,-0.751840
2.287359,4.303096,29.076727,-0.442289,-0.896873,-0.000000
8.460503,4.588639,-2.914678,-0.000000,-0.831470,0.555570
-16.550212,0.103478,5.439501,0.000000,-0.065403,-0.997859
25.772467,6.053097,6.343389,0.000000,0.659346,0.751840
-40.516931,-8.105888,3.369623,0.000000,-0.896873,0.442289
-26.257930,4.582890,-2.923282,-0.000000,-0.831470,0.555570
23.858494,4.238847,7.677234,0.000000,0.442290,0.896872
24.324767,8.761277,-0.271818,0.000000,0.997859,-0.065403
-15.778844,5.343295,0.994401,0.000000,-0.980785,-0.195090
6.296302,5.251972,17.577023,0.751840,0.659346,0.000000
16.135287,8.166683,-3.195061,0.000000,0.946930,-0.321439
-47.648692,4.327033,-7.633746,0.000000,0.442289,-0.896873
2.021365,-7.955184,30.369871,0.195090,-0.980785,0.000000
35.718763,8.379924,2.566871,-0.000000,0.946930,0.321439
-2.036392,-4.426860,32.837605,0.442289,0.896873,0.000000
7.943744,2.078882,16.870200,0.980785,0.195090,-0.000000
-9.133750,-8.229587,-3.009752,0.000000,-0.946930,-0.321439
36.900236,1.067613,5.328732,-0.000000,-0.195090,-0.980785
16.898131,-8.556982,1.884945,0.000000,-0.980785,0.195090
-30.874084,0.681351,8.734435,-0.000000,0.065403,0.997859
19.010419,-5.504512,6.824485,0.000000,-0.659346,0.751840
46.687496,5.257404,1.419330,0.000000,-0.946930,-0.321440
43.482680,2.435411,-8.424549,0.000000,0.321439,-0.946930
0.888981,8.155997,7.772559,0.065403,0.997859,-0.000000
22.945333,-5.715214,6.639704,0.000000,-0.659346,0.751840
42.610816,-5.170757,1.674582,0.000000,0.946930,-0.321440
-7.984131,-8.776701,0.036488,-0.000000,-0.997859,0.065403
-4.089645,2.646987,5.923103,0.831470,-0.555570,-0.000000
-31.562015,6.601843,5.758386,0.000000,0.751840,0.659346
-27.769958,0.539541,5.410920,0.000000,-0.065403,-0.997859
29.936672,3.372451,4.270871,-0.000000,-0.659346,-0.751840
-47.761467,-4.047306,4.285578,-1.000000,0.000000,-0.000000
-4.520993,3.128475,-8.189285,0.000000,0.321439,-0.946930
0.089496,8.208398,27.206362,0.065403,0.997859,-0.000000
-4.737888,-1.148966,32.278989,0.980785,0.195090,0.000000
6.031302,5.554147,11.029369,0.751840,0.659346,-0.000000
-1.555752,8.047800,32.061655,-0.195090,0.980785,0.000000
45.231538,0.840966,8.723973,-0.000000,0.065403,0.997859
-16.956738,-8.425812,2.431691,0.000000,-0.946930,0.321439
1.469732,-8.064911,8.818003,0.195090,-0.980785,-0.000000
-26.490016,5.798218,-6.566911,0.000000,0.659346,-0.751840
-47.761467,-7.246290,0.768068,-1.000000,0.000000,-0.000000
-3.615561,-7.356177,30.912274,-0.442289,-0.896873,0.000000
9.641892,2.421927,-4.865162,0.000000,-0.442289,0.896873
29.668861,8.686764,1.232481,0.000000,0.980785,0.195090
-36.487632,4.798703,-2.556692,0.000000,-0.896873,0.442289
-25.793382,-4.329684,-7.632438,0.000000,-0.442289,-0.896873
47.058816,-0.365654,8.755126,0.000000,-0.065403,0.997859
4.464429,1.960209,19.687261,-0.896873,-0.442288,0.000000
2.852040,7.687915,12.343060,0.321439,0.946930,0.000000
-47.761467,2.035660,-5.657850,-1.000000,0.000000,0.000000
46.087839,-4.295366,7.649362,0.000000,-0.442289,0.896873
-45.128752,2.496917,-8.403670,0.000000,0.321439,-0.946930
17.245685,8.231889,-3.002968,0.000000,0.946930,-0.321439
5.428155,2.093438,-5.027155,0.000000,-0.442289,0.896873
-5.491768,6.086007,26.726274,-0.659346,0.751840,0.000000
5.498390,-1.595872,-5.197476,0.000000,0.321440,0.946930
1.159873,8.126546,6.501304,0.195090,0.980785,-0.000000
-1.892573,7.021050,-5.260372,0.000000,0.831470,-0.555570
2.592092,-4.126324,9.333119,-0.555570,0.831470,0.000000
-21.198747,8.072555,-3.437215,0.000000,0.896873,-0.442289
42.606784,-5.278904,1.318115,0.000000,0.980785,-0.195090
-40.437728,-5.328255,1.070007,0.000000,0.980785,-0.195090
40.787036,6.576196,5.787630,-0.000000,0.751840,0.659346
-34.873299,-8.174834,-3.171047,0.000000,-0.946930,-0.321439
9.605161,4.887097,-2.377448,-0.000000,-0.896873,0.442289
23.364015,-6.492662,5.882883,0.000000,-0.751840,0.659346
30.701974,-4.084482,-3.584987,0.000000,0.751840,0.659346
-23.776822,4.876388,-2.399163,-0.000000,-0.896873,0.442289
22.395633,-7.754342,4.082488,0.000000,-0.896872,0.442289
27.629438,-6.569243,-5.795559,0.000000,-0.751840,-0.659346
-28.180693,-6.558045,5.808328,0.000000,-0.751840,0.659346
7.942096,2.087165,10.625158,0.980785,0.195090,-0.000000
-32.020242,-8.731035,0.733212,0.000000,-0.997859,0.065403
-27.934454,5.335243,-1.034876,0.000000,-0.980785,0.195090
47.543488,4.200901,-3.452236,0.000000,-0.751840,0.659346
42.558805,-4.314502,3.322699,0.000000,0.751840,-0.659346
5.407696,-4.853153,33.694603,0.000000,-0.000000,1.000000
44.770770,-3.471438,8.055679,0.000000,-0.442289,0.896873
-43.325120,6.024221,6.368712,-0.000000,0.659346,0.751840
-1.494624,-4.636637,10.986641,0.321439,0.946930,-0.000000
-28.864507,8.768702,0.158531,-0.000000,0.997859,0.065403
-39.972218,-6.673256,-5.676955,0.000000,-0.751840,-0.659346
8.157364,-0.868123,12.584652,0.997859,-0.065403,0.000000
7.279066,-3.771927,16.820788,0.896873,-0.442289,0.000000
-14.988653,8.072132,3.438073,0.000000,0.896873,0.442289
-17.938811,4.772194,2.610449,0.000000,-0.896873,-0.442289
-18.181289,-2.257628,4.946185,0.000000,0.442289,-0.896873
-29.544471,0.342143,-5.423858,0.000000,-0.065403,0.997859
9.072488,-6.523255,-5.847998,0.000000,-0.751840,-0.659346
9.425267,-0.425879,-8.751179,0.000000,-0.065403,-0.997859
-9.326423,-5.381273,0.803470,0.000000,0.980785,-0.195090
35.528319,1.923802,5.086158,0.000000,-0.321440,-0.946930
16.344364,6.879187,-5.442136,0.000000,0.751840,-0.659346
11.334053,4.385868,-3.218146,0.000000,-0.831470,0.555570
-44.449598,4.231268,3.417610,0.000000,-0.751840,-0.659346
-10.214537,-8.704815,-1.133261,0.000000,-0.997859,-0.065403
18.667356,6.987848,5.310062,-0.000000,0.831470,0.555570
18.480936,-3.017314,-4.520060,0.000000,0.555570,0.831470
46.972505,-5.293424,1.245116,0.000000,0.980785,-0.195090
-3.659626,8.311877,-2.767331,0.000000,0.946930,-0.321439
-22.353490,-8.547375,1.933239,0.000000,-0.980785,0.195090
-6.550810,-4.949649,30.574194,-0.831470,-0.555570,0.000000
42.440955,-1.373345,-8.658745,0.000000,-0.195090,-0.980785
-2.654147,-7.755090,28.996764,-0.321439,-0.946930,0.000000
-5.927242,5.672804,9.374616,-0.751840,0.659346,0.000000
5.284875,-6.267447,15.844966,0.659346,-0.751840,0.000000
-14.066733,8.733501,-0.695590,0.000000,0.997859,-0.065403
6.928075,-3.103814,-8.197657,0.000000,-0.321439,-0.946930
45.138341,4.420748,-3.165944,0.000000,-0.831470,0.555570
4.573511,4.857480,2.437504,-0.000000,-0.896873,-0.442289
47.761467,-5.537976,-0.831465,1.000000,0.000000,-0.000000
47.561219,3.902153,3.792893,-0.000000,-0.751840,-0.659346
-37.657002,-4.457437,7.557554,0.000000,-0.555570,0.831470
37.489974,-8.708407,1.078460,0.000000,-0.997859,0.065403
-11.985449,8.430954,2.416543,0.000000,0.946930,0.321439
-13.067099,4.184420,3.471030,0.000000,-0.751840,-0.659346
32.670846,4.922100,-2.306468,0.000000,-0.896873,0.442289
23.580162,5.398097,-0.718889,0.000000,-0.980785,0.195090
18.098568,-5.122040,-1.818097,0.000000,0.946930,0.321440
-3.113040,-4.427724,3.155504,-0.000000,0.831470,-0.555570
-4.126664,-7.100710,27.438053,-0.555570,-0.831470,0.000000
-20.558022,3.638160,7.973460,-0.000000,0.442289,0.896873
-14.056309,2.345629,8.455026,-0.000000,0.321440,0.946930
18.511679,4.419587,-3.167682,0.000000,-0.831470,0.555570
4.734857,-1.164202,11.801295,-0.980785,0.195090,0.000000
43.386359,-4.077512,7.756796,0.000000,-0.442289,0.896873
42.324172,5.052018,2.024375,0.000000,-0.946930,-0.321440
30.274273,-5.777503,6.585078,0.000000,-0.659346,0.751840
28.149909,-8.709152,-1.067088,0.000000,-0.997859,-0.065403
-7.717900,-2.763708,31.880126,-0.946930,-0.321439,-0.000000
44.107580,6.450441,-5.931027,0.000000,0.751840,-0.659346
-24.408217,-5.432358,-0.212454,-0.000000,0.997859,0.065403
27.033068,4.920105,2.310513,0.000000,-0.896873,-0.442289
43.529774,-5.436661,-0.146808,0.000000,0.997859,0.065403
5.075515,-3.065288,-8.210734,0.000000,-0.321439,-0.946930
7.802207,3.386838,8.097399,0.000000,0.442289,0.896873
47.761467,1.925963,5.358732,1.000000,-0.000000,0.000000
-3.249883,-3.063550,-4.489166,-0.000000,0.555570,0.831470
41.741980,2.657468,4.749006,0.000000,-0.442289,-0.896872
-21.449431,7.949492,-3.686763,0.000000,0.896873,-0.442289
-47.761467,1.065731,-6.134013,-1.000000,0.000000,-0.000000
-33.818127,0.513446,-5.412630,0.000000,-0.065403,0.997859
-3.360111,-4.203037,3.449800,0.000000,0.751840,-0.659346
-15.023215,-5.240963,-7.034019,0.000000,-0.555570,-0.831470
-42.633346,-3.558586,8.012702,0.000000,-0.442289,0.896873
-41.031531,0.380924,-8.754126,0.000000,0.065403,-0.997859
41.940881,5.416234,-0.458468,-0.000000,-0.997859,0.065403
21.114361,4.330373,-3.301201,0.000000,-0.831470,0.555570
26.215291,7.067210,-5.191289,0.000000,0.831470,-0.555570
0.843222,4.798704,28.429388,-0.195090,-0.980785,-0.000000
14.925213,1.833969,5.116652,0.000000,-0.321440,-0.946930
-27.764585,-5.837027,6.532876,-0.000000,-0.659346,0.751840
-2.253693,-7.891026,15.967797,-0.321439,-0.946930,0.000000
12.559902,-4.891122,2.369285,-0.000000,0.896873,-0.442289
-27.011469,1.136486,8.704603,0.000000,0.065404,0.997859
4.190987,-2.495317,8.169161,-0.831470,0.555570,0.000000
7.750946,2.666355,18.649703,0.946930,0.321439,-0.000000
11.126918,-1.195016,5.303390,0.000000,0.195090,-0.980785
44.068276,-6.541288,-5.827435,0.000000,-0.751840,-0.659346
0.544865,8.487438,-2.234568,0.000000,0.980785,-0.195090
-32.272972,-8.569477,1.822126,0.000000,-0.980785,0.195090
8.248434,-4.885771,7.271350,0.000000,-0.555570,0.831470
-5.436192,6.134746,32.656104,-0.659346,0.751840,0.000000
-21.702357,0.858775,5.370272,0.000000,-0.195090,-0.980785
-0.206902,4.309197,-7.642541,0.000000,0.442289,-0.896873
-42.637888,5.406260,0.610633,0.000000,-0.997859,-0.065403
42.211064,3.097666,8.199744,-0.000000,0.321439,0.946930
-20.270472,0.219990,5.431864,0.000000,-0.065403,-0.997859
4.488211,1.911983,6.132038,-0.896873,-0.442288,0.000000
-3.626591,3.252295,28.939398,0.751840,-0.659346,0.000000
44.791454,-8.160062,-3.214566,0.000000,-0.946930,-0.321439
-47.761467,5.951057,-5.702082,-1.000000,0.000000,-0.000000
-22.223803,-2.666112,4.744744,0.000000,0.442288,-0.896873
21.746596,1.879009,8.558162,-0.000000,0.195090,0.980785
33.716273,-0.949068,-8.716887,0.000000,-0.065403,-0.997859
4.864567,-0.257653,27.040557,-0.997859,0.065404,0.000000
22.098242,-2.474721,-4.839127,0.000000,0.442289,0.896873
3.944285,-1.142901,-5.313756,-0.000000,0.195090,0.980785
4.654370,-1.442384,14.454411,-0.946930,0.321439,0.000000
37.386444,6.754681,-5.584108,0.000000,0.751840,-0.659346
-7.192089,0.261707,33.694603,0.000000,-0.000000,1.000000
-9.100932,-1.153005,-5.311746,-0.000000,0.195090,0.980785
-41.388443,-1.799499,-8.573978,0.000000,-0.195090,-0.980785
19.799466,-0.274312,5.428304,-0.000000,0.065403,-0.997859
6.276422,2.240731,33.694603,0.000000,0.000000,1.000000
31.373704,-8.173342,3.175444,0.000000,-0.946930,0.321439
3.917439,-4.108306,33.694603,0.000000,0.000000,1.000000
-3.097571,-5.436367,33.694603,0.000000,-0.000000,1.000000
36.340865,8.028206,3.527148,0.000000,0.896872,0.442289
8.208057,8.719001,0.916824,-0.000000,0.997859,0.065403
0.488602,5.849101,33.694603,-0.000000,0.000000,1.000000
20.711352,5.428935,0.264688,0.000000,-0.997859,-0.065403
-42.823941,7.003751,-5.286262,0.000000,0.831470,-0.555570
-10.437631,-6.116311,-6.287951,0.000000,-0.659346,-0.751840
7.052732,-2.998561,-4.532590,0.000000,0.555570,0.831470
-47.761467,7.134217,0.859415,-1.000000,0.000000,0.000000
32.348195,-5.040199,-2.059194,0.000000,0.946930,0.321440
-35.337840,-8.658000,1.377088,0.000000,-0.980785,0.195090
42.494962,-0.235734,-5.430833,0.000000,0.065403,0.997859
-8.147447,1.019432,17.721378,-0.997859,0.065403,0.000000
35.908733,-5.413103,0.506238,0.000000,0.997859,-0.065403
13.400429,5.440973,0.081023,0.000000,-0.997859,-0.065403
-17.361965,4.777708,-2.599267,0.000000,-0.896873,0.442289
-7.924472,-2.155165,10.432709,-0.946930,-0.321440,-0.000000
4.579906,-1.661748,10.432816,-0.946930,0.321439,0.000000
-3.680187,7.324307,11.806077,-0.442289,0.896873,0.000000
17.089197,-8.529180,2.024715,0.000000,-0.980785,0.195090
38.906522,5.240893,-7.034066,0.000000,0.555570,-0.831470
-13.920120,4.498455,-3.049649,-0.000000,-0.831470,0.555570
8.176698,0.573151,25.378854,0.997859,0.065403,0.000000
17.004127,-0.625712,8.738081,0.000000,-0.065403,0.997859
35.634700,-8.401635,2.502914,0.000000,-0.946930,0.321439
-47.761467,0.757595,-8.042673,-1.000000,0.000000,0.000000
11.013539,2.103048,-5.022416,0.000000,-0.442289,0.896873
-4.487969,8.506722,2.137617,-0.000000,0.980785,0.195090
-2.002859,7.958865,10.176770,-0.195090,0.980785,0.000000
-29.250609,-3.900184,7.844244,0.000000,-0.442289,0.896873
-46.472259,-4.572582,2.938709,0.000000,0.831470,-0.555570
-2.789266,3.994577,20.557969,0.555570,-0.831470,0.000000
-14.212426,-4.012942,-7.788638,0.000000,-0.442289,-0.896873
-12.202518,4.751223,-2.652973,0.000000,-0.896873,0.442289
17.958760,1.118182,5.318673,0.000000,-0.195090,-0.980785
-12.463380,-2.803091,-4.663199,0.000000,0.555570,0.831470
-2.383968,7.846804,33.123595,-0.321439,0.946930,0.000000
-10.787798,4.487530,7.537447,-0.000000,0.555570,0.831470
3.715497,6.298965,33.694603,0.000000,0.000000,1.000000
3.595323,3.287949,17.593843,-0.751840,-0.659346,0.000000
-23.167578,-3.330262,-8.120788,0.000000,-0.321439,-0.946930
-47.761467,6.039058,6.198297,-1.000000,0.000000,0.000000
-47.761467,-6.086605,-1.545511,-1.000000,0.000000,0.000000
6.980109,5.791116,6.573140,0.000000,0.659346,0.751840
37.631811,6.976241,-5.327434,0.000000,0.831470,-0.555570
-39.782214,-6.057095,-6.339882,0.000000,-0.659346,-0.751840
-8.170767,0.663629,24.645686,-0.997859,0.065403,0.000000
-40.639863,7.577550,4.427512,0.000000,0.831470,0.555570
-4.076490,-2.666675,19.011143,0.831469,0.555570,-0.000000
-2.090978,7.941337,14.851011,-0.195090,0.980785,0.000000
-2.661495,-4.079951,13.368538,0.555570,0.831470,-0.000000
42.896326,-3.862176,7.862988,0.000000,-0.442289,0.896873
-11.198645,-3.886149,-7.851166,0.000000,-0.442289,-0.896873
-1.261568,-4.715490,6.787798,0.195091,0.980785,-0.000000
-20.672699,-8.580986,1.764269,0.000000,-0.980785,0.195090
39.379149,-1.134545,5.315418,0.000000,0.195090,-0.980785
41.408445,-5.320477,-1.109113,0.000000,0.980785,0.195090
2.190509,2.531126,-8.392058,0.000000,0.321439,-0.946930
1.908242,7.883197,-3.821197,0.000000,0.896873,-0.442289
42.679902,8.307999,2.778757,-0.000000,0.946930,0.321439
-44.294108,2.747751,-4.700176,0.000000,-0.555570,0.831470
42.371716,2.260082,8.482362,0.000000,0.195089,0.980786
6.321457,-7.442929,4.628985,0.000000,-0.831470,0.555570
16.042349,-3.307945,-4.325866,-0.000000,0.555570,0.831470
-20.559573,-1.749426,-8.583938,0.000000,-0.195090,-0.980785
-17.056398,-1.130169,-8.705017,0.000000,-0.065403,-0.997859
7.863820,2.333840,23.644683,0.946930,0.321439,-0.000000
4.653235,-6.748867,31.814340,0.555570,-0.831470,0.000000
22.992800,-5.289916,1.262751,0.000000,0.980785,-0.195090
7.292600,5.143838,7.098916,0.000000,0.555570,0.831470
-37.444884,-5.314384,-1.139746,-0.000000,0.980785,0.195090
-28.589470,1.056176,-5.331007,0.000000,-0.195090,0.980785
-1.402815,-4.667802,21.798349,0.321439,0.946930,0.000000
7.888765,-2.260353,29.355690,0.946930,-0.321439,0.000000
39.230359,2.425816,4.863244,-0.000000,-0.442289,-0.896873
-26.234511,-2.818152,4.653136,0.000000,0.555570,-0.831470
-30.930538,5.107381,7.123275,0.000000,0.555570,0.831470
31.340676,5.048510,-2.034709,0.000000,-0.946930,0.321440
-15.676222,3.860738,-3.840118,0.000000,-0.751840,0.659346
8.997195,-3.662107,7.961651,0.000000,-0.442289,0.896873
-37.265238,-0.926874,5.356726,0.000000,0.195090,-0.980785
-11.489349,-1.351245,8.663141,0.000000,-0.195090,0.980785
2.525762,-7.798671,8.945059,0.321439,-0.946930,0.000000
-19.042650,-6.393662,-5.995771,0.000000,-0.751840,-0.659346
11.678977,8.728588,0.770552,-0.000000,0.997859,0.065403
-11.640223,-1.657870,8.602150,0.000000,-0.195090,0.980785
25.299753,4.661300,-7.421337,0.000000,0.555570,-0.831470
46.387511,1.792965,-8.575278,0.000000,0.195090,-0.980785
24.930463,-5.087068,1.921121,0.000000,0.946930,-0.321440
-18.923159,4.444219,-3.130818,0.000000,-0.831470,0.555570
-26.761798,4.698808,2.749798,0.000000,-0.831470,-0.555570
-29.107793,4.083179,7.754001,-0.000000,0.442289,0.896873
26.656149,1.688439,8.596069,-0.000000,0.195090,0.980785
-37.855966,-8.160818,3.212337,0.000000,-0.946930,0.321439
13.154632,1.663944,8.600941,-0.000000,0.195090,0.980785
-11.088611,2.492017,-8.405334,0.000000,0.321439,-0.946930
35.060027,2.819630,-8.294124,0.000000,0.321439,-0.946930
28.213105,4.708490,2.735309,-0.000000,-0.831470,-0.555570
-28.988429,-7.514266,-4.522222,0.000000,-0.831470,-0.555570
-13.731111,0.818961,-8.725415,0.000000,0.065403,-0.997859
-23.426714,-7.868575,3.850846,-0.000000,-0.896872,0.442289
7.377710,2.269201,-8.480549,0.000000,0.195090,-0.980785
-44.444549,5.062503,1.993488,0.000000,-0.946930,-0.321440
41.157950,-3.934816,-7.827166,0.000000,-0.442289,-0.896873
-2.532193,-4.166348,25.916723,0.555570,0.831470,0.000000
-10.000441,-4.390285,3.211536,-0.000000,0.831470,-0.555570
7.657601,-3.147225,4.433256,0.000000,0.555570,-0.831470
-7.975458,-1.919441,27.688693,-0.980785,-0.195090,0.000000
15.128048,1.778455,8.578164,-0.000000,0.195090,0.980785
4.294838,2.304104,13.978409,-0.896873,-0.442289,-0.000000
-17.178195,-2.384653,4.883544,-0.000000,0.442289,-0.896872
-15.387712,2.696833,8.335808,-0.000000,0.321440,0.946930
-25.204197,-0.077740,-8.773997,0.000000,-0.065403,-0.997859
17.603494,4.065008,-3.607192,-0.000000,-0.751840,0.659346
22.570610,-7.083843,5.166396,0.000000,-0.831470,0.555570
5.902080,3.572926,33.694603,0.000000,0.000000,1.000000
-26.226827,5.411859,0.525212,0.000000,-0.997859,-0.065403
-35.986266,-0.549038,8.743107,0.000000,-0.065403,0.997859
16.246326,7.232187,4.944384,0.000000,0.831470,0.555570
-3.229783,-3.646333,24.397167,0.659346,0.751840,-0.000000
-4.772932,0.972786,11.271386,0.980785,-0.195090,0.000000
25.586856,5.416967,0.447284,0.000000,-0.997859,-0.065403
-44.497243,-8.778541,0.008411,-0.000000,-0.997859,0.065403
35.465403,-6.560696,-5.805305,0.000000,-0.751840,-0.659346
-36.519061,3.238617,8.151897,0.000000,0.321439,0.946930
-10.183894,-5.899911,6.477729,0.000000,-0.659346,0.751840
37.673371,-8.452724,2.352410,0.000000,-0.946930,0.321439
-17.420272,5.368697,-6.943591,0.000000,0.659346,-0.751840
18.192685,-8.197325,3.104791,0.000000,-0.946930,0.321439
-9.899207,1.995943,8.534903,-0.000000,0.195090,0.980785
42.605861,-0.129219,-8.770623,0.000000,-0.065403,-0.997859
32.268997,6.739171,5.601793,0.000000,0.751840,0.659346
-2.892638,-3.925506,17.588526,0.555570,0.831470,-0.000000
4.392363,1.355993,-5.271369,0.000000,-0.195090,0.980785
-4.699487,-5.235478,1.483920,0.000000,0.946930,-0.321440
-16.551467,5.394545,0.736747,0.000000,-0.980785,-0.195090
-45.804278,2.854942,-4.628553,0.000000,-0.555570,0.831470
-32.873701,-2.869831,-4.618605,-0.000000,0.555570,0.831470
-34.418226,-4.903117,-7.259760,0.000000,-0.555570,-0.831470
-35.397352,-4.633628,-2.847348,-0.000000,0.831470,0.555570
2.156127,-4.367812,4.655993,-0.442289,0.896873,0.000000
-30.321938,5.429468,6.890296,-0.000000,0.659346,0.751840
-4.354484,8.688977,-1.221356,0.000000,0.980785,-0.195090
4.485123,1.918245,17.535460,-0.896873,-0.442288,0.000000
-29.405585,-2.629768,4.762666,0.000000,0.442288,-0.896873
0.216487,8.200075,9.176943,0.065403,0.997859,-0.000000
-25.632002,5.861175,6.511700,-0.000000,0.659346,0.751840
16.602786,5.346522,0.978174,0.000000,-0.980785,-0.195090
3.008427,-7.634829,8.741184,0.321439,-0.946930,0.000000
-16.754736,-2.688814,-8.338530,0.000000,-0.321439,-0.946930
-7.576699,-4.976359,2.196442,0.000000,0.896873,-0.442289
33.061782,-4.790278,7.335157,-0.000000,-0.555570,0.831470
-39.943664,-5.390929,-0.754925,-0.000000,0.980785,0.195090
8.987621,3.068226,8.209737,-0.000000,0.321440,0.946930
6.614109,8.414550,-2.464866,0.000000,0.946930,-0.321439
0.067629,8.776403,-0.041040,0.000000,0.997859,-0.065403
-10.535453,-0.086447,-5.440617,0.000000,0.065403,0.997859
47.761467,8.073768,3.247016,1.000000,0.000000,-0.000000
-31.302599,-8.226513,-3.018805,0.000000,-0.946930,-0.321439
-41.101930,-0.764184,5.389087,0.000000,0.195090,-0.980785
-32.823325,-0.010088,8.778432,0.000000,-0.065403,0.997859
41.812349,-2.102114,5.022877,0.000000,0.442289,-0.896873
0.729599,8.166443,11.293838,0.065403,0.997859,-0.000000
-37.722781,-5.092964,1.903752,0.000000,0.946930,-0.321440
-11.274452,8.203690,3.086041,-0.000000,0.946930,0.321439
-11.893164,0.141564,5.437005,0.000000,-0.065403,-0.997859
-8.013561,1.727885,32.394087,-0.980785,0.195090,0.000000
-43.090006,7.401468,-4.691037,0.000000,0.831470,-0.555570
-1.822675,4.849586,-7.295529,0.000000,0.555570,-0.831470
32.628920,8.416552,-2.458971,0.000000,0.946930,-0.321439
10.592763,3.323980,-4.313379,0.000000,-0.659346,0.751840
-16.858047,-6.188738,6.224435,0.000000,-0.659346,0.751840
20.952936,-8.714854,-0.980098,0.000000,-0.997859,-0.065403
-28.474516,-8.598838,-1.674517,-0.000000,-0.980785,-0.195090
-14.626125,-5.445568,-0.010915,-0.000000,0.997859,0.065403
2.691991,-7.952101,3.681472,0.000000,-0.896873,0.442289
-22.010345,-2.664702,4.745439,0.000000,0.442288,-0.896873
-47.761467,1.365569,8.120857,-1.000000,0.000000,0.000000
-25.829166,4.963637,7.219322,0.000000,0.555570,0.831470
7.943113,2.082051,33.460558,0.980785,0.195090,0.000000
-2.591923,6.505480,33.694603,-0.000000,0.000000,1.000000
-16.270685,0.109135,5.439130,0.000000,-0.065403,-0.997859
36.572595,-1.267965,-8.679706,0.000000,-0.195090,-0.980785
-7.585890,3.149750,29.347638,-0.896873,0.442289,0.000000
5.731879,-5.875435,20.180778,0.659346,-0.751840,0.000000
-23.668937,4.580786,2.926430,-0.000000,-0.831470,-0.555570
1.261746,-3.885151,-7.851658,0.000000,-0.442289,-0.896873
-15.425607,1.237994,-8.685668,0.000000,0.195090,-0.980785
7.065659,7.764963,-4.060950,0.000000,0.896873,-0.442289
-4.863630,-0.271954,22.376959,0.997859,0.065404,0.000000
17.552544,-8.729701,-0.753576,0.000000,-0.997859,-0.065403
13.412054,5.150722,7.094316,0.000000,0.555570,0.831470
-20.652010,-1.718822,-8.590026,0.000000,-0.195090,-0.980785
0.922426,8.153805,16.681933,0.065403,0.997859,0.000000
-3.279491,7.521908,10.426230,-0.442289,0.896873,0.000000
-6.291475,-5.257476,28.011828,-0.751840,-0.659346,0.000000
33.830013,4.026890,3.650658,-0.000000,-0.751840,-0.659346
-41.057870,-5.170755,-7.080931,0.000000,-0.555570,-0.831470
3.684266,3.186529,9.376261,-0.751840,-0.659346,0.000000
-30.744737,8.738484,-0.619567,0.000000,0.997859,-0.065403
0.626851,-8.455287,2.344860,0.000000,-0.946930,0.321439
-0.232637,6.447521,-5.934356,0.000000,0.751840,-0.659346
-3.425086,7.450109,33.591307,-0.442289,0.896873,0.000000
46.668204,-5.350052,-0.960427,0.000000,0.980785,0.195090
25.400034,5.186855,-1.627160,0.000000,-0.946930,0.321440
30.271451,0.026997,8.777323,-0.000000,0.065403,0.997859
7.668314,-3.993712,-3.688490,0.000000,0.751840,0.659346
-29.937537,-3.545717,-4.118920,-0.000000,0.659346,0.751840
0.008038,-6.669059,-5.681741,0.000000,-0.751840,-0.659346
7.065393,-5.094825,-7.131665,0.000000,-0.555570,-0.831470
0.928553,-1.997812,-8.534531,0.000000,-0.195090,-0.980785
0.523670,-5.299901,-1.212556,0.000000,0.980785,0.195090
-4.856465,0.381266,22.930060,0.997859,-0.065404,0.000000
-13.547909,-0.499892,5.413519,0.000000,0.065403,-0.997859
-22.900084,-3.854172,7.866935,-0.000000,-0.442289,0.896873
-47.761467,-4.389019,-4.464751,-1.000000,0.000000,0.000000
9.186025,-4.925159,-2.300265,-0.000000,0.896873,0.442289
-18.908715,-0.710666,-5.399704,-0.000000,0.065403,0.997859
-0.552012,4.845273,31.923257,0.065404,-0.997859,0.000000
-41.746654,3.910566,-7.839125,0.000000,0.442289,-0.896873
-24.936375,4.465953,-3.098291,0.000000,-0.831470,0.555570
45.089738,-3.657204,7.964069,0.000000,-0.442289,0.896873
-35.507311,-5.996038,-6.393427,0.000000,-0.659346,-0.751840
32.711202,-6.981562,-5.319470,0.000000,-0.831470,-0.555570
26.287762,-6.883399,5.437333,0.000000,-0.751840,0.659346
-14.773377,4.517062,3.021801,-0.000000,-0.831470,-0.555570
-44.956304,0.291482,-8.759988,0.000000,0.065403,-0.997859
-47.603617,-7.020948,-5.260525,0.000000,-0.831470,-0.555570
33.252693,4.874436,2.403121,-0.000000,-0.896873,-0.442289
-38.997517,-3.659158,4.019435,0.000000,0.659346,-0.751840
-22.066648,-8.666066,-1.336542,-0.000000,-0.980785,-0.195090
-5.485255,5.057515,2.008181,0.000000,-0.946930,-0.321440
-4.250031,4.086439,-3.582756,0.000000,-0.751840,0.659346
28.919403,-5.373189,0.844112,0.000000,0.980785,-0.195090
-2.339596,3.117609,-4.453045,0.000000,-0.555570,0.831470
26.022204,8.039856,3.503524,0.000000,0.896873,0.442289
-32.936998,3.992534,-3.689834,0.000000,-0.751840,0.659346
-3.337225,3.552109,12.073025,0.659346,-0.751840,0.000000
16.404532,5.408658,0.574056,0.000000,-0.997859,-0.065403
-30.031482,-4.615269,-7.452094,0.000000,-0.555570,-0.831470
-30.152963,-4.426886,7.577968,0.000000,-0.555570,0.831470
-46.526496,2.859712,8.280518,0.000000,0.321439,0.946930
2.517795,7.801376,16.028886,0.321439,0.946930,-0.000000
-22.134067,-7.764336,-4.062221,-0.000000,-0.896873,-0.442289
19.739391,1.291358,8.675053,-0.000000,0.195090,0.980785
0.701669,-8.168274,11.992975,0.065403,-0.997859,0.000000
-9.038375,-2.452489,-4.850091,-0.000000,0.442289,0.896873
3.960122,1.674203,-8.598901,0.000000,0.195090,-0.980785
-47.761467,3.302096,5.280301,-1.000000,0.000000,0.000000
6.422613,-5.107942,10.676874,0.751840,-0.659346,0.000000
6.547123,4.955166,8.750574,0.831470,0.555570,-0.000000
-2.255599,7.890379,18.824400,-0.321439,0.946930,0.000000
41.018753,-0.403748,5.419820,0.000000,0.065403,-0.997859
5.400931,-6.165669,22.440508,0.659346,-0.751840,0.000000
7.829286,-2.435574,15.828997,0.946930,-0.321440,-0.000000
-9.870750,3.965923,7.811826,-0.000000,0.442289,0.896873
14.756688,-0.858933,-8.722795,0.000000,-0.065403,-0.997859
-44.395399,-8.774617,0.068287,0.000000,-0.997859,0.065403
46.108021,-0.723779,8.731654,0.000000,-0.065403,0.997859
33.680176,-3.542262,-4.121950,0.000000,0.659346,0.751840
-35.859864,-3.249926,4.364633,0.000000,0.555570,-0.831470
-11.099840,7.435191,4.640567,-0.000000,0.831470,0.555570
1.126740,8.133136,21.675309,0.195090,0.980785,-0.000000
-29.015290,-8.116264,-3.343590,0.000000,-0.946930,-0.321439
-33.706792,7.491903,-4.555691,0.000000,0.831470,-0.555570
45.572480,-2.541337,8.388592,-0.000000,-0.321439,0.946930
-4.311630,6.977120,30.983647,-0.555570,0.831470,0.000000
-20.298060,-4.085456,-3.583877,-0.000000,0.751840,0.659346
-35.213470,4.473329,3.087251,-0.000000,-0.831470,-0.555570
-26.537174,4.153456,7.719344,-0.000000,0.442289,0.896873
-1.720330,-8.531155,2.014786,0.000000,-0.980785,0.195090
1.133279,-4.741008,9.132520,-0.195091,0.980785,-0.000000
8.207698,0.100180,29.203254,0.997859,0.065403,0.000000
-22.243945,0.630188,-5.404979,0.000000,-0.065403,0.997859
23.132208,5.403769,-0.648640,0.000000,-0.997859,0.065403
-42.591443,-2.017162,-8.530682,0.000000,-0.195090,-0.980785
-41.044536,-5.298847,1.217851,0.000000,0.980785,-0.195090
26.229419,-4.467355,-3.096192,0.000000,0.831470,0.555570
-38.907019,-6.002558,-6.387709,0.000000,-0.659346,-0.751840
-3.522841,4.392283,-3.208546,-0.000000,-0.831470,0.555570
-2.160088,-4.365859,29.053110,0.442289,0.896873,0.000000
-34.468079,5.684575,6.666574,-0.000000,0.659346,0.751840
35.051157,4.628771,-2.854616,0.000000,-0.831470,0.555570
-43.599712,5.353936,0.940902,0.000000,-0.980785,-0.195090
11.377793,3.195749,-4.400834,0.000000,-0.555570,0.831470
-10.739343,8.734860,0.674865,-0.000000,0.997859,0.065403
-45.252895,5.404020,0.644817,0.000000,-0.997859,-0.065403
-20.388518,2.401455,-4.875258,0.000000,-0.442289,0.896873
35.308731,-8.748528,-0.466334,0.000000,-0.997859,-0.065403
-20.902487,-1.366804,-5.269219,-0.000000,0.195090,0.980785
0.332769,-2.702604,-8.333849,0.000000,-0.321439,-0.946930
-18.712565,4.522489,7.514088,-0.000000,0.555570,0.831470
7.481988,-5.160801,-1.703912,0.000000,0.946930,0.321440
-17.555272,1.088134,-5.324650,0.000000,-0.195090,0.980785
28.663795,-4.972469,-2.204330,-0.000000,0.896873,0.442289
0.741845,8.165641,11.104625,0.065403,0.997859,-0.000000
47.179103,1.391597,8.655114,-0.000000,0.195090,0.980785
-14.474371,4.531651,7.507966,-0.000000,0.555570,0.831470
-46.953571,5.051202,2.026779,0.000000,-0.946930,-0.321440
-47.761467,1.520096,5.980696,-1.000000,0.000000,-0.000000
-39.308229,8.657589,-1.379156,0.000000,0.980785,-0.195090
25.030543,-2.734557,8.323002,0.000000,-0.321440,0.946930
32.936753,4.524157,-7.512973,0.000000,0.555570,-0.831470
-47.761467,-3.131905,7.046823,-1.000000,0.000000,0.000000
6.025926,5.560276,28.740693,0.751840,0.659346,0.000000
7.718491,2.761966,12.845962,0.946930,0.321439,-0.000000
33.149364,-2.787994,-4.673287,0.000000,0.555570,0.831470
-47.532851,-8.636734,1.484004,0.000000,-0.980785,0.195090
-34.245451,-0.619147,5.405702,0.000000,0.065403,-0.997859
-35.922163,1.135549,8.704665,0.000000,0.065404,0.997859
3.066627,-7.615073,30.568273,0.321439,-0.946930,0.000000
-42.006805,-6.913563,5.402938,0.000000,-0.751840,0.659346
5.003230,-6.514443,31.868658,0.659346,-0.751840,0.000000
16.523808,3.413728,-8.084138,0.000000,0.442289,-0.896873
-4.640397,1.483549,23.520499,0.946930,-0.321439,0.000000
-47.761467,6.129779,-0.302204,-1.000000,0.000000,0.000000
-2.885576,3.930225,25.117273,0.555570,-0.831470,0.000000
47.761467,8.224871,2.685498,1.000000,0.000000,-0.000000
-32.389899,8.609882,-1.618997,0.000000,0.980785,-0.195090
-17.706415,7.174898,-5.030123,0.000000,0.831470,-0.555570
8.212001,0.034522,12.326828,0.997859,0.065403,0.000000
1.147520,8.129003,30.137718,0.195090,0.980785,-0.000000
36.891375,-3.057090,8.213517,-0.000000,-0.321439,0.946930
-8.277433,-6.724076,5.619006,0.000000,-0.751840,0.659346
5.898596,-5.705469,27.056480,0.751840,-0.659346,0.000000
-0.760554,8.164414,3.294671,-0.065403,0.997859,0.000000
-38.653378,3.623587,-7.980647,0.000000,0.442289,-0.896873
-4.839844,-0.634855,14.904415,0.997859,0.065404,0.000000
-13.017870,-5.445378,0.013807,0.000000,0.997859,-0.065403
-11.758255,-2.206960,4.971172,-0.000000,0.442289,-0.896872
-11.906827,5.420962,0.386322,0.000000,-0.997859,-0.065403
-27.439698,-5.286334,1.280760,0.000000,0.980785,-0.195090
47.563858,-1.851944,-5.110551,0.000000,0.321440,0.946930
1.583570,-1.103361,-5.321621,-0.000000,0.195090,0.980785
27.172535,4.919258,-2.312232,0.000000,-0.896873,0.442289
15.610037,4.164494,-3.493751,0.000000,-0.751840,0.659346
-28.697151,-0.416119,8.751819,0.000000,-0.065403,0.997859
-32.716999,-5.366791,0.876276,0.000000,0.980785,-0.195090
33.445898,-4.765875,2.623262,0.000000,0.896873,-0.442289
33.299141,-6.110673,-6.292895,0.000000,-0.659346,-0.751840
-5.153634,-6.382543,30.105892,-0.659346,-0.751840,0.000000
-19.249379,0.846877,5.372639,0.000000,-0.195090,-0.980785
-4.503349,1.881287,33.429860,0.896873,-0.442289,0.000000
-4.594295,8.681557,-1.258661,0.000000,0.980785,-0.195090
-26.948898,0.716959,5.398481,0.000000,-0.195090,-0.980785
47.761467,-6.744191,3.810026,1.000000,-0.000000,-0.000000
47.761467,4.144257,3.739471,1.000000,-0.000000,0.000000
-47.761467,3.266805,5.937211,-1.000000,0.000000,-0.000000
5.914899,2.316004,-4.917398,0.000000,-0.442289,0.896873
12.941427,-8.043127,3.496891,0.000000,-0.896873,0.442289
28.443127,1.742539,8.585308,-0.000000,0.195090,0.980785
29.740382,-0.101195,8.772460,0.000000,-0.065403,0.997859
-39.968858,-5.406990,0.599504,0.000000,0.997859,-0.065403
47.250021,8.774472,-0.070499,0.000000,0.997859,-0.065403
31.014133,-8.773036,-0.092406,0.000000,-0.997859,-0.065403
2.562600,-7.251021,-4.916196,0.000000,-0.831470,-0.555570
6.151014,-5.417642,9.075631,0.751840,-0.659346,0.000000
37.207924,-8.560822,-1.865639,0.000000,-0.980785,-0.195090
-46.154811,8.365572,2.609152,0.000000,0.946930,0.321439
19.473868,-0.920729,8.718745,0.000000,-0.065403,0.997859
6.134025,-5.437014,31.401335,0.751840,-0.659346,0.000000
-20.745841,-5.211026,-1.555953,-0.000000,0.946930,0.321440
40.776085,-6.692525,-5.654982,0.000000,-0.751840,-0.659346
-46.256776,7.521518,4.511369,0.000000,0.831470,0.555570
-39.308843,-3.843230,3.858009,0.000000,0.659346,-0.751840
-25.490232,-1.425995,-5.255141,0.000000,0.321440,0.946930
-4.306499,-8.529689,-2.022153,0.000000,-0.980785,-0.195090
-13.122386,0.955448,-8.716469,0.000000,0.065403,-0.997859
19.809418,8.093281,3.395189,0.000000,0.896873,0.442289
39.177686,-3.853572,-7.867231,0.000000,-0.442289,-0.896873
-44.246496,-8.740447,0.589611,0.000000,-0.997859,0.065403
-8.660512,5.423711,-0.344381,0.000000,-0.997859,0.065403
6.764561,6.521091,-5.850466,0.000000,0.751840,-0.659346
-9.516070,-4.024549,7.782914,-0.000000,-0.442289,0.896873
8.040293,0.705026,-8.732883,0.000000,0.065403,-0.997859
38.466071,-2.119636,5.014236,0.000000,0.442289,-0.896873
-43.286943,2.528337,-4.812686,0.000000,-0.442289,0.896873
-40.402603,-2.898747,4.599284,0.000000,0.555570,-0.831470
-26.444719,0.124608,8.770926,-0.000000,0.065403,0.997859
-29.957006,-4.395237,3.204125,0.000000,0.831470,-0.555570
-40.915247,-8.744779,0.523522,0.000000,-0.997859,0.065403
-8.184226,0.458283,18.473442,-0.997859,0.065403,0.000000
-11.755662,-4.206807,-7.693034,0.000000,-0.442289,-0.896873
27.761118,5.324139,1.090700,0.000000,-0.980785,-0.195090
40.870770,4.256820,-3.388473,0.000000,-0.751840,0.659346
-25.293869,-5.429905,0.249885,0.000000,0.997859,-0.065403
-14.804306,-0.635990,-5.404598,-0.000000,0.065403,0.997859
8.889318,3.018222,-8.226711,0.000000,0.321439,-0.946930
3.654964,5.115210,33.694603,0.000000,0.000000,1.000000
-1.145518,-0.984076,-8.714593,0.000000,-0.065403,-0.997859
24.434129,7.747020,-4.097334,0.000000,0.896873,-0.442289
