x,y,z,nx,ny,nz
0.027278,-0.017817,-0.108783,-0.243222,0.000000,0.969971
-0.369621,0.020799,-0.034502,0.000000,1.000000,0.000000
0.319877,-0.020799,0.099715,0.000000,-1.000000,0.000000
0.177658,0.020799,-0.078444,0.000000,1.000000,0.000000
-0.186373,-0.020799,-0.083098,0.000000,-1.000000,0.000000
0.214184,0.020799,-0.131870,0.000000,1.000000,0.000000
0.126828,-0.020799,-0.196432,0.000000,-1.000000,0.000000
0.039089,0.020799,0.301273,0.000000,1.000000,0.000000
0.004943,0.020799,0.120600,0.000000,1.000000,0.000000
-0.202145,-0.020799,-0.044611,0.000000,-1.000000,0.000000
0.064504,-0.020799,0.364614,0.000000,-1.000000,0.000000
-0.097177,0.020799,0.298694,0.000000,1.000000,0.000000
-0.190471,0.020799,-0.288964,0.000000,1.000000,0.000000
0.026678,-0.020799,0.368279,0.000000,-1.000000,0.000000
-0.039210,0.015288,-0.105073,0.349619,0.000000,0.936892
-0.014942,0.020799,-0.209225,0.000000,1.000000,0.000000
0.037782,0.020799,0.205536,0.000000,1.000000,0.000000
0.061113,0.020799,-0.206524,0.000000,1.000000,0.000000
-0.168571,-0.020799,-0.165609,0.000000,-1.000000,0.000000
-0.255265,-0.020799,0.013130,0.000000,-1.000000,0.000000
0.180323,-0.020799,0.219461,0.000000,-1.000000,0.000000
-0.104751,-0.020799,-0.129234,0.000000,-1.000000,0.000000
0.266514,-0.020799,0.035488,0.000000,-1.000000,0.000000
-0.136930,-0.020799,0.358690,0.000000,-1.000000,0.000000
0.090031,0.020799,-0.138269,0.000000,1.000000,0.000000
-0.307409,-0.020799,-0.152806,0.000000,-1.000000,0.000000
-0.057848,-0.020799,-0.206130,0.000000,-1.000000,0.000000
0.147648,-0.020799,0.287899,0.000000,-1.000000,0.000000
-0.123730,-0.020799,0.058619,0.000000,-1.000000,0.000000
0.202024,0.020799,0.242640,0.000000,1.000000,0.000000
-0.190317,-0.020799,-0.176784,0.000000,-1.000000,0.000000
0.149217,0.020799,-0.061581,0.000000,1.000000,0.000000
-0.338596,0.020799,0.177752,0.000000,1.000000,0.000000
-0.121182,-0.020799,-0.074559,0.000000,-1.000000,0.000000
-0.138858,-0.020799,0.099613,0.000000,-1.000000,0.000000
0.346747,-0.020799,0.092313,0.000000,-1.000000,0.000000
0.226861,0.017689,0.320320,0.577962,0.000000,0.816064
-0.107133,-0.020258,0.377616,-0.272937,0.000000,0.962032
-0.368116,0.020799,-0.094477,0.000000,1.000000,0.000000
0.324161,-0.020799,0.209979,0.000000,-1.000000,0.000000
-0.311148,-0.020799,-0.127482,0.000000,-1.000000,0.000000
-0.203197,0.020799,0.073254,0.000000,1.000000,0.000000
-0.123275,-0.020799,-0.052292,0.000000,-1.000000,0.000000
-0.092455,0.009705,-0.063480,0.824385,0.000000,0.566029
0.012386,0.020799,0.370013,0.000000,1.000000,0.000000
0.111878,0.008961,0.007817,-0.997568,0.000000,-0.069701
0.076550,-0.020799,0.172636,0.000000,-1.000000,0.000000
-0.147063,-0.020799,-0.163403,0.000000,-1.000000,0.000000
0.028853,-0.020799,0.121378,0.000000,-1.000000,0.000000
0.190458,-0.020799,0.105640,0.000000,-1.000000,0.000000
0.249494,-0.020799,-0.032682,0.000000,-1.000000,0.000000
0.138309,0.020799,0.213928,0.000000,1.000000,0.000000
0.004943,0.020799,0.120600,0.000000,1.000000,0.000000
-0.344378,0.020799,0.072111,0.000000,1.000000,0.000000
-0.104317,0.004625,0.041179,0.930153,0.000000,-0.367172
0.064219,-0.020799,-0.168730,0.000000,-1.000000,0.000000
0.179248,-0.020799,-0.064665,0.000000,-1.000000,0.000000
-0.073893,-0.020799,-0.315308,0.000000,-1.000000,0.000000
0.345904,-0.020799,0.107043,0.000000,-1.000000,0.000000
-0.385728,0.016169,-0.072696,-0.982700,0.000000,-0.185205
0.037456,-0.020799,-0.375903,0.000000,-1.000000,0.000000
0.175382,0.020799,0.348621,0.000000,1.000000,0.000000
0.391515,-0.007785,0.028050,0.997443,0.000000,0.071463
-0.224183,-0.020799,-0.189048,0.000000,-1.000000,0.000000
0.177658,0.020799,-0.078444,0.000000,1.000000,0.000000
0.111020,0.020799,0.142899,0.000000,1.000000,0.000000
-0.198788,0.020799,0.019229,0.000000,1.000000,0.000000
0.015890,-0.013211,0.111019,-0.141684,0.000000,-0.989912
0.358272,0.020799,-0.036734,0.000000,1.000000,0.000000
0.176196,0.020799,0.339736,0.000000,1.000000,0.000000
0.152313,-0.020799,-0.024511,0.000000,-1.000000,0.000000
0.059586,0.020799,0.251417,0.000000,1.000000,0.000000
0.266514,-0.020799,0.035488,0.000000,-1.000000,0.000000
-0.042874,-0.020799,0.150908,0.000000,-1.000000,0.000000
0.045950,-0.020799,-0.119547,0.000000,-1.000000,0.000000
-0.040573,0.020799,-0.344306,0.000000,1.000000,0.000000
-0.087632,-0.001128,-0.069988,0.781379,0.000000,0.624057
-0.017908,0.020799,-0.242813,0.000000,1.000000,0.000000
-0.289169,0.007525,0.265429,-0.736700,0.000000,0.676219
0.110671,-0.020799,-0.324711,0.000000,-1.000000,0.000000
0.020462,-0.020799,-0.311834,0.000000,-1.000000,0.000000
-0.142188,0.020799,-0.015507,0.000000,1.000000,0.000000
-0.283956,0.020799,-0.176874,0.000000,1.000000,0.000000
0.176196,0.020799,0.339736,0.000000,1.000000,0.000000
-0.285076,-0.020799,-0.029164,0.000000,-1.000000,0.000000
0.214568,-0.020799,-0.264071,0.000000,-1.000000,0.000000
-0.126427,0.020799,-0.187583,0.000000,1.000000,0.000000
0.262907,0.020799,-0.091221,0.000000,1.000000,0.000000
0.037782,0.020799,0.205536,0.000000,1.000000,0.000000
0.176196,0.020799,0.339736,0.000000,1.000000,0.000000
-0.125836,-0.020799,-0.022523,0.000000,-1.000000,0.000000
-0.388392,0.020799,0.002038,0.000000,1.000000,0.000000
-0.072995,0.020799,-0.183424,0.000000,1.000000,0.000000
-0.168950,-0.020799,-0.122244,0.000000,-1.000000,0.000000
0.102821,-0.020799,-0.170659,0.000000,-1.000000,0.000000
0.316181,-0.020799,0.187276,0.000000,-1.000000,0.000000
0.068969,0.020799,-0.141748,0.000000,1.000000,0.000000
0.023156,0.020799,0.140546,0.000000,1.000000,0.000000
-0.340345,0.020799,-0.166232,0.000000,1.000000,0.000000
-0.289169,-0.020799,0.202469,0.000000,-1.000000,0.000000
-0.365937,-0.000852,0.141990,-0.932279,0.000000,0.361740
-0.091270,0.020799,0.304449,0.000000,1.000000,0.000000
-0.269407,0.020799,-0.141767,0.000000,1.000000,0.000000
-0.250815,-0.001187,-0.301931,-0.638990,0.000000,-0.769215
-0.098221,0.000837,-0.054134,0.875792,0.000000,0.482689
-0.056455,0.020799,-0.153844,0.000000,1.000000,0.000000
0.231274,0.010979,-0.317149,0.589204,0.000000,-0.807984
-0.081392,0.020799,0.111278,0.000000,1.000000,0.000000
0.009304,-0.020799,0.221583,0.000000,-1.000000,0.000000
-0.024276,0.020799,-0.157244,0.000000,1.000000,0.000000
-0.034969,-0.020799,-0.177589,0.000000,-1.000000,0.000000
0.241973,0.020799,0.085059,0.000000,1.000000,0.000000
-0.109809,0.002347,-0.022797,0.979123,0.000000,0.203269
0.049071,0.001909,0.100845,-0.437548,0.000000,-0.899195
0.281420,0.020799,-0.071820,0.000000,1.000000,0.000000
-0.168950,-0.020799,-0.122244,0.000000,-1.000000,0.000000
0.211555,0.020799,-0.110360,0.000000,1.000000,0.000000
0.173614,-0.020799,0.163993,0.000000,-1.000000,0.000000
0.380913,0.020799,-0.031205,0.000000,1.000000,0.000000
0.186259,0.020799,0.047311,0.000000,1.000000,0.000000
-0.326064,0.020799,-0.159570,0.000000,1.000000,0.000000
-0.019567,0.020799,-0.363227,0.000000,1.000000,0.000000
0.356233,0.020799,-0.018455,0.000000,1.000000,0.000000
0.018313,0.020799,0.356244,0.000000,1.000000,0.000000
0.190554,-0.020799,-0.059861,0.000000,-1.000000,0.000000
-0.355877,0.010168,0.165597,-0.906651,0.000000,0.421882
-0.102047,0.020799,-0.060511,0.000000,1.000000,0.000000
0.005911,-0.004958,-0.111995,-0.052703,0.000000,0.998610
-0.344824,0.020799,0.012670,0.000000,1.000000,0.000000
-0.207608,-0.020799,0.317073,0.000000,-1.000000,0.000000
-0.187467,0.020799,-0.051675,0.000000,1.000000,0.000000
-0.252986,-0.020799,0.059737,0.000000,-1.000000,0.000000
0.358167,0.020799,0.027938,0.000000,1.000000,0.000000
0.224501,-0.020799,0.013149,0.000000,-1.000000,0.000000
0.049823,0.020799,0.268998,0.000000,1.000000,0.000000
-0.018851,0.020799,0.277126,0.000000,1.000000,0.000000
0.111020,0.020799,0.142899,0.000000,1.000000,0.000000
0.180175,-0.020799,0.179691,0.000000,-1.000000,0.000000
0.145712,-0.020799,-0.046535,0.000000,-1.000000,0.000000
-0.249273,-0.020799,0.025465,0.000000,-1.000000,0.000000
-0.166556,-0.020799,-0.167786,0.000000,-1.000000,0.000000
0.252399,0.020799,-0.098885,0.000000,1.000000,0.000000
0.215106,-0.020799,-0.023150,0.000000,-1.000000,0.000000
-0.141914,-0.020799,0.102790,0.000000,-1.000000,0.000000
0.020500,-0.020799,-0.299874,0.000000,-1.000000,0.000000
0.127610,-0.020799,-0.070756,0.000000,-1.000000,0.000000
0.250127,-0.020799,-0.136393,0.000000,-1.000000,0.000000
-0.177362,0.020799,0.275183,0.000000,1.000000,0.000000
0.094238,0.020799,-0.213972,0.000000,1.000000,0.000000
-0.074144,-0.020799,0.266427,0.000000,-1.000000,0.000000
-0.173015,-0.020799,-0.149387,0.000000,-1.000000,0.000000
-0.329998,0.020799,0.191258,0.000000,1.000000,0.000000
0.039089,0.020799,0.301273,0.000000,1.000000,0.000000
0.341769,-0.020799,0.185264,0.000000,-1.000000,0.000000
-0.227468,-0.020799,-0.001433,0.000000,-1.000000,0.000000
0.221289,0.020799,0.188541,0.000000,1.000000,0.000000
0.136500,-0.020799,-0.019511,0.000000,-1.000000,0.000000
0.022705,0.020799,-0.183189,0.000000,1.000000,0.000000
0.093899,0.020799,-0.117950,0.000000,1.000000,0.000000
0.040572,-0.020799,-0.249659,0.000000,-1.000000,0.000000
-0.287827,-0.020799,-0.230528,0.000000,-1.000000,0.000000
0.117612,-0.020799,0.084270,0.000000,-1.000000,0.000000
0.079622,0.020799,0.272394,0.000000,1.000000,0.000000
0.055924,0.020799,0.296176,0.000000,1.000000,0.000000
0.253511,-0.020799,-0.194420,0.000000,-1.000000,0.000000
0.273491,-0.020799,-0.142982,0.000000,-1.000000,0.000000
-0.074463,0.020799,-0.108768,0.000000,1.000000,0.000000
-0.303497,-0.020799,-0.180295,0.000000,-1.000000,0.000000
0.066715,0.020799,0.104101,0.000000,1.000000,0.000000
0.117170,0.020799,0.110009,0.000000,1.000000,0.000000
0.195106,0.020799,0.176385,0.000000,1.000000,0.000000
-0.153640,0.020799,-0.235884,0.000000,1.000000,0.000000
-0.050650,0.006132,0.100062,0.451623,0.000000,-0.892209
-0.117685,-0.020799,-0.188680,0.000000,-1.000000,0.000000
0.087466,-0.016745,-0.070196,-0.779899,0.000000,0.625906
0.164047,-0.020799,0.119428,0.000000,-1.000000,0.000000
-0.002916,0.020799,0.135025,0.000000,1.000000,0.000000
-0.298269,-0.020799,0.214185,0.000000,-1.000000,0.000000
0.168959,-0.020799,-0.122196,0.000000,-1.000000,0.000000
-0.256923,-0.020799,0.166684,0.000000,-1.000000,0.000000
0.281710,-0.020799,0.152240,0.000000,-1.000000,0.000000
0.111791,-0.020799,-0.048630,0.000000,-1.000000,0.000000
0.055791,-0.020799,0.356130,0.000000,-1.000000,0.000000
-0.021686,-0.020799,0.212883,0.000000,-1.000000,0.000000
-0.190699,0.020799,0.219790,0.000000,1.000000,0.000000
0.121739,0.020799,0.125702,0.000000,1.000000,0.000000
0.218751,-0.020799,0.272387,0.000000,-1.000000,0.000000
0.158043,-0.020799,0.229307,0.000000,-1.000000,0.000000
-0.063251,0.017631,-0.092612,0.563987,0.000000,0.825784
0.049511,-0.020799,0.196160,0.000000,-1.000000,0.000000
0.231173,0.020799,-0.033204,0.000000,1.000000,0.000000
0.088067,-0.020799,0.205337,0.000000,-1.000000,0.000000
0.063545,-0.020799,0.202224,0.000000,-1.000000,0.000000
-0.214480,-0.020799,0.105925,0.000000,-1.000000,0.000000
0.380913,0.020799,-0.031205,0.000000,1.000000,0.000000
0.237282,0.020799,-0.113894,0.000000,1.000000,0.000000
-0.281041,0.020799,-0.249661,0.000000,1.000000,0.000000
0.017028,-0.020799,-0.117645,0.000000,-1.000000,0.000000
0.087957,0.020799,-0.236923,0.000000,1.000000,0.000000
0.320857,-0.020799,0.162810,0.000000,-1.000000,0.000000
0.140377,-0.020799,0.206442,0.000000,-1.000000,0.000000
-0.102277,-0.017011,-0.046012,0.911964,0.000000,0.410271
-0.369139,0.020347,-0.133445,-0.940436,0.000000,-0.339971
-0.083659,0.020799,-0.121498,0.000000,1.000000,0.000000
0.341769,-0.020799,0.185264,0.000000,-1.000000,0.000000
0.131379,0.020799,-0.038975,0.000000,1.000000,0.000000
0.372729,-0.020799,-0.066623,0.000000,-1.000000,0.000000
0.107644,0.020799,-0.326860,0.000000,1.000000,0.000000
0.249705,-0.020799,0.264363,0.000000,-1.000000,0.000000
0.235893,0.020799,-0.174659,0.000000,1.000000,0.000000
-0.344378,0.020799,0.072111,0.000000,1.000000,0.000000
0.207129,0.020799,-0.108950,0.000000,1.000000,0.000000
-0.077166,0.020799,0.101846,0.000000,1.000000,0.000000
0.136500,-0.020799,-0.019511,0.000000,-1.000000,0.000000
-0.059249,-0.020799,0.145723,0.000000,-1.000000,0.000000
-0.284723,-0.020799,-0.155399,0.000000,-1.000000,0.000000
0.273491,-0.020799,-0.142982,0.000000,-1.000000,0.000000
-0.284723,-0.020799,-0.155399,0.000000,-1.000000,0.000000
0.325466,0.020799,-0.110401,0.000000,1.000000,0.000000
-0.068218,-0.020799,-0.183764,0.000000,-1.000000,0.000000
0.018311,-0.020799,-0.368277,0.000000,-1.000000,0.000000
-0.240828,-0.020799,-0.093318,0.000000,-1.000000,0.000000
0.030586,0.020799,0.115784,0.000000,1.000000,0.000000
0.205791,0.020799,-0.138211,0.000000,1.000000,0.000000
0.190260,-0.020799,0.214151,0.000000,-1.000000,0.000000
0.184010,0.020799,0.078443,0.000000,1.000000,0.000000
-0.202591,0.020799,-0.082955,0.000000,1.000000,0.000000
0.268576,-0.020799,0.217501,0.000000,-1.000000,0.000000
0.155576,0.020799,0.181538,0.000000,1.000000,0.000000
0.208031,-0.020799,0.275378,0.000000,-1.000000,0.000000
0.235797,-0.020799,0.208399,0.000000,-1.000000,0.000000
0.281085,-0.020799,-0.063140,0.000000,-1.000000,0.000000
0.155156,0.020799,0.281446,0.000000,1.000000,0.000000
0.148158,-0.020799,-0.309874,0.000000,-1.000000,0.000000
0.114144,-0.020799,0.046193,0.000000,-1.000000,0.000000
-0.218755,0.020799,0.221665,0.000000,1.000000,0.000000
0.085755,-0.020799,0.163927,0.000000,-1.000000,0.000000
-0.225862,-0.020799,-0.008897,0.000000,-1.000000,0.000000
0.243069,0.020799,0.204802,0.000000,1.000000,0.000000
-0.073938,-0.020799,0.199020,0.000000,-1.000000,0.000000
-0.287717,0.020799,-0.036258,0.000000,1.000000,0.000000
0.190554,-0.020799,-0.059861,0.000000,-1.000000,0.000000
0.028612,0.020799,0.192043,0.000000,1.000000,0.000000
-0.005355,0.020799,0.278282,0.000000,1.000000,0.000000
0.186931,-0.020799,0.339579,0.000000,-1.000000,0.000000
0.155801,-0.020799,0.163016,0.000000,-1.000000,0.000000
0.186787,0.020799,0.004575,0.000000,1.000000,0.000000
0.358167,0.020799,0.027938,0.000000,1.000000,0.000000
0.118154,0.020799,0.051194,0.000000,1.000000,0.000000
-0.283112,-0.020799,0.197932,0.000000,-1.000000,0.000000
0.015915,-0.020799,0.346909,0.000000,-1.000000,0.000000
-0.174255,-0.020799,-0.213704,0.000000,-1.000000,0.000000
0.014491,-0.008010,0.392251,0.036919,0.000000,0.999318
-0.214480,-0.020799,0.105925,0.000000,-1.000000,0.000000
-0.020589,0.020799,0.146058,0.000000,1.000000,0.000000
0.127610,-0.020799,-0.070756,0.000000,-1.000000,0.000000
0.182467,0.020799,-0.007641,0.000000,1.000000,0.000000
0.286010,0.020799,0.133787,0.000000,1.000000,0.000000
0.177658,0.020799,-0.078444,0.000000,1.000000,0.000000
0.076550,-0.020799,0.172636,0.000000,-1.000000,0.000000
0.110598,-0.016217,-0.018594,-0.986161,0.000000,0.165791
0.267190,-0.020799,-0.002567,0.000000,-1.000000,0.000000
-0.043691,0.020799,0.329867,0.000000,1.000000,0.000000
-0.246079,0.020799,-0.279171,0.000000,1.000000,0.000000
-0.130546,0.020799,-0.134549,0.000000,1.000000,0.000000
-0.097177,0.020799,0.298694,0.000000,1.000000,0.000000
0.162344,0.020799,-0.003893,0.000000,1.000000,0.000000
-0.071959,0.020799,0.246487,0.000000,1.000000,0.000000
0.088086,-0.020799,-0.141241,0.000000,-1.000000,0.000000
-0.161215,0.020799,0.151800,0.000000,1.000000,0.000000
0.140875,0.020799,-0.016356,0.000000,1.000000,0.000000
0.129906,0.004351,0.370399,0.330954,0.000000,0.943647
0.072250,-0.020799,0.123602,0.000000,-1.000000,0.000000
-0.307409,-0.020799,-0.152806,0.000000,-1.000000,0.000000
-0.133223,0.020799,0.069090,0.000000,1.000000,0.000000
0.122830,-0.020799,-0.104006,0.000000,-1.000000,0.000000
0.272131,0.020799,-0.202583,0.000000,1.000000,0.000000
0.014436,0.020799,0.119788,0.000000,1.000000,0.000000
-0.198152,0.020799,0.254364,0.000000,1.000000,0.000000
0.111247,-0.004942,-0.014207,-0.991944,0.000000,0.126676
-0.391957,0.009002,0.020989,-0.998569,0.000000,0.053473
-0.161905,0.020799,0.020786,0.000000,1.000000,0.000000
-0.247583,0.020799,0.148556,0.000000,1.000000,0.000000
-0.218755,0.020799,0.221665,0.000000,1.000000,0.000000
-0.072995,0.020799,-0.183424,0.000000,1.000000,0.000000
-0.335551,0.020799,0.012482,0.000000,1.000000,0.000000
-0.023255,-0.020799,-0.262859,0.000000,-1.000000,0.000000
0.199411,-0.020799,-0.319385,0.000000,-1.000000,0.000000
-0.150761,-0.020799,0.026735,0.000000,-1.000000,0.000000
0.010747,0.020799,-0.145538,0.000000,1.000000,0.000000
0.207122,-0.020799,0.243885,0.000000,-1.000000,0.000000
-0.007012,-0.020799,0.137493,0.000000,-1.000000,0.000000
0.252399,0.020799,-0.098885,0.000000,1.000000,0.000000
-0.003442,-0.020799,0.199403,0.000000,-1.000000,0.000000
0.099807,0.020256,0.051149,-0.889940,0.000000,-0.456078
0.286010,0.020799,0.133787,0.000000,1.000000,0.000000
-0.108552,0.020799,-0.173042,0.000000,1.000000,0.000000
0.158291,-0.020799,0.102596,0.000000,-1.000000,0.000000
-0.031125,0.020799,-0.275487,0.000000,1.000000,0.000000
0.273491,-0.020799,-0.142982,0.000000,-1.000000,0.000000
0.090749,0.020799,-0.319674,0.000000,1.000000,0.000000
0.198499,-0.020799,0.164909,0.000000,-1.000000,0.000000
-0.329998,0.020799,0.191258,0.000000,1.000000,0.000000
-0.350592,0.020799,0.137279,0.000000,1.000000,0.000000
-0.308824,-0.020799,-0.030346,0.000000,-1.000000,0.000000
-0.264377,-0.020799,0.128126,0.000000,-1.000000,0.000000
-0.064407,0.020799,-0.186861,0.000000,1.000000,0.000000
-0.007095,0.020799,-0.114025,0.000000,1.000000,0.000000
-0.008225,0.020799,-0.187532,0.000000,1.000000,0.000000
0.004529,0.020799,-0.264249,0.000000,1.000000,0.000000
-0.152193,0.020799,-0.101394,0.000000,1.000000,0.000000
-0.053570,-0.020799,-0.180222,0.000000,-1.000000,0.000000
0.065822,0.020799,-0.271312,0.000000,1.000000,0.000000
-0.097177,0.020799,0.298694,0.000000,1.000000,0.000000
0.022705,0.020799,-0.183189,0.000000,1.000000,0.000000
-0.150724,0.020799,0.113887,0.000000,1.000000,0.000000
0.089288,0.020799,-0.121799,0.000000,1.000000,0.000000
-0.080752,-0.020799,-0.336642,0.000000,-1.000000,0.000000
0.127095,-0.020799,-0.054624,0.000000,-1.000000,0.000000
-0.084007,-0.020799,0.231274,0.000000,-1.000000,0.000000
0.262252,-0.020799,-0.105673,0.000000,-1.000000,0.000000
0.197724,-0.020799,0.063164,0.000000,-1.000000,0.000000
0.006298,0.020799,0.194857,0.000000,1.000000,0.000000
0.155192,-0.020799,-0.058547,0.000000,-1.000000,0.000000
-0.062863,-0.020799,0.135732,0.000000,-1.000000,0.000000
0.046833,-0.020799,0.131597,0.000000,-1.000000,0.000000
-0.162688,0.020799,-0.192558,0.000000,1.000000,0.000000
-0.030069,-0.020799,0.247153,0.000000,-1.000000,0.000000
-0.123528,-0.020799,-0.077859,0.000000,-1.000000,0.000000
0.186061,0.020799,-0.160644,0.000000,1.000000,0.000000
0.037377,0.003074,0.105739,-0.333272,0.000000,-0.942831
0.045169,-0.003620,0.102652,-0.402757,0.000000,-0.915307
-0.337446,0.007071,-0.200503,-0.859693,0.000000,-0.510811
0.126828,-0.020799,-0.196432,0.000000,-1.000000,0.000000
-0.160103,0.020799,-0.355963,0.000000,1.000000,0.000000
0.076358,-0.020799,-0.265523,0.000000,-1.000000,0.000000
-0.235010,-0.020799,-0.248696,0.000000,-1.000000,0.000000
0.256860,-0.020799,0.280960,0.000000,-1.000000,0.000000
-0.158655,0.020799,0.095903,0.000000,1.000000,0.000000
0.211821,-0.014009,-0.330458,0.539646,0.000000,-0.841892
-0.012274,0.006266,0.111477,0.109439,0.000000,-0.993994
-0.325550,0.020799,-0.110057,0.000000,1.000000,0.000000
-0.272597,-0.020799,0.077143,0.000000,-1.000000,0.000000
0.155156,0.020799,0.281446,0.000000,1.000000,0.000000
-0.076376,-0.020799,-0.155568,0.000000,-1.000000,0.000000
-0.207716,0.020799,-0.109620,0.000000,1.000000,0.000000
-0.103457,0.020799,0.353604,0.000000,1.000000,0.000000
-0.331050,-0.020799,-0.122872,0.000000,-1.000000,0.000000
-0.089166,-0.002982,-0.068023,0.795058,0.000000,0.606534
0.189267,-0.020799,-0.042150,0.000000,-1.000000,0.000000
-0.306179,0.020799,0.021554,0.000000,1.000000,0.000000
-0.031349,0.020799,0.135094,0.000000,1.000000,0.000000
-0.136930,-0.020799,0.358690,0.000000,-1.000000,0.000000
-0.138090,-0.020799,-0.129739,0.000000,-1.000000,0.000000
0.064289,0.020799,-0.304104,0.000000,1.000000,0.000000
0.046833,-0.020799,0.131597,0.000000,-1.000000,0.000000
0.109063,0.020799,-0.180330,0.000000,1.000000,0.000000
0.268658,-0.020799,-0.165612,0.000000,-1.000000,0.000000
0.117357,0.020799,0.092742,0.000000,1.000000,0.000000
-0.083540,0.003057,0.074826,0.744889,0.000000,-0.667189
0.058407,-0.020799,0.200421,0.000000,-1.000000,0.000000
0.087957,0.020799,-0.236923,0.000000,1.000000,0.000000
-0.280606,0.011295,-0.274465,-0.714886,0.000000,-0.699241
-0.083646,-0.020799,-0.296255,0.000000,-1.000000,0.000000
-0.127400,-0.020799,0.217193,0.000000,-1.000000,0.000000
0.040260,-0.020799,0.222869,0.000000,-1.000000,0.000000
0.192844,0.020799,-0.227320,0.000000,1.000000,0.000000
-0.022735,0.019244,0.109822,0.202720,0.000000,-0.979237
0.379000,-0.020799,-0.095902,0.000000,-1.000000,0.000000
0.052957,0.020799,-0.357050,0.000000,1.000000,0.000000
0.042441,-0.020799,0.111647,0.000000,-1.000000,0.000000
-0.087632,-0.001128,-0.069988,0.781379,0.000000,0.624057
-0.350238,-0.020799,0.175853,0.000000,-1.000000,0.000000
0.279588,0.020799,0.096677,0.000000,1.000000,0.000000
0.214875,0.020799,-0.063073,0.000000,1.000000,0.000000
0.009093,-0.020799,0.200269,0.000000,-1.000000,0.000000
-0.151312,0.020799,0.079822,0.000000,1.000000,0.000000
0.085560,-0.020799,0.130794,0.000000,-1.000000,0.000000
0.207407,-0.020799,0.025507,0.000000,-1.000000,0.000000
0.221322,-0.020799,-0.059671,0.000000,-1.000000,0.000000
-0.236876,-0.020799,-0.003062,0.000000,-1.000000,0.000000
0.005182,0.020799,0.319883,0.000000,1.000000,0.000000
0.171201,-0.020799,0.097409,0.000000,-1.000000,0.000000
-0.304757,-0.020799,-0.061576,0.000000,-1.000000,0.000000
0.180549,0.020799,-0.139852,0.000000,1.000000,0.000000
0.170442,0.020799,-0.233018,0.000000,1.000000,0.000000
-0.062957,-0.020799,0.213738,0.000000,-1.000000,0.000000
-0.047718,-0.000398,0.101492,0.425483,0.000000,-0.904966
-0.127563,-0.020799,0.061949,0.000000,-1.000000,0.000000
0.012593,-0.020799,-0.195451,0.000000,-1.000000,0.000000
0.011723,0.020799,0.325854,0.000000,1.000000,0.000000
-0.050451,0.020799,-0.172034,0.000000,1.000000,0.000000
0.135442,0.020799,-0.229662,0.000000,1.000000,0.000000
-0.212947,-0.020799,0.081798,0.000000,-1.000000,0.000000
-0.281556,-0.020799,-0.007732,0.000000,-1.000000,0.000000
-0.152532,-0.020799,0.085505,0.000000,-1.000000,0.000000
0.071947,-0.020799,0.180492,0.000000,-1.000000,0.000000
-0.271801,0.020799,-0.103382,0.000000,1.000000,0.000000
-0.230014,-0.020799,0.096702,0.000000,-1.000000,0.000000
0.025939,0.001989,0.109110,-0.231283,0.000000,-0.972887
-0.254821,-0.020799,0.171321,0.000000,-1.000000,0.000000
-0.109809,0.002347,-0.022797,0.979123,0.000000,0.203269
0.030680,-0.020799,0.141588,0.000000,-1.000000,0.000000
-0.142154,-0.020799,-0.105636,0.000000,-1.000000,0.000000
0.293277,0.020799,0.023780,0.000000,1.000000,0.000000
0.242143,-0.020799,-0.173056,0.000000,-1.000000,0.000000
-0.074837,0.020799,0.278042,0.000000,1.000000,0.000000
0.158291,-0.020799,0.102596,0.000000,-1.000000,0.000000
-0.149816,-0.020799,0.313880,0.000000,-1.000000,0.000000
0.009093,-0.020799,0.200269,0.000000,-1.000000,0.000000
-0.058586,-0.020799,0.355413,0.000000,-1.000000,0.000000
0.031531,-0.020799,-0.164823,0.000000,-1.000000,0.000000
-0.184939,-0.020799,-0.104386,0.000000,-1.000000,0.000000
0.020462,-0.020799,-0.311834,0.000000,-1.000000,0.000000
0.076878,-0.020799,-0.368494,0.000000,-1.000000,0.000000
0.142351,-0.020799,0.079932,0.000000,-1.000000,0.000000
-0.130017,0.020799,0.090606,0.000000,1.000000,0.000000
0.237387,0.020799,-0.163954,0.000000,1.000000,0.000000
-0.040390,-0.020799,-0.173026,0.000000,-1.000000,0.000000
-0.330195,-0.020799,0.190259,0.000000,-1.000000,0.000000
-0.181494,0.020799,-0.217996,0.000000,1.000000,0.000000
-0.152245,0.020799,0.035314,0.000000,1.000000,0.000000
0.038354,0.020799,0.207354,0.000000,1.000000,0.000000
-0.245961,-0.020799,0.092546,0.000000,-1.000000,0.000000
0.324608,0.020799,-0.124026,0.000000,1.000000,0.000000
0.042274,-0.020799,0.133426,0.000000,-1.000000,0.000000
-0.105348,0.020799,0.166555,0.000000,1.000000,0.000000
0.235797,-0.020799,0.208399,0.000000,-1.000000,0.000000
-0.171915,-0.020799,-0.197646,0.000000,-1.000000,0.000000
-0.160133,0.020799,0.118533,0.000000,1.000000,0.000000
0.214512,-0.020799,-0.213671,0.000000,-1.000000,0.000000
-0.232556,0.020799,-0.081749,0.000000,1.000000,0.000000
0.336677,-0.020799,0.101978,0.000000,-1.000000,0.000000
-0.188402,-0.005686,-0.344348,-0.479981,0.000000,-0.877279
0.093899,0.020799,-0.117950,0.000000,1.000000,0.000000
-0.225107,0.020799,0.062779,0.000000,1.000000,0.000000
0.125606,-0.020799,0.012504,0.000000,-1.000000,0.000000
0.242143,-0.020799,-0.173056,0.000000,-1.000000,0.000000
-0.386221,-0.020799,0.066172,0.000000,-1.000000,0.000000
0.368622,-0.020799,-0.026994,0.000000,-1.000000,0.000000
-0.134318,0.020799,0.162387,0.000000,1.000000,0.000000
0.121363,-0.020799,0.004120,0.000000,-1.000000,0.000000
0.015168,0.004516,-0.111120,-0.135245,0.000000,0.990812
0.055197,0.020799,0.198608,0.000000,1.000000,0.000000
0.186967,0.020799,0.090074,0.000000,1.000000,0.000000
-0.041445,0.020799,-0.123177,0.000000,1.000000,0.000000
-0.305565,0.020799,0.172904,0.000000,1.000000,0.000000
0.324333,0.020799,0.049635,0.000000,1.000000,0.000000
0.098072,-0.020799,0.234536,0.000000,-1.000000,0.000000
-0.160428,-0.020799,-0.320648,0.000000,-1.000000,0.000000
0.326196,0.020799,-0.115710,0.000000,1.000000,0.000000
-0.016068,0.020799,-0.113124,0.000000,1.000000,0.000000
-0.307409,-0.020799,-0.152806,0.000000,-1.000000,0.000000
-0.352607,-0.020799,-0.139409,0.000000,-1.000000,0.000000
0.113359,0.020799,0.118418,0.000000,1.000000,0.000000
-0.306179,0.020799,0.021554,0.000000,1.000000,0.000000
-0.330195,-0.020799,0.190259,0.000000,-1.000000,0.000000
-0.288182,-0.020799,-0.140140,0.000000,-1.000000,0.000000
0.300896,-0.014070,-0.252056,0.766578,0.000000,-0.642151
0.041502,-0.020799,0.302169,0.000000,-1.000000,0.000000
-0.257709,0.020799,0.074034,0.000000,1.000000,0.000000
-0.097808,0.020799,0.203315,0.000000,1.000000,0.000000
-0.268978,0.020799,0.122093,0.000000,1.000000,0.000000
0.060630,-0.020799,-0.166615,0.000000,-1.000000,0.000000
0.028853,-0.020799,0.121378,0.000000,-1.000000,0.000000
0.276488,0.020799,0.022672,0.000000,1.000000,0.000000
-0.000170,-0.020799,-0.170073,0.000000,-1.000000,0.000000
-0.172542,0.020799,-0.081815,0.000000,1.000000,0.000000
-0.111942,0.011560,-0.006833,0.998142,0.000000,0.060924
-0.144035,0.020799,-0.270280,0.000000,1.000000,0.000000
0.319877,-0.020799,0.099715,0.000000,-1.000000,0.000000
-0.199437,-0.020799,-0.103498,0.000000,-1.000000,0.000000
-0.360992,-0.001209,0.154130,-0.919680,0.000000,0.392669
0.088086,-0.020799,-0.141241,0.000000,-1.000000,0.000000
0.184055,-0.020799,0.282045,0.000000,-1.000000,0.000000
0.214512,-0.020799,-0.213671,0.000000,-1.000000,0.000000
0.125402,0.020799,0.016707,0.000000,1.000000,0.000000
-0.250636,-0.020799,-0.190156,0.000000,-1.000000,0.000000
0.298455,0.010081,0.254942,0.760359,0.000000,0.649503
0.276488,0.020799,0.022672,0.000000,1.000000,0.000000
-0.061175,-0.020799,-0.184182,0.000000,-1.000000,0.000000
-0.190699,0.020799,0.219790,0.000000,1.000000,0.000000
-0.231904,-0.020799,0.015354,0.000000,-1.000000,0.000000
-0.308824,-0.020799,-0.030346,0.000000,-1.000000,0.000000
0.028612,0.020799,0.192043,0.000000,1.000000,0.000000
0.090031,0.020799,-0.138269,0.000000,1.000000,0.000000
-0.100659,0.020799,-0.293417,0.000000,1.000000,0.000000
0.096254,-0.020799,0.134254,0.000000,-1.000000,0.000000
0.170442,0.020799,-0.233018,0.000000,1.000000,0.000000
0.248804,-0.020799,-0.152355,0.000000,-1.000000,0.000000
0.162029,-0.020799,-0.001180,0.000000,-1.000000,0.000000
-0.138947,-0.020799,0.029191,0.000000,-1.000000,0.000000
0.284001,0.020799,0.043470,0.000000,1.000000,0.000000
0.108735,0.020799,-0.255355,0.000000,1.000000,0.000000
-0.271659,0.020799,0.188020,0.000000,1.000000,0.000000
-0.239751,-0.009063,0.310790,-0.610800,0.000000,0.791785
-0.224015,-0.020799,-0.034122,0.000000,-1.000000,0.000000
-0.134318,0.020799,0.162387,0.000000,1.000000,0.000000
-0.123275,-0.020799,-0.052292,0.000000,-1.000000,0.000000
0.370128,-0.013452,-0.130676,0.942957,0.000000,-0.332915
0.308547,0.020799,0.131697,0.000000,1.000000,0.000000
-0.306179,0.020799,0.021554,0.000000,1.000000,0.000000
0.031815,0.020799,-0.142495,0.000000,1.000000,0.000000
0.173135,0.020799,0.152886,0.000000,1.000000,0.000000
0.225891,0.020799,-0.226547,0.000000,1.000000,0.000000
-0.100639,-0.005197,-0.049492,0.897359,0.000000,0.441302
-0.291724,0.020799,0.134177,0.000000,1.000000,0.000000
-0.009936,-0.020799,-0.131722,0.000000,-1.000000,0.000000
-0.284723,-0.020799,-0.155399,0.000000,-1.000000,0.000000
0.137110,0.020799,-0.178037,0.000000,1.000000,0.000000
0.127378,0.016131,0.371276,0.324515,0.000000,0.945881
0.097207,-0.020799,0.289231,0.000000,-1.000000,0.000000
0.391515,-0.007785,0.028050,0.997443,0.000000,0.071463
-0.257709,0.020799,0.074034,0.000000,1.000000,0.000000
-0.062263,-0.020799,0.316327,0.000000,-1.000000,0.000000
-0.178504,-0.020799,-0.335572,0.000000,-1.000000,0.000000
0.088195,0.015401,0.382482,0.224691,0.000000,0.974430
0.174797,-0.020799,0.252130,0.000000,-1.000000,0.000000
-0.043691,0.020799,0.329867,0.000000,1.000000,0.000000
0.316012,0.020799,0.115949,0.000000,1.000000,0.000000
-0.161952,-0.020799,-0.276388,0.000000,-1.000000,0.000000
-0.165365,-0.020799,0.263403,0.000000,-1.000000,0.000000
-0.069074,-0.020799,-0.144372,0.000000,-1.000000,0.000000
-0.122240,0.020799,0.065522,0.000000,1.000000,0.000000
0.167634,-0.020799,-0.223660,0.000000,-1.000000,0.000000
0.106479,-0.001173,0.035214,-0.949427,0.000000,-0.313989
0.037894,0.020799,0.167591,0.000000,1.000000,0.000000
-0.168571,-0.020799,-0.165609,0.000000,-1.000000,0.000000
-0.216068,0.020799,0.262242,0.000000,1.000000,0.000000
0.093509,0.020799,0.223493,0.000000,1.000000,0.000000
0.015915,-0.020799,0.346909,0.000000,-1.000000,0.000000
-0.315096,-0.020799,-0.187450,0.000000,-1.000000,0.000000
0.076550,-0.020799,0.172636,0.000000,-1.000000,0.000000
0.095428,-0.020799,-0.063214,0.000000,-1.000000,0.000000
-0.298665,0.020799,-0.205128,0.000000,1.000000,0.000000
0.234257,-0.015556,0.314952,0.596804,0.000000,0.802387
-0.107377,0.002127,0.032370,0.957440,0.000000,-0.288633
0.025648,0.020799,0.207204,0.000000,1.000000,0.000000
0.211821,-0.014009,-0.330458,0.539646,0.000000,-0.841892
-0.083646,-0.020799,-0.296255,0.000000,-1.000000,0.000000
-0.186757,-0.020799,-0.287733,0.000000,-1.000000,0.000000
-0.289201,-0.020799,0.002944,0.000000,-1.000000,0.000000
-0.148659,-0.020799,0.023460,0.000000,-1.000000,0.000000
0.002951,-0.020799,-0.141037,0.000000,-1.000000,0.000000
-0.018614,0.020799,0.207663,0.000000,1.000000,0.000000
-0.310951,-0.020799,-0.135482,0.000000,-1.000000,0.000000
0.084762,-0.000850,0.073438,-0.755791,0.000000,-0.654813
0.088067,-0.020799,0.205337,0.000000,-1.000000,0.000000
-0.171915,-0.020799,-0.197646,0.000000,-1.000000,0.000000
0.095428,-0.020799,-0.063214,0.000000,-1.000000,0.000000
-0.125759,0.020799,0.369384,0.000000,1.000000,0.000000
0.216968,0.020799,-0.175389,0.000000,1.000000,0.000000
-0.009936,-0.020799,-0.131722,0.000000,-1.000000,0.000000
0.205791,0.020799,-0.138211,0.000000,1.000000,0.000000
-0.256007,0.020799,0.185696,0.000000,1.000000,0.000000
0.107448,0.020799,-0.205059,0.000000,1.000000,0.000000
0.125402,0.020799,0.016707,0.000000,1.000000,0.000000
-0.112044,-0.018992,0.004884,0.999051,0.000000,-0.043547
-0.177228,0.020799,0.059414,0.000000,1.000000,0.000000
-0.055032,-0.020799,-0.256494,0.000000,-1.000000,0.000000
0.231173,0.020799,-0.033204,0.000000,1.000000,0.000000
0.135585,-0.020799,-0.330628,0.000000,-1.000000,0.000000
-0.040573,0.020799,-0.344306,0.000000,1.000000,0.000000
-0.127026,-0.020799,-0.225517,0.000000,-1.000000,0.000000
-0.289201,-0.020799,0.002944,0.000000,-1.000000,0.000000
-0.335551,0.020799,0.012482,0.000000,1.000000,0.000000
-0.130017,0.020799,0.090606,0.000000,1.000000,0.000000
0.067665,0.020799,0.124840,0.000000,1.000000,0.000000
0.209016,0.020799,-0.080449,0.000000,1.000000,0.000000
-0.090680,0.006966,-0.381901,-0.231022,0.000000,-0.972949
0.274975,0.020799,-0.165792,0.000000,1.000000,0.000000
-0.087678,-0.020799,-0.080907,0.000000,-1.000000,0.000000
0.090031,0.020799,-0.138269,0.000000,1.000000,0.000000
0.116972,0.003048,-0.374685,0.298003,0.000000,-0.954565
0.248461,0.020799,-0.100432,0.000000,1.000000,0.000000
0.007375,0.020799,0.127557,0.000000,1.000000,0.000000
0.182558,0.020799,-0.130984,0.000000,1.000000,0.000000
-0.031125,0.020799,-0.275487,0.000000,1.000000,0.000000
-0.335551,0.020799,0.012482,0.000000,1.000000,0.000000
0.246961,-0.020799,0.187388,0.000000,-1.000000,0.000000
-0.367465,-0.020799,-0.002112,0.000000,-1.000000,0.000000
0.036216,-0.020799,-0.245982,0.000000,-1.000000,0.000000
-0.199185,0.020799,0.323303,0.000000,1.000000,0.000000
-0.352607,-0.020799,-0.139409,0.000000,-1.000000,0.000000
0.179356,0.020799,0.126782,0.000000,1.000000,0.000000
0.190554,-0.020799,-0.059861,0.000000,-1.000000,0.000000
-0.143331,-0.020799,0.236720,0.000000,-1.000000,0.000000
-0.071959,0.020799,0.246487,0.000000,1.000000,0.000000
-0.003775,-0.020799,-0.160447,0.000000,-1.000000,0.000000
0.168959,-0.020799,-0.122196,0.000000,-1.000000,0.000000
0.109063,0.020799,-0.180330,0.000000,1.000000,0.000000
-0.124238,0.017293,0.372338,-0.316515,0.000000,0.948587
-0.165725,-0.020799,-0.091878,0.000000,-1.000000,0.000000
0.037894,0.020799,0.167591,0.000000,1.000000,0.000000
0.126828,-0.020799,-0.196432,0.000000,-1.000000,0.000000
0.046746,-0.016467,-0.101944,-0.416815,0.000000,0.908991
-0.179110,-0.020799,-0.065679,0.000000,-1.000000,0.000000
-0.129980,-0.020799,-0.146901,0.000000,-1.000000,0.000000
-0.061175,-0.020799,-0.184182,0.000000,-1.000000,0.000000
-0.150724,0.020799,0.113887,0.000000,1.000000,0.000000
-0.204727,0.020799,0.318880,0.000000,1.000000,0.000000
-0.110084,-0.020799,-0.266554,0.000000,-1.000000,0.000000
0.194960,-0.020799,-0.111194,0.000000,-1.000000,0.000000
0.388842,-0.020799,0.045136,0.000000,-1.000000,0.000000
-0.236665,0.020799,0.306269,0.000000,1.000000,0.000000
0.068931,-0.020799,-0.344242,0.000000,-1.000000,0.000000
-0.391682,-0.012778,-0.025620,-0.997868,0.000000,-0.065270
-0.049391,-0.019739,0.100689,0.440396,0.000000,-0.897803
-0.212358,0.020799,0.267828,0.000000,1.000000,0.000000
-0.105013,-0.013139,-0.039369,0.936362,0.000000,0.351036
-0.081221,0.020799,-0.249414,0.000000,1.000000,0.000000
0.285273,-0.020799,-0.035877,0.000000,-1.000000,0.000000
0.028853,-0.020799,0.121378,0.000000,-1.000000,0.000000
0.098072,-0.020799,0.234536,0.000000,-1.000000,0.000000
-0.082154,-0.020799,-0.301031,0.000000,-1.000000,0.000000
0.269080,0.020799,0.064700,0.000000,1.000000,0.000000
-0.074463,0.020799,-0.108768,0.000000,1.000000,0.000000
-0.156419,-0.020799,-0.164171,0.000000,-1.000000,0.000000
-0.288368,0.020799,0.130905,0.000000,1.000000,0.000000
0.138730,0.020799,0.211369,0.000000,1.000000,0.000000
-0.022735,0.019244,0.109822,0.202720,0.000000,-0.979237
0.080236,0.020799,0.224634,0.000000,1.000000,0.000000
-0.109809,0.002347,-0.022797,0.979123,0.000000,0.203269
0.115523,-0.020799,-0.316199,0.000000,-1.000000,0.000000
-0.209381,0.020799,-0.246803,0.000000,1.000000,0.000000
-0.218755,0.020799,0.221665,0.000000,1.000000,0.000000
-0.111916,0.020799,-0.069082,0.000000,1.000000,0.000000
-0.108552,0.020799,-0.173042,0.000000,1.000000,0.000000
-0.327848,0.020799,0.082088,0.000000,1.000000,0.000000
-0.036329,-0.020799,0.254745,0.000000,-1.000000,0.000000
-0.183986,0.020799,0.181139,0.000000,1.000000,0.000000
0.143775,-0.020799,-0.033765,0.000000,-1.000000,0.000000
0.361385,-0.006767,0.153206,0.920682,0.000000,0.390315
0.297122,0.020799,0.097548,0.000000,1.000000,0.000000
0.014436,0.020799,0.119788,0.000000,1.000000,0.000000
0.311942,0.020799,0.143097,0.000000,1.000000,0.000000
0.146003,-0.020799,-0.054797,0.000000,-1.000000,0.000000
-0.130323,0.020799,0.070265,0.000000,1.000000,0.000000
0.167073,-0.020799,-0.265007,0.000000,-1.000000,0.000000
-0.090574,0.020799,0.235964,0.000000,1.000000,0.000000
-0.017185,0.020799,0.357748,0.000000,1.000000,0.000000
0.207129,0.020799,-0.108950,0.000000,1.000000,0.000000
0.049716,0.020799,0.338475,0.000000,1.000000,0.000000
-0.346325,0.008958,0.184744,-0.882314,0.000000,0.470662
0.317762,-0.020799,-0.119910,0.000000,-1.000000,0.000000
0.283507,0.020799,-0.065588,0.000000,1.000000,0.000000
-0.208746,0.020799,0.064850,0.000000,1.000000,0.000000
-0.092455,0.009705,-0.063480,0.824385,0.000000,0.566029
0.329241,-0.020799,0.181931,0.000000,-1.000000,0.000000
0.268364,0.020799,-0.161413,0.000000,1.000000,0.000000
0.118673,-0.020799,0.179560,0.000000,-1.000000,0.000000
-0.354589,-0.020799,0.056012,0.000000,-1.000000,0.000000
-0.049455,-0.013494,-0.389391,-0.125993,0.000000,-0.992031
0.064219,-0.020799,-0.168730,0.000000,-1.000000,0.000000
0.232065,-0.020799,-0.061644,0.000000,-1.000000,0.000000
0.085037,0.020799,-0.326190,0.000000,1.000000,0.000000
-0.159104,0.020799,-0.117013,0.000000,1.000000,0.000000
-0.222111,-0.020799,0.217024,0.000000,-1.000000,0.000000
-0.140929,0.020799,-0.249867,0.000000,1.000000,0.000000
0.070901,-0.020799,0.248576,0.000000,-1.000000,0.000000
-0.116247,-0.020799,-0.292412,0.000000,-1.000000,0.000000
0.058563,0.020799,0.293278,0.000000,1.000000,0.000000
0.341137,-0.012973,0.194156,0.869097,0.000000,0.494642
0.221322,-0.020799,-0.059671,0.000000,-1.000000,0.000000
0.156882,-0.020799,-0.039328,0.000000,-1.000000,0.000000
0.027376,-0.020799,-0.143165,0.000000,-1.000000,0.000000
-0.156384,-0.020799,-0.348720,0.000000,-1.000000,0.000000
0.148158,-0.020799,-0.309874,0.000000,-1.000000,0.000000
0.326919,0.020799,0.006847,0.000000,1.000000,0.000000
-0.112044,-0.018992,0.004884,0.999051,0.000000,-0.043547
0.190554,-0.020799,-0.059861,0.000000,-1.000000,0.000000
0.143713,0.020799,0.184005,0.000000,1.000000,0.000000
0.271738,0.020799,-0.148791,0.000000,1.000000,0.000000
-0.111863,0.010908,0.008024,0.997437,0.000000,-0.071544
-0.052269,-0.020799,-0.115054,0.000000,-1.000000,0.000000
-0.089166,-0.002982,-0.068023,0.795058,0.000000,0.606534
0.140169,0.020799,-0.142133,0.000000,1.000000,0.000000
-0.125101,0.020799,0.319983,0.000000,1.000000,0.000000
-0.077439,-0.020799,-0.189350,0.000000,-1.000000,0.000000
-0.367295,-0.020799,0.031664,0.000000,-1.000000,0.000000
-0.190685,0.020799,-0.254878,0.000000,1.000000,0.000000
-0.289169,0.007525,0.265429,-0.736700,0.000000,0.676219
-0.134318,0.020799,0.162387,0.000000,1.000000,0.000000
-0.259958,0.020799,-0.127008,0.000000,1.000000,0.000000
-0.095917,-0.020799,-0.253383,0.000000,-1.000000,0.000000
-0.190166,0.020799,-0.153152,0.000000,1.000000,0.000000
-0.201146,0.020799,-0.176865,0.000000,1.000000,0.000000
0.093441,0.020226,0.062020,-0.833176,0.000000,-0.553007
-0.257228,-0.006362,-0.296488,-0.655326,0.000000,-0.755346
-0.001602,0.012636,-0.112139,0.014286,0.000000,0.999898
-0.034371,-0.020799,-0.388697,0.000000,-1.000000,0.000000
-0.292947,-0.020799,0.144863,0.000000,-1.000000,0.000000
0.094575,-0.020799,0.120557,0.000000,-1.000000,0.000000
0.002434,0.020799,0.143094,0.000000,1.000000,0.000000
-0.176170,0.020799,-0.040597,0.000000,1.000000,0.000000
0.004766,0.016569,0.392490,0.012142,0.000000,0.999926
0.184010,0.020799,0.078443,0.000000,1.000000,0.000000
0.186259,0.020799,0.047311,0.000000,1.000000,0.000000
-0.018286,0.020799,-0.130480,0.000000,1.000000,0.000000
0.273491,-0.020799,-0.142982,0.000000,-1.000000,0.000000
-0.186373,-0.020799,-0.083098,0.000000,-1.000000,0.000000
0.211700,-0.020799,0.115676,0.000000,-1.000000,0.000000
-0.226301,-0.020799,0.134658,0.000000,-1.000000,0.000000
-0.021358,0.020799,-0.122745,0.000000,1.000000,0.000000
0.271738,0.020799,-0.148791,0.000000,1.000000,0.000000
-0.064844,0.020799,0.179358,0.000000,1.000000,0.000000
-0.042874,-0.020799,0.150908,0.000000,-1.000000,0.000000
0.122830,-0.020799,-0.104006,0.000000,-1.000000,0.000000
0.195815,-0.020799,0.206170,0.000000,-1.000000,0.000000
-0.315725,-0.020799,0.213306,0.000000,-1.000000,0.000000
0.319399,0.020799,0.068246,0.000000,1.000000,0.000000
-0.092455,0.009705,-0.063480,0.824385,0.000000,0.566029
0.138097,-0.020799,-0.002738,0.000000,-1.000000,0.000000
0.249705,-0.020799,0.264363,0.000000,-1.000000,0.000000
-0.111403,0.020799,-0.070855,0.000000,1.000000,0.000000
-0.199437,-0.020799,-0.103498,0.000000,-1.000000,0.000000
0.219108,-0.020799,-0.160059,0.000000,-1.000000,0.000000
-0.053768,-0.020799,-0.122730,0.000000,-1.000000,0.000000
-0.015456,0.000778,0.111080,0.137817,0.000000,-0.990458
0.293208,-0.020799,-0.115574,0.000000,-1.000000,0.000000
-0.212322,-0.020799,-0.113743,0.000000,-1.000000,0.000000
-0.177228,0.020799,0.059414,0.000000,1.000000,0.000000
-0.174814,0.020799,0.024798,0.000000,1.000000,0.000000
0.114144,-0.020799,0.046193,0.000000,-1.000000,0.000000
0.111878,0.008961,0.007817,-0.997568,0.000000,-0.069701
-0.212698,0.020799,-0.149368,0.000000,1.000000,0.000000
0.057339,-0.020799,0.325189,0.000000,-1.000000,0.000000
0.052957,0.020799,-0.357050,0.000000,1.000000,0.000000
-0.220533,-0.020799,-0.277838,0.000000,-1.000000,0.000000
0.169745,0.012424,0.353918,0.432450,0.000000,0.901658
0.079925,0.020799,0.144774,0.000000,1.000000,0.000000
0.221809,0.020799,0.129882,0.000000,1.000000,0.000000
-0.123050,-0.020799,0.129284,0.000000,-1.000000,0.000000
-0.018851,0.020799,0.277126,0.000000,1.000000,0.000000
-0.129980,-0.020799,-0.146901,0.000000,-1.000000,0.000000
-0.225025,-0.020799,-0.234860,0.000000,-1.000000,0.000000
-0.201146,0.020799,-0.176865,0.000000,1.000000,0.000000
-0.150761,-0.020799,0.026735,0.000000,-1.000000,0.000000
-0.034365,0.020799,-0.148727,0.000000,1.000000,0.000000
0.109174,0.020799,0.077579,0.000000,1.000000,0.000000
0.061113,0.020799,-0.206524,0.000000,1.000000,0.000000
-0.269407,0.020799,-0.141767,0.000000,1.000000,0.000000
0.130329,-0.020799,-0.008360,0.000000,-1.000000,0.000000
0.064504,-0.020799,0.364614,0.000000,-1.000000,0.000000
0.319104,0.020799,-0.032343,0.000000,1.000000,0.000000
0.214875,0.020799,-0.063073,0.000000,1.000000,0.000000
0.169778,0.020799,0.168657,0.000000,1.000000,0.000000
0.045560,0.020799,-0.303277,0.000000,1.000000,0.000000
-0.052831,-0.020799,0.139759,0.000000,-1.000000,0.000000
0.029748,0.020799,-0.304087,0.000000,1.000000,0.000000
-0.286670,0.020799,0.155370,0.000000,1.000000,0.000000
0.112507,0.020799,-0.151366,0.000000,1.000000,0.000000
-0.059422,-0.020799,-0.134937,0.000000,-1.000000,0.000000
0.347551,-0.020799,-0.015630,0.000000,-1.000000,0.000000
0.036558,0.020799,-0.134626,0.000000,1.000000,0.000000
-0.344378,0.020799,0.072111,0.000000,1.000000,0.000000
-0.193005,0.020799,0.214801,0.000000,1.000000,0.000000
-0.159934,-0.020799,0.310190,0.000000,-1.000000,0.000000
-0.242199,-0.020799,-0.231370,0.000000,-1.000000,0.000000
0.250636,-0.020799,0.217437,0.000000,-1.000000,0.000000
0.051311,0.020799,-0.130023,0.000000,1.000000,0.000000
0.308147,-0.015231,-0.243138,0.785051,0.000000,-0.619431
0.068151,0.020799,0.232899,0.000000,1.000000,0.000000
0.080034,0.020799,0.083165,0.000000,1.000000,0.000000
-0.299609,-0.020799,-0.153212,0.000000,-1.000000,0.000000
-0.272775,0.020799,0.206120,0.000000,1.000000,0.000000
-0.158489,0.020799,0.115332,0.000000,1.000000,0.000000
0.228302,-0.020799,-0.029146,0.000000,-1.000000,0.000000
-0.018286,0.020799,-0.130480,0.000000,1.000000,0.000000
-0.111343,0.020799,-0.266355,0.000000,1.000000,0.000000
0.217738,0.020799,-0.237247,0.000000,1.000000,0.000000
-0.186757,-0.020799,-0.287733,0.000000,-1.000000,0.000000
0.071971,0.020799,0.175503,0.000000,1.000000,0.000000
0.249454,-0.020799,0.051029,0.000000,-1.000000,0.000000
-0.162369,-0.020799,-0.025917,0.000000,-1.000000,0.000000
-0.108946,-0.020799,0.276712,0.000000,-1.000000,0.000000
-0.278413,0.020799,-0.095198,0.000000,1.000000,0.000000
0.118673,-0.020799,0.179560,0.000000,-1.000000,0.000000
-0.371980,-0.020799,-0.078654,0.000000,-1.000000,0.000000
0.320301,0.020799,0.171708,0.000000,1.000000,0.000000
0.263670,-0.020799,0.199391,0.000000,-1.000000,0.000000
0.098072,-0.020799,0.234536,0.000000,-1.000000,0.000000
-0.380736,0.019993,0.095453,-0.969981,0.000000,0.243182
0.030680,-0.020799,0.141588,0.000000,-1.000000,0.000000
-0.281556,-0.020799,-0.007732,0.000000,-1.000000,0.000000
-0.031771,0.008946,0.107556,0.283293,0.000000,-0.959034
-0.111445,0.020799,0.202974,0.000000,1.000000,0.000000
0.184010,0.020799,0.078443,0.000000,1.000000,0.000000
0.052957,0.020799,-0.357050,0.000000,1.000000,0.000000
0.235202,0.020799,0.065250,0.000000,1.000000,0.000000
0.077606,0.020799,0.338675,0.000000,1.000000,0.000000
0.235797,-0.020799,0.208399,0.000000,-1.000000,0.000000
0.045227,0.020799,0.301200,0.000000,1.000000,0.000000
-0.144035,0.020799,-0.270280,0.000000,1.000000,0.000000
-0.298669,0.020799,0.015863,0.000000,1.000000,0.000000
-0.131547,-0.020799,0.004381,0.000000,-1.000000,0.000000
0.052957,0.020799,-0.357050,0.000000,1.000000,0.000000
-0.228541,0.020799,0.034609,0.000000,1.000000,0.000000
-0.057772,-0.020799,0.115180,0.000000,-1.000000,0.000000
-0.166776,0.020799,0.222828,0.000000,1.000000,0.000000
0.182373,-0.020799,0.073572,0.000000,-1.000000,0.000000
-0.194249,-0.020799,-0.048744,0.000000,-1.000000,0.000000
-0.035830,-0.020799,0.277825,0.000000,-1.000000,0.000000
-0.262247,-0.020799,0.235935,0.000000,-1.000000,0.000000
-0.133223,0.020799,0.069090,0.000000,1.000000,0.000000
-0.381295,0.020799,0.000151,0.000000,1.000000,0.000000
-0.201165,0.020799,-0.114805,0.000000,1.000000,0.000000
0.182342,-0.020799,0.329460,0.000000,-1.000000,0.000000
0.190260,-0.020799,0.214151,0.000000,-1.000000,0.000000
0.207454,-0.020799,0.152156,0.000000,-1.000000,0.000000
-0.027532,0.020799,0.125346,0.000000,1.000000,0.000000
-0.113793,0.020799,0.057097,0.000000,1.000000,0.000000
0.109864,-0.020799,-0.086683,0.000000,-1.000000,0.000000
0.005641,-0.020799,0.329840,0.000000,-1.000000,0.000000
0.029557,-0.020799,-0.227618,0.000000,-1.000000,0.000000
-0.252922,-0.020799,0.084196,0.000000,-1.000000,0.000000
-0.138169,0.020799,0.220084,0.000000,1.000000,0.000000
0.142366,0.020799,0.209140,0.000000,1.000000,0.000000
-0.369053,0.020799,0.054579,0.000000,1.000000,0.000000
-0.311071,0.020799,-0.171841,0.000000,1.000000,0.000000
0.146416,0.020799,-0.016172,0.000000,1.000000,0.000000
-0.171919,-0.020799,0.083653,0.000000,-1.000000,0.000000
0.346747,-0.020799,0.092313,0.000000,-1.000000,0.000000
-0.117530,-0.020799,-0.203218,0.000000,-1.000000,0.000000
-0.275667,-0.020799,-0.138515,0.000000,-1.000000,0.000000
-0.280606,0.011295,-0.274465,-0.714886,0.000000,-0.699241
-0.122347,-0.020799,-0.172099,0.000000,-1.000000,0.000000
-0.070788,-0.020695,-0.086988,0.631185,0.000000,0.775632
-0.261582,-0.020799,0.117066,0.000000,-1.000000,0.000000
-0.159623,0.020799,-0.337818,0.000000,1.000000,0.000000
-0.101263,0.020799,-0.302463,0.000000,1.000000,0.000000
-0.053143,-0.020799,-0.131958,0.000000,-1.000000,0.000000
0.115762,-0.020799,0.116308,0.000000,-1.000000,0.000000
-0.075135,0.003280,0.083262,0.669945,0.000000,-0.742410
0.379735,0.020799,-0.064750,0.000000,1.000000,0.000000
-0.210861,0.020799,0.069203,0.000000,1.000000,0.000000
-0.344696,0.001699,-0.187765,-0.878164,0.000000,-0.478360
0.085037,0.020799,-0.326190,0.000000,1.000000,0.000000
0.049716,0.020799,0.338475,0.000000,1.000000,0.000000
0.094238,0.020799,-0.213972,0.000000,1.000000,0.000000
-0.083659,0.020799,-0.121498,0.000000,1.000000,0.000000
-0.331899,0.020799,0.032916,0.000000,1.000000,0.000000
0.138097,-0.020799,-0.002738,0.000000,-1.000000,0.000000
-0.012693,-0.020799,0.210282,0.000000,-1.000000,0.000000
0.063703,0.020799,0.168239,0.000000,1.000000,0.000000
0.107448,0.020799,-0.205059,0.000000,1.000000,0.000000
0.004943,0.020799,0.120600,0.000000,1.000000,0.000000
0.358167,0.020799,0.027938,0.000000,1.000000,0.000000
-0.098739,-0.020799,0.199618,0.000000,-1.000000,0.000000
-0.217988,0.020799,-0.184566,0.000000,1.000000,0.000000
-0.190699,0.020799,0.219790,0.000000,1.000000,0.000000
0.075166,0.020799,-0.133770,0.000000,1.000000,0.000000
-0.004251,-0.020799,0.285445,0.000000,-1.000000,0.000000
0.152313,-0.020799,-0.024511,0.000000,-1.000000,0.000000
0.219108,-0.020799,-0.160059,0.000000,-1.000000,0.000000
-0.380582,0.020799,-0.025408,0.000000,1.000000,0.000000
