x,y,z,nx,ny,nz
7.059495,-20.312158,-1.471970,0.000000,0.000000,-1.000000
13.643989,-5.169127,-1.471970,0.000000,0.000000,-1.000000
-15.749186,18.770083,-1.471970,-0.000000,-0.000000,-1.000000
-3.752361,-15.573004,-1.471970,0.000000,-0.000000,-1.000000
-8.034111,19.345542,-1.471970,-0.000000,0.000000,-1.000000
25.575943,0.438898,-0.674499,0.998795,0.049068,0.000000
15.062042,-5.314485,1.471970,-0.000000,-0.000000,1.000000
-20.668762,-15.050153,1.012800,-0.803208,-0.595699,0.000000
-12.259858,-5.842988,1.044174,0.903989,0.427555,0.000000
-16.561744,15.022426,-1.471970,-0.000000,-0.000000,-1.000000
-1.996246,25.236794,-1.471970,-0.000000,0.000000,-1.000000
6.363057,-12.585015,-1.471970,0.000000,0.000000,-1.000000
22.931013,-10.443023,1.471970,0.000000,-0.000000,1.000000
10.165055,20.063650,-1.471970,-0.000000,0.000000,-1.000000
14.739699,3.328318,1.471970,0.000000,-0.000000,1.000000
10.155458,-12.556896,1.471970,-0.000000,-0.000000,1.000000
17.964874,0.312770,-1.471970,0.000000,0.000000,-1.000000
3.984280,-16.646269,-1.471970,0.000000,0.000000,-1.000000
-16.129607,11.844787,1.471970,0.000000,0.000000,1.000000
9.894041,-9.306671,1.049657,-0.740951,0.671559,0.000000
23.043691,-6.716994,-1.471970,0.000000,0.000000,-1.000000
-12.892112,-4.281779,0.791088,0.941544,0.336890,0.000000
-13.374409,-2.394376,-1.130626,0.989177,0.146730,0.000000
-0.196774,-17.220460,-1.471970,0.000000,-0.000000,-1.000000
18.874269,-14.953451,1.471970,0.000000,-0.000000,1.000000
-14.868664,-4.774098,1.471970,-0.000000,0.000000,1.000000
15.495014,-0.125181,-1.471970,0.000000,0.000000,-1.000000
-20.867874,13.848697,1.471970,0.000000,0.000000,1.000000
-12.392249,-11.352650,1.471970,-0.000000,0.000000,1.000000
-17.960875,-17.575273,1.471970,-0.000000,0.000000,1.000000
14.874390,-18.126678,1.471970,-0.000000,-0.000000,1.000000
5.853946,12.263668,-1.471970,0.000000,0.000000,-1.000000
-10.902309,-8.098319,-0.621301,0.803208,0.595699,0.000000
4.679834,12.749686,0.119353,-0.336890,-0.941544,0.000000
0.744437,-14.106470,-1.471970,0.000000,-0.000000,-1.000000
8.824416,16.701473,-1.471970,0.000000,0.000000,-1.000000
-18.046834,5.490311,1.471970,0.000000,0.000000,1.000000
-1.468523,-16.727952,-1.471970,0.000000,-0.000000,-1.000000
17.856086,3.593564,1.471970,0.000000,0.000000,1.000000
-5.023941,-15.984779,-1.471970,0.000000,-0.000000,-1.000000
22.093455,3.826162,1.471970,0.000000,0.000000,1.000000
-11.914836,6.538155,-1.034768,0.857729,-0.514103,0.000000
4.303386,23.915632,1.471970,0.000000,0.000000,1.000000
-3.206225,-21.590790,1.471970,-0.000000,-0.000000,1.000000
11.692437,-15.933303,1.471970,0.000000,-0.000000,1.000000
20.747671,14.850111,1.471970,0.000000,0.000000,1.000000
-23.062464,1.765251,1.471970,-0.000000,0.000000,1.000000
-15.236746,-12.289110,1.471970,-0.000000,0.000000,1.000000
14.468970,-8.679070,-1.471970,0.000000,0.000000,-1.000000
-17.972634,-7.607536,1.471970,-0.000000,0.000000,1.000000
-18.922536,-11.916889,1.471970,-0.000000,0.000000,1.000000
21.444124,-13.953305,0.052810,0.857729,-0.514103,0.000000
14.051924,-13.832934,-1.471970,0.000000,0.000000,-1.000000
15.375709,19.431194,1.471970,0.000000,0.000000,1.000000
-3.917580,13.945547,1.471970,0.000000,0.000000,1.000000
-16.248937,0.593964,1.471970,0.000000,0.000000,1.000000
-10.525892,-22.200066,-1.471970,0.000000,-0.000000,-1.000000
-2.757526,-13.358873,1.471970,-0.000000,0.000000,1.000000
14.925626,-4.269546,1.471970,0.000000,-0.000000,1.000000
7.957405,-16.310603,1.471970,-0.000000,-0.000000,1.000000
9.592811,20.767672,1.471970,0.000000,0.000000,1.000000
7.201611,-12.365951,1.471970,-0.000000,-0.000000,1.000000
0.115985,-18.778523,1.471970,0.000000,-0.000000,1.000000
13.040302,-14.005415,1.471970,-0.000000,-0.000000,1.000000
-7.662570,-18.195612,1.471970,-0.000000,0.000000,1.000000
20.456567,8.915828,1.471970,0.000000,0.000000,1.000000
-13.134179,-16.960588,-1.471970,0.000000,-0.000000,-1.000000
-2.365800,16.894855,1.471970,0.000000,0.000000,1.000000
-1.880294,24.102808,-1.471970,-0.000000,0.000000,-1.000000
-10.944115,19.349428,-1.471970,-0.000000,-0.000000,-1.000000
9.220570,15.382129,-1.471970,-0.000000,0.000000,-1.000000
-3.741790,-21.113881,-1.471970,0.000000,-0.000000,-1.000000
20.529533,1.406305,-1.471970,0.000000,0.000000,-1.000000
-22.506711,3.968609,1.471970,-0.000000,0.000000,1.000000
-4.464921,25.184111,0.450973,-0.146730,0.989177,0.000000
15.364889,20.435338,-1.168774,0.595699,0.803208,0.000000
-24.843604,-6.039994,-1.029782,-0.970031,-0.242980,0.000000
21.722821,-7.639697,-1.471970,0.000000,0.000000,-1.000000
17.084909,-11.535307,-1.471970,0.000000,0.000000,-1.000000
-3.466448,13.352288,-1.471970,-0.000000,0.000000,-1.000000
-9.970319,9.222511,-1.424927,0.740951,-0.671559,0.000000
12.806296,-15.113418,-1.471970,0.000000,0.000000,-1.000000
10.316661,23.402633,-0.688499,0.427555,0.903989,-0.000000
1.098764,22.586449,-1.471970,-0.000000,0.000000,-1.000000
15.839415,-4.961522,1.471970,-0.000000,-0.000000,1.000000
-20.262884,14.637408,1.471970,0.000000,0.000000,1.000000
-11.814253,-6.705968,1.370268,0.857729,0.514103,0.000000
-12.550512,-21.023526,-1.471970,0.000000,-0.000000,-1.000000
14.927383,-17.402546,1.471970,0.000000,-0.000000,1.000000
-24.315424,7.686788,-1.471970,-0.000000,-0.000000,-1.000000
5.699768,-20.912243,1.471970,0.000000,-0.000000,1.000000
2.915928,-15.564481,1.471970,-0.000000,-0.000000,1.000000
15.606650,-20.200233,1.471970,0.000000,-0.000000,1.000000
6.898215,-11.699025,0.026034,-0.514103,0.857729,0.000000
-19.764989,11.779576,1.471970,0.000000,0.000000,1.000000
23.521886,2.397058,1.471970,0.000000,0.000000,1.000000
7.194115,-19.301536,1.471970,0.000000,-0.000000,1.000000
-22.406186,2.154834,1.471970,-0.000000,0.000000,1.000000
4.945829,-24.925414,1.471970,-0.000000,-0.000000,1.000000
-20.089260,3.818401,1.471970,-0.000000,0.000000,1.000000
13.520049,-5.072502,1.471970,-0.000000,-0.000000,1.000000
10.714014,-14.343601,1.471970,-0.000000,-0.000000,1.000000
3.601269,20.188900,1.471970,0.000000,0.000000,1.000000
3.985492,15.310212,1.471970,0.000000,-0.000000,1.000000
21.987538,8.702468,1.471970,0.000000,0.000000,1.000000
15.480549,-16.852550,-1.471970,0.000000,0.000000,-1.000000
13.848490,-8.832277,1.471970,0.000000,-0.000000,1.000000
6.121103,17.767294,-1.471970,-0.000000,0.000000,-1.000000
21.197148,5.354758,-1.471970,-0.000000,0.000000,-1.000000
7.681897,-17.657529,-1.471970,0.000000,0.000000,-1.000000
-14.693342,20.516618,1.471970,0.000000,0.000000,1.000000
-15.587803,20.270013,-0.450296,-0.595699,0.803208,0.000000
9.891982,-12.706319,1.471970,-0.000000,-0.000000,1.000000
16.325346,-7.008758,1.471970,-0.000000,-0.000000,1.000000
-14.965019,12.538678,-1.471970,-0.000000,-0.000000,-1.000000
-3.933391,13.015296,1.108761,0.242980,-0.970031,0.000000
21.209206,8.627063,-1.471970,-0.000000,0.000000,-1.000000
12.725600,8.758459,-1.471970,0.000000,0.000000,-1.000000
-2.656770,24.539317,-1.471970,-0.000000,0.000000,-1.000000
-14.326611,-19.902911,1.471970,-0.000000,0.000000,1.000000
-25.573323,0.492225,0.593674,-0.998795,0.049068,0.000000
-6.302065,-16.021981,-1.471970,0.000000,-0.000000,-1.000000
-20.372669,-12.237041,1.471970,-0.000000,0.000000,1.000000
3.356432,-13.159816,0.242533,-0.242980,0.970031,0.000000
6.618683,24.698650,-0.959092,0.242980,0.970031,0.000000
11.188383,-18.472926,1.471970,0.000000,-0.000000,1.000000
14.062025,-9.097163,1.471970,0.000000,-0.000000,1.000000
15.531533,-6.719760,-1.471970,0.000000,0.000000,-1.000000
12.666706,5.374083,-1.471970,0.000000,0.000000,-1.000000
-5.925861,-24.872193,0.224196,-0.242980,-0.970031,0.000000
-0.831830,-25.556639,-1.448250,-0.049068,-0.998795,0.000000
-7.666400,14.223013,1.471970,0.000000,0.000000,1.000000
-16.236032,15.821046,-1.471970,-0.000000,0.000000,-1.000000
-6.619674,-11.865976,-0.618573,0.514103,0.857729,0.000000
-18.015860,-10.161404,1.471970,-0.000000,0.000000,1.000000
18.729356,17.405968,-1.256578,0.740951,0.671559,0.000000
1.984893,-23.324776,1.471970,0.000000,-0.000000,1.000000
13.278378,-18.977194,-1.471970,0.000000,0.000000,-1.000000
14.344699,-20.958043,-1.471970,0.000000,0.000000,-1.000000
-6.032201,-15.867831,-1.471970,0.000000,-0.000000,-1.000000
15.434698,-8.174068,-1.471970,0.000000,0.000000,-1.000000
15.053871,20.666005,0.595285,0.595699,0.803208,-0.000000
-12.876077,-19.481683,-1.471970,0.000000,-0.000000,-1.000000
6.916174,20.394861,-1.471970,-0.000000,0.000000,-1.000000
7.268035,22.094769,-1.471970,-0.000000,0.000000,-1.000000
-23.864924,2.636257,1.471970,-0.000000,0.000000,1.000000
13.551998,-6.681861,1.471970,-0.000000,-0.000000,1.000000
11.495726,-7.237399,1.455809,-0.857729,0.514103,0.000000
-22.316257,12.498238,-0.709215,-0.857729,0.514103,0.000000
-21.841733,13.289935,1.027527,-0.857729,0.514103,0.000000
-14.548731,7.874366,1.471970,0.000000,0.000000,1.000000
18.597316,6.939004,-1.471970,-0.000000,0.000000,-1.000000
-4.554941,16.662624,-1.471970,-0.000000,-0.000000,-1.000000
-18.895724,2.827233,1.471970,-0.000000,0.000000,1.000000
17.187124,-9.120938,1.471970,0.000000,-0.000000,1.000000
-18.207682,-9.757948,1.471970,-0.000000,0.000000,1.000000
-13.508550,-1.490074,-0.258778,0.989177,0.146730,0.000000
-12.466474,-16.338285,-1.471970,0.000000,-0.000000,-1.000000
-18.745346,10.351118,1.471970,0.000000,0.000000,1.000000
-1.526702,14.167685,1.471970,0.000000,0.000000,1.000000
8.366008,22.228061,1.471970,0.000000,0.000000,1.000000
12.049007,11.061834,-1.471970,0.000000,0.000000,-1.000000
-0.774319,22.401284,1.471970,0.000000,0.000000,1.000000
2.807852,14.914390,-1.471970,0.000000,0.000000,-1.000000
-0.199262,-20.448687,-1.471970,0.000000,-0.000000,-1.000000
-1.858545,13.453892,0.521687,0.146730,-0.989177,0.000000
-11.083908,-12.981224,1.471970,-0.000000,0.000000,1.000000
4.814110,-19.610682,1.471970,0.000000,-0.000000,1.000000
-19.235880,-16.847104,1.171664,-0.740951,-0.671559,0.000000
21.964006,9.651675,-1.471970,-0.000000,0.000000,-1.000000
-9.704116,14.927671,-1.471970,-0.000000,-0.000000,-1.000000
21.730159,13.476083,-0.036529,0.857729,0.514103,-0.000000
9.630630,10.600509,1.471970,0.000000,-0.000000,1.000000
-16.415211,8.779019,-1.471970,-0.000000,-0.000000,-1.000000
0.701257,14.116063,1.471970,0.000000,0.000000,1.000000
-5.965934,-23.938596,-1.471970,0.000000,-0.000000,-1.000000
8.572021,14.069039,-1.471970,0.000000,0.000000,-1.000000
-15.770020,-20.134872,-0.006314,-0.595699,-0.803208,0.000000
-4.295546,21.922171,1.471970,0.000000,0.000000,1.000000
-1.353394,-13.528824,0.859630,0.146730,0.989177,0.000000
-6.106963,23.451421,-1.471970,-0.000000,-0.000000,-1.000000
-10.800871,12.543199,1.471970,0.000000,0.000000,1.000000
-14.165434,-19.721023,-1.471970,0.000000,-0.000000,-1.000000
-2.366990,-25.481221,-1.063825,-0.049068,-0.998795,0.000000
-25.500805,-1.968359,-0.987866,-0.998795,-0.049068,0.000000
19.169041,-2.693511,-1.471970,0.000000,0.000000,-1.000000
-16.231712,-16.485427,-1.471970,0.000000,-0.000000,-1.000000
1.734989,-14.806347,-1.471970,0.000000,-0.000000,-1.000000
21.775308,-9.197424,1.471970,-0.000000,-0.000000,1.000000
5.932291,-24.870582,0.320821,0.242980,-0.970031,0.000000
2.397717,-19.498707,-1.471970,0.000000,-0.000000,-1.000000
14.802236,15.284061,1.471970,0.000000,0.000000,1.000000
17.190387,-13.952475,1.471970,0.000000,-0.000000,1.000000
-17.091184,-15.643512,1.471970,-0.000000,0.000000,1.000000
-8.355827,-18.582564,1.471970,-0.000000,0.000000,1.000000
-18.476178,1.177363,1.471970,-0.000000,0.000000,1.000000
23.608581,8.353188,1.471970,0.000000,0.000000,1.000000
-25.167251,4.578581,-0.614222,-0.989177,0.146730,0.000000
-19.234526,1.908216,1.471970,0.000000,0.000000,1.000000
-7.287669,11.465595,-0.305654,0.514103,-0.857729,0.000000
-2.911407,-22.300929,-1.471970,0.000000,-0.000000,-1.000000
20.050188,3.248241,-1.471970,0.000000,0.000000,-1.000000
-18.246956,11.420057,-1.471970,-0.000000,-0.000000,-1.000000
14.541510,-14.188519,1.471970,0.000000,-0.000000,1.000000
7.183876,12.205943,1.471970,0.000000,-0.000000,1.000000
17.617903,-6.964317,1.471970,0.000000,-0.000000,1.000000
-6.778454,-24.123665,-1.471970,0.000000,-0.000000,-1.000000
14.742693,9.007010,-1.471970,-0.000000,0.000000,-1.000000
-5.959172,24.863848,-0.227489,-0.242980,0.970031,0.000000
-17.534980,5.371530,1.471970,0.000000,0.000000,1.000000
6.774962,-22.080812,-1.471970,0.000000,0.000000,-1.000000
21.974481,3.873012,1.471970,0.000000,0.000000,1.000000
-2.383168,-16.000287,1.471970,-0.000000,0.000000,1.000000
-16.932114,-15.346182,-1.471970,0.000000,-0.000000,-1.000000
22.465969,-7.918238,1.471970,0.000000,-0.000000,1.000000
-0.125675,13.732915,-1.471970,-0.000000,0.000000,-1.000000
-3.165722,18.194472,1.471970,0.000000,0.000000,1.000000
3.068603,17.498099,-1.471970,0.000000,0.000000,-1.000000
-0.587212,-22.166334,1.471970,-0.000000,-0.000000,1.000000
6.601942,-24.702843,0.397075,0.242980,-0.970031,0.000000
-11.026719,8.972519,1.471970,0.000000,0.000000,1.000000
-15.388528,4.908566,-1.471970,-0.000000,-0.000000,-1.000000
-13.244259,6.601511,1.471970,0.000000,0.000000,1.000000
9.211784,-20.636278,1.471970,0.000000,-0.000000,1.000000
-9.302340,-12.338556,1.471970,-0.000000,0.000000,1.000000
-13.591984,0.109396,-0.174384,0.998795,-0.049068,0.000000
-6.715195,15.499175,-1.471970,-0.000000,0.000000,-1.000000
19.432016,-7.036302,-1.471970,0.000000,0.000000,-1.000000
7.690941,11.721319,1.471970,0.000000,-0.000000,1.000000
13.492450,-1.598614,0.214099,-0.989177,0.146730,0.000000
13.315756,-5.121260,1.471970,-0.000000,-0.000000,1.000000
15.830427,-11.158959,1.471970,-0.000000,-0.000000,1.000000
-21.955074,0.005722,1.471970,0.000000,0.000000,1.000000
1.103496,17.977335,-1.471970,0.000000,0.000000,-1.000000
-19.985699,15.342190,-1.471970,-0.000000,-0.000000,-1.000000
14.435395,21.124697,-0.833185,0.595699,0.803208,-0.000000
5.127178,15.673601,1.471970,0.000000,-0.000000,1.000000
14.684719,10.028329,-1.471970,0.000000,0.000000,-1.000000
-11.173655,16.686875,1.471970,0.000000,0.000000,1.000000
21.003061,-14.599403,0.222804,0.803208,-0.595699,0.000000
-3.850745,22.550435,1.471970,0.000000,0.000000,1.000000
13.736575,-17.971397,1.471970,0.000000,-0.000000,1.000000
-11.214054,7.677980,0.424898,0.803208,-0.595699,0.000000
-19.854715,-3.782589,1.471970,-0.000000,0.000000,1.000000
9.472934,-20.041946,1.471970,0.000000,-0.000000,1.000000
-15.615403,14.059975,-1.471970,-0.000000,-0.000000,-1.000000
12.032742,22.590987,0.457219,0.427555,0.903989,0.000000
11.581698,-7.642868,1.471970,-0.000000,-0.000000,1.000000
-19.262935,15.847599,-1.471970,-0.000000,-0.000000,-1.000000
4.992215,18.295310,1.471970,0.000000,0.000000,1.000000
-15.600233,-17.979256,1.471970,-0.000000,0.000000,1.000000
-7.124949,12.439480,-1.471970,-0.000000,0.000000,-1.000000
-13.208401,17.323431,1.471970,0.000000,0.000000,1.000000
-5.560283,-19.325361,1.471970,-0.000000,0.000000,1.000000
-9.400396,-19.807424,-1.471970,0.000000,-0.000000,-1.000000
-24.615601,-2.504344,-1.471970,-0.000000,-0.000000,-1.000000
-12.034776,-8.234969,1.471970,-0.000000,0.000000,1.000000
18.351072,14.804158,-1.471970,-0.000000,0.000000,-1.000000
4.991040,-17.893706,1.471970,-0.000000,-0.000000,1.000000
14.908043,12.921586,-1.471970,0.000000,0.000000,-1.000000
24.052258,8.668740,1.234634,0.941544,0.336890,-0.000000
9.870454,-23.516479,-1.471970,0.000000,0.000000,-1.000000
-13.950234,2.461133,-1.471970,-0.000000,0.000000,-1.000000
-18.140811,13.798357,-1.471970,-0.000000,-0.000000,-1.000000
24.613887,3.385427,1.471970,0.000000,0.000000,1.000000
25.139532,2.327672,-1.471970,0.000000,0.000000,-1.000000
11.008957,18.940209,1.471970,0.000000,0.000000,1.000000
-25.562972,0.702920,-0.267968,-0.998795,0.049068,0.000000
13.555902,-2.058638,1.471970,0.000000,-0.000000,1.000000
8.747475,22.513994,-1.471970,-0.000000,0.000000,-1.000000
23.123857,4.593748,-1.471970,0.000000,0.000000,-1.000000
9.957986,22.010550,1.471970,0.000000,0.000000,1.000000
-11.291310,12.022009,1.471970,0.000000,0.000000,1.000000
16.410081,-19.631976,-0.121921,0.671559,-0.740951,0.000000
7.456188,-14.059474,-1.471970,0.000000,0.000000,-1.000000
9.249119,-9.946204,-0.679539,-0.671559,0.740951,0.000000
-5.353389,-25.015589,-1.420819,-0.242980,-0.970031,0.000000
7.240525,-11.493852,-0.763727,-0.514103,0.857729,0.000000
-21.678045,-8.648718,1.471970,-0.000000,0.000000,1.000000
5.957736,12.205586,0.981580,-0.427555,-0.903989,0.000000
-18.392188,16.965814,1.471970,0.000000,0.000000,1.000000
-13.307626,2.766342,0.678204,0.970031,-0.242980,0.000000
-24.369946,-3.627731,1.471970,-0.000000,0.000000,1.000000
-8.444230,-16.995972,-1.471970,0.000000,-0.000000,-1.000000
-15.148452,-8.457617,1.471970,-0.000000,0.000000,1.000000
-19.693179,-7.747404,-1.471970,0.000000,-0.000000,-1.000000
4.847753,22.276328,-1.471970,-0.000000,0.000000,-1.000000
8.657732,-11.202680,1.471970,-0.000000,-0.000000,1.000000
-13.508526,-18.347180,1.471970,-0.000000,0.000000,1.000000
-3.223855,20.296558,-1.471970,-0.000000,0.000000,-1.000000
24.421455,-0.915289,1.471970,0.000000,-0.000000,1.000000
23.240928,4.226109,1.471970,0.000000,0.000000,1.000000
16.103336,11.542411,1.471970,0.000000,0.000000,1.000000
-4.695243,-23.805017,-1.471970,0.000000,-0.000000,-1.000000
4.165465,21.642615,1.471970,0.000000,0.000000,1.000000
-13.366758,-15.054924,-1.471970,0.000000,-0.000000,-1.000000
-19.478648,-0.912369,-1.471970,0.000000,-0.000000,-1.000000
13.768030,-10.705733,-1.471970,0.000000,0.000000,-1.000000
18.846463,10.528957,-1.471970,0.000000,0.000000,-1.000000
8.480936,12.132505,1.471970,0.000000,-0.000000,1.000000
-14.368507,20.156311,1.471970,0.000000,0.000000,1.000000
-4.722542,20.501250,-1.471970,-0.000000,-0.000000,-1.000000
-10.978479,21.972927,1.471970,0.000000,0.000000,1.000000
2.341731,-13.382218,0.196554,-0.146730,0.989177,0.000000
11.343387,10.486897,1.471970,0.000000,-0.000000,1.000000
-3.755462,22.045004,-1.471970,-0.000000,0.000000,-1.000000
12.485988,-5.364877,0.629755,-0.903989,0.427555,0.000000
-5.252511,-20.679769,1.471970,-0.000000,0.000000,1.000000
25.558835,0.787140,-1.117386,0.998795,0.049068,0.000000
21.653972,-5.753421,1.471970,0.000000,-0.000000,1.000000
-18.906344,-17.210692,0.029167,-0.740951,-0.671559,0.000000
16.872501,-19.212862,-1.016587,0.671559,-0.740951,0.000000
-23.940775,1.458367,1.471970,-0.000000,0.000000,1.000000
17.960986,-0.442075,-1.471970,0.000000,0.000000,-1.000000
-13.588675,0.883598,-1.471970,-0.000000,0.000000,-1.000000
13.365168,-3.538103,1.471970,-0.000000,-0.000000,1.000000
13.638399,-11.121038,1.471970,0.000000,-0.000000,1.000000
-13.760357,-15.338509,1.471970,-0.000000,0.000000,1.000000
23.094680,8.841267,1.471970,0.000000,0.000000,1.000000
13.269622,2.918062,-0.042794,-0.970031,-0.242980,0.000000
-18.304601,17.874613,-1.020962,-0.740951,0.671559,0.000000
-13.555086,13.903406,1.471970,0.000000,0.000000,1.000000
18.082503,14.514307,-1.471970,-0.000000,0.000000,-1.000000
18.982419,16.079369,-1.471970,-0.000000,0.000000,-1.000000
21.755408,9.468221,-1.471970,-0.000000,0.000000,-1.000000
5.362904,15.037963,-1.471970,0.000000,0.000000,-1.000000
-2.057235,20.638696,-1.471970,-0.000000,0.000000,-1.000000
3.223844,-14.710066,-1.471970,0.000000,0.000000,-1.000000
16.037802,-10.678855,1.471970,0.000000,-0.000000,1.000000
-0.216416,14.327841,1.471970,0.000000,0.000000,1.000000
-10.618776,-8.480618,1.369313,0.803208,0.595699,0.000000
-3.310374,13.748540,1.471970,0.000000,0.000000,1.000000
23.835864,9.273518,-1.190592,0.941544,0.336890,0.000000
-16.397066,-2.406580,-1.471970,-0.000000,-0.000000,-1.000000
9.011681,-19.049618,-1.471970,0.000000,0.000000,-1.000000
-16.723906,-19.347541,0.763304,-0.671559,-0.740951,0.000000
-16.032482,-17.924257,-1.471970,0.000000,-0.000000,-1.000000
8.647375,14.747225,-1.471970,-0.000000,0.000000,-1.000000
10.613641,-13.082165,1.471970,-0.000000,-0.000000,1.000000
16.463452,18.504361,-1.471970,-0.000000,0.000000,-1.000000
16.544211,-13.188278,1.471970,0.000000,-0.000000,1.000000
17.854714,-3.505840,-1.471970,0.000000,0.000000,-1.000000
-13.615442,14.119815,1.471970,0.000000,0.000000,1.000000
15.170692,8.127187,1.471970,0.000000,0.000000,1.000000
-6.090423,-20.503713,-1.471970,0.000000,-0.000000,-1.000000
17.369900,2.299439,1.471970,0.000000,0.000000,1.000000
-20.333022,4.861616,1.471970,0.000000,0.000000,1.000000
-5.291625,25.031060,-0.482349,-0.242980,0.970031,0.000000
-16.455569,-10.356932,1.471970,-0.000000,0.000000,1.000000
-5.429189,23.557540,-1.471970,-0.000000,-0.000000,-1.000000
-14.066319,15.512398,1.471970,0.000000,0.000000,1.000000
-20.989497,14.174950,1.471970,0.000000,0.000000,1.000000
-20.407088,-0.166488,1.471970,-0.000000,0.000000,1.000000
-14.576210,-7.833260,1.471970,-0.000000,0.000000,1.000000
-24.987281,-5.445939,1.471970,-0.000000,0.000000,1.000000
24.578379,-5.741683,-1.471970,0.000000,0.000000,-1.000000
-5.257021,-17.204732,1.471970,-0.000000,0.000000,1.000000
12.249906,16.611413,1.471970,0.000000,0.000000,1.000000
-24.763014,-0.937593,-1.471970,0.000000,-0.000000,-1.000000
17.197862,18.917972,-0.032724,0.671559,0.740951,0.000000
6.002837,24.852911,0.207363,0.242980,0.970031,-0.000000
12.225671,-5.915270,-0.090800,-0.903989,0.427555,0.000000
-7.279674,14.042330,-1.471970,-0.000000,-0.000000,-1.000000
-22.696635,-4.541613,-1.471970,0.000000,-0.000000,-1.000000
-11.597449,8.811890,-1.471970,-0.000000,0.000000,-1.000000
16.372219,4.730946,-1.471970,-0.000000,0.000000,-1.000000
10.546149,22.140999,-1.471970,-0.000000,0.000000,-1.000000
9.260200,-11.108346,1.471970,0.000000,-0.000000,1.000000
13.710670,-17.011855,-1.471970,0.000000,0.000000,-1.000000
-17.836986,-2.201068,-1.471970,-0.000000,-0.000000,-1.000000
13.460437,-16.513410,-1.471970,0.000000,0.000000,-1.000000
-12.330547,19.781416,-1.471970,-0.000000,-0.000000,-1.000000
-16.566440,12.148891,-1.471970,-0.000000,-0.000000,-1.000000
22.699733,-9.635188,-1.471970,0.000000,0.000000,-1.000000
-22.987806,3.471595,-1.471970,-0.000000,-0.000000,-1.000000
22.980041,8.937894,1.471970,0.000000,0.000000,1.000000
16.227211,-13.374899,1.471970,-0.000000,-0.000000,1.000000
8.437436,21.947492,1.471970,0.000000,0.000000,1.000000
-10.142511,-13.484457,1.471970,-0.000000,0.000000,1.000000
-3.044671,-25.394785,-1.167124,-0.146730,-0.989177,0.000000
20.655931,4.474778,-1.471970,0.000000,0.000000,-1.000000
8.911649,14.058326,-1.471970,0.000000,0.000000,-1.000000
-10.675562,10.504450,1.471970,0.000000,0.000000,1.000000
8.837599,10.319184,0.097769,-0.671559,-0.740951,-0.000000
4.714897,16.341905,1.471970,0.000000,0.000000,1.000000
23.446338,1.259878,1.471970,0.000000,0.000000,1.000000
8.301669,-23.252142,1.471970,0.000000,-0.000000,1.000000
5.059695,-17.209275,1.471970,-0.000000,-0.000000,1.000000
4.930464,-24.927066,1.471970,0.000000,-0.000000,1.000000
25.275297,3.642369,-1.471970,0.000000,0.000000,-1.000000
8.778693,15.292306,-1.471970,-0.000000,0.000000,-1.000000
-14.701248,14.102163,1.471970,0.000000,0.000000,1.000000
-12.801240,-6.158550,-1.471970,0.000000,-0.000000,-1.000000
-5.327819,-22.417353,-1.471970,0.000000,-0.000000,-1.000000
18.959111,17.076943,1.471970,0.000000,0.000000,1.000000
-16.060569,-16.530319,-1.471970,0.000000,-0.000000,-1.000000
12.312114,-9.328956,1.471970,-0.000000,-0.000000,1.000000
-15.345148,14.676493,1.471970,0.000000,0.000000,1.000000
10.902406,20.188822,-1.471970,-0.000000,0.000000,-1.000000
-12.872176,18.000673,1.471970,0.000000,0.000000,1.000000
13.850203,-6.530807,-1.471970,0.000000,0.000000,-1.000000
23.833514,0.550435,-1.471970,0.000000,0.000000,-1.000000
-17.567687,-18.582782,1.163018,-0.671559,-0.740951,0.000000
-12.952325,-16.479466,-1.471970,0.000000,-0.000000,-1.000000
0.748740,25.388682,-1.471970,-0.000000,0.000000,-1.000000
-15.065308,-11.929042,-1.471970,0.000000,-0.000000,-1.000000
-16.427218,15.417047,-1.471970,-0.000000,-0.000000,-1.000000
-15.749706,3.513131,1.471970,0.000000,0.000000,1.000000
-8.810210,-18.041107,1.471970,-0.000000,0.000000,1.000000
-15.153647,17.967800,-1.471970,-0.000000,-0.000000,-1.000000
23.225414,-7.938650,1.471970,0.000000,-0.000000,1.000000
10.255063,9.892379,1.471970,0.000000,-0.000000,1.000000
-10.372997,16.654214,-1.471970,-0.000000,-0.000000,-1.000000
16.627152,14.848670,1.471970,0.000000,0.000000,1.000000
2.278440,-21.256177,-1.471970,0.000000,-0.000000,-1.000000
0.241715,-19.279104,1.471970,0.000000,-0.000000,1.000000
-4.776417,13.241092,-1.471970,-0.000000,0.000000,-1.000000
16.240319,15.860071,1.471970,0.000000,-0.000000,1.000000
4.709702,17.160121,-1.471970,0.000000,0.000000,-1.000000
-2.218832,21.852208,1.471970,0.000000,0.000000,1.000000
11.299767,8.632387,-1.471970,0.000000,0.000000,-1.000000
-10.060697,15.095190,1.471970,0.000000,0.000000,1.000000
-5.252318,25.040906,0.356833,-0.242980,0.970031,0.000000
-7.413405,-21.877265,1.471970,-0.000000,0.000000,1.000000
10.059708,-12.811222,-1.471970,0.000000,0.000000,-1.000000
-4.447167,13.910584,1.471970,0.000000,0.000000,1.000000
11.521678,21.159305,1.471970,0.000000,0.000000,1.000000
-14.627618,20.580495,1.471970,0.000000,0.000000,1.000000
-11.005266,18.812877,-1.471970,-0.000000,-0.000000,-1.000000
8.474367,22.519516,1.471970,0.000000,0.000000,1.000000
10.242852,14.075356,1.471970,0.000000,-0.000000,1.000000
5.660069,-16.385453,1.471970,0.000000,-0.000000,1.000000
3.895490,-17.496450,1.471970,0.000000,-0.000000,1.000000
23.744373,-9.529221,1.360269,0.941544,-0.336890,0.000000
20.555600,3.783592,1.471970,0.000000,-0.000000,1.000000
25.169549,4.563088,-0.145854,0.989177,0.146730,-0.000000
13.206460,11.390630,1.471970,0.000000,0.000000,1.000000
-6.975492,16.817543,-1.471970,-0.000000,0.000000,-1.000000
-24.831377,1.061605,-1.471970,-0.000000,-0.000000,-1.000000
14.710126,12.494679,-1.471970,0.000000,0.000000,-1.000000
11.064563,-12.644506,-1.471970,0.000000,0.000000,-1.000000
15.816318,2.600149,-1.471970,0.000000,0.000000,-1.000000
-6.976460,-17.328993,-1.471970,0.000000,-0.000000,-1.000000
-6.681132,-19.559136,1.471970,-0.000000,0.000000,1.000000
-7.623069,15.165763,1.471970,0.000000,0.000000,1.000000
21.162526,-14.384389,0.701231,0.803208,-0.595699,0.000000
-16.063445,2.847294,-1.471970,-0.000000,0.000000,-1.000000
13.938528,-0.039142,-1.471970,0.000000,0.000000,-1.000000
-25.112971,-4.944510,-0.349679,-0.989177,-0.146730,0.000000
17.014636,-13.604927,-1.471970,0.000000,0.000000,-1.000000
-7.049579,22.837515,-1.471970,-0.000000,0.000000,-1.000000
3.236423,-13.189877,-0.484594,-0.242980,0.970031,0.000000
-1.252293,-24.009525,-1.471970,0.000000,-0.000000,-1.000000
24.644901,-4.664351,-1.471970,0.000000,0.000000,-1.000000
-21.643756,4.623875,-1.471970,-0.000000,-0.000000,-1.000000
17.471867,18.526165,1.471970,0.000000,0.000000,1.000000
-12.413542,-5.518050,-1.329210,0.903989,0.427555,0.000000
-4.429844,-25.189314,-1.438545,-0.146730,-0.989177,0.000000
-14.441402,-1.432802,-1.471970,-0.000000,-0.000000,-1.000000
8.836822,-23.992117,-0.770525,0.336890,-0.941544,0.000000
-10.562795,-21.185019,1.471970,-0.000000,0.000000,1.000000
-19.184765,-1.353150,-1.471970,0.000000,-0.000000,-1.000000
-10.336681,20.040549,1.471970,0.000000,0.000000,1.000000
18.371274,-3.148579,1.471970,0.000000,-0.000000,1.000000
-3.040344,19.095936,1.471970,0.000000,0.000000,1.000000
-17.413329,-14.737843,1.471970,-0.000000,0.000000,1.000000
12.149923,-15.382465,-1.471970,0.000000,0.000000,-1.000000
25.073127,-0.261674,1.471970,0.000000,-0.000000,1.000000
-7.066591,11.598104,0.718578,0.514103,-0.857729,0.000000
13.096382,14.692188,1.471970,0.000000,0.000000,1.000000
-19.227565,-9.535407,-1.471970,0.000000,-0.000000,-1.000000
-16.204791,-3.611634,-1.471970,0.000000,-0.000000,-1.000000
-8.248004,12.696410,-1.471970,-0.000000,-0.000000,-1.000000
-18.252884,-17.931674,1.273774,-0.740951,-0.671559,0.000000
-12.431665,-8.593673,1.471970,-0.000000,0.000000,1.000000
9.166787,-16.238917,-1.471970,0.000000,0.000000,-1.000000
-1.919688,-25.503196,0.157139,-0.049068,-0.998795,0.000000
-11.937928,9.311847,1.471970,0.000000,0.000000,1.000000
-19.734958,-11.686969,1.471970,-0.000000,0.000000,1.000000
-7.063494,-14.020847,-1.471970,0.000000,-0.000000,-1.000000
-12.995194,-19.514825,-1.471970,0.000000,-0.000000,-1.000000
12.769939,16.023459,1.471970,0.000000,0.000000,1.000000
-1.416443,22.320408,1.471970,0.000000,0.000000,1.000000
-11.267556,-16.095764,-1.471970,0.000000,-0.000000,-1.000000
25.400067,2.905060,1.471970,0.000000,0.000000,1.000000
-25.534142,-1.289770,0.322131,-0.998795,-0.049068,0.000000
8.004400,22.588634,1.471970,0.000000,0.000000,1.000000
-21.576760,-2.358142,1.471970,-0.000000,0.000000,1.000000
18.206941,17.982364,0.821908,0.740951,0.671559,-0.000000
20.262351,11.450536,1.471970,0.000000,0.000000,1.000000
-1.036778,-25.546571,0.333058,-0.049068,-0.998795,0.000000
-22.864551,-9.278689,1.471970,-0.000000,0.000000,1.000000
-18.003181,-18.188073,0.083366,-0.671559,-0.740951,0.000000
-21.414379,5.673910,-1.471970,-0.000000,-0.000000,-1.000000
25.568235,0.595788,-0.749920,0.998795,0.049068,0.000000
6.247570,15.159160,1.471970,0.000000,0.000000,1.000000
13.534692,-1.275606,-0.407909,-0.998795,0.049068,0.000000
-2.954388,-16.284686,-1.471970,0.000000,-0.000000,-1.000000
-17.203653,-4.316876,-1.471970,0.000000,-0.000000,-1.000000
-8.352736,11.912782,-1.471970,-0.000000,0.000000,-1.000000
14.082525,-4.408803,-1.471970,0.000000,0.000000,-1.000000
16.151554,9.890208,-1.471970,-0.000000,0.000000,-1.000000
-15.084251,-20.643473,-0.855948,-0.595699,-0.803208,0.000000
-16.721423,19.349791,1.383241,-0.671559,0.740951,0.000000
17.236398,17.217107,-1.471970,-0.000000,0.000000,-1.000000
16.014260,11.685207,-1.471970,-0.000000,0.000000,-1.000000
12.258914,15.324187,1.471970,0.000000,0.000000,1.000000
16.785006,17.738067,1.471970,0.000000,0.000000,1.000000
17.418803,-17.919901,-1.471970,0.000000,0.000000,-1.000000
18.605926,2.078568,1.471970,0.000000,0.000000,1.000000
16.398924,2.765942,-1.471970,0.000000,0.000000,-1.000000
7.557272,11.303576,-1.432294,-0.595699,-0.803208,-0.000000
18.276445,0.086110,1.471970,0.000000,0.000000,1.000000
7.685739,20.808852,-1.471970,-0.000000,0.000000,-1.000000
-1.734462,-20.922595,1.471970,-0.000000,-0.000000,1.000000
-1.172244,-24.510617,1.471970,-0.000000,-0.000000,1.000000
-22.526898,-12.146806,0.426569,-0.857729,-0.514103,0.000000
-23.131427,5.727386,1.471970,0.000000,0.000000,1.000000
24.653760,-6.293477,1.471970,0.000000,-0.000000,1.000000
-5.888765,21.783528,1.471970,0.000000,0.000000,1.000000
23.620212,2.179850,1.471970,0.000000,-0.000000,1.000000
20.975606,0.717561,-1.471970,0.000000,0.000000,-1.000000
7.453313,12.318638,1.471970,0.000000,-0.000000,1.000000
12.049861,-14.537905,1.471970,0.000000,-0.000000,1.000000
-18.153185,9.091499,1.471970,0.000000,0.000000,1.000000
6.941159,15.160319,-1.471970,-0.000000,0.000000,-1.000000
16.761077,-16.413765,1.471970,0.000000,-0.000000,1.000000
9.539271,20.936603,1.471970,0.000000,0.000000,1.000000
-4.378794,25.174067,1.471970,0.000000,0.000000,1.000000
5.892297,20.330285,1.471970,0.000000,0.000000,1.000000
15.443330,-5.128716,-1.471970,0.000000,0.000000,-1.000000
-23.084708,-8.841546,1.471970,-0.000000,0.000000,1.000000
17.938800,3.024661,1.471970,0.000000,-0.000000,1.000000
25.302695,3.300789,1.471970,0.000000,0.000000,1.000000
5.620383,-12.668964,1.471970,-0.000000,-0.000000,1.000000
-15.104835,-16.815793,1.471970,-0.000000,0.000000,1.000000
1.806048,-13.461680,-0.860130,-0.146730,0.989177,0.000000
17.364113,-13.515679,-1.471970,0.000000,0.000000,-1.000000
25.048414,1.732480,1.471970,0.000000,0.000000,1.000000
-4.998231,12.780167,-1.471970,-0.000000,0.000000,-1.000000
-11.053990,-18.112203,1.471970,-0.000000,0.000000,1.000000
18.990895,-13.866009,-1.471970,0.000000,0.000000,-1.000000
-1.731382,-25.512447,-1.427335,-0.049068,-0.998795,0.000000
5.095570,22.015689,-1.471970,-0.000000,0.000000,-1.000000
-12.006107,6.379499,-0.154783,0.903989,-0.427555,0.000000
-9.924449,-18.121979,1.471970,-0.000000,0.000000,1.000000
-9.327266,-22.428722,1.471970,-0.000000,0.000000,1.000000
11.607309,-20.361205,1.471970,0.000000,-0.000000,1.000000
-21.103186,14.464400,-0.069954,-0.803208,0.595699,0.000000
13.730533,19.766434,-1.471970,-0.000000,0.000000,-1.000000
-16.610702,5.194823,-1.471970,-0.000000,-0.000000,-1.000000
-25.012717,-2.516785,-1.471970,0.000000,-0.000000,-1.000000
19.818312,-8.095518,-1.471970,0.000000,0.000000,-1.000000
-0.458751,-17.409572,1.471970,-0.000000,0.000000,1.000000
5.434198,24.995348,0.180250,0.242980,0.970031,-0.000000
7.726952,-15.436359,-1.471970,0.000000,0.000000,-1.000000
-13.773864,16.383803,-1.471970,-0.000000,0.000000,-1.000000
3.527262,-25.323199,-0.935755,0.146730,-0.989177,0.000000
-17.467615,6.010952,1.471970,0.000000,0.000000,1.000000
-15.025376,8.735254,1.471970,0.000000,0.000000,1.000000
-19.493206,-9.102738,-1.471970,0.000000,-0.000000,-1.000000
7.344788,-15.605000,-1.471970,0.000000,0.000000,-1.000000
16.590062,-11.753035,-1.471970,0.000000,0.000000,-1.000000
-2.844467,13.296985,1.471970,0.000000,0.000000,1.000000
1.197688,19.254166,-1.471970,0.000000,0.000000,-1.000000
2.080157,-25.273017,-1.471970,0.000000,0.000000,-1.000000
-5.873470,16.091080,1.471970,0.000000,0.000000,1.000000
16.152308,17.333884,-1.471970,-0.000000,0.000000,-1.000000
20.796595,5.823589,1.471970,0.000000,0.000000,1.000000
4.539223,13.964163,1.471970,0.000000,-0.000000,1.000000
-17.805315,11.068926,1.471970,0.000000,0.000000,1.000000
-0.096606,-22.665524,-1.471970,0.000000,-0.000000,-1.000000
6.999744,21.885618,-1.471970,-0.000000,0.000000,-1.000000
-8.825330,-17.152045,-1.471970,0.000000,-0.000000,-1.000000
21.035797,8.258319,-1.471970,-0.000000,0.000000,-1.000000
3.823209,-18.730200,1.471970,0.000000,-0.000000,1.000000
-15.413450,15.645583,-1.471970,-0.000000,-0.000000,-1.000000
23.192676,6.903314,1.471970,0.000000,-0.000000,1.000000
-16.253123,-18.529067,-1.471970,0.000000,-0.000000,-1.000000
13.838532,-10.143526,-1.471970,0.000000,0.000000,-1.000000
15.047103,-18.534313,1.471970,-0.000000,-0.000000,1.000000
-0.327075,17.988337,-1.471970,-0.000000,0.000000,-1.000000
4.113333,-15.546702,1.471970,-0.000000,-0.000000,1.000000
2.019646,-18.395832,1.471970,0.000000,-0.000000,1.000000
2.110643,15.533594,1.471970,0.000000,0.000000,1.000000
-19.963734,16.000773,-1.119613,-0.803208,0.595699,0.000000
17.300819,-18.824658,1.327895,0.671559,-0.740951,0.000000
-22.461778,5.615785,-1.471970,-0.000000,-0.000000,-1.000000
9.751557,-18.966551,1.471970,-0.000000,-0.000000,1.000000
17.596064,-1.327227,1.471970,0.000000,-0.000000,1.000000
-11.631779,22.780629,-0.347611,-0.427555,0.903989,0.000000
24.153426,0.514113,1.471970,0.000000,0.000000,1.000000
-7.971151,-22.466001,1.471970,-0.000000,0.000000,1.000000
-19.573778,-9.479347,-1.471970,0.000000,-0.000000,-1.000000
-22.962205,7.533296,1.471970,0.000000,0.000000,1.000000
7.336607,-11.436263,-0.498226,-0.514103,0.857729,0.000000
22.401092,1.372339,1.471970,0.000000,0.000000,1.000000
8.172375,24.229860,0.114261,0.336890,0.941544,-0.000000
16.911497,-13.523822,-1.471970,0.000000,0.000000,-1.000000
9.405939,16.721917,1.471970,0.000000,-0.000000,1.000000
9.415468,10.330038,-1.471970,0.000000,0.000000,-1.000000
-18.602183,1.796725,-1.471970,-0.000000,0.000000,-1.000000
-18.023198,-15.741469,-1.471970,0.000000,-0.000000,-1.000000
-1.264167,-18.876592,1.471970,-0.000000,-0.000000,1.000000
14.727787,15.998533,-1.471970,-0.000000,0.000000,-1.000000
22.170900,-11.787434,1.471970,0.000000,-0.000000,1.000000
11.244257,18.605768,-1.471970,-0.000000,0.000000,-1.000000
-14.432180,17.264719,-1.471970,-0.000000,0.000000,-1.000000
-8.557543,-18.177896,-1.471970,0.000000,-0.000000,-1.000000
1.458792,-13.513190,-1.428340,-0.146730,0.989177,0.000000
15.552258,-10.780821,1.471970,-0.000000,-0.000000,1.000000
10.097223,-9.082495,-0.638967,-0.740951,0.671559,0.000000
3.431965,-22.104252,-1.471970,0.000000,0.000000,-1.000000
15.435133,15.245683,1.471970,0.000000,-0.000000,1.000000
-6.047896,-21.078546,1.471970,-0.000000,0.000000,1.000000
6.751042,23.934361,1.471970,0.000000,0.000000,1.000000
20.867835,14.781734,0.985469,0.803208,0.595699,-0.000000
-17.790050,13.667579,1.471970,0.000000,0.000000,1.000000
-3.356559,-15.726946,1.471970,-0.000000,0.000000,1.000000
-1.750863,16.424562,1.471970,0.000000,0.000000,1.000000
7.222933,-22.056110,-1.471970,0.000000,0.000000,-1.000000
-25.402413,-2.993249,0.130141,-0.989177,-0.146730,0.000000
-6.152417,23.998339,1.471970,0.000000,0.000000,1.000000
-5.049792,-17.404454,-1.471970,0.000000,-0.000000,-1.000000
5.481936,-20.047331,-1.471970,0.000000,0.000000,-1.000000
-10.810596,20.800225,1.471970,0.000000,0.000000,1.000000
7.667643,21.216575,-1.471970,-0.000000,0.000000,-1.000000
2.981066,24.472806,1.471970,0.000000,0.000000,1.000000
3.760441,-13.058617,0.628997,-0.242980,0.970031,0.000000
15.360411,3.444955,1.471970,0.000000,0.000000,1.000000
7.388589,-24.505798,-0.274830,0.242980,-0.970031,0.000000
7.481566,14.023920,1.471970,0.000000,0.000000,1.000000
10.714901,-9.112456,-1.471970,0.000000,0.000000,-1.000000
12.344636,18.851610,1.471970,0.000000,0.000000,1.000000
13.582082,17.047571,-1.471970,0.000000,0.000000,-1.000000
24.664689,-2.699060,1.471970,0.000000,-0.000000,1.000000
-0.237740,-23.955566,-1.471970,0.000000,-0.000000,-1.000000
-16.777844,-13.719518,-1.471970,0.000000,-0.000000,-1.000000
11.325620,10.351633,-1.471970,0.000000,0.000000,-1.000000
-25.560465,-0.753950,1.178091,-0.998795,-0.049068,0.000000
-21.030345,1.610233,-1.471970,-0.000000,0.000000,-1.000000
3.578015,-22.197842,1.471970,0.000000,-0.000000,1.000000
6.178510,-24.808907,0.129602,0.242980,-0.970031,0.000000
21.437116,13.964997,-0.070479,0.857729,0.514103,-0.000000
13.676800,-12.621476,1.471970,0.000000,-0.000000,1.000000
-7.611721,-15.215725,1.471970,-0.000000,0.000000,1.000000
-10.923706,8.069469,-0.316748,0.803208,-0.595699,0.000000
20.227487,15.645143,-0.309056,0.803208,0.595699,-0.000000
-15.736835,11.485355,-1.471970,-0.000000,-0.000000,-1.000000
-7.747478,-22.856440,1.471970,-0.000000,0.000000,1.000000
-3.591821,15.514254,1.471970,0.000000,0.000000,1.000000
7.818774,17.305000,-1.471970,-0.000000,0.000000,-1.000000
-20.448650,15.346940,-1.189997,-0.803208,0.595699,0.000000
11.660475,-17.302035,-1.471970,0.000000,0.000000,-1.000000
21.244272,14.274167,0.717935,0.803208,0.595699,0.000000
-13.641691,18.727045,1.471970,0.000000,0.000000,1.000000
22.616044,0.513209,-1.471970,0.000000,0.000000,-1.000000
16.373037,4.500341,-1.471970,-0.000000,0.000000,-1.000000
-9.678505,10.121919,1.471970,0.000000,0.000000,1.000000
-2.765190,-13.512660,-1.471970,0.000000,-0.000000,-1.000000
4.602145,15.686613,-1.471970,0.000000,0.000000,-1.000000
0.723196,-13.561830,0.057344,-0.049068,0.998795,0.000000
-15.452364,-10.754117,-1.471970,0.000000,-0.000000,-1.000000
2.708569,-19.794034,1.471970,0.000000,-0.000000,1.000000
-23.756556,-5.548594,1.471970,-0.000000,0.000000,1.000000
-2.979139,-14.021680,1.471970,-0.000000,0.000000,1.000000
-15.085538,5.264521,-1.471970,-0.000000,0.000000,-1.000000
-10.235728,-21.767541,-1.471970,0.000000,-0.000000,-1.000000
24.769533,-6.335702,0.303194,0.970031,-0.242980,0.000000
18.980419,17.128962,0.268282,0.740951,0.671559,-0.000000
13.243419,13.497320,-1.471970,0.000000,0.000000,-1.000000
17.443906,-17.164105,-1.471970,0.000000,0.000000,-1.000000
2.416168,-22.997502,1.471970,0.000000,-0.000000,1.000000
-9.642021,-9.584733,-0.146811,0.740951,0.671559,0.000000
11.513781,-12.181165,1.471970,-0.000000,-0.000000,1.000000
-17.272850,-14.943186,-1.471970,0.000000,-0.000000,-1.000000
20.485920,-0.875948,-1.471970,0.000000,0.000000,-1.000000
-3.602844,-21.396723,1.471970,-0.000000,-0.000000,1.000000
-20.516979,11.228066,1.471970,0.000000,0.000000,1.000000
-7.476382,-18.358983,1.471970,-0.000000,0.000000,1.000000
22.518330,-12.161100,0.318410,0.857729,-0.514103,0.000000
-4.593258,24.875574,1.471970,0.000000,0.000000,1.000000
-1.939172,-13.977081,1.471970,-0.000000,0.000000,1.000000
-1.024615,-14.371527,1.471970,-0.000000,0.000000,1.000000
-10.885593,11.784353,1.471970,0.000000,0.000000,1.000000
-14.178833,-11.836445,-1.471970,0.000000,-0.000000,-1.000000
-3.160529,-25.377599,0.522209,-0.146730,-0.989177,0.000000
-3.174609,-22.460237,1.471970,-0.000000,-0.000000,1.000000
-16.932387,-13.172357,-1.471970,0.000000,-0.000000,-1.000000
18.776473,17.353982,0.800505,0.740951,0.671559,-0.000000
-21.310937,7.438300,-1.471970,-0.000000,-0.000000,-1.000000
-14.813627,10.439203,-1.471970,-0.000000,-0.000000,-1.000000
-14.148851,0.529224,-1.471970,-0.000000,0.000000,-1.000000
-24.271452,8.056132,-0.147170,-0.941544,0.336890,0.000000
10.073658,14.324807,-1.471970,-0.000000,0.000000,-1.000000
-11.672133,6.943081,-0.067439,0.857729,-0.514103,0.000000
-15.367142,8.829026,-1.471970,-0.000000,-0.000000,-1.000000
-24.180379,-8.310664,-1.270716,-0.941544,-0.336890,0.000000
-19.040751,10.947695,-1.471970,-0.000000,-0.000000,-1.000000
-3.736560,24.772506,1.471970,0.000000,0.000000,1.000000
11.695953,-13.739120,1.471970,0.000000,-0.000000,1.000000
-12.810695,-22.128978,1.394946,-0.514103,-0.857729,0.000000
-19.885054,-5.245618,1.471970,-0.000000,0.000000,1.000000
-15.147607,-13.011439,1.471970,-0.000000,0.000000,1.000000
3.872570,-22.758984,-1.471970,0.000000,0.000000,-1.000000
-1.218085,-24.462341,-1.471970,0.000000,-0.000000,-1.000000
6.145820,16.826858,-1.471970,0.000000,0.000000,-1.000000
10.940687,19.489564,-1.471970,-0.000000,0.000000,-1.000000
10.263506,-15.039391,1.471970,0.000000,-0.000000,1.000000
-2.816570,-16.656873,-1.471970,0.000000,-0.000000,-1.000000
-19.729197,5.997616,1.471970,0.000000,0.000000,1.000000
1.304528,13.533271,-1.382629,-0.049068,-0.998795,0.000000
18.215435,9.224995,-1.471970,-0.000000,0.000000,-1.000000
15.161979,-6.016230,-1.471970,0.000000,0.000000,-1.000000
7.881120,11.063394,-0.947585,-0.595699,-0.803208,-0.000000
-19.472042,-2.494457,-1.471970,-0.000000,-0.000000,-1.000000
22.095614,-2.046533,-1.471970,0.000000,0.000000,-1.000000
9.579079,12.598060,-1.471970,0.000000,0.000000,-1.000000
-10.089128,12.969282,-1.471970,-0.000000,-0.000000,-1.000000
21.959601,8.544473,1.471970,0.000000,0.000000,1.000000
-1.447001,13.760840,-1.471970,-0.000000,0.000000,-1.000000
-3.146156,16.148737,1.471970,0.000000,0.000000,1.000000
14.087041,10.667813,-1.471970,-0.000000,0.000000,-1.000000
1.998955,25.499302,0.005374,0.049068,0.998795,0.000000
-11.970882,-20.761151,-1.471970,0.000000,-0.000000,-1.000000
-5.543437,23.401907,-1.471970,-0.000000,-0.000000,-1.000000
3.564222,16.244312,1.471970,0.000000,-0.000000,1.000000
-19.963794,1.087899,-1.471970,-0.000000,-0.000000,-1.000000
-10.800449,22.779686,1.471970,0.000000,0.000000,1.000000
5.476451,12.433217,-0.552709,-0.427555,-0.903989,-0.000000
23.336460,-10.271519,-1.471970,0.000000,0.000000,-1.000000
6.745231,21.640272,1.471970,0.000000,-0.000000,1.000000
0.368707,22.000952,-1.471970,-0.000000,0.000000,-1.000000
-1.121141,13.542280,-0.228792,0.049068,-0.998795,0.000000
-19.337352,-6.631800,-1.471970,0.000000,-0.000000,-1.000000
21.177329,-14.364429,1.259695,0.803208,-0.595699,0.000000
1.126617,-23.255259,-1.471970,0.000000,0.000000,-1.000000
-15.620912,2.061376,-1.471970,-0.000000,0.000000,-1.000000
-20.002527,-1.054122,1.471970,-0.000000,0.000000,1.000000
-19.806757,8.067285,1.471970,0.000000,0.000000,1.000000
-17.935081,-15.891135,1.471970,-0.000000,0.000000,1.000000
2.943236,15.437424,-1.471970,0.000000,0.000000,-1.000000
15.061713,-20.015439,-1.471970,0.000000,0.000000,-1.000000
-16.597870,-15.443939,-1.471970,0.000000,-0.000000,-1.000000
16.987411,-17.887561,-1.471970,0.000000,0.000000,-1.000000
-17.913703,-4.657747,-1.471970,0.000000,-0.000000,-1.000000
-11.150395,11.900492,1.471970,0.000000,0.000000,1.000000
17.062730,11.929379,-1.471970,0.000000,0.000000,-1.000000
13.155733,-21.922170,-0.541933,0.514103,-0.857729,0.000000
-3.196667,-13.759526,-1.471970,0.000000,-0.000000,-1.000000
-19.774658,-2.811387,1.471970,-0.000000,0.000000,1.000000
-8.558515,19.543980,-1.471970,-0.000000,0.000000,-1.000000
-10.264862,-22.116654,-1.471970,0.000000,-0.000000,-1.000000
5.918377,-18.766488,1.471970,0.000000,-0.000000,1.000000
10.350111,13.830825,1.471970,0.000000,-0.000000,1.000000
-22.893093,-1.791415,1.471970,-0.000000,0.000000,1.000000
-15.143573,-20.599477,-0.752137,-0.595699,-0.803208,0.000000
-6.814411,24.547398,1.471970,0.000000,0.000000,1.000000
-19.751337,-7.030178,1.471970,-0.000000,0.000000,1.000000
-18.540710,3.569781,1.471970,-0.000000,0.000000,1.000000
-12.013383,-17.807522,-1.471970,0.000000,-0.000000,-1.000000
17.694033,-13.586143,1.471970,0.000000,-0.000000,1.000000
14.139363,-4.015860,-1.471970,0.000000,0.000000,-1.000000
5.826540,-24.155658,-1.471970,0.000000,0.000000,-1.000000
-0.523735,20.781304,-1.471970,-0.000000,0.000000,-1.000000
-22.136186,-8.104638,1.471970,-0.000000,0.000000,1.000000
-17.736411,4.177798,1.471970,0.000000,0.000000,1.000000
-13.134214,-5.354112,1.471970,-0.000000,0.000000,1.000000
7.112530,-14.404982,-1.471970,0.000000,0.000000,-1.000000
15.148932,1.032591,-1.471970,0.000000,0.000000,-1.000000
20.448064,-3.574010,1.471970,0.000000,-0.000000,1.000000
-13.234129,-14.442973,1.471970,-0.000000,0.000000,1.000000
21.962889,4.729707,1.471970,0.000000,0.000000,1.000000
-19.129807,5.343795,-1.471970,-0.000000,0.000000,-1.000000
-22.316100,-1.485253,-1.471970,0.000000,-0.000000,-1.000000
-4.968690,20.156765,-1.471970,-0.000000,-0.000000,-1.000000
6.424843,11.982753,-1.356548,-0.514103,-0.857729,-0.000000
-16.775972,5.161982,1.471970,0.000000,0.000000,1.000000
-22.595058,-1.711420,-1.471970,0.000000,-0.000000,-1.000000
25.507532,-1.831425,-1.099852,0.998795,-0.049068,0.000000
16.328419,19.617247,-1.471970,-0.000000,0.000000,-1.000000
16.858665,-7.951292,1.471970,0.000000,-0.000000,1.000000
-16.363023,19.674626,-0.846970,-0.671559,0.740951,0.000000
-19.430164,6.862556,-1.471970,-0.000000,-0.000000,-1.000000
20.356401,7.683952,1.471970,0.000000,0.000000,1.000000
2.489788,-25.475189,0.814986,0.049068,-0.998795,0.000000
-23.120986,4.589338,-1.471970,-0.000000,0.000000,-1.000000
-4.303815,19.402789,-1.471970,-0.000000,0.000000,-1.000000
10.014276,15.413559,-1.471970,0.000000,0.000000,-1.000000
-3.825536,-13.042312,0.700911,0.242980,0.970031,0.000000
11.085576,11.675393,-1.471970,0.000000,0.000000,-1.000000
-19.468755,-8.630795,1.471970,-0.000000,0.000000,1.000000
-10.523177,17.218398,1.471970,0.000000,0.000000,1.000000
10.352553,-18.160922,1.471970,0.000000,-0.000000,1.000000
-12.642622,-22.229717,1.233904,-0.514103,-0.857729,0.000000
-14.148068,-16.858902,-1.471970,0.000000,-0.000000,-1.000000
-11.751469,-17.520749,1.471970,-0.000000,0.000000,1.000000
-4.927146,-15.556749,-1.471970,0.000000,-0.000000,-1.000000
-13.655312,-5.570794,1.471970,-0.000000,0.000000,1.000000
15.182993,-3.898766,1.471970,-0.000000,-0.000000,1.000000
15.370091,-12.873039,1.471970,-0.000000,-0.000000,1.000000
-17.353771,-18.036887,1.471970,-0.000000,0.000000,1.000000
-4.062251,-25.243841,-0.136808,-0.146730,-0.989177,0.000000
11.040881,-18.434191,-1.471970,0.000000,0.000000,-1.000000
13.079567,-3.676805,-0.464624,-0.970031,0.242980,0.000000
-5.990110,16.781795,1.471970,0.000000,0.000000,1.000000
-3.879431,-25.270960,-1.232887,-0.146730,-0.989177,0.000000
4.074718,-21.559376,1.471970,-0.000000,-0.000000,1.000000
21.555479,0.806694,1.471970,0.000000,0.000000,1.000000
1.328136,-14.038876,-1.471970,0.000000,0.000000,-1.000000
24.436018,1.213718,-1.471970,0.000000,0.000000,-1.000000
-15.744103,3.875970,1.471970,0.000000,0.000000,1.000000
23.489686,4.635989,1.471970,0.000000,-0.000000,1.000000
15.106015,-2.667298,1.471970,0.000000,-0.000000,1.000000
-0.298516,20.707888,-1.471970,-0.000000,0.000000,-1.000000
-2.176414,15.848395,1.471970,0.000000,0.000000,1.000000
-15.961875,11.958951,1.471970,0.000000,0.000000,1.000000
9.052186,19.831517,-1.471970,-0.000000,0.000000,-1.000000
-13.340808,-18.907303,-1.471970,0.000000,-0.000000,-1.000000
18.580905,-17.569758,-0.255663,0.740951,-0.671559,0.000000
-20.793108,-0.251740,-1.471970,-0.000000,-0.000000,-1.000000
11.256211,22.958259,-1.468181,0.427555,0.903989,0.000000
-0.243794,-18.217278,1.471970,-0.000000,0.000000,1.000000
2.046642,-13.982991,1.471970,-0.000000,-0.000000,1.000000
12.120086,-9.340327,1.471970,-0.000000,-0.000000,1.000000
-8.690421,-19.684142,-1.471970,0.000000,-0.000000,-1.000000
13.503598,20.451265,1.471970,0.000000,0.000000,1.000000
