x,y,z,nx,ny,nz
-12.743999,-19.783503,-6.520233,0.881921,0.000000,0.471397
-25.297005,10.934741,1.515428,0.956941,0.000000,-0.290283
-19.494094,-11.380492,3.570973,-0.471396,0.000000,-0.881921
-29.484959,-6.588947,11.079991,-1.000000,0.000000,0.000000
-29.484959,12.833043,5.354195,-1.000000,0.000000,0.000000
29.484959,20.173592,-8.023037,1.000000,-0.000000,0.000000
-27.820760,-0.526154,17.218311,0.000000,-0.000000,1.000000
-29.484959,-21.442902,6.220656,-1.000000,0.000000,0.000000
-29.484959,-16.854867,-10.877222,-1.000000,0.000000,0.000000
29.484959,2.611638,11.540338,1.000000,-0.000000,0.000000
-17.760251,13.188022,6.121369,0.946930,0.000000,-0.321439
-8.466478,1.981704,11.567429,0.634393,0.000000,-0.773010
17.412951,8.998400,7.144482,-0.946930,0.000000,-0.321439
-11.844276,3.800677,-17.218311,0.000000,0.000000,-1.000000
21.754711,16.886633,17.218311,0.000000,-0.000000,1.000000
-9.778932,10.185749,-17.218311,0.000000,0.000000,-1.000000
-4.439086,-15.552225,-13.610276,0.290285,0.000000,0.956940
18.224127,13.153444,-4.671738,-0.980785,0.000000,0.195090
10.922619,5.764130,9.252180,-0.773010,0.000000,-0.634393
-29.484959,1.823296,-4.236154,-1.000000,0.000000,0.000000
-13.747409,5.140128,3.987018,0.956940,0.000000,-0.290285
-21.185021,-17.328962,4.078043,-0.098017,0.000000,-0.995185
-25.507619,-12.599690,-0.821122,0.956941,0.000000,0.290283
-5.656105,-15.803732,-13.205885,0.471397,-0.000000,0.881921
-7.929282,-13.761568,11.990847,0.471397,0.000000,-0.881921
26.347376,21.465948,2.786791,0.000000,1.000000,-0.000000
9.149996,-0.132173,11.006480,-0.634393,0.000000,-0.773010
-19.466459,-18.185158,17.218311,0.000000,0.000000,1.000000
-20.715928,-10.412707,17.218311,0.000000,-0.000000,1.000000
-24.674177,-10.700685,2.557572,0.773009,0.000000,-0.634395
-15.864979,-17.068360,-17.218311,0.000000,0.000000,-1.000000
-18.839493,-19.050617,-17.218311,0.000000,0.000000,-1.000000
-10.486419,8.190413,14.511466,0.000000,1.000000,-0.000000
27.211737,1.087019,17.218311,0.000000,0.000000,1.000000
8.478477,8.190413,-12.901603,-0.000000,1.000000,-0.000000
-29.484959,-14.747930,14.219292,-1.000000,0.000000,0.000000
-18.797488,-11.642121,-3.082611,-0.634394,0.000000,0.773010
-29.484959,-1.608814,-11.685822,-1.000000,0.000000,0.000000
-29.280329,-21.465948,8.059776,0.000000,-1.000000,0.000000
29.484959,-21.111193,-12.734075,1.000000,0.000000,-0.000000
22.651652,-21.465948,-14.801221,0.000000,-1.000000,0.000000
-8.371243,-6.685225,-11.645587,0.634393,-0.000000,0.773010
-7.213604,8.190413,16.493128,-0.000000,1.000000,0.000000
-24.461116,5.742763,-2.817186,0.773010,-0.000000,0.634394
-18.451829,7.924961,-2.747763,-0.773010,-0.000000,0.634394
29.484959,-0.887181,-15.373401,1.000000,0.000000,-0.000000
-25.542712,-21.465948,16.699752,0.000000,-1.000000,0.000000
29.484959,-11.338441,3.766114,1.000000,0.000000,-0.000000
24.260324,10.579026,3.010479,-0.634393,-0.000000,-0.773010
-26.097857,-2.886433,17.218311,0.000000,-0.000000,1.000000
10.810672,-5.689526,17.218311,0.000000,0.000000,1.000000
23.610679,0.115003,-3.498893,-0.471396,0.000000,0.881921
9.896828,-15.870913,10.393571,-0.634393,0.000000,-0.773010
25.565330,-17.119548,0.276305,-0.995185,0.000000,-0.098018
-1.423755,-15.079410,14.241846,0.098017,0.000000,-0.995185
2.342698,-2.867254,-14.151338,-0.098017,0.000000,0.995185
-29.484959,-2.540441,-4.270752,-1.000000,0.000000,0.000000
-21.205334,-2.138409,-4.080043,-0.098017,0.000000,0.995185
-26.827172,-20.588815,17.218311,0.000000,0.000000,1.000000
-1.968004,-5.393886,17.218311,0.000000,0.000000,1.000000
26.775422,-8.547417,17.218311,0.000000,0.000000,1.000000
-21.240920,16.628236,-17.218311,0.000000,0.000000,-1.000000
-20.434277,-17.568332,-3.953024,-0.290285,0.000000,0.956940
-25.407319,-19.652070,1.151768,0.956941,0.000000,-0.290283
27.774604,21.465948,-10.527842,0.000000,1.000000,-0.000000
25.271217,5.328073,1.588098,-0.881921,0.000000,-0.471398
23.540009,-14.977602,17.218311,0.000000,0.000000,1.000000
-26.962530,-3.427446,-17.218311,0.000000,0.000000,-1.000000
-17.387855,-1.270295,-0.106413,-0.995185,0.000000,0.098017
-25.522299,6.251021,0.713193,0.995185,0.000000,-0.098017
29.484959,6.282883,16.573960,1.000000,-0.000000,0.000000
29.484959,15.001000,-11.544771,1.000000,-0.000000,0.000000
-17.556342,8.190413,-1.648498,0.000000,1.000000,-0.000000
-2.130274,-1.186227,14.172260,0.098017,0.000000,-0.995185
-28.135681,13.710776,-17.218311,0.000000,0.000000,-1.000000
27.617099,18.952629,17.218311,0.000000,0.000000,1.000000
17.757676,-15.893996,17.218311,0.000000,0.000000,1.000000
-29.484959,-4.123332,13.850780,-1.000000,0.000000,0.000000
6.071861,-6.500581,-12.983659,-0.471397,0.000000,0.881921
-29.484959,12.573907,11.093747,-1.000000,0.000000,0.000000
5.296989,7.206396,17.218311,0.000000,-0.000000,1.000000
-29.484959,-15.860560,2.099121,-1.000000,0.000000,0.000000
-27.206695,9.399696,-17.218311,0.000000,0.000000,-1.000000
-29.484959,16.747841,-8.754425,-1.000000,0.000000,0.000000
-9.599002,2.708877,-10.637990,0.634393,-0.000000,0.773010
14.062527,-18.433255,-2.948212,-0.956940,0.000000,0.290285
-29.484959,-12.565231,15.682619,-1.000000,0.000000,0.000000
18.839968,-21.465948,17.074169,0.000000,-1.000000,0.000000
-29.484959,-6.181811,-3.664509,-1.000000,0.000000,0.000000
21.123073,19.026190,-4.071941,0.098017,0.000000,0.995185
-20.770022,19.819386,17.218311,0.000000,-0.000000,1.000000
-29.484959,-6.438284,-12.410061,-1.000000,0.000000,0.000000
-15.805546,8.190413,7.467414,-0.000000,1.000000,0.000000
11.861119,-3.115428,8.108616,-0.773010,0.000000,-0.634393
-14.239979,-13.741736,-17.218311,0.000000,0.000000,-1.000000
11.167996,7.257079,8.953188,-0.773010,0.000000,-0.634393
7.016120,-21.465948,13.667907,0.000000,-1.000000,0.000000
29.484959,-19.747975,6.778185,1.000000,0.000000,-0.000000
19.830869,-21.465948,-17.165231,0.000000,-1.000000,0.000000
-15.801955,19.231100,10.163468,0.831470,0.000000,-0.555570
-8.883046,-2.907907,17.218311,0.000000,-0.000000,1.000000
29.484959,-18.981976,-11.748698,1.000000,0.000000,-0.000000
29.484959,8.055646,-9.681974,1.000000,0.000000,-0.000000
-23.283323,18.498456,-3.673868,0.471396,0.000000,0.881921
-9.553917,-1.637613,-10.674991,0.634393,0.000000,0.773010
-0.955345,-21.465948,-15.101756,0.000000,-1.000000,0.000000
-14.092905,-0.928825,2.848069,0.956940,0.000000,-0.290285
15.913849,17.023773,9.996007,-0.831470,0.000000,-0.555570
28.479932,21.465948,-14.472649,0.000000,1.000000,-0.000000
11.882668,-21.465948,-12.085354,0.000000,-1.000000,0.000000
29.484959,8.342495,-8.503332,1.000000,0.000000,-0.000000
29.484959,3.912836,-4.229221,1.000000,0.000000,-0.000000
-5.837707,8.190413,-15.840740,-0.000000,1.000000,0.000000
14.211961,8.190413,3.573063,0.000000,1.000000,-0.000000
-29.484959,-6.996149,-11.542219,-1.000000,0.000000,0.000000
19.169825,-3.883941,3.388181,0.634393,0.000000,-0.773010
17.358402,1.694762,17.218311,0.000000,0.000000,1.000000
-1.145632,-21.465948,-16.991743,0.000000,-1.000000,0.000000
29.484959,9.336940,11.949655,1.000000,-0.000000,0.000000
-25.478175,21.465948,-7.410850,-0.000000,1.000000,0.000000
-12.306804,-21.465948,15.386179,0.000000,-1.000000,0.000000
-3.235860,0.243104,17.218311,0.000000,-0.000000,1.000000
-11.371048,5.162886,17.218311,0.000000,0.000000,1.000000
-15.914701,10.395101,-9.994732,0.831470,-0.000000,0.555570
-29.484959,-20.399392,-12.716001,-1.000000,0.000000,0.000000
6.886786,1.117121,-12.548072,-0.471397,0.000000,0.881921
-29.484959,-19.990355,-12.525889,-1.000000,0.000000,0.000000
28.939835,18.659042,-17.218311,0.000000,0.000000,-1.000000
-14.036333,21.465948,-15.656705,-0.000000,1.000000,0.000000
15.406195,21.465948,16.776800,-0.000000,1.000000,0.000000
10.067012,20.698957,-15.866404,-0.555570,0.000000,0.831470
-7.550727,8.190413,15.709290,-0.000000,1.000000,0.000000
-7.979318,13.873994,17.218311,0.000000,0.000000,1.000000
12.473944,-21.465948,-10.925819,0.000000,-1.000000,0.000000
-23.102364,8.763112,-17.218311,0.000000,0.000000,-1.000000
23.102446,-21.465948,7.277648,0.000000,-1.000000,0.000000
13.993394,4.415412,-3.176113,-0.956940,0.000000,0.290285
22.343983,-21.465948,-8.333602,0.000000,-1.000000,0.000000
24.832762,-10.394050,2.364336,-0.773011,-0.000000,-0.634393
-19.815053,-2.417825,-17.218311,0.000000,0.000000,-1.000000
23.415598,-5.737554,17.218311,0.000000,0.000000,1.000000
23.424228,-14.026435,-17.218311,0.000000,0.000000,-1.000000
-6.120369,4.508251,17.218311,0.000000,-0.000000,1.000000
-22.803504,-21.465948,-9.941538,0.000000,-1.000000,0.000000
-4.077997,2.536534,13.719811,0.290285,0.000000,-0.956940
-23.303897,-8.350212,17.218311,0.000000,-0.000000,1.000000
8.016258,20.797485,17.218311,0.000000,-0.000000,1.000000
-13.927847,-21.465948,-11.361495,0.000000,-1.000000,0.000000
-29.484959,8.488874,-15.072333,-1.000000,0.000000,0.000000
-25.149671,-14.874939,17.218311,0.000000,0.000000,1.000000
20.755044,21.465948,11.588702,0.000000,1.000000,-0.000000
29.484959,1.051951,-10.521222,1.000000,0.000000,-0.000000
-29.484959,2.414056,-11.817506,-1.000000,0.000000,0.000000
-14.290637,16.498324,17.218311,0.000000,-0.000000,1.000000
9.652120,5.103289,-17.218311,0.000000,0.000000,-1.000000
-16.443163,-14.097383,-17.218311,0.000000,0.000000,-1.000000
24.469873,-20.099362,-17.218311,0.000000,0.000000,-1.000000
2.463314,-21.465948,14.558036,0.000000,-1.000000,0.000000
7.929889,17.163855,-17.034820,-0.442289,0.000000,0.896873
-13.160985,8.190413,-11.513712,-0.000000,1.000000,0.000000
5.423426,-3.592879,13.311680,-0.290285,-0.000000,-0.956940
25.200527,12.168058,1.720349,-0.881921,0.000000,-0.471398
8.242151,-7.629683,-11.751529,-0.634393,0.000000,0.773010
-12.987466,-19.469477,-6.064739,0.881921,0.000000,0.471397
-13.402357,3.879637,-5.124502,0.956940,-0.000000,0.290285
-23.118302,-12.988320,17.218311,0.000000,-0.000000,1.000000
29.484959,-1.838851,13.845494,1.000000,-0.000000,0.000000
11.180721,-11.343664,17.218311,0.000000,0.000000,1.000000
-26.478027,10.219596,-17.218311,0.000000,0.000000,-1.000000
-23.289506,21.465948,11.866990,-0.000000,1.000000,-0.000000
-17.214715,21.465948,-15.235796,-0.000000,1.000000,0.000000
14.372981,1.411387,0.092318,-0.995185,-0.000000,-0.098017
29.417148,21.465948,-14.071427,0.000000,1.000000,-0.000000
-11.597464,11.296070,-14.815159,0.659346,-0.000000,0.751840
8.982154,17.263434,17.218311,0.000000,-0.000000,1.000000
-21.753071,21.465948,-15.929054,-0.000000,1.000000,0.000000
10.199049,-10.856413,10.133853,-0.773010,0.000000,-0.634393
-2.235988,-14.846254,14.161848,0.098017,0.000000,-0.995185
-16.900993,5.464377,-17.218311,0.000000,0.000000,-1.000000
-15.349544,-14.240462,-17.218311,0.000000,0.000000,-1.000000
-19.988862,-0.939976,17.218311,0.000000,-0.000000,1.000000
-12.532155,-15.576587,-6.916565,0.881921,0.000000,0.471397
0.245561,1.920170,-14.357888,-0.098017,0.000000,0.995185
20.704586,13.056489,17.218311,0.000000,0.000000,1.000000
15.860030,16.146171,17.218311,0.000000,-0.000000,1.000000
-11.378545,-12.712811,8.696633,0.773010,0.000000,-0.634393
8.572394,-21.258378,-11.480506,-0.634393,0.000000,0.773010
21.424081,-11.320352,-17.218311,0.000000,0.000000,-1.000000
-1.333702,1.103344,-17.218311,0.000000,0.000000,-1.000000
29.484959,21.291885,1.004598,1.000000,-0.000000,0.000000
-13.290019,2.972761,5.494832,0.956940,0.000000,-0.290285
-12.004730,14.202484,14.457996,0.659346,0.000000,-0.751840
15.201737,10.625671,-11.061757,-0.831470,0.000000,0.555570
13.627849,-20.770699,4.381153,-0.956940,0.000000,-0.290285
29.484959,-2.368098,4.908403,1.000000,-0.000000,0.000000
-23.950950,-1.473045,-17.218311,0.000000,0.000000,-1.000000
-16.780605,5.883497,-17.218311,0.000000,0.000000,-1.000000
16.309168,18.803584,17.218311,0.000000,-0.000000,1.000000
13.874245,13.668847,17.218311,0.000000,-0.000000,1.000000
8.030117,-3.367683,-17.218311,0.000000,0.000000,-1.000000
-29.484959,-6.020159,-3.607417,-1.000000,0.000000,0.000000
19.026902,21.465948,7.607705,0.000000,1.000000,-0.000000
-11.203073,18.118406,-15.107313,0.555570,0.000000,0.831470
-15.711853,8.190413,5.963733,-0.000000,1.000000,0.000000
-4.638814,-19.318108,-13.549689,0.290285,0.000000,0.956940
6.517143,-4.494384,12.745651,-0.471397,0.000000,-0.881921
7.685504,-0.608332,12.121149,-0.471397,-0.000000,-0.881921
-20.015738,-14.309032,-3.826061,-0.290285,0.000000,0.956940
29.484959,13.915077,4.790269,1.000000,-0.000000,0.000000
29.484959,20.494521,-14.140499,1.000000,-0.000000,0.000000
-13.490112,20.671832,-13.108390,0.751840,0.000000,0.659346
12.577171,15.500819,-17.218311,0.000000,0.000000,-1.000000
19.876413,21.465948,-11.521700,-0.000000,1.000000,0.000000
-2.013246,-3.260050,-14.183786,0.098017,0.000000,0.995185
-29.484959,13.348319,-6.058630,-1.000000,0.000000,0.000000
25.307608,21.465948,11.510844,-0.000000,1.000000,0.000000
-9.505862,-12.004052,-10.714428,0.634393,0.000000,0.773010
13.876936,16.541857,-12.667303,-0.751840,0.000000,0.659346
16.419504,7.835480,-17.218311,0.000000,0.000000,-1.000000
-18.633157,21.465948,12.878084,0.000000,1.000000,0.000000
-5.226919,-21.465948,15.897798,0.000000,-1.000000,0.000000
1.258513,-0.402016,14.258121,-0.098017,0.000000,-0.995185
-9.207785,-7.513785,10.959053,0.634393,0.000000,-0.773010
-29.484959,-5.448493,-1.679834,-1.000000,0.000000,0.000000
-29.484959,13.892318,9.726158,-1.000000,0.000000,0.000000
-23.742303,-18.905395,-3.428538,0.471396,0.000000,0.881921
-4.553739,-0.318142,-17.218311,0.000000,0.000000,-1.000000
29.484959,-19.071922,3.946650,1.000000,0.000000,-0.000000
-14.178389,-10.706617,-17.218311,0.000000,0.000000,-1.000000
-1.393453,-5.123604,17.218311,0.000000,0.000000,1.000000
12.965993,-8.275585,6.104912,-0.881921,0.000000,-0.471397
29.484959,-11.580276,-13.677931,1.000000,0.000000,-0.000000
-14.113843,-0.565151,2.723390,0.995185,0.000000,-0.098017
-29.484959,0.115592,-4.708682,-1.000000,0.000000,0.000000
29.484959,-15.552867,14.135060,1.000000,-0.000000,0.000000
-18.549847,10.128695,3.034231,0.980785,0.000000,-0.195090
-14.100175,8.190413,-9.941179,0.000000,1.000000,-0.000000
29.484959,-8.754192,-14.755105,1.000000,0.000000,-0.000000
29.484959,-20.900994,-2.025668,1.000000,0.000000,-0.000000
-15.267124,8.558627,-17.218311,0.000000,0.000000,-1.000000
-23.688294,21.465948,-6.633249,-0.000000,1.000000,0.000000
29.484959,-20.007781,5.413682,1.000000,0.000000,-0.000000
29.484959,-12.255310,10.656972,1.000000,-0.000000,0.000000
-18.442316,21.465948,16.918321,-0.000000,1.000000,0.000000
25.926115,17.256882,17.218311,0.000000,0.000000,1.000000
-5.047024,-17.048192,13.425860,0.290285,0.000000,-0.956940
-1.993042,8.190413,16.472220,-0.000000,1.000000,0.000000
29.484959,-13.363072,-3.581225,1.000000,0.000000,-0.000000
23.540610,-1.037446,-3.536345,-0.471396,0.000000,0.881921
29.484959,-17.533496,7.016566,1.000000,0.000000,-0.000000
-19.404055,-21.465948,13.076555,0.000000,-1.000000,0.000000
0.243718,-16.891163,17.218311,0.000000,0.000000,1.000000
-25.463853,-18.539203,-0.965399,0.956941,-0.000000,0.290283
19.235801,1.953586,3.432913,0.471396,0.000000,-0.881921
29.484959,15.066158,-13.553456,1.000000,0.000000,-0.000000
-25.322216,10.810853,1.432316,0.956941,0.000000,-0.290283
-27.611025,-21.465948,-7.631910,0.000000,-1.000000,0.000000
-14.346365,-0.274447,-0.362555,0.995185,0.000000,0.098017
-21.302081,-10.744914,-17.218311,0.000000,0.000000,-1.000000
20.343413,-11.165398,-17.218311,0.000000,0.000000,-1.000000
-24.968547,-1.276059,-2.154355,0.881921,-0.000000,0.471397
14.775312,8.190413,2.400899,-0.000000,1.000000,-0.000000
17.578645,10.661156,-6.656362,-0.946930,0.000000,0.321439
27.900125,10.014037,17.218311,0.000000,0.000000,1.000000
21.429006,21.465948,13.832362,0.000000,1.000000,-0.000000
29.484959,-8.063284,-0.039538,1.000000,0.000000,-0.000000
-11.234921,9.501548,-15.086033,0.555570,-0.000000,0.831470
-29.484959,18.180973,9.575713,-1.000000,0.000000,0.000000
-18.647885,1.351975,-17.218311,0.000000,0.000000,-1.000000
-21.292609,-21.465948,13.472450,0.000000,-1.000000,0.000000
-1.950138,4.946329,17.218311,0.000000,-0.000000,1.000000
-11.238102,-12.075787,17.218311,0.000000,0.000000,1.000000
-29.484959,12.311699,-15.478823,-1.000000,0.000000,0.000000
-29.484959,1.781949,12.735506,-1.000000,0.000000,0.000000
-16.827889,-21.465948,11.019453,0.000000,-1.000000,0.000000
0.806312,-1.463434,-14.302659,-0.098017,0.000000,0.995185
17.178435,19.724544,7.638666,-0.896873,0.000000,-0.442289
-10.574973,21.465948,-17.193882,-0.000000,1.000000,0.000000
21.928386,21.465948,11.256881,0.000000,1.000000,-0.000000
-29.484959,15.350827,13.796578,-1.000000,0.000000,0.000000
-6.904629,-20.477562,12.538535,0.471397,0.000000,-0.881921
25.591220,-11.898908,-17.218311,0.000000,0.000000,-1.000000
-19.772977,21.465948,5.680456,0.000000,1.000000,0.000000
-27.183967,-21.465948,-6.168642,0.000000,-1.000000,0.000000
-1.215406,-0.605876,-14.262366,0.098017,-0.000000,0.995185
-10.451326,10.340043,17.218311,0.000000,0.000000,1.000000
-16.605856,7.760723,-17.218311,0.000000,0.000000,-1.000000
17.423580,13.504298,17.218311,0.000000,-0.000000,1.000000
6.721773,-10.373588,-17.218311,0.000000,0.000000,-1.000000
-29.484959,3.623377,12.843851,-1.000000,0.000000,0.000000
18.496234,10.255817,-17.218311,0.000000,0.000000,-1.000000
-8.356119,-0.104570,-11.657998,0.634393,-0.000000,0.773010
23.525546,21.465948,14.796111,0.000000,1.000000,-0.000000
-14.172663,-9.847264,-2.126184,0.995185,-0.000000,0.098017
-22.735918,-12.240730,17.218311,0.000000,0.000000,1.000000
-5.747486,-5.139035,-17.218311,0.000000,0.000000,-1.000000
15.476284,21.465948,-17.022328,-0.000000,1.000000,0.000000
9.306565,10.921860,17.218311,0.000000,-0.000000,1.000000
17.896623,-19.648695,1.958382,0.881921,0.000000,-0.471397
21.668082,-21.465948,-8.202511,0.000000,-1.000000,0.000000
16.533762,8.415834,-17.218311,0.000000,0.000000,-1.000000
-29.484959,20.294469,-10.721867,-1.000000,0.000000,0.000000
20.874904,3.876213,4.047499,0.098017,0.000000,-0.995185
-7.072199,-17.484644,-17.218311,0.000000,0.000000,-1.000000
8.907370,-21.465948,15.303585,0.000000,-1.000000,0.000000
-0.547970,-2.468381,17.218311,0.000000,0.000000,1.000000
13.913517,-5.278212,-3.439433,-0.956940,0.000000,0.290285
-29.484959,0.123752,-9.784573,-1.000000,0.000000,0.000000
29.484959,18.491377,15.200520,1.000000,-0.000000,0.000000
21.976860,-1.845492,17.218311,0.000000,0.000000,1.000000
6.128121,4.672457,12.953587,-0.471397,0.000000,-0.881921
20.142064,21.465948,-11.305201,-0.000000,1.000000,0.000000
-14.662235,-20.181452,-17.218311,0.000000,0.000000,-1.000000
-9.084323,14.733769,17.218311,0.000000,0.000000,1.000000
-23.939098,16.377759,17.218311,0.000000,-0.000000,1.000000
11.181683,-9.252379,17.218311,0.000000,0.000000,1.000000
9.260523,-4.848002,-17.218311,0.000000,0.000000,-1.000000
-16.792135,8.392377,-8.422004,0.896873,-0.000000,0.442289
-2.054785,-11.793536,-17.218311,0.000000,0.000000,-1.000000
4.214072,-17.021925,13.678533,-0.290285,-0.000000,-0.956940
23.483922,6.843816,17.218311,0.000000,0.000000,1.000000
-4.276524,-13.530131,-13.659588,0.290285,0.000000,0.956940
29.484959,-9.239188,-9.969007,1.000000,0.000000,-0.000000
-29.484959,-14.834518,-12.833171,-1.000000,0.000000,0.000000
29.484959,-6.857536,13.700284,1.000000,-0.000000,0.000000
29.484959,-3.914529,9.798436,1.000000,-0.000000,0.000000
12.035706,9.332136,14.430831,-0.659346,0.000000,-0.751840
9.836460,-18.513280,10.443113,-0.634393,0.000000,-0.773010
12.165967,-3.274810,17.218311,0.000000,0.000000,1.000000
-15.022264,8.190413,-11.103957,0.000000,1.000000,-0.000000
-25.312031,16.187222,-17.218311,0.000000,0.000000,-1.000000
-29.484959,-8.600312,13.037044,-1.000000,0.000000,0.000000
-1.295752,-12.251649,14.254453,0.098017,0.000000,-0.995185
-18.318138,21.465948,17.123841,-0.000000,1.000000,0.000000
-20.357092,-21.465948,-10.935975,0.000000,-1.000000,0.000000
29.203178,20.596502,17.218311,0.000000,0.000000,1.000000
18.160027,-18.962638,-2.392202,0.773010,-0.000000,0.634394
-25.754465,4.914343,-17.218311,0.000000,0.000000,-1.000000
-22.774551,-4.126924,3.880551,0.290284,0.000000,-0.956941
23.241802,13.232799,-3.696061,-0.471396,0.000000,0.881921
1.975615,-8.555085,14.187493,-0.098017,-0.000000,-0.995185
-29.484959,-19.397600,1.081157,-1.000000,0.000000,0.000000
17.545075,-12.972136,-1.093999,0.956940,-0.000000,0.290285
-17.799662,-7.789064,-1.776980,-0.881921,0.000000,0.471397
-9.648402,13.982313,17.218311,0.000000,0.000000,1.000000
-6.891763,-15.596334,12.545412,0.471397,0.000000,-0.881921
25.309150,13.664273,17.218311,0.000000,0.000000,1.000000
-29.484959,8.781048,-11.332523,-1.000000,0.000000,0.000000
-11.347061,-1.141789,17.218311,0.000000,-0.000000,1.000000
25.587502,20.846632,0.051181,-0.995185,0.000000,-0.098016
-29.484959,-2.431205,-16.497158,-1.000000,0.000000,0.000000
8.217342,6.134862,-17.218311,0.000000,0.000000,-1.000000
20.543273,-7.628875,-17.218311,0.000000,0.000000,-1.000000
-25.463040,18.880405,-0.968079,0.956941,0.000000,0.290283
29.484959,10.099406,-2.768606,1.000000,-0.000000,0.000000
12.059318,14.643112,17.218311,0.000000,-0.000000,1.000000
12.530765,-8.268062,-6.919167,-0.881921,0.000000,0.471397
17.565982,20.464347,-17.218311,0.000000,0.000000,-1.000000
-29.484959,-13.145560,-9.208474,-1.000000,0.000000,0.000000
-18.459422,2.732858,2.757016,-0.773010,0.000000,-0.634394
-19.631504,1.451644,-17.218311,0.000000,0.000000,-1.000000
8.821127,-17.740816,-17.218311,0.000000,0.000000,-1.000000
0.216695,-6.255599,17.218311,0.000000,0.000000,1.000000
13.572721,-19.185624,-4.562888,-0.956940,0.000000,0.290285
-13.087593,-21.091980,-5.877415,0.881921,0.000000,0.471397
29.484959,-13.958466,-1.587647,1.000000,0.000000,-0.000000
8.463496,-1.064096,11.569876,-0.634393,0.000000,-0.773010
29.484959,10.128633,-12.545452,1.000000,0.000000,-0.000000
-14.307424,-17.682794,-0.757929,0.995185,0.000000,0.098017
29.484959,2.863585,9.097513,1.000000,-0.000000,0.000000
-29.484959,-17.843893,4.692042,-1.000000,0.000000,0.000000
-29.484959,-17.262858,14.388681,-1.000000,0.000000,0.000000
29.484959,5.054955,14.739287,1.000000,-0.000000,0.000000
-8.752349,20.111962,-17.218311,0.000000,0.000000,-1.000000
-3.310440,-14.219022,-17.218311,0.000000,0.000000,-1.000000
-29.484959,-15.903686,-10.725330,-1.000000,0.000000,0.000000
1.649527,-19.889539,14.219609,-0.098017,-0.000000,-0.995185
11.121285,-6.494676,9.010106,-0.773010,0.000000,-0.634393
-1.636918,-3.567894,14.220851,0.098017,0.000000,-0.995185
-22.908124,6.465619,3.840033,0.290284,0.000000,-0.956941
23.995162,-0.126869,-3.228093,-0.634394,0.000000,0.773010
-29.484959,-2.834068,5.619906,-1.000000,0.000000,0.000000
26.968359,0.677260,-17.218311,0.000000,0.000000,-1.000000
-9.138805,8.190413,11.582407,-0.000000,1.000000,-0.000000
14.029352,-20.314970,3.057576,-0.956940,0.000000,-0.290285
8.307080,-19.142042,-11.698244,-0.634393,0.000000,0.773010
12.089964,8.190413,11.583073,0.000000,1.000000,-0.000000
1.006025,-13.993661,17.218311,0.000000,0.000000,1.000000
-23.346165,17.997801,3.640278,0.471396,0.000000,-0.881921
17.548559,6.819258,1.105486,0.956940,0.000000,-0.290287
-29.049624,21.465948,8.676713,-0.000000,1.000000,0.000000
8.618918,6.711163,-17.218311,0.000000,0.000000,-1.000000
-21.139998,5.150974,4.073608,-0.098017,-0.000000,-0.995185
15.903653,-21.465948,4.942870,-0.000000,-1.000000,0.000000
-23.148661,21.465948,8.311973,0.000000,1.000000,0.000000
25.290477,-21.465948,11.027486,0.000000,-1.000000,0.000000
-20.523209,-4.573770,17.218311,0.000000,0.000000,1.000000
-29.484959,-7.712842,2.690679,-1.000000,0.000000,0.000000
-19.660450,2.181974,-3.659893,-0.471396,0.000000,0.881921
29.484959,-10.083769,15.042637,1.000000,-0.000000,0.000000
22.235885,8.561098,17.218311,0.000000,0.000000,1.000000
25.134494,2.824278,1.843888,-0.881921,0.000000,-0.471398
-9.370457,-7.443664,-10.825552,0.634393,0.000000,0.773010
23.553398,-8.435288,3.529510,-0.471396,0.000000,-0.881921
-29.484959,-14.080159,14.612456,-1.000000,0.000000,0.000000
-8.965551,20.389019,-16.524088,0.442289,-0.000000,0.896873
-10.152531,-21.151096,-10.183721,0.634393,0.000000,0.773010
29.484959,10.218946,4.104618,1.000000,-0.000000,0.000000
18.134533,17.470582,-5.018769,-0.946930,0.000000,0.321439
-25.593425,5.764865,17.218311,0.000000,-0.000000,1.000000
-10.445657,-20.425315,-9.833360,0.773010,0.000000,0.634393
10.685199,-12.998382,-17.218311,0.000000,0.000000,-1.000000
26.665009,16.393159,17.218311,0.000000,0.000000,1.000000
-10.339255,-19.498865,9.963011,0.773010,0.000000,-0.634393
-29.484959,16.136782,16.024158,-1.000000,0.000000,0.000000
29.484959,-4.743545,1.450276,1.000000,0.000000,-0.000000
-29.484959,15.954175,4.069182,-1.000000,0.000000,0.000000
-9.808877,0.585331,17.218311,0.000000,-0.000000,1.000000
-8.710746,-21.004096,-17.218311,0.000000,0.000000,-1.000000
-29.484959,-14.673960,5.688416,-1.000000,0.000000,0.000000
-8.522412,14.914012,-17.218311,0.000000,0.000000,-1.000000
-29.484959,5.045547,-6.635119,-1.000000,0.000000,0.000000
-29.484959,-1.241153,0.032610,-1.000000,0.000000,0.000000
-25.487348,19.790589,-0.887947,0.956941,0.000000,0.290283
25.340119,-8.690358,1.373298,-0.956941,0.000000,-0.290283
29.484959,-10.087215,10.346030,1.000000,-0.000000,0.000000
24.892055,16.584641,-17.218311,0.000000,0.000000,-1.000000
3.500046,-11.065893,-17.218311,0.000000,0.000000,-1.000000
-29.484959,-2.789500,16.887898,-1.000000,0.000000,0.000000
-28.384750,-21.465948,-2.386362,0.000000,-1.000000,0.000000
-14.070244,-21.465948,11.582769,0.000000,-1.000000,0.000000
-4.294091,-9.273583,17.218311,0.000000,0.000000,1.000000
29.484959,-11.430209,-15.547069,1.000000,0.000000,-0.000000
-10.223791,16.159467,17.218311,0.000000,0.000000,1.000000
16.153621,-21.465948,-16.256291,0.000000,-1.000000,0.000000
8.332733,-21.465948,15.887733,0.000000,-1.000000,0.000000
7.156984,-21.465948,-16.857199,0.000000,-1.000000,0.000000
21.435794,-14.380049,-17.218311,0.000000,0.000000,-1.000000
-25.027578,4.807844,-2.043916,0.881921,-0.000000,0.471397
-18.528134,15.940743,3.143387,0.980785,0.000000,-0.195090
-29.484959,-4.371069,-2.377910,-1.000000,0.000000,0.000000
17.377896,8.038905,0.005296,0.995185,0.000000,-0.098017
5.132085,8.190413,-15.086139,-0.000000,1.000000,0.000000
17.907455,3.706199,-17.218311,0.000000,0.000000,-1.000000
-28.583966,-16.369502,-17.218311,0.000000,0.000000,-1.000000
25.203959,12.256496,-1.713929,-0.881921,0.000000,0.471397
27.736582,14.822306,17.218311,0.000000,0.000000,1.000000
29.158518,3.252606,17.218311,0.000000,0.000000,1.000000
29.484959,15.975163,15.013257,1.000000,-0.000000,0.000000
17.005310,8.190413,-7.982786,-0.000000,1.000000,0.000000
9.118878,1.890884,-17.218311,0.000000,0.000000,-1.000000
20.697798,-6.108930,4.030055,0.098017,0.000000,-0.995185
4.160313,-12.218690,-13.694840,-0.290285,0.000000,0.956940
-8.760044,6.452519,-17.218311,0.000000,0.000000,-1.000000
28.463379,-9.097050,-17.218311,0.000000,0.000000,-1.000000
23.988889,-2.073810,17.218311,0.000000,0.000000,1.000000
0.378771,-19.340540,17.218311,0.000000,0.000000,1.000000
-13.006440,-5.387224,6.029240,0.881921,0.000000,-0.471397
29.484959,15.253673,-0.833084,1.000000,-0.000000,0.000000
-21.574717,-3.241934,17.218311,0.000000,-0.000000,1.000000
29.484959,4.792950,-4.992155,1.000000,0.000000,-0.000000
29.484959,13.073296,12.867206,1.000000,-0.000000,0.000000
25.544441,9.587551,-0.488387,-0.995185,0.000000,0.098017
-8.636144,-9.781024,-17.218311,0.000000,0.000000,-1.000000
22.150138,-17.349042,17.218311,0.000000,0.000000,1.000000
22.722979,13.943515,17.218311,0.000000,0.000000,1.000000
19.089227,21.465948,11.593601,0.000000,1.000000,-0.000000
-9.685071,-3.764478,-17.218311,0.000000,0.000000,-1.000000
-19.694267,-21.465948,4.423020,0.000000,-1.000000,0.000000
28.174557,-21.465948,-7.994261,-0.000000,-1.000000,0.000000
-29.484959,-4.001322,-4.131724,-1.000000,0.000000,0.000000
-29.484959,-9.834722,5.487169,-1.000000,0.000000,0.000000
-28.732017,-6.620081,-17.218311,0.000000,0.000000,-1.000000
-3.345665,-8.432750,17.218311,0.000000,0.000000,1.000000
18.146279,-9.591849,17.218311,0.000000,0.000000,1.000000
8.582398,-20.545703,-11.472296,-0.634393,0.000000,0.773010
-29.484959,-1.228608,8.550902,-1.000000,0.000000,0.000000
15.531648,-5.308138,-17.218311,0.000000,0.000000,-1.000000
16.826033,-3.851355,-17.218311,0.000000,0.000000,-1.000000
-14.244950,-1.408306,-1.392240,0.995185,-0.000000,0.098017
11.919326,-8.266744,-17.218311,0.000000,0.000000,-1.000000
-29.484959,3.938293,-11.512479,-1.000000,0.000000,0.000000
14.598112,14.670080,11.844958,-0.751840,-0.000000,-0.659346
1.890247,-4.525504,-14.195901,-0.098017,0.000000,0.995185
-21.555919,-16.516153,17.218311,0.000000,0.000000,1.000000
13.908498,-14.393003,17.218311,0.000000,0.000000,1.000000
-29.484959,-6.999237,-8.229502,-1.000000,0.000000,0.000000
10.201421,2.246268,10.130963,-0.773010,0.000000,-0.634393
-23.459364,21.465948,12.028887,-0.000000,1.000000,-0.000000
4.224978,-14.909488,-17.218311,0.000000,0.000000,-1.000000
-9.246695,11.338658,16.385443,0.442289,0.000000,-0.896873
14.327544,-18.703838,-17.218311,0.000000,0.000000,-1.000000
14.330997,5.244662,-0.518587,-0.995185,0.000000,0.098017
13.230284,-15.548557,17.218311,0.000000,0.000000,1.000000
3.150718,-11.782521,-17.218311,0.000000,0.000000,-1.000000
16.307569,9.178550,9.404607,-0.896873,0.000000,-0.442289
23.589390,-8.535642,17.218311,0.000000,0.000000,1.000000
29.484959,-17.508586,-3.102867,1.000000,0.000000,-0.000000
-28.927586,-21.465948,10.793259,0.000000,-1.000000,0.000000
20.973659,-21.465948,12.005565,-0.000000,-1.000000,0.000000
8.021987,13.523248,17.218311,0.000000,-0.000000,1.000000
-29.484959,-5.386921,-2.240146,-1.000000,0.000000,0.000000
-15.746825,19.167929,10.245976,0.831470,0.000000,-0.555570
-20.167592,21.465948,15.843640,0.000000,1.000000,0.000000
26.017177,17.345089,-17.218311,0.000000,0.000000,-1.000000
-1.362174,-15.642914,-14.247911,0.098017,0.000000,0.995185
22.600223,18.052897,-17.218311,0.000000,0.000000,-1.000000
24.517775,-5.060693,17.218311,0.000000,0.000000,1.000000
-29.484959,21.121858,17.205835,-1.000000,0.000000,0.000000
13.746376,-4.713505,17.218311,0.000000,0.000000,1.000000
8.576865,7.654139,11.476836,-0.634393,0.000000,-0.773010
5.490441,-14.646006,13.291351,-0.290285,-0.000000,-0.956940
-4.189235,-12.902227,13.686067,0.290285,0.000000,-0.956940
23.071744,-21.465948,-6.218980,-0.000000,-1.000000,0.000000
11.012435,-1.147170,9.142739,-0.773010,0.000000,-0.634393
11.164249,-18.637252,-17.218311,0.000000,0.000000,-1.000000
-3.405605,-16.603101,13.923778,0.290285,0.000000,-0.956940
-26.071401,-21.465948,-10.488773,0.000000,-1.000000,0.000000
-14.366966,-0.934043,-0.153389,0.995185,0.000000,0.098017
-19.155554,-13.257130,17.218311,0.000000,-0.000000,1.000000
-25.399398,-21.465948,9.845033,0.000000,-1.000000,0.000000
28.716396,14.107288,17.218311,0.000000,0.000000,1.000000
-24.289460,-1.678523,-17.218311,0.000000,0.000000,-1.000000
-4.121104,-21.069056,17.218311,0.000000,0.000000,1.000000
-11.664280,10.376083,-17.218311,0.000000,0.000000,-1.000000
-20.427848,3.768381,-3.951074,-0.290285,0.000000,0.956940
-29.484959,6.557668,0.386970,-1.000000,0.000000,0.000000
18.291354,-21.465948,10.180930,-0.000000,-1.000000,0.000000
21.243818,-4.317467,-4.083834,0.098017,-0.000000,0.995185
-8.679135,-11.687866,11.392906,0.634393,0.000000,-0.773010
21.264965,16.600466,-4.085916,0.098017,0.000000,0.995185
-9.930219,16.312288,-15.957806,0.555570,-0.000000,0.831470
23.912490,9.389903,3.295940,-0.634395,-0.000000,-0.773009
-26.777562,-21.465948,-0.597954,0.000000,-1.000000,0.000000
-4.894899,8.190413,13.478470,0.000000,1.000000,0.000000
-16.591282,10.761399,8.829295,0.896873,0.000000,-0.442289
11.063462,11.649467,-17.218311,0.000000,0.000000,-1.000000
22.667412,6.082878,-17.218311,0.000000,0.000000,-1.000000
-13.689649,-17.949615,4.177427,0.956940,0.000000,-0.290285
-21.903979,7.788381,4.066314,0.098017,0.000000,-0.995185
-29.484959,1.626548,6.249219,-1.000000,0.000000,0.000000
23.551910,2.298162,-17.218311,0.000000,0.000000,-1.000000
-29.484959,-2.983235,-12.791141,-1.000000,0.000000,0.000000
6.182862,-0.103954,17.218311,0.000000,0.000000,1.000000
3.458500,6.149872,17.218311,0.000000,-0.000000,1.000000
-29.484959,11.241917,-0.020201,-1.000000,0.000000,0.000000
26.535259,21.465948,-7.434868,0.000000,1.000000,-0.000000
-7.651334,7.855498,12.139413,0.471397,0.000000,-0.881921
-29.484959,12.353072,-8.351110,-1.000000,0.000000,0.000000
28.688493,21.465948,9.347017,0.000000,1.000000,-0.000000
-17.920309,16.613873,-5.649852,0.946930,0.000000,0.321439
-16.771003,-18.070317,-17.218311,0.000000,0.000000,-1.000000
13.712804,3.373030,17.218311,0.000000,0.000000,1.000000
-14.454269,20.268406,-12.008980,0.751840,0.000000,0.659346
8.401312,-14.959886,17.218311,0.000000,0.000000,1.000000
29.484959,-13.800738,-0.224058,1.000000,0.000000,-0.000000
5.014165,8.190413,-14.586870,-0.000000,1.000000,0.000000
6.321402,-6.857339,12.850277,-0.471397,0.000000,-0.881921
-9.606749,6.562425,17.218311,0.000000,0.000000,1.000000
-4.863216,5.042191,13.481617,0.290285,0.000000,-0.956940
-29.484959,6.915451,13.376192,-1.000000,0.000000,0.000000
-23.187786,4.907880,-17.218311,0.000000,0.000000,-1.000000
-0.457412,-21.465948,-16.352975,0.000000,-1.000000,0.000000
-14.745276,19.539133,-17.218311,0.000000,0.000000,-1.000000
28.988456,17.316986,17.218311,0.000000,0.000000,1.000000
-4.722721,6.038803,-13.524236,0.290285,-0.000000,0.956940
-29.484959,-0.290554,-16.520644,-1.000000,0.000000,0.000000
17.877796,8.566938,-5.775092,-0.946930,0.000000,0.321439
-7.718397,-8.682562,17.218311,0.000000,0.000000,1.000000
29.484959,-0.212274,16.690612,1.000000,-0.000000,0.000000
2.355565,-5.960052,-14.150071,-0.098017,0.000000,0.995185
-20.563300,-21.465948,-14.462005,0.000000,-1.000000,0.000000
-29.484959,6.257040,-2.436361,-1.000000,0.000000,0.000000
-29.484959,16.512528,6.355427,-1.000000,0.000000,0.000000
29.484959,-0.765624,-15.572138,1.000000,0.000000,-0.000000
-21.493441,6.137249,4.106749,0.098017,0.000000,-0.995185
29.484959,2.792635,-14.302400,1.000000,0.000000,-0.000000
9.995091,-11.337410,10.312928,-0.634393,0.000000,-0.773010
15.869074,20.389928,-10.063017,-0.831470,0.000000,0.555570
10.079862,-9.206201,-10.243358,-0.634393,0.000000,0.773010
-23.170657,-2.611665,3.734089,0.471396,0.000000,-0.881921
19.027575,-21.465948,10.444727,-0.000000,-1.000000,0.000000
-10.492596,-21.465948,-13.282910,0.000000,-1.000000,0.000000
24.220350,-12.420436,3.043285,-0.634394,0.000000,-0.773010
-28.875530,20.123975,17.218311,0.000000,-0.000000,1.000000
-13.219930,-12.028914,-17.218311,0.000000,0.000000,-1.000000
29.143101,-16.806637,-17.218311,0.000000,0.000000,-1.000000
-19.375531,-17.684312,17.218311,0.000000,0.000000,1.000000
11.731680,8.190413,-10.298243,-0.000000,1.000000,0.000000
-26.702581,-21.465948,13.931690,0.000000,-1.000000,0.000000
29.484959,-5.152024,-7.322630,1.000000,0.000000,-0.000000
29.484959,2.178613,-0.931523,1.000000,-0.000000,0.000000
-29.484959,-10.541882,1.442965,-1.000000,0.000000,0.000000
7.961625,-18.405644,-11.973559,-0.471397,0.000000,0.881921
28.473447,-4.406281,17.218311,0.000000,0.000000,1.000000
27.190645,21.465948,5.769112,0.000000,1.000000,-0.000000
25.282223,-1.909163,1.564156,-0.956941,0.000000,-0.290283
-20.177301,17.897534,-3.875071,-0.290285,0.000000,0.956940
-22.135864,-21.465948,11.997917,0.000000,-1.000000,0.000000
19.288721,21.465948,11.224436,0.000000,1.000000,-0.000000
-13.403741,7.361593,5.119939,0.956940,0.000000,-0.290285
-29.484959,-10.673605,14.864150,-1.000000,0.000000,0.000000
-25.043714,0.989668,-2.013726,0.881921,-0.000000,0.471397
15.726264,14.532861,-10.276748,-0.831470,0.000000,0.555570
25.377439,-21.465948,-13.962740,0.000000,-1.000000,0.000000
20.923532,21.465948,7.091022,0.000000,1.000000,-0.000000
-22.885973,12.601646,17.218311,0.000000,-0.000000,1.000000
0.733393,-6.060891,-17.218311,0.000000,0.000000,-1.000000
-29.484959,-15.889269,3.368441,-1.000000,0.000000,0.000000
-13.737950,-11.296948,-17.218311,0.000000,0.000000,-1.000000
11.837558,-6.276373,8.137325,-0.773010,0.000000,-0.634393
2.005447,-8.688686,-17.218311,0.000000,0.000000,-1.000000
5.192340,-12.588673,-13.381779,-0.290285,0.000000,0.956940
-6.682798,0.622429,-12.657107,0.471397,-0.000000,0.881921
-23.804070,7.210339,3.384918,0.634393,0.000000,-0.773010
-25.629723,21.465948,-2.542196,-0.000000,1.000000,0.000000
4.017848,3.645109,-17.218311,0.000000,0.000000,-1.000000
-29.484959,-10.913471,1.855924,-1.000000,0.000000,0.000000
-29.484959,17.100442,-14.269686,-1.000000,0.000000,0.000000
29.484959,-13.698590,-16.244353,1.000000,0.000000,-0.000000
24.555683,2.895344,17.218311,0.000000,0.000000,1.000000
1.199969,-12.961757,17.218311,0.000000,0.000000,1.000000
9.826784,-6.796222,-10.451054,-0.634393,0.000000,0.773010
29.484959,-20.263816,8.934775,1.000000,0.000000,-0.000000
15.141601,-7.836683,-17.218311,0.000000,0.000000,-1.000000
11.845892,-21.465948,10.727542,-0.000000,-1.000000,0.000000
17.654069,-4.809634,-1.453303,0.956940,-0.000000,0.290285
9.987095,11.843754,15.919803,-0.555570,0.000000,-0.831470
-14.280973,3.306967,-1.026492,0.995185,-0.000000,0.098017
-8.438873,19.466313,-16.783816,0.442289,-0.000000,0.896873
-19.311979,13.305788,-3.473631,-0.471396,0.000000,0.881921
-15.284644,-18.785695,-17.218311,0.000000,0.000000,-1.000000
-22.781749,-21.465948,13.080507,0.000000,-1.000000,0.000000
21.969529,-15.265304,4.059858,-0.098017,-0.000000,-0.995185
17.536133,21.465948,-16.121248,-0.000000,1.000000,0.000000
-6.242114,-1.010914,17.218311,0.000000,-0.000000,1.000000
29.484959,0.623443,-13.678906,1.000000,0.000000,-0.000000
-12.856041,20.718395,17.218311,0.000000,-0.000000,1.000000
-19.805922,10.676813,17.218311,0.000000,-0.000000,1.000000
29.484959,-4.077669,-13.762244,1.000000,0.000000,-0.000000
-15.021691,7.978126,17.218311,0.000000,-0.000000,1.000000
29.484959,-3.920058,-12.020774,1.000000,0.000000,-0.000000
-29.484959,13.645686,15.564071,-1.000000,0.000000,0.000000
-3.396685,4.394091,17.218311,0.000000,-0.000000,1.000000
27.519785,-21.465948,-2.662052,-0.000000,-1.000000,0.000000
5.633666,1.476626,13.217879,-0.471397,0.000000,-0.881921
-4.080157,-21.465948,15.251086,0.000000,-1.000000,0.000000
28.711355,4.957901,17.218311,0.000000,0.000000,1.000000
-11.697169,1.748320,8.308389,0.773010,0.000000,-0.634393
-11.078810,-21.465948,-9.398375,0.000000,-1.000000,0.000000
28.472864,-11.362184,-17.218311,0.000000,0.000000,-1.000000
29.484959,18.463148,6.899204,1.000000,-0.000000,0.000000
10.681984,14.282190,15.455493,-0.555570,0.000000,-0.831470
12.097276,5.162095,-7.730167,-0.881921,0.000000,0.471397
-2.079163,-10.103025,14.177294,0.098017,0.000000,-0.995185
-24.438320,-11.514615,2.844964,0.773009,0.000000,-0.634395
-14.476810,-2.085894,17.218311,0.000000,-0.000000,1.000000
-29.484959,-2.952305,8.934137,-1.000000,0.000000,0.000000
25.528263,7.582655,0.652640,-0.995185,0.000000,-0.098018
-7.997564,10.160488,17.218311,0.000000,0.000000,1.000000
29.484959,-0.511727,12.181932,1.000000,-0.000000,0.000000
-25.676926,21.465948,9.521286,0.000000,1.000000,0.000000
24.041497,-12.521838,-3.190067,-0.634394,0.000000,0.773010
9.099538,-21.465948,13.191547,0.000000,-1.000000,0.000000
0.630728,-17.468192,-14.319952,-0.098017,0.000000,0.995185
29.332661,0.247865,17.218311,0.000000,0.000000,1.000000
-25.453473,-19.913316,-17.218311,0.000000,0.000000,-1.000000
-8.325254,2.427885,-11.683329,0.634393,-0.000000,0.773010
-8.439342,-13.364515,11.589699,0.634393,0.000000,-0.773010
29.484959,-4.064129,2.470880,1.000000,0.000000,-0.000000
29.484959,15.817301,7.491890,1.000000,-0.000000,0.000000
-15.186980,8.190413,-6.486080,0.000000,1.000000,-0.000000
-29.484959,-1.653209,-4.550649,-1.000000,0.000000,0.000000
29.484959,8.439171,9.623014,1.000000,-0.000000,0.000000
-29.484959,19.972768,7.280701,-1.000000,0.000000,0.000000
19.756099,20.797882,3.711018,0.471396,0.000000,-0.881921
29.484959,-4.429162,-13.562541,1.000000,0.000000,-0.000000
-12.870972,-21.465948,-7.046742,0.000000,-1.000000,0.000000
16.508573,-21.465948,-7.554519,0.000000,-1.000000,0.000000
29.484959,-7.714383,2.428007,1.000000,0.000000,-0.000000
29.484959,15.085078,-11.614806,1.000000,-0.000000,0.000000
29.484959,5.257036,8.385483,1.000000,-0.000000,0.000000
0.555033,-13.745070,-17.218311,0.000000,0.000000,-1.000000
7.301216,-19.920335,-12.326555,-0.471397,0.000000,0.881921
-5.264601,8.190413,13.894295,0.000000,1.000000,0.000000
-13.642797,-6.762111,17.218311,0.000000,-0.000000,1.000000
-17.738736,-13.511106,-17.218311,0.000000,0.000000,-1.000000
29.484959,-4.578531,-12.961302,1.000000,0.000000,-0.000000
18.717200,15.461337,17.218311,0.000000,-0.000000,1.000000
29.484959,-8.883923,6.924283,1.000000,0.000000,-0.000000
21.988381,-21.465948,-4.534007,-0.000000,-1.000000,0.000000
10.371302,-14.646952,9.923962,-0.773010,0.000000,-0.634393
-15.535309,1.399092,-17.218311,0.000000,0.000000,-1.000000
28.728907,-21.465948,-12.357534,-0.000000,-1.000000,0.000000
15.647010,-11.750630,-17.218311,0.000000,0.000000,-1.000000
24.743234,-9.026608,17.218311,0.000000,0.000000,1.000000
-14.244290,-16.535330,-1.398938,0.995185,0.000000,0.098017
-2.567171,-14.442535,14.129229,0.098017,0.000000,-0.995185
19.904913,-15.058773,-17.218311,0.000000,0.000000,-1.000000
-17.382280,18.164769,7.225311,0.896873,0.000000,-0.442289
-18.241244,10.281178,4.585685,0.980785,0.000000,-0.195090
13.274133,-2.928609,-17.218311,0.000000,0.000000,-1.000000
26.446575,-21.465948,-7.069820,-0.000000,-1.000000,0.000000
-22.616467,10.019986,-17.218311,0.000000,0.000000,-1.000000
4.644275,2.746554,17.218311,0.000000,0.000000,1.000000
-10.889495,-1.711114,17.218311,0.000000,-0.000000,1.000000
-11.441822,-20.208738,8.619530,0.773010,0.000000,-0.634393
0.667469,-5.824992,-14.316334,-0.098017,0.000000,0.995185
-10.887334,-5.489984,-9.295176,0.773010,-0.000000,0.634393
-10.880871,-8.905666,9.303051,0.773010,0.000000,-0.634393
3.825561,-20.294677,17.218311,0.000000,0.000000,1.000000
7.189889,-19.260909,-12.386060,-0.471397,0.000000,0.881921
18.067037,5.302357,-2.277204,0.881921,-0.000000,0.471397
22.269120,4.622560,-4.030351,-0.098017,0.000000,0.995185
-29.484959,-15.827693,-10.129240,-1.000000,0.000000,0.000000
5.725828,-13.989789,13.168617,-0.471397,0.000000,-0.881921
18.749658,17.518385,-17.218311,0.000000,0.000000,-1.000000
-8.354594,2.293554,11.659250,0.634393,0.000000,-0.773010
-7.849444,-14.655438,12.033521,0.471397,0.000000,-0.881921
-23.452314,-13.272701,-17.218311,0.000000,0.000000,-1.000000
-15.235853,8.264956,17.218311,0.000000,-0.000000,1.000000
-29.484959,13.995575,15.337181,-1.000000,0.000000,0.000000
29.484959,14.928005,7.973142,1.000000,-0.000000,0.000000
-29.484959,-9.896190,12.571172,-1.000000,0.000000,0.000000
15.549340,13.811129,-17.218311,0.000000,0.000000,-1.000000
-29.484959,-1.971582,-14.175230,-1.000000,0.000000,0.000000
-18.648896,-5.417692,-2.960665,-0.634394,0.000000,0.773010
29.484959,-1.113959,5.678466,1.000000,-0.000000,0.000000
-29.484959,-6.101919,16.696819,-1.000000,0.000000,0.000000
5.920849,6.099324,17.218311,0.000000,-0.000000,1.000000
13.356628,-14.468423,5.275250,-0.956940,0.000000,-0.290285
29.484959,16.345172,-10.742670,1.000000,-0.000000,0.000000
-29.484959,3.121866,1.767173,-1.000000,0.000000,0.000000
8.143854,6.722458,17.218311,0.000000,-0.000000,1.000000
-29.484959,9.596128,16.211545,-1.000000,0.000000,0.000000
-29.484959,-2.592784,6.570708,-1.000000,0.000000,0.000000
29.484959,6.188673,3.556170,1.000000,-0.000000,0.000000
-29.484959,-19.485588,3.257637,-1.000000,0.000000,0.000000
29.484959,-19.164790,-8.700546,1.000000,0.000000,-0.000000
17.461332,-9.535186,0.817937,0.956941,0.000000,-0.290282
14.316402,-12.610650,0.666777,-0.995185,-0.000000,-0.098017
-9.659926,17.822553,17.218311,0.000000,-0.000000,1.000000
-24.875502,8.202199,2.312257,0.773012,0.000000,-0.634392
-10.648236,19.582141,-15.478043,0.555570,0.000000,0.831470
-7.052460,-9.189908,17.218311,0.000000,0.000000,1.000000
-29.484959,4.159960,5.037839,-1.000000,0.000000,0.000000
-29.484959,-6.113202,-13.637540,-1.000000,0.000000,0.000000
1.621246,-8.908305,14.222395,-0.098017,-0.000000,-0.995185
13.901149,7.270425,3.480206,-0.956940,0.000000,-0.290285
-29.484959,-12.935192,-5.212775,-1.000000,0.000000,0.000000
20.750201,-18.140932,-4.035217,0.098017,-0.000000,0.995185
29.484959,-6.853649,-6.464052,1.000000,0.000000,-0.000000
28.206102,21.465948,14.682582,-0.000000,1.000000,0.000000
3.484606,-7.676536,-13.899814,-0.290285,0.000000,0.956940
-1.220617,-13.016364,14.261853,0.098017,0.000000,-0.995185
-18.943177,6.297441,3.202176,-0.634393,-0.000000,-0.773010
11.897237,2.585728,-8.064606,-0.773010,0.000000,0.634393
-9.423592,-21.465948,14.989078,0.000000,-1.000000,0.000000
-29.484959,11.781960,5.923931,-1.000000,0.000000,0.000000
-29.060342,21.465948,2.613482,-0.000000,1.000000,0.000000
-14.087903,-4.731234,2.864559,0.956940,0.000000,-0.290285
-13.741547,-8.745957,-17.218311,0.000000,0.000000,-1.000000
-7.740096,-21.003321,12.091969,0.471397,0.000000,-0.881921
-29.484959,2.338925,-14.737064,-1.000000,0.000000,0.000000
0.307387,-9.180082,-14.351798,-0.098017,0.000000,0.995185
-21.178379,6.525653,4.077388,-0.098017,-0.000000,-0.995185
15.129178,-21.465948,10.178389,-0.000000,-1.000000,0.000000
-29.484959,10.282431,-11.222482,-1.000000,0.000000,0.000000
10.431646,0.349604,-9.850432,-0.773010,0.000000,0.634393
-11.625490,-9.430885,-8.395730,0.773010,0.000000,0.634393
20.231244,-9.081830,3.891435,0.290285,-0.000000,-0.956940
1.135319,-16.174118,-14.270254,-0.098017,0.000000,0.995185
-28.684255,21.465948,-10.701524,-0.000000,1.000000,0.000000
-1.510379,-19.531895,-14.233314,0.098017,0.000000,0.995185
-6.035227,-6.328005,-17.218311,0.000000,0.000000,-1.000000
-29.484959,-1.777241,2.857381,-1.000000,0.000000,0.000000
23.444463,8.608520,-17.218311,0.000000,0.000000,-1.000000
-26.851061,20.466754,-17.218311,0.000000,0.000000,-1.000000
29.484959,-6.966871,13.719454,1.000000,-0.000000,0.000000
27.795526,-21.465948,2.424142,-0.000000,-1.000000,0.000000
-25.189900,11.137379,1.740231,0.881921,0.000000,-0.471398
-23.346174,18.686739,17.218311,0.000000,-0.000000,1.000000
-9.857770,-21.465948,17.157156,0.000000,-1.000000,0.000000
-26.366590,-21.465948,-0.004120,0.000000,-1.000000,0.000000
-29.484959,-18.840297,-3.035948,-1.000000,0.000000,0.000000
-18.692987,21.465948,-10.304768,-0.000000,1.000000,0.000000
29.484959,1.763087,5.900929,1.000000,-0.000000,0.000000
29.484959,5.769519,2.677333,1.000000,-0.000000,0.000000
-22.050345,11.898540,-4.051898,0.098017,0.000000,0.995185
15.466160,8.190413,-7.964753,-0.000000,1.000000,0.000000
-15.492596,8.190413,1.069788,0.000000,1.000000,-0.000000
3.162107,1.665976,-13.997643,-0.290285,0.000000,0.956940
1.475912,-9.225680,-17.218311,0.000000,0.000000,-1.000000
-10.629354,20.465717,17.218311,0.000000,-0.000000,1.000000
17.790340,17.805881,6.032729,-0.946930,0.000000,-0.321439
15.307876,9.383076,10.902909,-0.831470,0.000000,-0.555570
-26.466903,12.549482,-17.218311,0.000000,0.000000,-1.000000
-7.358722,-4.427027,-12.295818,0.471397,0.000000,0.881921
3.542870,-12.174954,17.218311,0.000000,0.000000,1.000000
-29.484959,-19.038427,-17.217274,-1.000000,0.000000,0.000000
28.608807,21.465948,-0.430159,0.000000,1.000000,-0.000000
10.382409,-14.969681,9.910428,-0.773010,0.000000,-0.634393
-0.306172,-9.412605,17.218311,0.000000,0.000000,1.000000
-26.604313,15.104009,-17.218311,0.000000,0.000000,-1.000000
-2.671085,4.324189,14.118995,0.098017,0.000000,-0.995185
-29.484959,-12.692365,3.280009,-1.000000,0.000000,0.000000
-11.109457,1.557286,-17.218311,0.000000,0.000000,-1.000000
13.708588,20.344210,17.218311,0.000000,-0.000000,1.000000
24.757737,-7.374907,-17.218311,0.000000,0.000000,-1.000000
-25.257654,-21.465948,16.480816,0.000000,-1.000000,0.000000
-14.409622,19.296510,-17.218311,0.000000,0.000000,-1.000000
-7.939533,1.001488,17.218311,0.000000,-0.000000,1.000000
24.218745,-11.693992,-3.044603,-0.634394,0.000000,0.773010
6.266671,-8.204638,17.218311,0.000000,0.000000,1.000000
10.164182,14.248288,17.218311,0.000000,-0.000000,1.000000
12.766282,-8.093950,-6.478545,-0.881921,0.000000,0.471397
-23.427772,-21.465948,10.736985,0.000000,-1.000000,0.000000
-0.509767,7.734163,-17.218311,0.000000,0.000000,-1.000000
-13.691341,2.988981,4.171848,0.956940,0.000000,-0.290285
-12.928584,5.143262,6.174898,0.881921,0.000000,-0.471397
