x,y,z,nx,ny,nz
6.747881,5.507989,2.978123,0.760406,0.649448,0.000000
15.305586,-8.278039,-27.290164,0.852640,-0.522498,0.000000
-7.349535,-1.183932,31.707957,-0.972370,-0.233445,-0.000000
2.595224,-0.042302,31.822687,-0.995185,0.098018,0.000000
-1.565887,2.061402,4.900185,0.634393,-0.773011,0.000000
6.378639,16.164902,-44.598707,0.382684,0.923879,-0.000000
-2.161941,7.114736,51.632366,-0.233445,0.972370,0.000000
-7.551719,-15.678996,-30.077361,-0.382684,-0.923879,0.000000
-5.206113,16.619271,-42.268732,-0.233445,0.972370,0.000000
5.594547,-1.303015,-49.359588,0.000000,1.000000,0.000000
-5.279962,16.601541,-36.344072,-0.233445,0.972370,0.000000
-9.255112,2.470626,-16.159019,-0.972370,0.233445,0.000000
6.466369,-15.854408,-56.687992,0.000000,0.000000,-1.000000
-7.355180,-1.151467,42.833511,-0.996917,-0.078459,0.000000
-2.058076,-17.267175,-33.034544,-0.078459,-0.996917,0.000000
5.389882,5.118734,35.767946,0.760406,0.649448,-0.000000
-6.093809,-9.127420,-56.687992,0.000000,-0.000000,-1.000000
-9.613654,-14.487121,-43.880892,-0.522498,-0.852640,0.000000
-6.374394,-7.842832,-56.687992,0.000000,0.000000,-1.000000
-14.450065,-1.344748,-56.687992,0.000000,0.000000,-1.000000
1.064240,9.270296,1.971878,0.000000,-0.000000,1.000000
0.395803,-11.246343,-27.127197,0.000000,-0.000000,1.000000
0.420687,-2.557957,-51.399889,-0.098018,0.995185,0.000000
3.211840,8.095389,8.688284,0.382684,0.923879,0.000000
-2.596316,0.031215,41.393839,0.995185,-0.098018,0.000000
-2.566179,-0.337206,-2.642389,0.995185,0.098018,0.000000
2.458265,-0.807694,1.555994,-0.956940,0.290284,0.000000
2.358440,1.075349,-18.949915,-0.881921,-0.471397,0.000000
-1.215155,-2.283711,43.776805,0.471397,0.881921,0.000000
-6.200595,-9.272771,-56.687992,0.000000,-0.000000,-1.000000
-3.592643,-17.006630,-43.335420,-0.233445,-0.972370,0.000000
-16.204167,-6.283844,-49.106439,-0.923879,-0.382684,-0.000000
9.360123,-14.642485,-52.329243,0.522498,-0.852640,0.000000
0.035413,-8.732422,23.932694,0.078459,-0.996917,0.000000
-6.632231,3.383633,49.323547,-0.852640,0.522498,0.000000
1.426209,-11.844771,-56.687992,0.000000,0.000000,-1.000000
-8.186368,-12.221548,-27.127197,-0.000000,0.000000,1.000000
9.536356,-0.881863,-6.916393,0.996917,-0.078459,0.000000
-1.926432,-1.730349,43.320961,0.773011,0.634393,0.000000
-3.841405,8.773987,-9.590606,-0.382684,0.923879,0.000000
7.242971,-6.264628,-26.104257,0.760406,-0.649448,0.000000
5.461876,-1.303015,-3.085555,0.000000,1.000000,-0.000000
4.839772,0.935133,-51.189805,1.000000,0.000000,0.000000
9.112000,-13.182883,-27.127197,0.000000,-0.000000,1.000000
-8.927672,14.907491,-30.053702,-0.522498,0.852640,0.000000
3.084710,6.756706,35.626609,0.382684,0.923879,0.000000
-16.892560,-4.067780,-38.958581,-0.972370,-0.233445,0.000000
-2.711768,-9.197219,-16.759080,-0.233445,-0.972370,0.000000
14.743285,-9.195632,-52.276429,0.852640,-0.522498,0.000000
-17.388917,-0.511208,-48.596407,-0.996917,-0.078459,-0.000000
7.901933,15.533933,-29.577618,0.382684,0.923879,0.000000
-15.022517,-0.178682,-27.127197,0.000000,-0.000000,1.000000
3.430316,-3.001312,56.687992,-0.000000,0.000000,1.000000
-15.832802,7.180399,-41.699617,-0.923879,0.382684,0.000000
1.919465,3.050449,56.687992,0.000000,-0.000000,1.000000
8.614611,-4.226173,-14.939405,0.923879,-0.382684,0.000000
-2.020371,1.615884,39.799626,0.773011,-0.634393,0.000000
4.583051,7.404817,2.879808,0.522498,0.852640,0.000000
-9.047177,-3.181866,-6.277221,-0.923879,-0.382684,0.000000
-11.667728,12.885009,-41.460657,-0.649448,0.760406,0.000000
15.734035,1.682746,-56.687992,0.000000,0.000000,-1.000000
0.679245,2.497229,6.732361,-0.290284,-0.956940,0.000000
7.445803,-0.150306,-39.274626,-1.000000,0.000000,0.000000
5.287276,-6.936388,23.004351,0.649448,-0.760406,0.000000
-5.116493,-16.640787,-34.320625,-0.233445,-0.972370,0.000000
2.864071,-6.848098,31.472282,0.382684,-0.923879,0.000000
-15.559740,-7.839627,-38.734937,-0.923879,-0.382684,0.000000
9.132814,-2.975120,-17.835249,0.923879,-0.382684,0.000000
3.708824,8.828904,-11.235381,0.382684,0.923879,-0.000000
-5.740839,-4.707817,42.746003,-0.760406,-0.649448,0.000000
8.242124,7.638294,-56.687992,0.000000,0.000000,-1.000000
16.736178,-4.719159,-51.251855,0.972370,-0.233445,0.000000
-3.027432,-8.244613,1.971878,0.000000,-0.000000,1.000000
-2.598262,0.011465,11.766346,0.995185,-0.098018,0.000000
0.822262,-11.171111,-27.127197,0.000000,0.000000,1.000000
4.839772,-0.250004,-25.389915,1.000000,0.000000,0.000000
4.839772,0.237430,-23.837495,1.000000,0.000000,0.000000
8.419526,2.233447,9.041277,0.972370,0.233445,0.000000
1.667062,1.978370,1.194973,-0.634393,-0.773011,0.000000
1.656700,-15.206316,-56.687992,0.000000,0.000000,-1.000000
2.322462,-1.142658,-28.401182,-0.881921,0.471397,0.000000
4.715458,5.644500,-56.687992,0.000000,0.000000,-1.000000
-9.535932,0.887252,-12.539837,-0.996917,0.078459,0.000000
3.667584,-8.845986,-4.007666,0.382684,-0.923879,0.000000
-4.413207,5.992459,40.980658,-0.649448,0.760406,0.000000
6.963169,1.303015,16.307359,-0.000000,-1.000000,0.000000
14.191810,10.095557,-50.676339,0.852640,0.522498,-0.000000
3.025550,6.781211,48.529870,0.382684,0.923879,-0.000000
-0.438281,7.411309,28.421545,-0.078459,0.996917,0.000000
1.550966,7.261418,51.371445,0.233445,0.972370,-0.000000
6.422772,5.888643,19.832018,0.760406,0.649448,-0.000000
5.044472,-1.303015,13.611430,0.000000,1.000000,-0.000000
-2.401893,17.240116,-49.042418,-0.078459,0.996917,0.000000
5.734094,6.554769,25.073485,0.649448,0.760406,-0.000000
3.170110,-5.508656,-56.687992,0.000000,0.000000,-1.000000
-10.880180,-7.466173,-56.687992,0.000000,0.000000,-1.000000
-14.411561,-9.736956,-35.579489,-0.852640,-0.522498,0.000000
8.488818,-15.176421,-50.044289,0.522498,-0.852640,0.000000
14.698799,9.268227,-37.638880,0.852640,0.522498,-0.000000
13.568063,-10.867975,-49.010398,0.760406,-0.649448,0.000000
2.616312,9.220136,-10.924389,0.233445,0.972370,0.000000
5.101196,-1.303015,-17.069804,0.000000,1.000000,-0.000000
5.683590,-1.303015,49.793240,0.000000,1.000000,-0.000000
6.137152,4.191528,44.909350,0.852640,0.522498,-0.000000
-7.592743,-15.662003,-34.255509,-0.382684,-0.923879,0.000000
2.407838,0.973928,-40.690991,-0.956940,-0.290284,0.000000
6.340909,1.303015,48.899521,0.000000,-1.000000,0.000000
9.643218,-5.798803,-56.687992,0.000000,-0.000000,-1.000000
17.244475,2.346506,-51.062668,0.996917,0.078459,-0.000000
2.236442,1.303590,3.784202,-0.881921,-0.471397,0.000000
11.089227,-13.379096,-27.559623,0.649448,-0.760406,0.000000
11.881826,-12.702151,-40.861223,0.649448,-0.760406,0.000000
-4.236392,-16.852080,-46.823134,-0.233445,-0.972370,0.000000
7.445803,-0.821942,-24.212706,-1.000000,0.000000,0.000000
-3.059354,-9.097923,-18.973454,-0.382684,-0.923879,0.000000
-0.813272,2.456573,-12.482563,0.290284,-0.956940,0.000000
2.960433,9.137520,-9.714159,0.233445,0.972370,0.000000
8.838377,13.386916,-56.687992,0.000000,0.000000,-1.000000
15.179518,8.483764,-43.927490,0.852640,0.522498,0.000000
7.445803,-0.102400,-43.629589,-1.000000,0.000000,0.000000
-0.615748,-8.686749,27.535389,-0.078459,-0.996917,0.000000
8.403368,8.340342,-27.127197,0.000000,-0.000000,1.000000
5.778934,1.303015,-34.416124,0.000000,-1.000000,-0.000000
-7.858146,-1.055541,27.802532,0.000000,-0.000000,1.000000
-7.145995,-6.378172,-17.347531,-0.760406,-0.649448,-0.000000
4.853881,-14.509603,-56.687992,0.000000,0.000000,-1.000000
6.777104,5.473773,2.731730,0.760406,0.649448,0.000000
-1.129916,-2.329272,17.425062,0.471397,0.881921,0.000000
-6.657927,16.049217,-32.787973,-0.382684,0.923879,0.000000
4.354290,16.823775,-49.300884,0.233445,0.972370,0.000000
-15.313173,8.265659,-45.691782,-0.852640,0.522498,0.000000
6.609797,1.303015,-12.589738,0.000000,-1.000000,-0.000000
0.228841,2.576852,50.432257,-0.098018,-0.995185,0.000000
-4.281898,16.841155,-30.928417,-0.233445,0.972370,0.000000
-4.013416,-6.148956,-56.687992,0.000000,-0.000000,-1.000000
-13.093011,4.314089,-56.687992,0.000000,0.000000,-1.000000
-7.170069,6.349985,-10.520355,-0.760406,0.649448,0.000000
-6.633790,-4.622570,-56.687992,0.000000,0.000000,-1.000000
7.876591,-15.544429,-55.773135,0.382684,-0.923879,0.000000
-9.261963,-2.442091,-9.643255,-0.972370,-0.233445,0.000000
5.564856,7.821025,-22.093876,0.522498,0.852640,0.000000
5.802826,4.635239,42.388461,0.760406,0.649448,0.000000
1.594038,-2.038300,35.658717,-0.634393,0.773011,0.000000
-1.963287,3.712132,-56.687992,0.000000,0.000000,-1.000000
2.570482,0.293511,29.545247,-0.995185,-0.098018,0.000000
-5.783669,8.127435,-56.687992,0.000000,0.000000,-1.000000
11.563145,12.974332,-34.880693,0.649448,0.760406,-0.000000
5.633744,-4.833208,49.497855,0.760406,-0.649448,0.000000
-17.375901,0.676591,-34.858871,-0.996917,0.078459,0.000000
4.839772,-0.057358,53.045694,1.000000,0.000000,0.000000
2.809968,-8.261850,20.646829,0.382684,-0.923879,0.000000
-2.582760,-0.168857,7.241346,0.995185,0.098018,-0.000000
-1.524882,-8.589637,16.305077,-0.233445,-0.972370,0.000000
-8.254235,14.513855,-27.127197,-0.000000,-0.000000,1.000000
-9.599011,-0.085757,-18.004339,-0.996917,-0.078459,-0.000000
6.343146,1.303015,-25.688822,0.000000,-1.000000,-0.000000
5.020817,-7.136554,14.630930,0.522498,-0.852640,0.000000
1.858474,-1.813156,-20.167065,-0.773011,0.634393,0.000000
-1.531344,2.089751,-35.619898,0.634393,-0.773011,0.000000
1.317393,-7.317493,39.158255,0.233445,-0.972370,0.000000
0.177389,2.581919,-49.095020,-0.098018,-0.995185,0.000000
0.766385,14.261878,-27.127197,0.000000,-0.000000,1.000000
-2.534354,-0.556861,47.727809,0.956940,0.290284,0.000000
8.702941,-0.410012,21.523155,0.996917,-0.078459,0.000000
2.589078,-0.104708,-26.745462,-0.995185,0.098018,0.000000
-11.217426,-13.269604,-33.825696,-0.649448,-0.760406,0.000000
1.309269,7.319444,35.123447,0.233445,0.972370,-0.000000
7.131012,1.303015,40.071802,-0.000000,-1.000000,0.000000
3.736445,6.149278,-56.687992,0.000000,0.000000,-1.000000
-2.645748,-17.220924,-52.130865,-0.078459,-0.996917,0.000000
0.265169,2.573274,-10.203571,-0.098018,-0.995185,0.000000
5.080495,7.099983,27.179815,0.522498,0.852640,-0.000000
5.549440,-16.508368,-50.662997,0.382684,-0.923879,0.000000
6.431964,1.303015,12.371734,-0.000000,-1.000000,0.000000
11.717583,12.842429,-32.203203,0.649448,0.760406,-0.000000
2.268474,1.243663,54.193766,-0.881921,-0.471397,0.000000
3.395888,-8.958526,-4.994892,0.382684,-0.923879,0.000000
9.116731,-14.791636,-51.901287,0.522498,-0.852640,0.000000
2.686177,-6.921784,49.244245,0.382684,-0.923879,0.000000
3.898414,7.811000,5.345962,0.382684,0.923879,0.000000
-7.453914,6.017646,1.607682,-0.760406,0.649448,0.000000
15.516964,-7.933102,-40.672992,0.852640,-0.522498,0.000000
9.482540,-14.567467,-39.387799,0.522498,-0.852640,0.000000
-0.788643,2.464044,22.895331,0.290284,-0.956940,0.000000
-1.733289,1.924019,20.815569,0.634393,-0.773011,0.000000
10.198640,-14.128641,-54.106139,0.522498,-0.852640,0.000000
0.197704,7.430243,33.330325,0.078459,0.996917,-0.000000
2.495162,-0.686058,32.015872,-0.956940,0.290284,0.000000
7.445803,-0.787474,10.714499,-1.000000,0.000000,0.000000
10.185844,-5.387639,-56.687992,0.000000,-0.000000,-1.000000
-2.797784,-8.266896,3.350167,-0.382684,-0.923879,0.000000
7.368498,-1.303015,-9.949726,0.000000,1.000000,0.000000
-8.873596,2.102590,-56.687992,0.000000,0.000000,-1.000000
-10.245626,0.702153,-27.127197,-0.000000,0.000000,1.000000
-17.301895,1.616924,-33.881411,-0.996917,0.078459,0.000000
4.921575,-1.303015,-8.916378,0.000000,1.000000,-0.000000
-2.037416,1.595115,9.027924,0.773011,-0.634393,0.000000
4.845702,1.303015,11.643737,0.000000,-1.000000,0.000000
-8.255957,-15.319118,-40.840951,-0.522498,-0.852640,0.000000
9.573305,14.511846,-50.104642,0.522498,0.852640,0.000000
-0.835396,-8.669462,4.348005,-0.078459,-0.996917,0.000000
16.365304,-5.894827,-31.522629,0.923879,-0.382684,0.000000
-4.268463,-16.844380,-52.858761,-0.233445,-0.972370,0.000000
1.723650,-7.219960,32.952263,0.233445,-0.972370,0.000000
-15.157792,8.519218,-44.756195,-0.852640,0.522498,0.000000
4.839772,0.871407,46.609170,1.000000,0.000000,0.000000
8.391774,2.349045,8.053777,0.972370,0.233445,0.000000
5.013345,1.303015,44.238451,0.000000,-1.000000,0.000000
-3.244638,-17.090178,-46.544892,-0.233445,-0.972370,0.000000
-6.787893,-6.796060,-19.413568,-0.649448,-0.760406,0.000000
-7.373624,-15.752765,-55.259991,-0.382684,-0.923879,0.000000
-17.133404,3.064587,-43.742915,-0.972370,0.233445,0.000000
9.519409,-1.097193,-14.120258,0.996917,-0.078459,0.000000
5.266374,1.303015,-47.396077,0.000000,-1.000000,-0.000000
4.414712,-16.809269,-36.272496,0.233445,-0.972370,0.000000
9.551036,-0.695341,-25.167979,0.996917,-0.078459,0.000000
-6.111990,-0.187558,-56.687992,0.000000,0.000000,-1.000000
-2.442760,9.261802,-4.959367,-0.233445,0.972370,0.000000
11.923154,12.666855,-53.393317,0.649448,0.760406,0.000000
6.261574,-6.077382,18.394555,0.760406,-0.649448,0.000000
4.574164,-7.410263,8.306451,0.522498,-0.852640,0.000000
-3.071711,13.242923,-27.127197,-0.000000,-0.000000,1.000000
7.445803,-0.700408,25.769764,-1.000000,0.000000,0.000000
-9.423763,-1.768147,-26.602033,-0.972370,-0.233445,-0.000000
-0.181703,-9.591460,-21.315083,-0.078459,-0.996917,0.000000
-5.172761,6.890816,27.802532,-0.000000,0.000000,1.000000
16.064947,0.648455,-27.127197,0.000000,-0.000000,1.000000
7.445803,-0.721182,17.496242,-1.000000,0.000000,0.000000
4.839772,-0.587964,-52.461486,1.000000,0.000000,0.000000
15.953219,6.889687,-29.476314,0.923879,0.382684,-0.000000
10.660492,-13.745270,-54.959671,0.649448,-0.760406,0.000000
-9.580408,0.322133,-15.078924,-0.996917,0.078459,0.000000
6.108713,-1.303015,-16.525147,0.000000,1.000000,0.000000
8.483239,4.484220,-5.110870,0.852640,0.522498,0.000000
9.414991,1.804683,-8.022522,0.972370,0.233445,0.000000
2.336513,-1.116371,-37.518506,-0.881921,0.471397,0.000000
-9.157331,-14.766755,-35.545310,-0.522498,-0.852640,0.000000
-0.760415,-2.472607,39.977260,0.290284,0.956940,0.000000
7.240318,1.638853,41.538903,0.972370,0.233445,0.000000
-2.130229,-1.482022,32.304461,0.773011,0.634393,-0.000000
17.097872,-3.212592,-44.542310,0.972370,-0.233445,0.000000
3.254382,17.087839,-43.032337,0.233445,0.972370,-0.000000
-15.294909,-8.295462,-39.457297,-0.852640,-0.522498,-0.000000
3.750003,-12.249756,-27.127197,-0.000000,-0.000000,1.000000
7.237062,1.652414,31.346925,0.972370,0.233445,-0.000000
0.582022,-9.559954,-2.184538,0.078459,-0.996917,0.000000
2.013861,1.623817,-12.777145,-0.773011,-0.634393,0.000000
2.445324,-0.850354,-53.923564,-0.956940,0.290284,0.000000
15.430761,8.073772,-46.104096,0.852640,0.522498,0.000000
0.409388,-9.573541,-26.581738,0.078459,-0.996917,0.000000
4.839772,0.213220,-16.536803,1.000000,0.000000,0.000000
15.894008,7.032635,-42.818098,0.923879,0.382684,-0.000000
5.614661,-6.656775,19.939454,0.649448,-0.760406,0.000000
7.497603,-5.966493,-9.946217,0.760406,-0.649448,0.000000
-16.921049,-3.949114,-34.674830,-0.972370,-0.233445,0.000000
-9.099941,-4.057036,-56.687992,0.000000,0.000000,-1.000000
7.087685,1.303015,-13.628279,0.000000,-1.000000,-0.000000
1.002898,-2.397165,34.774309,-0.471397,0.881921,0.000000
6.539402,7.516158,-27.127197,-0.000000,0.000000,1.000000
17.399655,0.374767,-40.277111,0.996917,0.078459,0.000000
-7.268038,1.523389,30.210753,-0.972370,0.233445,0.000000
-3.862580,13.029694,-27.127197,-0.000000,0.000000,1.000000
-9.575759,0.381210,-7.898278,-0.996917,0.078459,0.000000
7.806051,-5.589291,-4.491041,0.852640,-0.522498,0.000000
3.804787,3.725509,-56.687992,0.000000,0.000000,-1.000000
1.378141,2.196593,-49.898106,-0.471397,-0.881921,0.000000
14.432810,9.702281,-50.909894,0.852640,0.522498,0.000000
16.830153,-4.327725,-37.507462,0.972370,-0.233445,0.000000
0.927320,2.421977,43.937479,-0.290284,-0.956940,0.000000
-9.903386,10.733024,-56.687992,0.000000,0.000000,-1.000000
-6.022714,16.312331,-54.462479,-0.382684,0.923879,0.000000
13.170743,-11.333177,-28.206233,0.760406,-0.649448,0.000000
5.139863,-1.303015,-55.799941,0.000000,1.000000,0.000000
6.875474,5.358597,2.842720,0.760406,0.649448,0.000000
2.290014,12.101739,-56.687992,0.000000,0.000000,-1.000000
-16.971004,3.741034,-31.842478,-0.972370,0.233445,0.000000
-2.502884,0.660605,50.482692,0.956940,-0.290284,0.000000
5.657621,-1.303015,19.949787,0.000000,1.000000,-0.000000
13.634467,1.570482,-56.687992,0.000000,0.000000,-1.000000
6.321814,-1.303015,-33.934289,0.000000,1.000000,0.000000
-8.411043,-2.268782,10.742878,-0.972370,-0.233445,0.000000
1.140854,-8.645422,22.306126,0.078459,-0.996917,0.000000
1.940205,17.276452,-28.594629,0.078459,0.996917,-0.000000
12.151638,12.471711,-37.098297,0.649448,0.760406,0.000000
6.279089,-1.303015,56.651486,0.000000,1.000000,-0.000000
-8.164005,15.375466,-34.235777,-0.522498,0.852640,0.000000
7.350971,-6.138177,-18.118514,0.760406,-0.649448,0.000000
-0.569627,2.530482,-16.721535,0.290284,-0.956940,0.000000
7.445803,-0.723218,8.378816,-1.000000,0.000000,0.000000
0.183996,4.324621,56.687992,0.000000,-0.000000,1.000000
5.426120,7.906042,-10.978338,0.522498,0.852640,0.000000
6.893152,2.755302,54.956048,0.923879,0.382684,-0.000000
-6.013633,4.388415,48.571294,-0.760406,0.649448,0.000000
-13.427752,11.032258,-36.606211,-0.760406,0.649448,0.000000
-5.479784,-7.873157,-11.427992,-0.522498,-0.852640,0.000000
0.562335,-7.401546,39.586311,0.078459,-0.996917,0.000000
17.298334,1.662171,-27.628560,0.996917,0.078459,-0.000000
6.852909,1.303015,28.484502,-0.000000,-1.000000,0.000000
-5.157795,-7.046975,23.865333,-0.649448,-0.760406,0.000000
-1.563648,2.063240,-52.135510,0.634393,-0.773011,0.000000
-0.654591,8.197046,27.802532,0.000000,-0.000000,1.000000
7.445803,-1.281218,-9.835363,-1.000000,0.000000,0.000000
-15.138540,8.550633,-43.473717,-0.852640,0.522498,0.000000
-10.160371,-3.481772,-56.687992,0.000000,0.000000,-1.000000
2.479466,10.013059,-56.687992,0.000000,0.000000,-1.000000
-7.332069,1.256682,50.141040,-0.972370,0.233445,0.000000
4.839772,0.787631,39.616299,1.000000,0.000000,0.000000
-11.093240,11.036512,-56.687992,0.000000,0.000000,-1.000000
7.996792,-5.278030,-13.434376,0.852640,-0.522498,0.000000
-7.114751,2.161875,35.276545,-0.972370,0.233445,0.000000
-1.643569,-8.561143,6.567229,-0.233445,-0.972370,0.000000
14.572533,-9.474274,-48.629097,0.852640,-0.522498,0.000000
0.658970,17.377287,-44.305182,0.078459,0.996917,-0.000000
1.142423,2.322588,12.905581,-0.471397,-0.881921,0.000000
4.910146,5.568033,45.015174,0.649448,0.760406,0.000000
-6.176837,-4.126769,43.182663,-0.852640,-0.522498,0.000000
1.995604,-1.646063,-48.521079,-0.773011,0.634393,0.000000
-5.128546,16.637893,-49.122001,-0.233445,0.972370,0.000000
14.444115,9.683833,-46.316352,0.852640,0.522498,-0.000000
4.839772,1.283799,-24.236846,1.000000,0.000000,0.000000
3.153418,-8.119588,14.928785,0.382684,-0.923879,0.000000
8.001750,-2.366639,27.802532,-0.000000,0.000000,1.000000
-2.481256,-0.731903,8.368960,0.956940,0.290284,0.000000
7.445803,0.058131,-25.760596,-1.000000,0.000000,0.000000
17.102569,-3.193027,-27.861946,0.972370,-0.233445,0.000000
9.174380,-14.756308,-38.030918,0.522498,-0.852640,0.000000
1.370969,-17.321252,-38.681994,0.078459,-0.996917,0.000000
-1.806171,7.200148,34.502890,-0.233445,0.972370,0.000000
-7.381693,0.814595,42.554556,-0.996917,0.078459,0.000000
-7.682358,-5.750173,-20.129827,-0.760406,-0.649448,-0.000000
-6.802127,15.989487,-54.519638,-0.382684,0.923879,0.000000
5.217322,-1.303015,-25.810899,0.000000,1.000000,-0.000000
-0.901253,9.534830,-1.553187,-0.078459,0.996917,0.000000
-13.347481,11.126243,-28.530977,-0.760406,0.649448,0.000000
5.344073,1.303015,32.326480,0.000000,-1.000000,0.000000
11.060267,13.403830,-47.260159,0.649448,0.760406,0.000000
-6.048980,-3.658320,-56.687992,0.000000,0.000000,-1.000000
15.796604,2.438618,-56.687992,0.000000,0.000000,-1.000000
12.417508,-1.640868,-56.687992,0.000000,0.000000,-1.000000
1.847064,1.827059,44.544086,-0.773011,-0.634393,0.000000
1.407539,-13.537141,-56.687992,0.000000,0.000000,-1.000000
-3.047009,-8.163664,24.634751,-0.382684,-0.923879,0.000000
8.987562,3.325790,-8.496215,0.923879,0.382684,0.000000
1.067769,-6.036050,-56.687992,0.000000,0.000000,-1.000000
-0.680536,2.496838,42.587669,0.290284,-0.956940,0.000000
12.730087,-11.849118,-27.134885,0.760406,-0.649448,0.000000
-4.828898,-7.254162,23.700894,-0.522498,-0.852640,0.000000
0.091409,2.590388,23.856982,-0.098018,-0.995185,0.000000
-1.452047,-2.154829,-47.098833,0.634393,0.773011,0.000000
-2.568732,-0.311283,4.309198,0.995185,0.098018,0.000000
9.774461,14.388578,-36.059344,0.522498,0.852640,0.000000
4.839772,0.996788,51.784670,1.000000,0.000000,0.000000
-7.373597,6.111686,-4.553327,-0.760406,0.649448,0.000000
0.923282,-2.423201,45.477573,-0.290284,0.956940,0.000000
-9.565237,0.514897,-5.476263,-0.996917,0.078459,0.000000
1.927481,7.171025,47.098416,0.233445,0.972370,0.000000
6.817788,-2.937246,44.338457,0.923879,-0.382684,0.000000
-6.465396,-3.655884,35.163226,-0.852640,-0.522498,-0.000000
-8.950264,-3.415833,-25.680655,-0.923879,-0.382684,0.000000
-4.030034,-9.346516,-27.127197,0.000000,-0.000000,1.000000
5.938935,-4.475875,34.162636,0.760406,-0.649448,0.000000
13.642495,10.780826,-34.387809,0.760406,0.649448,-0.000000
4.839772,-0.128716,-45.288729,1.000000,0.000000,0.000000
9.041862,-3.194697,-23.128097,0.923879,-0.382684,0.000000
2.140980,1.468921,25.596419,-0.773011,-0.634393,0.000000
-7.016130,15.900844,-39.559682,-0.382684,0.923879,0.000000
-16.292777,-6.069923,-49.242144,-0.923879,-0.382684,-0.000000
-7.909634,3.660293,2.244230,-0.923879,0.382684,0.000000
8.658061,0.980269,10.039056,0.996917,0.078459,-0.000000
-3.601674,-7.759880,-56.687992,0.000000,-0.000000,-1.000000
-1.174239,-8.642795,15.071886,-0.078459,-0.996917,0.000000
6.731274,6.844418,-6.629588,0.649448,0.760406,0.000000
-1.856168,1.815966,26.039663,0.773011,-0.634393,0.000000
-4.289073,-6.077377,31.598339,-0.522498,-0.852640,0.000000
7.740911,-4.034595,8.974262,0.852640,-0.522498,0.000000
-0.904322,-8.664038,23.426098,-0.078459,-0.996917,0.000000
6.295047,1.303015,-27.489879,0.000000,-1.000000,-0.000000
16.758237,4.627276,-30.077360,0.972370,0.233445,-0.000000
8.707479,1.750248,1.971878,0.000000,-0.000000,1.000000
4.719604,-5.730771,31.574883,0.649448,-0.760406,0.000000
15.704053,3.040576,-27.127197,0.000000,-0.000000,1.000000
7.445803,1.048191,-36.947608,-1.000000,0.000000,0.000000
-2.582400,0.172509,21.923651,0.995185,-0.098018,0.000000
0.995362,2.401193,28.535663,-0.471397,-0.881921,0.000000
7.373014,1.303015,-33.114232,0.000000,-1.000000,-0.000000
-5.202892,8.042837,-0.501069,-0.522498,0.852640,0.000000
-1.957923,-7.163716,38.433592,-0.233445,-0.972370,0.000000
-9.791235,14.378299,-44.089943,-0.522498,0.852640,0.000000
3.689225,-16.983443,-43.592408,0.233445,-0.972370,0.000000
4.050081,-10.274442,-27.127197,-0.000000,-0.000000,1.000000
7.547960,5.907533,-16.318695,0.760406,0.649448,0.000000
6.094944,7.387895,-0.548395,0.649448,0.760406,-0.000000
1.873319,-9.398513,-6.903201,0.233445,-0.972370,0.000000
4.839772,0.289576,-5.574407,1.000000,0.000000,0.000000
6.614036,-5.664701,17.794729,0.760406,-0.649448,0.000000
12.626233,4.067023,-56.687992,0.000000,0.000000,-1.000000
-3.519428,8.907354,-12.363826,-0.382684,0.923879,0.000000
-16.391651,-5.831220,-51.707622,-0.923879,-0.382684,-0.000000
0.819316,7.381321,37.009067,0.078459,0.996917,0.000000
2.224435,1.326054,-8.934021,-0.881921,-0.471397,0.000000
-1.947449,-8.488188,15.560865,-0.233445,-0.972370,0.000000
-5.823358,7.619852,-26.245333,-0.649448,0.760406,0.000000
-1.297173,8.633120,19.839485,-0.078459,0.996917,0.000000
6.861336,2.832112,40.819445,0.923879,0.382684,0.000000
15.375224,3.538139,-56.687992,-0.000000,0.000000,-1.000000
-5.112679,2.990069,-56.687992,0.000000,0.000000,-1.000000
4.839772,0.812390,8.710329,1.000000,0.000000,0.000000
6.359308,7.162107,-6.008467,0.649448,0.760406,-0.000000
16.038127,-6.684701,-45.684727,0.923879,-0.382684,0.000000
-3.151542,8.120365,25.622632,-0.382684,0.923879,0.000000
1.524817,-17.309144,-52.733086,0.078459,-0.996917,0.000000
1.783393,6.858140,-56.687992,0.000000,0.000000,-1.000000
-9.594684,0.140738,-23.459069,-0.996917,0.078459,0.000000
5.099115,-16.644959,-30.410405,0.233445,-0.972370,0.000000
5.642520,15.764912,-27.127197,0.000000,-0.000000,1.000000
14.308103,-2.631210,-27.127197,0.000000,-0.000000,1.000000
-15.457741,8.029745,-31.028725,-0.852640,0.522498,0.000000
1.122055,17.340842,-27.590187,0.078459,0.996917,-0.000000
-5.390918,16.574030,-36.719834,-0.382684,0.923879,0.000000
1.254264,-2.262807,-55.810601,-0.471397,0.881921,0.000000
4.388783,6.013319,34.543433,0.649448,0.760406,-0.000000
-1.189911,9.512112,-9.675361,-0.078459,0.996917,0.000000
-3.711996,6.431010,34.072264,-0.522498,0.852640,0.000000
9.294985,1.833026,1.971878,-0.000000,-0.000000,1.000000
-7.423658,-0.281374,30.979757,-0.996917,-0.078459,-0.000000
6.011517,7.459148,-25.172064,0.649448,0.760406,0.000000
-2.461099,-0.798351,-48.655197,0.956940,0.290284,-0.000000
4.839772,0.632983,31.693041,1.000000,0.000000,0.000000
-1.167789,-9.513853,-7.217699,-0.078459,-0.996917,0.000000
-0.640911,2.508858,-53.875839,0.290284,-0.956940,0.000000
-4.327313,-10.941988,-56.687992,0.000000,-0.000000,-1.000000
-5.728223,-9.764486,-56.687992,0.000000,-0.000000,-1.000000
-7.131782,6.394814,-22.030207,-0.760406,0.649448,0.000000
8.222203,2.905683,11.218659,0.923879,0.382684,0.000000
-1.398431,-4.107710,56.687992,0.000000,-0.000000,1.000000
11.682730,12.872196,-30.942052,0.649448,0.760406,-0.000000
-6.364613,-3.820346,48.858655,-0.852640,-0.522498,0.000000
-7.532896,4.374045,6.672611,-0.852640,0.522498,0.000000
8.750625,-15.015985,-48.301935,0.522498,-0.852640,0.000000
8.740643,15.022102,-46.495068,0.522498,0.852640,0.000000
2.297578,-4.028271,56.687992,0.000000,-0.000000,1.000000
-1.552334,2.072525,28.553957,0.634393,-0.773011,0.000000
-1.352747,9.681225,-27.127197,0.000000,-0.000000,1.000000
1.851919,8.511123,6.899248,0.233445,0.972370,0.000000
-0.064545,-17.424070,-46.121419,-0.078459,-0.996917,0.000000
4.904580,-7.207784,11.164598,0.522498,-0.852640,0.000000
-0.524460,-2.544183,-1.250777,0.290284,0.956940,0.000000
-2.613834,-6.951749,32.933930,-0.382684,-0.923879,0.000000
1.910710,-1.749506,-1.621678,-0.773011,0.634393,0.000000
4.839772,1.106641,40.371038,1.000000,0.000000,0.000000
-16.890196,4.077627,-33.323841,-0.972370,0.233445,0.000000
8.475098,4.497505,-12.465173,0.852640,0.522498,0.000000
8.379494,2.400195,4.979372,0.972370,0.233445,0.000000
-1.633385,8.563588,23.708905,-0.233445,0.972370,0.000000
8.356541,-2.495800,22.079482,0.972370,-0.233445,0.000000
4.839772,0.273421,-35.949106,1.000000,0.000000,0.000000
9.581713,-0.305554,-1.632295,0.996917,-0.078459,0.000000
-11.850820,0.693410,-56.687992,0.000000,0.000000,-1.000000
-4.416374,-12.940001,-56.687992,0.000000,-0.000000,-1.000000
9.599642,0.077738,-11.754574,0.996917,0.078459,0.000000
-1.495454,-17.311454,-45.709230,-0.078459,-0.996917,0.000000
-9.590397,0.195215,1.692512,-0.996917,0.078459,0.000000
-9.737942,2.280304,-27.127197,-0.000000,0.000000,1.000000
7.445803,-0.000724,-3.600046,-1.000000,0.000000,0.000000
-7.334590,-1.246180,54.897614,-0.972370,-0.233445,0.000000
-5.540712,2.580376,-56.687992,0.000000,0.000000,-1.000000
-3.086291,4.778362,-56.687992,0.000000,0.000000,-1.000000
-10.274639,-14.074820,-29.872540,-0.649448,-0.760406,0.000000
-4.630970,-16.757350,-56.616514,-0.233445,-0.972370,0.000000
4.839772,1.027003,7.812588,1.000000,0.000000,0.000000
-10.259462,3.411277,-56.687992,0.000000,-0.000000,-1.000000
8.149010,5.029632,-18.257002,0.852640,0.522498,0.000000
-6.729442,16.019595,-30.760630,-0.382684,0.923879,0.000000
-6.477921,3.635444,32.773152,-0.852640,0.522498,0.000000
-10.243602,1.005320,-27.127197,-0.000000,0.000000,1.000000
2.338088,-1.113424,-54.222051,-0.881921,0.471397,0.000000
-1.789003,1.878296,-21.810654,0.634393,-0.773011,0.000000
10.796063,13.629482,-38.817734,0.649448,0.760406,-0.000000
-8.339215,2.567970,3.663726,-0.972370,0.233445,0.000000
16.082913,5.697535,-27.127197,0.000000,-0.000000,1.000000
2.157748,16.673207,-56.687992,0.000000,0.000000,-1.000000
3.734666,-6.417118,35.953741,0.522498,-0.852640,0.000000
6.723658,-3.164495,37.975489,0.923879,-0.382684,0.000000
12.529535,-12.083935,-47.382165,0.760406,-0.649448,0.000000
-2.016757,-8.471549,4.376535,-0.233445,-0.972370,0.000000
-0.632021,13.426530,-27.127197,-0.000000,0.000000,1.000000
-11.531861,1.183990,-56.687992,0.000000,0.000000,-1.000000
0.470082,2.553091,-53.210355,-0.098018,-0.995185,0.000000
0.865984,2.440583,-46.571180,-0.290284,-0.956940,0.000000
7.445803,0.517116,-7.783639,-1.000000,0.000000,0.000000
10.274540,2.931950,-56.687992,-0.000000,0.000000,-1.000000
-2.623693,6.947666,49.192327,-0.382684,0.923879,0.000000
-4.731289,16.733266,-49.439967,-0.233445,0.972370,0.000000
-1.627400,-2.010920,37.638327,0.634393,0.773011,0.000000
8.060322,-3.296499,18.280056,0.923879,-0.382684,0.000000
2.064267,-1.562397,43.216437,-0.773011,0.634393,0.000000
-3.225100,-9.029269,-20.443685,-0.382684,-0.923879,0.000000
17.330433,-1.254315,-35.662619,0.996917,-0.078459,0.000000
-2.947777,-5.811692,-56.687992,0.000000,0.000000,-1.000000
-11.834993,-1.459773,-27.127197,0.000000,-0.000000,1.000000
-2.571197,0.286256,-22.683753,0.995185,-0.098018,0.000000
6.163591,-6.187944,4.923589,0.649448,-0.760406,0.000000
5.322791,-6.906056,11.788822,0.649448,-0.760406,0.000000
-4.135160,8.652310,0.772057,-0.382684,0.923879,0.000000
9.102470,3.048378,-12.523953,0.923879,0.382684,0.000000
-12.119329,1.001173,-56.687992,0.000000,0.000000,-1.000000
1.874101,9.398325,1.265105,0.233445,0.972370,-0.000000
-15.153867,8.525623,-40.975893,-0.852640,0.522498,0.000000
1.145932,-17.338963,-28.675596,0.078459,-0.996917,0.000000
-8.140111,5.044154,-17.197037,-0.852640,0.522498,0.000000
-8.623368,1.384385,21.299545,-0.972370,0.233445,0.000000
6.488981,3.617395,40.128438,0.852640,0.522498,0.000000
-6.175423,4.129075,48.219206,-0.852640,0.522498,0.000000
13.500461,10.947127,-29.581506,0.760406,0.649448,-0.000000
-8.185663,-4.969820,-6.789108,-0.852640,-0.522498,0.000000
12.754282,2.265913,-27.127197,0.000000,-0.000000,1.000000
8.760930,-3.872927,-0.249073,0.923879,-0.382684,0.000000
-8.707419,-0.353110,2.564139,-0.996917,-0.078459,-0.000000
-2.520032,17.230818,-45.260680,-0.078459,0.996917,0.000000
6.442572,-1.303015,-43.506513,0.000000,1.000000,0.000000
1.948828,7.165899,28.433608,0.233445,0.972370,0.000000
4.839772,0.872837,41.307949,1.000000,0.000000,0.000000
6.836733,2.891507,30.633777,0.923879,0.382684,0.000000
-7.658698,-4.168755,26.761415,-0.852640,-0.522498,0.000000
-14.022160,-10.336296,-51.549157,-0.760406,-0.649448,0.000000
13.654618,0.203253,-56.687992,0.000000,0.000000,-1.000000
16.897927,-4.045423,-40.474922,0.972370,-0.233445,0.000000
8.527881,-4.411371,-3.593260,0.852640,-0.522498,0.000000
-1.603995,-9.463172,-5.775927,-0.233445,-0.972370,0.000000
2.767073,6.888276,52.073897,0.382684,0.923879,-0.000000
15.969179,6.851155,-44.951148,0.923879,0.382684,0.000000
2.355965,-1.079978,-55.327543,-0.881921,0.471397,0.000000
2.221823,1.330940,9.852815,-0.881921,-0.471397,0.000000
-0.522171,-2.544877,-54.782380,0.290284,0.956940,-0.000000
9.106090,-3.039638,-16.515855,0.923879,-0.382684,0.000000
4.094795,5.486478,56.687992,0.000000,-0.000000,1.000000
-9.107120,14.797525,-31.552615,-0.522498,0.852640,0.000000
2.508102,0.643403,35.768650,-0.956940,-0.290284,0.000000
-6.422106,5.889422,8.012609,-0.760406,0.649448,0.000000
-1.858507,-1.813116,-36.042687,0.773011,0.634393,0.000000
3.153130,-6.728366,46.368562,0.382684,-0.923879,0.000000
2.027595,-1.607082,-37.609692,-0.773011,0.634393,0.000000
-1.262167,-8.635875,6.411248,-0.078459,-0.996917,0.000000
4.839772,-0.217135,-34.303197,1.000000,0.000000,0.000000
-10.242534,-12.789851,-27.127197,0.000000,-0.000000,1.000000
-0.714746,2.486460,-46.192194,0.290284,-0.956940,0.000000
-7.619078,-8.312770,-56.687992,0.000000,0.000000,-1.000000
13.670160,7.814714,-27.127197,0.000000,-0.000000,1.000000
-4.855613,-5.614609,50.284556,-0.649448,-0.760406,0.000000
7.445803,1.132484,25.105462,-1.000000,0.000000,0.000000
10.124849,-14.173860,-31.971845,0.522498,-0.852640,0.000000
2.581828,0.178314,-50.467152,-0.995185,-0.098018,0.000000
-2.143295,-9.333698,-1.227201,-0.233445,-0.972370,0.000000
-1.618493,2.018230,47.567719,0.634393,-0.773011,0.000000
-5.489438,4.899026,56.687992,-0.000000,-0.000000,1.000000
4.844830,-5.623818,33.407390,0.649448,-0.760406,0.000000
1.158316,-2.314093,17.830722,-0.471397,0.881921,0.000000
-2.565967,0.339359,-14.239301,0.995185,-0.098018,0.000000
-5.067186,-16.652624,-38.173806,-0.233445,-0.972370,0.000000
1.386013,17.320068,-35.439499,0.078459,0.996917,-0.000000
6.058495,-4.319886,38.696034,0.852640,-0.522498,0.000000
17.410679,0.234691,-33.647552,0.996917,0.078459,0.000000
8.724997,-0.129757,8.299590,0.996917,-0.078459,0.000000
-0.138809,3.763331,-56.687992,0.000000,-0.000000,-1.000000
6.065801,1.303015,0.236622,0.000000,-1.000000,0.000000
14.808092,9.089876,-29.735317,0.852640,0.522498,-0.000000
2.419294,-0.936163,7.046352,-0.956940,0.290284,0.000000
-4.375357,-6.024502,36.887432,-0.522498,-0.852640,0.000000
9.504146,1.291134,-16.643972,0.996917,0.078459,-0.000000
7.791667,-14.071379,-27.127197,0.000000,-0.000000,1.000000
7.396058,6.085387,-12.629577,0.760406,0.649448,0.000000
6.191436,1.303015,-41.784155,0.000000,-1.000000,-0.000000
4.222476,6.118187,46.981756,0.522498,0.852640,0.000000
13.699643,-10.713915,-29.790464,0.760406,-0.649448,0.000000
2.460497,-0.800333,39.333251,-0.956940,0.290284,0.000000
-1.849643,1.823917,-28.045402,0.773011,-0.634393,0.000000
7.217956,1.731997,46.796847,0.972370,0.233445,0.000000
-4.527729,8.456577,-14.800988,-0.522498,0.852640,0.000000
17.169887,-2.912628,-51.886983,0.972370,-0.233445,0.000000
6.152488,-1.303015,-33.269697,0.000000,1.000000,0.000000
11.116282,12.211281,-56.687992,0.000000,0.000000,-1.000000
-9.514803,1.155727,-21.060218,-0.996917,0.078459,0.000000
15.767344,7.338427,-43.245708,0.923879,0.382684,-0.000000
-2.039046,-1.593128,46.907069,0.773011,0.634393,0.000000
11.111018,13.360485,-44.659325,0.649448,0.760406,0.000000
-0.253010,17.409237,-32.683985,-0.078459,0.996917,0.000000
5.424366,-6.819302,25.275987,0.649448,-0.760406,0.000000
4.839772,-0.808755,-45.712274,1.000000,0.000000,0.000000
8.086325,-5.131926,-23.234012,0.852640,-0.522498,0.000000
-1.061709,8.651651,7.335777,-0.078459,0.996917,0.000000
7.117505,-2.150405,48.457218,0.972370,-0.233445,0.000000
-17.168374,2.918930,-51.604903,-0.972370,0.233445,0.000000
-0.592978,-2.523398,-18.546473,0.290284,0.956940,0.000000
2.871970,6.844826,45.467758,0.382684,0.923879,-0.000000
4.839772,-0.298073,3.553609,1.000000,0.000000,0.000000
-5.616287,-7.789508,-16.421996,-0.522498,-0.852640,0.000000
8.634452,-4.178272,-6.058503,0.923879,-0.382684,0.000000
-5.138952,-15.171854,-27.127197,-0.000000,0.000000,1.000000
-9.283642,2.351791,-16.979342,-0.972370,0.233445,0.000000
-4.056459,-8.684909,-2.485885,-0.382684,-0.923879,0.000000
4.839772,-0.761077,-11.266169,1.000000,0.000000,0.000000
-6.775437,-6.806699,-14.446667,-0.649448,-0.760406,0.000000
-0.555869,-2.534655,42.928797,0.290284,0.956940,0.000000
-0.833712,-2.450372,48.505765,0.290284,0.956940,0.000000
-6.793923,-6.790396,-17.905140,-0.760406,-0.649448,0.000000
5.129178,16.637741,-35.220216,0.233445,0.972370,0.000000
6.210571,1.303015,-46.366563,0.000000,-1.000000,-0.000000
2.428013,-7.028719,54.964506,0.382684,-0.923879,0.000000
7.282558,-15.790486,-47.271965,0.382684,-0.923879,0.000000
7.174193,-15.835372,-49.320311,0.382684,-0.923879,0.000000
5.927977,-7.530499,-0.521138,0.649448,-0.760406,0.000000
16.789467,4.497193,-48.409863,0.972370,0.233445,0.000000
1.082606,-2.354561,44.172667,-0.471397,0.881921,0.000000
-5.531952,-7.703616,1.971878,-0.000000,-0.000000,1.000000
10.436428,13.936639,-38.319715,0.649448,0.760406,-0.000000
-1.966259,-1.681820,-2.906301,0.773011,0.634393,0.000000
9.437893,-1.709289,-18.198933,0.972370,-0.233445,0.000000
-4.395666,8.537505,-23.333678,-0.522498,0.852640,0.000000
-8.807335,-3.760895,-14.186393,-0.923879,-0.382684,0.000000
-1.710430,1.942779,32.718586,0.634393,-0.773011,0.000000
0.140109,2.585591,23.278450,-0.098018,-0.995185,0.000000
5.422247,7.908416,-21.297025,0.522498,0.852640,0.000000
11.785509,3.110562,-56.687992,-0.000000,0.000000,-1.000000
0.603951,-2.520069,38.030881,-0.290284,0.956940,0.000000
-7.429809,-0.203224,55.712795,-0.996917,-0.078459,0.000000
-2.026923,-7.541856,27.802532,-0.000000,-0.000000,1.000000
-15.669735,-6.290691,-56.687992,0.000000,0.000000,-1.000000
11.322143,-13.180166,-27.375195,0.649448,-0.760406,0.000000
-2.080562,1.542541,21.375953,0.773011,-0.634393,0.000000
-9.218389,-2.623591,-6.674534,-0.972370,-0.233445,0.000000
-8.290798,2.740082,5.583686,-0.923879,0.382684,0.000000
-1.660715,1.983579,-0.433698,0.634393,-0.773011,0.000000
7.445803,-0.739251,-17.203288,-1.000000,0.000000,0.000000
16.151531,-6.410918,-44.036991,0.923879,-0.382684,0.000000
3.165047,1.566709,-56.687992,0.000000,-0.000000,-1.000000
-15.601970,7.737675,-37.399087,-0.923879,0.382684,0.000000
2.589256,0.102896,-3.754989,-0.995185,-0.098018,0.000000
-14.320722,9.885193,-48.063279,-0.852640,0.522498,0.000000
-3.175901,13.813880,-56.687992,0.000000,0.000000,-1.000000
1.009931,2.393406,37.919081,-0.471397,-0.881921,0.000000
4.230776,-6.113101,32.686507,0.522498,-0.852640,0.000000
2.455921,0.815419,36.356777,-0.956940,-0.290284,0.000000
10.256435,14.090368,-39.461578,0.649448,0.760406,-0.000000
0.154131,9.747108,-27.127197,-0.000000,0.000000,1.000000
1.239083,-17.331631,-30.115943,0.078459,-0.996917,0.000000
-8.941495,-3.437005,-23.232264,-0.923879,-0.382684,0.000000
2.409209,0.969410,46.013900,-0.956940,-0.290284,0.000000
15.778662,-7.311103,-27.617706,0.923879,-0.382684,0.000000
6.476413,1.303015,28.257950,0.000000,-1.000000,0.000000
-17.269528,2.028181,-52.746607,-0.996917,0.078459,0.000000
-6.247661,10.329549,-27.127197,0.000000,-0.000000,1.000000
0.524656,-9.564469,-0.409780,0.078459,-0.996917,0.000000
-17.351282,0.989399,-32.165326,-0.996917,0.078459,0.000000
6.881169,-2.855910,-56.687992,0.000000,-0.000000,-1.000000
-8.001955,3.437409,12.427605,-0.923879,0.382684,0.000000
7.056828,2.360151,48.637875,0.923879,0.382684,0.000000
-5.798106,2.859598,56.687992,-0.000000,-0.000000,1.000000
5.560353,-16.503848,-40.895000,0.382684,-0.923879,0.000000
9.594595,0.141871,-21.667771,0.996917,0.078459,0.000000
0.329287,-2.566959,-2.608821,-0.098018,0.995185,0.000000
-0.289696,2.570858,-18.367883,0.098018,-0.995185,-0.000000
-11.717501,-12.842499,-42.365160,-0.649448,-0.760406,-0.000000
7.445803,-0.789531,7.342422,-1.000000,0.000000,0.000000
-3.763674,-16.965569,-34.846877,-0.233445,-0.972370,0.000000
14.953282,1.293122,-27.127197,0.000000,-0.000000,1.000000
0.334088,2.566486,-36.332110,-0.098018,-0.995185,0.000000
-12.704515,11.879060,-42.007601,-0.760406,0.649448,0.000000
16.766213,-4.594054,-52.283752,0.972370,-0.233445,0.000000
-8.703783,15.044690,-37.006027,-0.522498,0.852640,0.000000
14.717711,-9.237365,-51.753813,0.852640,-0.522498,0.000000
12.067092,-12.543920,-36.801286,0.649448,-0.760406,0.000000
6.386336,-3.784897,28.563667,0.852640,-0.522498,0.000000
6.506642,-5.790444,7.258750,0.760406,-0.649448,0.000000
8.334678,-2.586866,25.388100,0.972370,-0.233445,0.000000
1.725361,5.465499,-56.687992,0.000000,-0.000000,-1.000000
9.584008,-0.276397,-26.173489,0.996917,-0.078459,0.000000
-8.095392,15.417512,-38.847660,-0.522498,0.852640,0.000000
-1.464577,-2.144545,-32.691220,0.634393,0.773011,0.000000
-3.174204,-6.719636,28.838006,-0.382684,-0.923879,0.000000
-1.444342,-8.901812,1.971878,0.000000,-0.000000,1.000000
-12.379332,-12.259799,-29.074236,-0.760406,-0.649448,0.000000
-7.394411,-4.600033,24.994935,-0.852640,-0.522498,0.000000
4.839772,-0.403776,-9.707759,1.000000,0.000000,0.000000
2.350960,-1.089343,40.320104,-0.881921,0.471397,0.000000
-2.181319,-7.110083,51.315280,-0.233445,-0.972370,0.000000
7.445803,-0.802416,-24.245664,-1.000000,0.000000,0.000000
-11.290619,-1.059657,-56.687992,0.000000,0.000000,-1.000000
9.489854,1.472731,-18.591198,0.996917,0.078459,-0.000000
-0.550682,-2.536228,-24.338366,0.290284,0.956940,0.000000
7.445803,-0.849623,-15.871389,-1.000000,0.000000,0.000000
16.820535,-0.529033,-56.687992,0.000000,0.000000,-1.000000
6.374326,-5.945366,3.855999,0.760406,-0.649448,0.000000
7.690003,5.741221,-10.713774,0.760406,0.649448,0.000000
-1.731423,-8.540051,4.181117,-0.233445,-0.972370,0.000000
1.431590,-2.168024,-21.375387,-0.471397,0.881921,0.000000
5.901511,-1.303015,8.489995,0.000000,1.000000,-0.000000
-14.930854,-8.889547,-38.148170,-0.852640,-0.522498,0.000000
5.985817,-4.420983,36.019246,0.760406,-0.649448,0.000000
12.408526,12.225617,-54.930149,0.760406,0.649448,-0.000000
-7.401088,0.568152,31.963975,-0.996917,0.078459,0.000000
-8.552517,-4.371169,-25.695703,-0.852640,-0.522498,-0.000000
-1.521525,11.145912,-27.127197,0.000000,-0.000000,1.000000
2.432889,3.319431,56.687992,-0.000000,0.000000,1.000000
9.501684,3.440331,-27.127197,-0.000000,0.000000,1.000000
-12.138990,4.536802,-27.127197,-0.000000,-0.000000,1.000000
-7.507042,-4.416235,1.997195,-0.852640,-0.522498,-0.000000
-9.318954,-2.204706,-0.321094,-0.972370,-0.233445,0.000000
0.536007,-2.540680,40.769838,-0.290284,0.956940,0.000000
7.394686,-4.599584,12.590679,0.852640,-0.522498,0.000000
7.445803,-1.284922,1.559360,-1.000000,0.000000,0.000000
-14.473033,1.731795,-56.687992,0.000000,0.000000,-1.000000
-5.862034,-6.445498,17.937914,-0.649448,-0.760406,-0.000000
-2.603531,-9.385280,-27.127197,0.000000,-0.000000,1.000000
-10.710778,12.907627,-56.687992,0.000000,0.000000,-1.000000
-10.361900,-14.000293,-33.186172,-0.649448,-0.760406,0.000000
-0.885790,-2.434574,-38.634599,0.290284,0.956940,-0.000000
11.504205,-13.024671,-46.529648,0.649448,-0.760406,0.000000
-9.694821,-14.437382,-30.559568,-0.522498,-0.852640,0.000000
-11.584230,4.106545,-27.127197,-0.000000,-0.000000,1.000000
9.308609,2.247795,-0.345187,0.972370,0.233445,-0.000000
-2.569261,0.305910,-27.041067,0.995185,-0.098018,0.000000
4.839772,0.677151,-17.917173,1.000000,0.000000,0.000000
-3.227267,8.088999,3.905547,-0.382684,0.923879,0.000000
7.821416,-5.564218,-13.277113,0.852640,-0.522498,0.000000
-8.472654,6.149622,-27.127197,-0.000000,-0.000000,1.000000
-12.098059,11.778065,-56.687992,0.000000,0.000000,-1.000000
7.070373,-6.466715,-15.710410,0.760406,-0.649448,0.000000
-2.308092,-1.169542,25.152390,0.881921,0.471397,0.000000
-0.909715,12.937728,-27.127197,-0.000000,0.000000,1.000000
-1.184144,9.512566,-12.893857,-0.078459,0.996917,0.000000
10.465607,13.911718,-43.328291,0.649448,0.760406,-0.000000
9.600740,-0.063798,-22.314332,0.996917,-0.078459,0.000000
6.711342,1.303015,-19.499462,0.000000,-1.000000,-0.000000
15.364172,-8.182436,-48.135018,0.852640,-0.522498,0.000000
5.724805,-4.726589,32.641968,0.760406,-0.649448,0.000000
-10.202899,-7.511051,-56.687992,0.000000,0.000000,-1.000000
13.893776,10.486614,-40.784047,0.760406,0.649448,0.000000
4.611022,-4.533758,56.687992,-0.000000,0.000000,1.000000
6.248399,1.303015,-39.625380,0.000000,-1.000000,-0.000000
-8.539689,-15.145247,-44.600350,-0.522498,-0.852640,0.000000
10.530359,10.909521,-27.127197,0.000000,-0.000000,1.000000
-12.793004,-3.782718,-27.127197,0.000000,-0.000000,1.000000
8.446334,-2.121783,7.858232,0.972370,-0.233445,0.000000
7.445803,0.521672,10.609613,-1.000000,0.000000,0.000000
-8.754299,-3.888935,-18.308641,-0.923879,-0.382684,0.000000
-2.561697,-0.382706,44.324910,0.995185,0.098018,0.000000
0.202572,7.429860,32.037990,0.078459,0.996917,0.000000
6.776970,3.035789,33.979986,0.923879,0.382684,0.000000
0.983126,9.528387,-21.448750,0.078459,0.996917,0.000000
8.051240,5.189178,-8.235737,0.852640,0.522498,-0.000000
4.839772,1.032765,33.092358,1.000000,0.000000,0.000000
5.942987,-7.517679,-0.950009,0.649448,-0.760406,0.000000
4.193747,6.135792,30.742599,0.522498,0.852640,0.000000
0.790842,2.463377,15.481829,-0.290284,-0.956940,0.000000
-2.573062,0.267317,55.574723,0.995185,-0.098018,0.000000
6.666565,16.045639,-44.337372,0.382684,0.923879,0.000000
14.609698,-9.413627,-53.833525,0.852640,-0.522498,0.000000
4.914609,5.564221,50.938748,0.649448,0.760406,-0.000000
-1.491924,-2.122102,31.771644,0.634393,0.773011,0.000000
-10.473017,9.971782,-56.687992,0.000000,0.000000,-1.000000
1.697934,1.953034,15.249516,-0.634393,-0.773011,0.000000
-1.012888,2.391826,30.668383,0.471397,-0.881921,0.000000
4.839772,-1.187878,45.088193,1.000000,0.000000,0.000000
3.741807,8.815241,-17.580338,0.382684,0.923879,0.000000
4.839772,0.097106,-45.264747,1.000000,0.000000,0.000000
-1.001418,-2.397956,32.139761,0.471397,0.881921,0.000000
-1.472205,-17.313284,-36.677316,-0.078459,-0.996917,0.000000
-1.962117,-1.686867,-53.297926,0.773011,0.634393,-0.000000
17.390816,0.487071,-47.100500,0.996917,0.078459,0.000000
-2.332041,-7.068472,35.697319,-0.382684,-0.923879,0.000000
11.421192,-13.095571,-31.459362,0.649448,-0.760406,0.000000
17.243244,2.362148,-46.860598,0.996917,0.078459,-0.000000
6.142320,-6.206111,17.713810,0.649448,-0.760406,0.000000
1.389651,-2.190441,-24.527294,-0.471397,0.881921,0.000000
-6.607187,-3.424500,48.208513,-0.852640,-0.522498,-0.000000
-2.702644,17.216446,-56.306644,-0.078459,0.996917,0.000000
6.854201,1.303015,-19.583627,0.000000,-1.000000,-0.000000
5.113708,-1.303015,-38.999442,0.000000,1.000000,-0.000000
-7.685208,-5.746835,-23.957778,-0.760406,-0.649448,-0.000000
-0.492781,2.550856,29.703171,0.098018,-0.995185,0.000000
13.130571,-11.380212,-34.011632,0.760406,-0.649448,0.000000
-2.054342,-1.574490,50.103301,0.773011,0.634393,0.000000
7.445803,0.949682,-28.469681,-1.000000,0.000000,0.000000
-5.349501,7.260035,1.971878,0.000000,-0.000000,1.000000
5.043379,1.303015,52.565039,0.000000,-1.000000,0.000000
5.081887,-1.303015,-18.727380,0.000000,1.000000,-0.000000
-1.186722,2.298909,14.035940,0.471397,-0.881921,0.000000
8.540954,15.144472,-44.754304,0.522498,0.852640,-0.000000
-1.924284,-8.493750,24.728919,-0.233445,-0.972370,0.000000
17.098666,3.209282,-53.072910,0.972370,0.233445,0.000000
-9.351047,2.071027,-12.920701,-0.972370,0.233445,0.000000
-2.078385,7.134796,47.738982,-0.233445,0.972370,0.000000
7.445803,-0.017134,5.770129,-1.000000,0.000000,0.000000
11.288540,-13.208866,-48.611079,0.649448,-0.760406,0.000000
6.735826,-3.135120,28.578614,0.923879,-0.382684,0.000000
-2.014654,-1.622850,-8.198416,0.773011,0.634393,-0.000000
-6.757114,-3.083726,55.108505,-0.923879,-0.382684,0.000000
-1.549657,2.074722,30.781997,0.634393,-0.773011,0.000000
8.674354,0.773245,17.713314,0.996917,0.078459,-0.000000
-2.412927,-0.957153,-9.015979,0.956940,0.290284,0.000000
0.092129,-2.590317,-52.234886,-0.098018,0.995185,0.000000
0.064480,7.440728,44.745598,0.078459,0.996917,-0.000000
-5.399265,-16.570572,-28.424552,-0.382684,-0.923879,0.000000
-4.771942,-8.306923,-6.511745,-0.522498,-0.852640,0.000000
6.584272,16.079726,-30.711113,0.382684,0.923879,-0.000000
6.846221,-1.303015,-2.866865,0.000000,1.000000,0.000000
-1.189328,2.297516,14.284033,0.471397,-0.881921,0.000000
-9.520225,1.086832,-2.191891,-0.996917,0.078459,0.000000
-9.278641,-2.372621,-18.980351,-0.972370,-0.233445,-0.000000
3.593355,8.994494,-27.127197,0.000000,-0.000000,1.000000
-2.576543,-0.231979,29.384346,0.995185,0.098018,0.000000
-0.591379,-2.523883,-35.822742,0.290284,0.956940,0.000000
-3.425149,-8.946406,-13.754881,-0.382684,-0.923879,0.000000
-0.664937,-15.831259,-27.127197,-0.000000,0.000000,1.000000
1.134053,8.369441,-56.687992,0.000000,-0.000000,-1.000000
6.673913,3.284591,31.147213,0.923879,0.382684,-0.000000
-2.540432,0.536826,-34.284412,0.956940,-0.290284,0.000000
-7.871441,-5.482585,-23.462632,-0.852640,-0.522498,-0.000000
-6.425582,16.145457,-47.560142,-0.382684,0.923879,0.000000
6.110628,1.303015,-43.406067,0.000000,-1.000000,-0.000000
0.756898,6.418839,56.687992,0.000000,-0.000000,1.000000
2.669202,-17.219078,-27.427778,0.078459,-0.996917,0.000000
10.808192,-3.638721,-56.687992,0.000000,-0.000000,-1.000000
7.445803,-0.995806,24.485589,-1.000000,0.000000,0.000000
-14.426129,-9.713183,-51.178993,-0.852640,-0.522498,-0.000000
4.226111,-16.854548,-51.533957,0.233445,-0.972370,0.000000
-7.043655,-0.809629,-56.687992,0.000000,0.000000,-1.000000
1.140314,-8.645465,26.447796,0.078459,-0.996917,0.000000
