x,y,z,nx,ny,nz
-25.043812,-9.208972,-15.433457,-0.818634,-0.267099,-0.508425
-23.986433,5.938469,-18.465760,-0.759246,0.161443,-0.630461
9.509354,19.414280,7.508172,-0.773011,0.000000,-0.634393
30.513318,-2.446783,3.664168,0.984754,-0.084103,0.152273
-17.056130,-22.439543,12.502473,-0.522219,-0.742100,0.420208
27.319355,-14.208258,-0.061603,0.896494,-0.443056,0.000000
-30.130806,-6.428170,0.649421,-0.984405,-0.175916,0.000000
-13.920296,-9.578356,25.783689,-0.427026,-0.302377,0.852184
-16.637848,25.739290,-3.267859,-0.546250,0.833679,-0.081179
9.006700,-8.120659,24.095260,-0.773011,0.634393,0.000000
-28.417863,-11.876097,1.965682,-0.934172,-0.356822,0.000000
-19.614570,-21.436956,-10.367066,-0.649101,-0.663683,-0.371744
-16.272112,23.127159,-12.262472,-0.522219,0.742100,-0.420208
16.376002,-16.501891,-20.270044,0.503751,-0.585159,-0.635472
12.582006,15.846628,23.245640,0.420208,0.522219,0.742100
10.865633,-5.369855,27.654405,-0.881921,0.471397,0.000000
21.818344,2.707977,-21.604548,0.685852,0.080531,-0.723272
11.927450,2.411794,10.254755,-0.956940,-0.290285,0.000000
8.211123,28.068454,-9.785560,0.228894,0.923385,-0.308168
22.110969,16.841866,-13.263187,0.708443,0.546563,-0.446517
9.710969,-7.262503,-7.785189,-0.773010,0.634393,0.000000
-18.995711,20.974084,12.274030,-0.649101,0.663683,0.371744
-20.061018,23.390146,-0.075910,-0.639354,0.768912,0.000000
-2.211733,-13.787283,11.954742,0.098017,0.000000,-0.995185
10.986430,5.143859,27.507438,-0.881921,-0.471397,0.000000
10.206660,6.602706,-23.520630,-0.881921,-0.471397,-0.000000
-11.823899,28.295467,3.384515,-0.424492,0.901705,0.082070
-1.804034,18.981116,-24.283000,0.000000,0.596421,-0.802672
11.508770,27.204105,3.791994,-0.956940,0.000000,-0.290285
13.633266,23.261523,-15.037402,0.382234,0.759514,-0.526342
11.979579,26.300681,-1.959563,-0.995185,0.000000,0.098017
0.008672,-12.171725,-12.845045,-0.098017,0.995185,-0.000000
-22.933284,4.704584,20.050002,-0.759246,0.161443,0.630461
-24.775862,-16.426766,8.172273,-0.809504,-0.538762,0.233321
-6.652903,-20.764741,21.811752,-0.217328,-0.638727,0.738104
20.931136,-21.041262,-8.381729,0.702258,-0.670528,-0.239219
-11.760646,-2.961673,8.261146,0.956940,0.290285,-0.000000
-4.223318,11.377930,21.704248,0.290285,-0.956940,-0.000000
6.467496,-12.771398,27.300642,0.180319,-0.419240,0.889788
15.603248,22.443784,-14.239989,0.521887,0.699011,-0.488894
10.401636,-10.794478,-6.237931,-0.881921,0.000000,0.471397
-4.852150,-21.194935,21.951180,-0.161443,-0.630461,0.759246
-21.184129,20.499640,-9.016437,-0.707576,0.641557,-0.296210
12.148570,23.386175,0.243771,-0.995185,-0.000000,-0.098017
-8.161926,-27.867707,10.423005,-0.312401,-0.885789,0.343197
21.833077,-9.990245,-19.378834,0.731257,-0.349826,-0.585563
-5.447121,-28.256195,-10.976674,-0.159793,-0.922797,-0.350587
29.768603,-6.828676,-4.283104,0.971850,-0.181286,-0.150476
23.170391,-17.759941,-9.864681,0.759999,-0.569358,-0.313422
-8.960053,-28.408062,8.211692,-0.228894,-0.923385,0.308168
-24.547529,1.833906,18.625109,-0.802672,0.000000,0.596421
-11.924891,2.420228,-14.005478,0.956940,-0.290285,0.000000
2.724623,20.524134,11.832554,-0.290285,-0.000000,-0.956940
-17.302759,-17.304220,18.713922,-0.577350,-0.577350,0.577350
-29.959572,-0.724772,7.270737,-0.977326,-0.049608,0.205849
-30.148234,-3.572431,-5.403464,-0.984754,-0.084103,-0.152273
5.799157,-10.636166,24.051595,-0.471397,0.881921,0.000000
3.067401,11.728574,15.326905,-0.290285,-0.956940,0.000000
24.049992,4.071951,-18.867181,0.759246,0.161443,-0.630461
26.281770,-9.777354,-12.836783,0.829480,-0.337457,-0.445068
-2.901253,16.306357,25.992190,-0.081179,0.546250,0.833679
13.812099,-15.921783,22.496224,0.420208,-0.522219,0.742100
-27.635151,11.836835,-7.146424,-0.922797,0.350587,-0.159793
-14.704023,-1.145461,27.062574,-0.482336,-0.078367,0.872474
10.407028,-9.787006,-27.300761,0.343197,-0.312401,-0.885789
12.312765,27.145432,7.983441,0.371628,0.903180,0.214847
20.228338,10.586428,20.724709,0.663683,0.371744,0.649101
-27.701220,-2.766681,13.205647,-0.901705,-0.082070,0.424492
-4.197239,-12.430031,27.921560,-0.180319,-0.419240,0.889788
0.264073,-19.943090,-12.146570,-0.098017,0.000000,0.995185
21.902484,21.710849,0.947624,0.723272,0.685852,0.080531
-11.904010,26.462619,2.489064,0.956940,0.000000,-0.290285
-23.066747,1.279478,-20.440094,-0.728345,0.080542,-0.680461
-12.747375,27.982992,-2.041181,-0.424492,0.901705,-0.082070
-16.549597,-17.117417,-19.565640,-0.503751,-0.585159,-0.635472
-3.551983,13.434843,27.521847,-0.082070,0.424492,0.901705
25.768723,-1.348968,16.878096,0.833679,-0.081179,0.546250
0.812730,-22.599442,20.980868,0.000000,-0.762305,0.647218
28.015424,-6.402500,11.112373,0.903180,-0.214847,0.371628
15.311603,-5.695858,-26.158845,0.469405,-0.233172,-0.851639
-15.213961,-22.958128,13.876017,-0.522219,-0.742100,0.420208
3.844200,-11.492934,11.547748,-0.290285,0.956940,0.000000
-11.973153,-18.428672,21.645329,-0.349826,-0.585563,0.731257
-8.618060,17.478538,8.594218,0.773011,0.000000,-0.634393
-8.492817,-26.389101,-13.480790,-0.302377,-0.852184,-0.427026
-25.202932,-17.738369,-0.396314,-0.801768,-0.597636,0.000000
9.671099,-11.213296,-27.022546,0.306798,-0.364801,-0.879088
2.477322,-22.762084,-20.624736,0.080531,-0.723272,-0.685852
-10.561466,-26.676657,-5.938910,0.881921,-0.000000,0.471397
23.460926,-19.161287,5.742023,0.751866,-0.639869,0.158952
-23.857436,15.519536,-11.785259,-0.759514,0.526342,-0.382234
7.031357,27.610400,9.900666,-0.634393,0.000000,-0.773011
-0.381523,-12.135002,14.457002,0.098017,0.995185,-0.000000
5.480209,-22.151221,20.765270,0.158952,-0.751866,0.639869
4.923117,14.628666,11.104419,-0.471397,0.000000,-0.881921
-16.138916,-25.790934,5.105484,-0.557284,-0.819634,0.132792
12.061513,8.027890,1.127666,-0.995185,0.000000,-0.098017
9.678725,7.301793,-16.262482,-0.773010,-0.634393,0.000000
-7.964754,-24.143121,-17.467346,-0.233321,-0.809504,-0.538762
-5.493693,13.487057,27.160791,-0.180319,0.419240,0.889788
17.036343,23.597277,10.206624,0.581154,0.759176,0.293109
-3.233534,-11.678178,-15.807859,0.290285,0.956940,0.000000
18.983246,21.375102,11.579849,0.649101,0.663683,0.371744
11.341888,18.315939,4.342132,-0.956940,0.000000,-0.290285
-19.881934,-3.317032,23.360295,-0.639869,-0.158952,0.751866
-28.012249,-0.822198,12.920902,-0.901705,-0.082070,0.424492
-12.054477,-1.199112,-13.535962,0.995185,0.098017,-0.000000
-8.342478,25.666990,8.824658,0.634393,0.000000,-0.773011
-20.810517,-9.040147,-20.892332,-0.641557,-0.296210,-0.707576
-5.744725,-18.245646,24.210408,-0.161443,-0.630461,0.759246
-30.710889,-2.312889,0.394532,-0.995747,-0.092126,0.000000
-3.383090,11.632810,-13.648421,0.290285,-0.956940,0.000000
-4.202323,-14.608919,26.893906,-0.180319,-0.419240,0.889788
11.809187,2.801655,-12.742759,-0.956940,-0.290285,0.000000
28.524603,10.597054,4.729969,0.922797,0.350587,0.159793
20.537329,7.804660,21.608873,0.670528,0.239219,0.702258
-8.805112,-8.366295,-17.613852,0.773011,0.634392,0.000000
-8.265966,-8.887449,-10.399850,0.634393,0.773011,0.000000
23.667565,-12.765935,15.099052,0.742100,-0.420208,0.522219
30.514829,4.081382,-2.751573,0.984754,0.084103,-0.152273
-11.180039,4.781641,-11.021736,0.881921,-0.471397,0.000000
25.565584,11.767480,12.633834,0.801686,0.395175,0.448483
-14.556931,-4.935287,-26.707711,-0.437841,-0.161879,-0.884359
19.383754,23.174901,-6.082003,0.638727,0.738104,-0.217328
-12.200515,13.647686,24.784955,-0.395175,0.448483,0.801686
24.216884,18.673627,3.935972,0.791679,0.589579,0.160129
-10.805844,-20.435606,-5.481712,0.881921,-0.000000,0.471397
23.834906,-19.264338,-3.558212,0.751866,-0.639869,-0.158952
-25.974497,10.476753,12.879159,-0.829480,0.337457,0.445068
12.045449,1.290770,-11.052510,-0.995185,-0.098017,-0.000000
-5.647260,10.717356,10.918172,0.471397,-0.881921,0.000000
-5.205841,-12.827399,10.953300,0.471397,0.000000,-0.881921
11.376160,23.272588,16.660567,0.382234,0.759514,0.526342
11.331832,-16.270948,-4.375280,-0.956940,-0.000000,0.290285
18.840870,-17.553036,-16.926996,0.577350,-0.577350,-0.577350
-18.992045,-23.746821,5.010111,-0.630461,-0.759246,0.161443
-25.219126,-0.283773,17.721264,-0.802672,0.000000,0.596421
-23.465872,-17.760386,9.147377,-0.759999,-0.569358,0.313422
-4.893271,-11.120372,-21.912085,0.471397,0.881921,0.000000
2.956589,-27.733708,13.195780,0.078367,-0.872474,0.482336
-5.334728,18.536802,10.884409,0.471397,0.000000,-0.881921
23.665256,15.996291,-11.510630,0.759514,0.526342,-0.382234
27.614030,13.460858,-2.657480,0.872474,0.482336,-0.078367
10.597415,-11.167134,-26.718422,0.306798,-0.364801,-0.879088
11.635928,3.372812,15.904204,-0.956940,-0.290285,-0.000000
-25.876105,16.363594,3.813545,-0.830386,0.551642,0.078417
-18.788233,-6.263094,-23.660840,-0.589579,-0.160129,-0.791679
-11.841934,-16.272572,2.693701,0.956940,0.000000,-0.290285
-12.012742,14.471556,-1.622852,0.995185,0.000000,0.098017
26.442075,1.801854,15.783131,0.833679,0.081179,0.546250
-11.279909,15.822202,-24.000130,-0.420208,0.522219,-0.742100
12.011019,-1.640346,-8.965669,-0.995185,0.098018,0.000000
-9.952906,-6.967704,25.650927,0.773011,0.634392,0.000000
12.084247,-0.896851,-13.298725,-0.995185,0.098016,-0.000000
-8.006933,-15.206573,-9.100032,0.634393,0.000000,0.773011
-9.958143,6.961322,8.855001,0.773010,-0.634393,-0.000000
-3.066591,23.543951,19.728345,-0.158952,0.751866,0.639869
13.838131,20.166510,18.716879,0.440461,0.648687,0.620644
-10.619433,5.830461,-26.583921,0.881921,-0.471397,-0.000000
-2.548342,13.472115,-11.886029,0.290285,-0.000000,0.956940
11.227011,-4.693764,-14.125515,-0.881921,0.471397,0.000000
-11.591003,-22.563019,-17.528456,-0.382234,-0.759514,-0.526342
-10.056461,-12.669374,-26.258047,-0.337457,-0.445068,-0.829480
28.983136,-2.478891,-10.206069,0.939566,-0.050000,-0.338698
11.580626,-3.555117,-20.680272,-0.956940,0.290285,0.000000
-23.484790,10.367030,17.091059,-0.731257,0.349826,0.585563
-12.047613,27.303118,-1.268806,0.995185,0.000000,0.098017
-9.078473,21.909211,8.033203,0.773010,-0.000000,-0.634394
-22.962769,15.522714,13.526443,-0.708443,0.546563,0.446517
17.274191,-19.575999,-16.354419,0.585159,-0.635472,-0.503751
11.332312,16.702252,23.334352,0.349826,0.585563,0.731257
-12.250134,-27.670809,5.852837,-0.419240,-0.889788,0.180319
25.417360,15.680085,7.662267,0.851639,0.469405,0.233172
-26.623012,1.028989,-15.545208,-0.883851,0.050171,-0.465071
-10.221375,7.766862,6.575176,0.881921,0.000000,-0.471397
-10.044636,18.288957,6.855930,0.773010,-0.000000,-0.634393
22.375628,7.683481,19.762477,0.738104,0.217328,0.638727
28.118058,-6.786404,10.640995,0.903180,-0.214847,0.371628
-13.315086,21.864737,-17.118627,-0.446517,0.708443,-0.546563
23.579722,-9.404433,17.463866,0.759176,-0.293109,0.581154
3.297922,-22.800138,11.658646,-0.290285,0.000000,-0.956940
13.248378,-4.946354,-27.353543,0.437841,-0.161879,-0.884359
12.041921,-1.326592,19.273844,-0.995185,0.098017,0.000000
-5.072138,22.604795,11.024766,0.471397,0.000000,-0.881921
-13.316053,9.796501,26.009068,-0.427026,0.302377,0.852184
-14.679106,19.505629,-18.810796,-0.440461,0.648687,-0.620644
-11.899554,12.738340,2.503755,0.956940,0.000000,-0.290285
-15.990905,-2.216185,-26.254963,-0.482336,-0.078367,-0.872474
-6.726092,10.140709,-28.049735,0.471397,-0.881921,0.000000
-0.242833,16.261967,-26.280137,-0.081179,0.546250,-0.833679
-11.972018,9.820500,2.036327,0.995185,0.000000,-0.098017
18.336833,24.761730,-0.723658,0.596421,0.802672,0.000000
11.839864,14.405340,-24.538880,0.395175,0.448483,-0.801686
-6.368263,-27.406790,10.331972,0.471397,-0.000000,-0.881921
-4.559366,-14.128969,11.275991,0.290285,0.000000,-0.956940
28.410484,-8.936124,7.974950,0.923386,-0.308167,0.228893
-11.257118,8.028046,4.621582,0.956942,0.000000,-0.290278
-15.196592,-11.018262,24.467237,-0.526342,-0.382234,0.759514
8.294795,23.465809,18.229801,0.313422,0.759999,0.569358
1.845807,-11.990783,13.591167,-0.098017,0.995185,-0.000000
8.127466,-18.154517,9.001114,-0.634393,0.000000,-0.773011
4.228086,22.827775,20.281342,0.158952,0.751866,0.639869
-17.919198,24.615232,4.891038,-0.557284,0.819634,0.132792
-23.311337,-19.632929,4.550984,-0.751866,-0.639869,0.158952
-28.648377,9.483206,6.278703,-0.923386,0.308167,0.228893
-5.987728,-23.388161,-19.185751,-0.158952,-0.751866,-0.639869
-13.644098,-20.527840,-18.476925,-0.440461,-0.648687,-0.620644
15.993769,9.422204,-24.676005,0.569358,0.313422,-0.759999
-26.428186,14.662098,6.019652,-0.851639,0.469405,0.233172
22.895869,2.737565,-20.450413,0.728345,0.080542,-0.680461
-21.713196,20.455487,-7.727807,-0.702258,0.670528,-0.239219
20.091496,-16.824162,16.309980,0.635472,-0.503751,0.585159
10.394108,11.792649,-6.252015,-0.881921,0.000000,0.471397
-6.036183,28.259650,-10.699095,-0.159793,0.922797,-0.350587
-6.484971,19.645246,-10.269590,0.471397,0.000000,0.881921
11.873182,-2.590692,6.803754,-0.956940,0.290285,-0.000000
11.794339,-2.850603,2.903052,-0.956940,0.290285,0.000000
11.127019,-6.485910,28.019199,0.350587,-0.159793,0.922797
-3.640302,14.850768,-11.554786,0.290285,0.000000,0.956940
17.636952,-2.696496,25.135676,0.551642,-0.078417,0.830386
-26.624873,-5.241958,-14.687473,-0.839788,-0.211221,-0.500142
-9.231607,9.731557,-27.775732,-0.343197,0.312401,-0.885789
15.402857,-26.419601,4.314150,0.557284,-0.819634,0.132792
-3.091343,-11.721311,-22.051977,0.290285,0.956940,0.000000
-14.699441,-1.916430,26.995857,-0.482336,-0.078367,0.872474
4.486555,-12.665521,11.298078,-0.290285,0.000000,-0.956940
-20.863817,22.469414,3.101365,-0.680461,0.728345,0.080542
29.209240,2.820560,-9.394677,0.952951,0.084545,-0.291097
8.089628,19.753958,22.263414,0.217328,0.638727,0.738104
14.554354,-8.028811,25.937482,0.469405,-0.233172,0.851639
30.065059,-0.214481,-6.892884,0.977326,-0.049608,-0.205849
12.129201,-0.440419,-25.044747,-0.995185,0.098017,0.000000
-23.326959,-14.538253,-14.140921,-0.699011,-0.488894,-0.521887
-10.868047,5.365338,7.162268,0.881921,-0.471397,0.000000
-17.038579,2.127743,-25.586897,-0.551642,0.078417,-0.830386
-10.547245,-5.965516,10.425635,0.881921,0.471397,-0.000000
-19.008289,-23.939731,-4.039447,-0.630461,-0.759246,-0.161443
-19.099640,-12.110419,20.973419,-0.620644,-0.440461,0.648687
3.286121,-11.662226,13.254635,-0.290285,0.956940,0.000000
-18.662927,0.800933,24.513769,-0.597636,0.000000,0.801768
-9.605628,24.073355,7.390862,0.773011,0.000000,-0.634392
11.685981,-3.207811,-9.306582,-0.956940,0.290285,0.000000
-25.978527,7.385433,-14.867516,-0.839788,0.211221,-0.500142
-24.998643,-11.370575,13.996999,-0.801686,-0.395175,0.448483
-12.190868,-1.613537,28.297632,-0.356823,0.000000,0.934172
-21.146452,19.827247,10.562765,-0.707576,0.641557,0.296210
22.177604,16.222408,-13.915717,0.708443,0.546563,-0.446517
19.819637,17.129167,-16.342641,0.635472,0.503751,-0.585159
-3.173122,18.783736,-11.696504,0.290285,-0.000000,0.956940
-27.728612,-13.380154,1.529477,-0.896494,-0.443056,0.000000
23.492082,-7.097776,-18.671606,0.738104,-0.217328,-0.638727
17.500332,-20.851494,14.482721,0.585159,-0.635472,0.503751
-9.108920,-26.487210,12.848737,-0.302377,-0.852184,0.427026
-6.476981,17.111365,10.273861,0.471397,0.000000,-0.881921
11.008862,5.101891,-18.485699,-0.881921,-0.471397,0.000000
-29.464362,-2.515242,8.648169,-0.952951,-0.084545,0.291097
-25.575285,-15.986010,6.416432,-0.809504,-0.538762,0.233321
-4.231302,-15.066900,-26.653100,-0.211221,-0.500142,-0.839788
12.944733,27.694440,-4.121292,0.419240,0.889788,-0.180319
-12.125332,0.479701,-10.109518,0.995185,-0.098017,0.000000
-30.121591,-2.399225,-6.097977,-0.977326,-0.049608,-0.205849
-24.259901,-13.370032,13.555742,-0.801686,-0.395175,0.448483
6.118833,-26.959698,10.465296,-0.471397,0.000000,-0.881921
13.370076,27.156487,-5.786910,0.419240,0.889788,-0.180319
13.893708,-9.501542,25.824267,0.427026,-0.302377,0.852184
-12.419247,25.618181,-11.904313,-0.448483,0.801686,-0.395175
5.333632,-23.964762,18.632571,0.160129,-0.791679,0.589579
29.343768,5.203855,7.885744,0.940327,0.181151,0.288045
-12.099357,-11.545609,0.743437,0.995185,0.000000,-0.098017
4.697833,18.847744,-11.224836,-0.471397,0.000000,0.881921
11.893627,2.523292,-17.016204,-0.956940,-0.290285,0.000000
-25.376027,-1.236463,17.494143,-0.833679,-0.081179,0.546250
-6.389252,10.320753,-16.669064,0.471397,-0.881921,0.000000
6.559816,-10.229585,22.738659,-0.471397,0.881921,0.000000
-11.446573,21.909942,18.571628,-0.313422,0.759999,0.569358
-8.376092,-8.797071,24.169879,0.634393,0.773011,-0.000000
12.141763,-0.312882,-27.416461,-0.995185,0.098017,0.000000
28.736051,-6.522497,9.040352,0.940327,-0.181151,0.288045
-5.840286,-13.054040,-27.294576,-0.180319,-0.419240,-0.889788
-11.006830,5.105694,5.466091,0.881921,-0.471397,0.000000
-6.396389,-27.186276,-13.050119,-0.161879,-0.884359,-0.437841
-19.523922,23.836744,0.860972,-0.639354,0.768912,0.000000
27.765259,12.412239,4.958662,0.884359,0.437841,0.161879
21.295016,-8.229620,-20.740662,0.670528,-0.239219,-0.702258
-20.965646,-20.678296,-9.151394,-0.707576,-0.641557,-0.296210
-29.212847,3.486239,-9.189530,-0.952951,0.084545,-0.291097
-0.354255,12.137688,23.515730,0.098017,-0.995185,0.000000
-11.353124,6.300094,-4.305093,0.956939,-0.000000,0.290288
-11.733405,13.335693,-25.189744,-0.395175,0.448483,-0.801686
22.420174,-18.265924,10.764678,0.759999,-0.569358,0.313422
-2.924661,15.696380,-26.389584,-0.081179,0.546250,-0.833679
6.978883,21.558030,20.885184,0.239219,0.702258,0.670528
20.862742,-14.224503,-17.710412,0.635472,-0.503751,-0.585159
-19.451838,-22.102783,-9.288227,-0.581154,-0.759176,-0.293109
-4.981136,-11.073407,-16.671258,0.471397,0.881921,0.000000
-20.991898,16.066975,15.836404,-0.699011,0.488894,0.521887
-11.884959,-19.734891,-20.469072,-0.371744,-0.649101,-0.663683
-10.397309,27.081280,-10.417969,-0.312401,0.885789,-0.343197
15.945874,-24.924087,-8.600527,0.508425,-0.818634,-0.267099
12.056632,-17.437422,1.177224,-0.995185,-0.000000,-0.098017
10.480232,-6.090888,10.350863,-0.881921,0.471397,0.000000
-24.180539,-4.540515,18.589981,-0.759246,-0.161443,0.630461
-25.332436,15.870450,7.525836,-0.809504,0.538762,0.233321
-20.088403,-11.276504,20.472578,-0.663683,-0.371744,0.649101
1.128251,-17.933623,12.061456,-0.098017,0.000000,-0.995185
8.685967,27.290181,-11.436577,0.312401,0.885789,-0.343197
8.431490,-14.861924,8.751608,-0.634393,0.000000,-0.773011
26.801310,10.667862,-10.908146,0.879088,0.306798,-0.364801
-26.136854,-8.184263,-14.211834,-0.818634,-0.267099,-0.508425
-0.924018,15.599642,-12.081571,0.098017,0.000000,0.995185
-20.386697,-21.215083,-9.371747,-0.707576,-0.641557,-0.296210
14.401258,25.868890,8.644979,0.508425,0.818634,0.267099
14.134024,-14.278353,-23.470426,0.420208,-0.522219,-0.742100
-1.892690,15.197826,-26.756772,-0.050171,0.465071,-0.883851
-26.505272,14.124182,-6.821000,-0.851639,0.469405,-0.233172
10.150484,18.702867,-22.297709,0.349826,0.585563,-0.731257
-7.977129,10.481110,-9.124492,0.634393,0.000000,0.773011
9.282408,21.461691,-20.070716,0.296210,0.707576,-0.641557
-7.661222,9.383750,-10.542128,0.634393,-0.773011,0.000000
-22.724940,2.827556,20.622719,-0.728345,0.080542,0.680461
-24.357579,-11.873099,-14.700140,-0.801686,-0.395175,-0.448483
11.986696,-1.887299,26.976304,-0.995185,0.098017,0.000000
30.816782,-1.168329,-0.072083,0.995747,-0.092126,0.000000
16.252647,12.304670,23.087991,0.526342,0.382234,0.759514
18.420577,12.709752,21.216177,0.620644,0.440461,0.648687
-26.082269,7.211484,14.766785,-0.839788,0.211221,0.500142
-10.262376,-6.498469,9.293721,0.881921,0.471397,-0.000000
0.117946,-14.055251,12.160962,-0.098017,0.000000,-0.995185
-10.795096,5.501819,15.892587,0.881921,-0.471397,0.000000
28.219102,10.235756,-6.997267,0.923386,0.308167,-0.228893
8.466158,27.577159,-8.723156,-0.634393,0.000000,0.773011
-0.722033,21.126295,22.487303,-0.080542,0.680461,0.728345
-11.988033,-6.265289,1.873726,0.995185,0.000000,-0.098016
-8.720429,-23.475824,8.469481,0.773010,-0.000000,-0.634394
-26.066716,16.374073,1.721381,-0.830386,0.551642,0.078417
10.317834,6.394714,-25.860190,-0.881921,-0.471397,-0.000000
6.206479,-22.697177,10.418447,-0.471397,-0.000000,-0.881921
5.006534,22.029729,11.059832,-0.471397,0.000000,-0.881921
12.819855,20.214886,-19.388971,0.440461,0.648687,-0.620644
11.321035,24.858912,-4.410874,-0.956940,-0.000000,0.290285
-9.933682,-6.991128,26.445572,0.773011,0.634393,0.000000
22.375094,-15.623330,-14.335687,0.708443,-0.546563,-0.446517
30.558381,-3.961277,0.376104,0.995747,-0.092126,0.000000
-30.025376,-6.201993,-2.995839,-0.971231,-0.223787,-0.081425
-13.037414,-27.897070,1.485032,-0.424492,-0.901705,0.082070
-11.263150,-27.908480,4.601695,0.956941,0.000000,-0.290283
-8.079972,-9.040091,11.567070,0.634393,0.773011,-0.000000
26.394532,15.158027,-5.020401,0.884359,0.437841,-0.161879
-21.026440,-16.681199,-15.180565,-0.708443,-0.546563,-0.446517
25.080505,17.628291,-3.341649,0.830386,0.551642,-0.078417
17.576004,-1.150991,-25.322114,0.551642,-0.078417,-0.830386
-13.768896,-21.983321,-16.594180,-0.446517,-0.708443,-0.546563
16.872276,20.025643,-16.254069,0.585159,0.635472,-0.503751
10.207890,6.600404,26.606441,-0.881921,-0.471397,-0.000000
-6.424019,-10.302170,26.104268,0.471397,0.881921,0.000000
0.725150,22.537319,-12.101158,-0.098017,-0.000000,0.995185
20.940474,0.999889,22.627182,0.685852,0.080531,0.723272
-29.065786,-2.838317,-9.859139,-0.952951,-0.084545,-0.291097
-10.238220,6.543661,-13.010004,0.881921,-0.471397,-0.000000
15.948530,-1.555430,26.337740,0.482336,-0.078367,0.872474
-0.492626,-27.414070,12.124059,0.098017,0.000000,-0.995185
-20.089475,22.579706,-6.029333,-0.638727,0.738104,-0.217328
-18.389584,14.478312,-20.044970,-0.620644,0.440461,-0.648687
-9.093602,-9.210222,8.014769,0.773010,-0.000000,-0.634394
-2.554976,-11.884016,-22.449680,0.290285,0.956940,0.000000
6.019323,25.354657,16.489485,0.233321,0.809504,0.538762
-2.295850,-11.946458,15.688200,0.098017,0.995185,-0.000000
-9.841817,-16.816684,7.103064,0.773010,-0.000000,-0.634394
11.825175,22.959728,-16.785946,0.382234,0.759514,-0.526342
26.776230,-9.003494,12.368318,0.879088,-0.306798,0.364801
6.006436,-10.525372,10.660513,-0.471397,0.881921,0.000000
15.503944,12.987074,-23.263413,0.526342,0.382234,-0.759514
-12.035534,1.391443,11.295196,0.995185,-0.098017,0.000000
-7.035096,-21.697821,20.718723,-0.239219,-0.702258,0.670528
-11.821952,24.830689,13.898686,-0.382479,0.802678,0.457622
1.979682,22.743065,-20.703224,0.080531,0.723272,-0.685852
10.787360,-11.970095,-26.318921,0.306798,-0.364801,-0.879088
-11.655834,-10.607847,3.307190,0.956940,0.000000,-0.290285
9.009240,11.406966,-8.117563,-0.773011,-0.000000,0.634393
5.689537,10.976229,28.241042,0.214847,0.371628,0.903180
-5.474339,27.157337,13.449471,-0.161879,0.884359,0.437841
11.368320,11.428886,-4.254999,-0.956940,-0.000000,0.290285
26.647602,-11.258783,10.703269,0.885789,-0.343197,0.312401
6.530486,-23.454808,10.245262,-0.471397,0.000000,-0.881921
21.731389,15.732508,15.159258,0.699011,0.488894,0.521887
-19.955550,23.183420,-3.897079,-0.630461,0.759246,-0.161443
-22.937071,17.774477,10.404037,-0.759999,0.569358,0.313422
13.384133,-24.141556,13.801775,0.382479,-0.802678,0.457622
-29.939546,-4.553335,-5.920274,-0.971850,-0.181286,-0.150476
10.903777,-5.298491,27.049009,-0.881921,0.471397,0.000000
5.446209,-10.824821,22.223186,-0.471397,0.881921,0.000000
-10.471350,6.107506,-26.869970,0.881921,-0.471397,-0.000000
7.565388,13.855223,9.462399,-0.634393,-0.000000,-0.773011
4.196564,28.261523,-11.532636,0.159793,0.922797,-0.350587
23.333826,11.758014,-16.384344,0.742100,0.420208,-0.522219
-12.048867,1.256073,-11.219453,0.995185,-0.098018,0.000000
23.319830,-20.132383,0.133623,0.762305,-0.647218,0.000000
9.192630,-26.651872,12.460858,0.302377,-0.852184,0.427026
15.444575,22.443333,14.410014,0.521887,0.699011,0.488894
-10.809125,22.853310,17.663292,-0.313422,0.759999,0.569358
-27.685463,-13.295992,-2.876925,-0.872474,-0.482336,-0.078367
-20.348494,-23.031981,2.367762,-0.680461,-0.728345,0.080542
-1.924361,-11.983046,-17.695641,0.098017,0.995185,-0.000000
11.373461,-8.346916,4.238050,-0.956941,0.000000,-0.290284
11.942268,19.643642,20.526216,0.371744,0.649101,0.663683
12.014380,1.606225,-10.288609,-0.995185,-0.098017,-0.000000
13.843765,-24.417488,-12.723460,0.448483,-0.801686,-0.395175
28.781118,9.763404,-5.077637,0.922797,0.350587,-0.159793
22.240308,20.757566,-5.089826,0.751866,0.639869,-0.158952
25.535391,14.268628,-9.786204,0.852184,0.427026,-0.302377
-3.096810,11.719652,18.712192,0.290285,-0.956940,0.000000
26.669876,8.165494,13.329365,0.879088,0.306798,0.364801
-29.963519,-5.895572,4.148387,-0.971850,-0.181286,0.150476
-19.198578,24.107269,1.749854,-0.639354,0.768912,0.000000
27.949548,2.928937,-12.646779,0.901705,0.082070,-0.424492
-29.326804,-8.557668,-4.367755,-0.946807,-0.311335,-0.081408
-2.411491,17.867516,-25.016966,-0.081179,0.546250,-0.833679
-12.021343,-24.325820,14.617588,-0.382479,-0.802678,0.457622
12.121352,-0.520116,25.463530,-0.995185,0.098017,0.000000
-12.093033,0.807640,-17.869520,0.995185,-0.098018,0.000000
15.280057,8.429486,25.427789,0.469405,0.233172,0.851639
9.776589,24.840321,-15.559943,0.382234,0.759514,-0.526342
-23.559379,-15.012887,13.075173,-0.759514,-0.526342,0.382234
-29.618691,8.713954,0.375279,-0.946807,0.311335,0.081408
21.026161,-18.506000,12.869228,0.648687,-0.620644,0.440461
-20.495947,-0.832659,-23.011154,-0.647218,0.000000,-0.762305
12.095434,0.783267,6.440389,-0.995185,-0.098017,-0.000000
20.673833,-22.298909,5.251812,0.630461,-0.759246,0.161443
10.630480,27.636224,-5.809794,-0.881921,0.000000,0.471397
-13.127657,-27.813932,-1.931705,-0.424492,-0.901705,-0.082070
26.613070,-12.552875,-9.172038,0.852184,-0.427026,-0.302377
-14.162233,-7.866041,26.198176,-0.469405,-0.233172,0.851639
-15.082996,1.372076,-26.832708,-0.482336,0.078367,-0.872474
15.819711,26.488736,0.849928,0.465071,0.883851,0.050171
-5.394746,14.579718,-10.852328,0.471397,0.000000,0.881921
20.679443,22.875923,-0.477739,0.639354,0.768912,-0.000000
11.463140,9.986535,26.821203,0.343197,0.312401,0.885789
-9.818479,-9.953907,-27.469930,-0.343197,-0.312401,-0.885789
-10.291393,-24.691926,-15.400223,-0.382234,-0.759514,-0.526342
21.525693,20.462715,8.257987,0.702258,0.670528,0.239219
26.176301,-15.672302,-4.821627,0.884359,-0.437841,-0.161879
-3.382819,-24.135255,11.632893,0.290285,0.000000,-0.956940
4.636190,-11.252686,18.284440,-0.290283,0.956941,0.000000
18.555099,20.536827,-13.646880,0.648687,0.620644,-0.440461
-3.937000,-27.577517,13.169171,-0.161879,-0.884359,0.437841
-1.500755,-12.024768,22.364832,0.098017,0.995185,-0.000000
-10.033173,6.869897,21.951453,0.773010,-0.634393,-0.000000
-4.312653,13.956268,27.179056,-0.180319,0.419240,0.889788
4.677649,17.710048,11.235625,-0.471397,0.000000,-0.881921
-28.961479,-10.452893,-0.539743,-0.934172,-0.356822,0.000000
-27.488969,10.938269,-8.669751,-0.885789,0.343197,-0.312401
-11.777068,20.785255,-2.907536,0.956940,-0.000000,0.290285
5.177624,10.968382,22.617015,-0.471397,-0.881921,-0.000000
18.890451,-0.350328,24.344173,0.597636,-0.000000,0.801768
22.518296,0.335232,21.109539,0.768912,-0.000000,0.639354
5.374060,-10.863385,-19.947397,-0.471397,0.881921,0.000000
5.287640,-10.909577,-17.567283,-0.471397,0.881921,0.000000
-21.176257,-19.580502,10.954581,-0.649101,-0.663683,0.371744
10.414412,6.214029,14.090024,-0.881921,-0.471397,0.000000
-29.334735,8.543534,-4.329568,-0.946807,0.311335,-0.081408
-10.403995,6.233517,-17.763261,0.881921,-0.471397,-0.000000
-11.230260,4.687684,-17.595634,0.881921,-0.471397,0.000000
-9.474111,-13.792536,7.551116,0.773011,-0.000000,-0.634393
1.975301,-12.563850,-28.075385,0.082070,-0.424492,-0.901705
-13.714990,27.138079,5.075822,-0.419240,0.889788,0.180319
25.205741,3.321567,17.424678,0.819634,0.132792,0.557284
10.465468,-10.251493,-6.118510,-0.881921,0.000000,0.471397
13.023564,7.189151,-27.011112,0.469405,0.233172,-0.851639
26.764537,10.446774,11.182696,0.879088,0.306798,0.364801
13.730254,-23.372409,14.806959,0.382234,-0.759514,0.526342
6.660880,-10.175565,-20.202349,-0.471397,0.881921,0.000000
16.978340,8.844136,24.176802,0.569358,0.313422,0.759999
27.179362,14.491525,0.883439,0.896494,0.443056,0.000000
7.592752,26.078933,-14.514328,0.233172,0.851639,-0.469405
17.175088,-5.060815,-25.105359,0.589579,-0.160129,-0.791679
-30.148403,3.449581,5.470225,-0.984754,0.084103,0.152273
-12.136750,19.982847,0.363780,0.995185,0.000000,-0.098017
11.981895,-4.824842,1.936044,-0.995185,-0.000000,-0.098017
3.034345,15.065740,-11.738601,-0.290285,0.000000,0.956940
1.187353,12.055635,-24.872996,-0.098017,-0.995185,-0.000000
-21.076480,6.424730,-21.564146,-0.670528,0.239219,-0.702258
9.347322,-24.693911,16.011089,0.313422,-0.759999,0.569358
2.578051,11.877016,-19.286312,-0.290285,-0.956940,-0.000000
8.997977,19.964451,-8.131288,-0.773010,-0.000000,0.634394
-17.536095,-23.502193,-9.462029,-0.581154,-0.759176,-0.293109
4.043293,-27.139505,14.014576,0.161879,-0.884359,0.437841
14.256847,15.022227,22.865788,0.488894,0.521887,0.699011
21.823235,-12.983870,-17.544575,0.742100,-0.420208,-0.522219
20.752508,22.035509,5.928919,0.638727,0.738104,0.217328
-23.157627,5.270328,19.634960,-0.759246,0.161443,0.630461
-3.512689,-11.593497,-14.041173,0.290285,0.956940,0.000000
-26.517323,-15.407508,-2.885990,-0.872474,-0.482336,-0.078367
29.790871,0.121089,-8.217173,0.977326,0.049608,-0.205849
27.767807,8.686498,-10.245437,0.879088,0.306798,-0.364801
24.215409,19.063197,1.016655,0.801768,0.597636,-0.000000
-0.660025,12.107572,-20.373492,0.098017,-0.995185,-0.000000
5.536169,-22.412343,20.444541,0.158952,-0.751866,0.639869
-19.482516,-3.166383,-23.732064,-0.639869,-0.158952,-0.751866
-17.790907,-16.063639,19.463095,-0.635472,-0.503751,0.585159
14.901539,25.145572,9.846983,0.445068,0.829480,0.337457
-10.578169,-5.907661,24.143209,0.881921,0.471397,0.000000
23.906064,3.618965,19.156507,0.759246,0.161443,0.630461
9.937135,9.728453,-6.986921,-0.773010,-0.000000,0.634393
-4.973738,27.669190,12.600705,-0.161879,0.884359,0.437841
29.556728,8.123936,-3.303608,0.971231,0.223787,-0.081425
-10.373772,-18.431358,22.408304,-0.349826,-0.585563,0.731257
-25.193269,14.771232,-10.017064,-0.802678,0.457622,-0.382479
11.840253,-13.687232,-2.699244,-0.956940,0.000000,0.290285
-18.882225,20.614745,13.055314,-0.648687,0.620644,0.440461
11.330514,9.480563,-27.051036,0.343197,0.312401,-0.885789
21.614087,1.316297,21.953190,0.685852,0.080531,0.723272
-14.734709,24.476201,-11.593221,-0.448483,0.801686,-0.395175
11.173355,22.215003,-4.794147,-0.881921,0.000000,0.471397
2.467040,15.683913,-26.442313,0.081179,0.546250,-0.833679
-17.364977,-6.892528,-24.520296,-0.538762,-0.233321,-0.809504
-0.826824,-12.091144,-21.006624,0.098017,0.995185,0.000000
-7.588923,-9.443084,19.680668,0.634393,0.773011,-0.000000
-28.464901,4.790871,-10.951715,-0.903180,0.214847,-0.371628
-18.520559,-18.461356,16.312734,-0.585159,-0.635472,0.503751
-0.915882,15.061653,26.883873,-0.050171,0.465071,0.883851
-12.043307,-1.312516,-7.380344,0.995185,0.098017,-0.000000
26.130026,7.592078,-14.525863,0.839788,0.211221,-0.500142
-17.957607,22.111253,-11.787712,-0.585563,0.731257,-0.349826
-0.741752,14.645568,-12.099523,0.098017,0.000000,0.995185
8.205463,15.163037,25.539179,0.267099,0.508425,0.818634
11.171442,23.753651,4.797726,-0.881921,-0.000000,-0.471397
15.590830,-14.611255,22.226484,0.546563,-0.446517,0.708443
-4.056028,17.809238,11.428677,0.290285,0.000000,-0.956940
-15.097250,-3.428511,26.640115,-0.482336,-0.078367,0.872474
4.170451,-27.792402,-11.393967,-0.290285,0.000000,0.956940
-26.822333,-12.400008,-8.798159,-0.852184,-0.427026,-0.302377
12.127927,-3.242377,0.453356,-0.995185,0.000000,-0.098017
9.012940,21.799453,-8.113055,-0.773010,-0.000000,0.634394
22.892116,11.247152,-17.305397,0.731257,0.349826,-0.585563
-7.211219,25.671142,-15.443702,-0.233172,0.851639,-0.469405
-2.228554,21.380472,-22.083243,-0.080542,0.680461,-0.728345
21.148926,15.666161,-16.001557,0.699011,0.488894,-0.521887
19.601971,-1.583232,23.770165,0.647218,0.000000,0.762305
-10.712087,-5.657118,-23.379020,0.881921,0.471397,-0.000000
-21.452209,17.855131,13.068078,-0.708443,0.546563,0.446517
-11.112541,4.907921,-10.661979,0.881921,-0.471397,0.000000
14.232285,-23.557664,14.026844,0.448483,-0.801686,0.395175
7.377551,-9.616552,-19.998499,-0.634393,0.773011,0.000000
11.252505,-12.410247,-4.636787,-0.956941,0.000000,0.290283
12.059243,-1.150720,10.666377,-0.995185,0.098017,0.000000
27.949747,11.616847,-5.812302,0.922797,0.350587,-0.159793
-26.328552,5.219329,15.194583,-0.839788,0.211221,0.500142
-26.966626,-8.805033,-12.076411,-0.879088,-0.306798,-0.364801
-20.647436,22.637351,-3.410805,-0.680461,0.728345,-0.080542
-20.957944,-0.186748,22.618906,-0.647218,0.000000,0.762305
19.380778,21.992725,-9.653271,0.585563,0.731257,-0.349826
-15.691398,10.332298,24.469556,-0.526342,0.382234,0.759514
28.465835,8.129029,-8.824068,0.947462,0.216204,-0.235738
-15.796437,22.533907,13.901324,-0.522219,0.742100,0.420208
2.340676,11.942043,17.518711,-0.098017,-0.995185,0.000000
-16.883560,-4.773925,25.380493,-0.589579,-0.160129,0.791679
1.527378,24.810622,-18.264679,0.000000,0.801768,-0.597636
-15.060631,25.874340,-7.342401,-0.500142,0.839788,-0.211221
-23.946503,11.499513,15.721704,-0.742100,0.420208,0.522219
27.671276,10.301530,-8.852341,0.885789,0.343197,-0.312401
12.043440,-5.264849,-1.311167,-0.995185,-0.000000,0.098017
-24.552979,7.906486,-16.908021,-0.818634,0.267099,-0.508425
8.403165,-11.194065,27.473030,0.306798,-0.364801,0.879088
28.018045,1.060862,-12.862447,0.901705,0.082070,-0.424492
-24.380756,-10.982119,15.443788,-0.801686,-0.395175,0.448483
18.958067,-3.961794,-23.999833,0.589579,-0.160129,-0.791679
-3.403486,24.653990,-11.626623,0.290285,-0.000000,0.956940
-0.393750,-24.719927,18.386352,0.000000,-0.801768,0.597636
-11.376003,-8.367048,4.229668,0.956942,-0.000000,-0.290278
27.529806,-7.246438,-11.804687,0.903180,-0.214847,-0.371628
-10.245455,-21.022127,-20.110870,-0.296210,-0.707576,-0.641557
24.133466,-17.631439,-7.619342,0.809504,-0.538762,-0.233321
4.272142,11.363119,-19.425062,-0.290285,-0.956940,0.000000
1.471031,-14.881098,-12.027695,-0.098017,0.000000,0.995185
-11.262366,19.258641,4.604279,0.956939,0.000000,-0.290288
-2.037497,-11.971903,16.390872,0.098017,0.995185,-0.000000
-10.710899,5.659341,-8.865801,0.881921,-0.471397,0.000000
12.057333,-25.564651,1.170111,-0.995185,-0.000000,-0.098017
-29.730344,-8.083757,1.343165,-0.971231,-0.223787,0.081425
1.856392,11.989740,18.552740,-0.098017,-0.995185,0.000000
-3.121884,13.479801,27.539828,-0.082070,0.424492,0.901705
-23.419082,19.908910,2.673056,-0.723272,0.685852,0.080531
-15.194773,25.507902,-8.240912,-0.508425,0.818634,-0.267099
-12.041955,-20.999328,-1.326247,0.995185,-0.000000,0.098017
12.161460,0.112889,-14.979943,-0.995185,-0.098017,0.000000
-19.170749,22.217697,-9.534562,-0.585563,0.731257,-0.349826
23.258751,16.639862,-11.432163,0.759514,0.526342,-0.382234
-22.051063,-20.751200,-5.907076,-0.702258,-0.670528,-0.239219
-11.361586,-24.517488,-4.277195,0.956940,0.000000,0.290285
-21.629805,3.729959,-21.669542,-0.685852,0.080531,-0.723272
3.380312,17.111000,25.409499,0.132792,0.557284,0.819634
19.499880,-22.765207,7.132138,0.638727,-0.738104,0.217328
-13.474194,27.665701,-1.767928,-0.424492,0.901705,-0.082070
-9.113222,7.990861,12.049664,0.773011,-0.634392,-0.000000
-11.749586,2.998133,-13.663998,0.956940,-0.290285,0.000000
6.256889,13.234269,27.125232,0.180319,0.419240,0.889788
-11.212661,-12.429338,4.720611,0.881921,0.000000,-0.471397
11.629781,26.779591,9.872028,0.364801,0.879088,0.306798
-27.149476,-13.837083,-4.468894,-0.884359,-0.437841,-0.161879
11.711036,12.184776,-3.125216,-0.956940,0.000000,0.290285
-7.539076,22.488339,19.710995,-0.239219,0.702258,0.670528
-6.126784,-20.316345,22.354688,-0.217328,-0.638727,0.738104
-12.103987,-0.696425,24.619197,0.995185,0.098017,-0.000000
-22.354829,15.289733,14.739011,-0.699011,0.488894,0.521887
-0.822184,24.343687,18.891103,-0.000000,0.801768,0.597636
-29.570714,5.827506,6.494224,-0.947462,0.216204,0.235738
9.754777,-7.209124,-25.600832,-0.773011,0.634393,0.000000
25.764632,-12.231741,-11.856397,0.802678,-0.457622,-0.382479
23.631982,19.620152,3.085727,0.751866,0.639869,0.158952
-11.780017,2.897816,-18.715064,0.956940,-0.290285,0.000000
-26.420881,-15.444271,3.733424,-0.872474,-0.482336,0.078367
-25.553649,-5.158013,16.475389,-0.819634,-0.132792,0.557284
-8.527841,8.672534,-17.517605,0.634393,-0.773011,0.000000
-7.020766,23.940661,-18.180358,-0.233321,0.809504,-0.538762
-11.273514,-4.567530,20.150664,0.956940,0.290285,0.000000
-2.275981,-13.843073,27.445803,-0.082070,-0.424492,0.901705
-8.253703,12.318642,27.058518,-0.306798,0.364801,0.879088
-12.804030,-3.331545,27.869123,-0.437841,-0.161879,0.884359
0.069265,-27.560526,12.165757,-0.098017,0.000000,-0.995185
-8.934840,-8.208221,25.715236,0.773011,0.634393,0.000000
-1.918214,-21.768944,-11.983651,0.098017,0.000000,0.995185
20.228377,4.253744,22.867427,0.639869,0.158952,0.751866
14.548651,20.335552,-18.035955,0.440461,0.648687,-0.620644
-11.543811,-25.312266,-13.286458,-0.382479,-0.802678,-0.457622
12.047428,25.055483,-1.270674,-0.995185,0.000000,0.098017
-4.540078,18.803709,11.281842,0.290285,0.000000,-0.956940
-11.889781,9.109089,2.535972,0.956940,0.000000,-0.290285
-24.800475,3.855019,-17.893615,-0.819634,0.132792,-0.557284
-8.420546,-8.760589,24.666070,0.634393,0.773011,-0.000000
14.650628,-17.608353,20.618923,0.503751,-0.585159,0.635472
23.313037,18.426616,-8.307712,0.759999,0.569358,-0.313422
-11.724789,-26.886179,9.453645,-0.364801,-0.879088,0.306798
-25.777699,-7.208406,15.279488,-0.839788,-0.211221,0.500142
17.113355,11.853989,22.718333,0.526342,0.382234,0.759514
-9.427642,7.607740,-15.082346,0.773010,-0.634394,0.000000
-2.314858,23.225132,-20.155500,-0.080531,0.723272,-0.685852
-17.402113,10.080332,23.349526,-0.569358,0.313422,0.759999
-11.933834,-7.459324,-2.390750,0.956940,0.000000,0.290285
-13.742131,-27.444282,2.814802,-0.424492,-0.901705,0.082070
26.037694,6.706489,-15.054901,0.839788,0.211221,-0.500142
-8.568439,-20.126914,8.639216,0.634393,0.000000,-0.773011
-13.427358,2.930550,27.608022,-0.482336,0.078367,0.872474
-14.423495,16.420174,21.705516,-0.488894,0.521887,0.699011
-29.793446,-6.181095,4.902826,-0.971850,-0.181286,0.150476
-15.093071,14.831370,-22.423420,-0.488894,0.521887,-0.699011
-28.680511,7.865838,-8.202638,-0.947462,0.216204,-0.235738
23.558317,3.247830,-19.670327,0.759246,0.161443,-0.630461
-12.072148,9.161431,-1.019692,0.995185,0.000000,0.098017
-6.826261,-28.048073,10.068984,0.634393,0.000000,-0.773011
5.114352,-19.371326,23.409709,0.161443,-0.630461,0.759246
11.723259,3.084920,-24.637644,-0.956940,-0.290285,0.000000
-3.878022,-25.196918,-17.373388,-0.160129,-0.791679,-0.589579
-17.323785,-20.565850,-15.048134,-0.585159,-0.635472,-0.503751
28.932535,7.757103,-7.289448,0.947462,0.216204,-0.235738
-3.057090,-14.876720,-11.731701,0.290285,-0.000000,0.956940
11.671557,-3.255359,20.522020,-0.956940,0.290285,-0.000000
-11.250140,22.484369,17.889486,-0.382234,0.759514,0.526342
-10.109668,17.539066,-23.249162,-0.349826,0.585563,-0.731257
6.750051,-17.187759,24.756498,0.211221,-0.500142,0.839788
-22.120296,14.349772,-15.933682,-0.699011,0.488894,-0.521887
-25.721271,-13.819766,9.896238,-0.852184,-0.427026,0.302377
-8.631122,8.578303,-14.584458,0.773011,-0.634393,0.000000
-25.852797,-15.221006,6.996058,-0.851639,-0.469405,0.233172
26.460516,10.594339,11.791215,0.879088,0.306798,0.364801
0.145715,23.287729,20.170192,0.000000,0.762305,0.647218
6.674032,10.168535,-17.635887,-0.471397,-0.881921,0.000000
-8.879457,8.275705,-9.544086,0.773009,-0.634395,0.000000
25.340690,-0.095578,-17.557661,0.802672,0.000000,-0.596421
13.065559,15.859127,-22.963037,0.420208,0.522219,-0.742100
9.896490,-7.036446,-11.381705,-0.773010,0.634393,0.000000
-1.323347,12.042241,-18.858759,0.098017,-0.995185,0.000000
-28.869983,5.789677,-9.063999,-0.940327,0.181151,-0.288045
15.772752,12.247173,23.449494,0.526342,0.382234,0.759514
-1.385888,-18.068271,-12.036081,0.098017,0.000000,0.995185
-27.250511,7.114811,-12.559564,-0.903180,0.214847,-0.371628
20.143439,7.954963,-21.933766,0.670528,0.239219,-0.702258
0.546529,12.118750,-26.149440,-0.098017,-0.995185,-0.000000
-11.839097,-2.703053,-13.225857,0.956940,0.290285,0.000000
-3.700597,-11.536495,26.397876,0.290285,0.956940,0.000000
-12.322204,-14.336528,24.339616,-0.395175,-0.448483,0.801686
-11.466087,5.576977,3.932701,0.956940,0.000000,-0.290285
-3.935214,21.841195,21.424687,-0.080531,0.723272,0.685852
11.568629,3.594667,25.086662,-0.956940,-0.290285,-0.000000
-27.298905,-1.064137,14.256906,-0.883851,-0.050171,0.465071
2.030833,-11.972559,21.484625,-0.098017,0.995185,0.000000
5.073542,13.205505,-11.024015,-0.471397,0.000000,0.881921
1.234342,13.862317,27.496872,0.050171,0.465071,0.883851
10.492551,9.386993,-6.067841,-0.881921,0.000000,0.471397
-15.854940,-20.825078,-16.285704,-0.521887,-0.699011,-0.488894
13.533807,23.369967,14.953144,0.382234,0.759514,0.526342
-2.964428,-11.759810,-27.397623,0.290285,0.956940,0.000000
-14.868683,-26.915316,-2.150737,-0.465071,-0.883851,-0.050171
-9.054782,-19.593503,22.084468,-0.293109,-0.581154,0.759176
6.758707,27.233896,12.819980,0.161879,0.884359,0.437841
2.911828,-17.167998,-25.426589,0.081179,-0.546250,-0.833679
-11.961805,-2.140029,-3.885616,0.995185,0.098017,0.000000
22.765240,-12.439193,-16.644217,0.742100,-0.420208,-0.522219
-5.848060,-10.610026,-16.653278,0.471397,0.881921,0.000000
-8.435529,-8.748293,25.436309,0.634393,0.773011,-0.000000
12.482475,6.510501,-27.446426,0.437841,0.161879,-0.884359
-2.286137,16.018523,-11.947414,0.098017,0.000000,0.995185
-4.456278,11.307262,19.473042,0.290285,-0.956940,-0.000000
-23.591812,-18.059780,8.298114,-0.759999,-0.569358,0.313422
8.640680,21.349552,-8.566655,-0.773011,0.000000,0.634393
23.053214,19.710246,-5.460703,0.751866,0.639869,-0.158952
12.084398,-3.605581,-0.895315,-0.995185,-0.000000,0.098017
-11.832997,-14.730479,-2.723162,0.956940,0.000000,0.290285
-0.871312,-15.059669,-12.086762,0.098017,0.000000,0.995185
25.508480,-9.585315,14.423582,0.829480,-0.337457,0.445068
-11.312711,4.438316,5.545664,0.956939,-0.290288,0.000000
12.123641,-0.496874,10.907644,-0.995185,0.098017,-0.000000
11.323683,21.046613,4.402146,-0.956940,0.000000,-0.290285
-4.521178,23.738970,11.287575,0.290285,0.000000,-0.956940
12.019765,26.920366,1.551546,-0.995185,0.000000,-0.098017
26.786010,1.586707,-15.175270,0.883851,0.050171,-0.465071
10.124703,-23.034137,6.756036,-0.881921,0.000000,-0.471397
-12.025755,10.799000,-1.490728,0.995185,0.000000,0.098017
3.097900,11.719322,26.637913,-0.290285,-0.956940,-0.000000
-8.563705,14.710451,-25.703379,-0.267099,0.508425,-0.818634
-12.107848,6.051095,-0.657225,0.995185,-0.000000,0.098017
-26.703327,-7.234443,-13.709257,-0.889788,-0.180319,-0.419240
13.561985,-27.571510,2.348716,0.424492,-0.901705,0.082070
14.290711,-2.825264,-27.140186,0.482336,-0.078367,-0.872474
12.085282,0.886344,25.244836,-0.995185,-0.098017,-0.000000
-8.243999,23.113937,8.905477,0.634393,0.000000,-0.773011
-13.915120,18.536429,-20.347377,-0.503751,0.585159,-0.635472
-22.126863,8.367796,19.817106,-0.738104,0.217328,0.638727
20.832128,-13.248424,18.543117,0.620644,-0.440461,0.648687
-23.598824,-19.375090,4.229076,-0.751866,-0.639869,0.158952
-2.130983,-14.825995,-26.938899,-0.050171,-0.465071,-0.883851
28.607389,5.483070,-10.114064,0.940327,0.181151,-0.288045
2.387725,22.369439,-21.049324,0.080531,0.723272,-0.685852
-9.237126,-28.206988,-8.568602,-0.312401,-0.885789,-0.343197
9.493448,9.204201,7.527554,-0.773011,0.000000,-0.634393
7.573035,-9.456123,15.546594,-0.634393,0.773011,0.000000
-17.762791,-19.678329,15.657772,-0.585159,-0.635472,0.503751
-18.825105,-18.555988,-15.839596,-0.585159,-0.635472,-0.503751
-11.026254,-10.023336,-5.069353,0.881921,0.000000,0.471397
-10.816563,-5.461658,12.021164,0.881921,0.471397,-0.000000
-21.655506,6.058432,-21.136060,-0.670528,0.239219,-0.702258
-10.774835,-5.539724,-5.670999,0.881921,0.471397,-0.000000
4.434123,-25.725367,11.313983,-0.290285,-0.000000,-0.956940
18.040677,3.616565,24.752859,0.589579,0.160129,0.791679
7.751706,-9.309492,22.973852,-0.634393,0.773011,0.000000
-29.823773,-7.445751,1.982226,-0.971231,-0.223787,0.081425
-2.506915,-19.416270,23.887529,-0.080542,-0.680461,0.728345
21.598077,20.670619,-7.462744,0.702258,0.670528,-0.239219
-5.230976,-26.322457,-15.225751,-0.161879,-0.884359,-0.437841
10.361567,-16.735663,-6.312894,-0.881921,0.000000,0.471397
-2.013418,-14.664168,27.030724,-0.050171,-0.465071,0.883851
-7.785007,16.348013,-24.940415,-0.267099,0.508425,-0.818634
-11.524912,-15.299745,-3.738781,0.956940,-0.000000,0.290285
-7.544379,9.479640,-13.884456,0.634393,-0.773011,0.000000
-25.761035,15.432541,-6.905363,-0.851639,0.469405,-0.233172
9.647070,7.340366,23.684278,-0.773011,-0.634393,-0.000000
-11.570838,-9.671690,3.587383,0.956940,0.000000,-0.290285
10.845289,27.821279,-7.680634,0.371628,0.903180,-0.214847
-10.402242,7.012059,6.236797,0.881921,0.000000,-0.471397
-15.168175,-17.517624,20.292199,-0.503751,-0.585159,0.635472
12.027686,-14.658958,1.471125,-0.995185,-0.000000,-0.098017
6.030965,22.170649,20.581757,0.239219,0.702258,0.670528
-30.770157,-1.672287,0.430680,-0.995747,-0.092126,0.000000
3.232565,-11.678472,18.726167,-0.290285,0.956940,0.000000
12.144552,0.284562,-8.709848,-0.995185,-0.098017,0.000000
-29.360971,-8.478389,-4.273576,-0.946807,-0.311335,-0.081408
-11.707423,-22.817789,17.076277,-0.382234,-0.759514,0.526342
6.487078,-28.002656,-10.268464,-0.471397,-0.000000,0.881921
-12.051851,1.225777,-7.424002,0.995185,-0.098016,-0.000000
5.617076,10.733490,-21.176219,-0.471397,-0.881921,0.000000
-25.112225,2.469392,17.713528,-0.833679,0.081179,0.546250
-9.209042,-28.281204,8.402614,-0.312401,-0.885789,0.343197
-9.973566,23.645916,-17.065254,-0.313422,0.759999,-0.569358
12.690973,3.600939,-27.875786,0.437841,0.161879,-0.884359
21.237788,-19.749238,-10.513543,0.707576,-0.641557,-0.296210
-10.361749,6.312554,-22.914136,0.881921,-0.471397,-0.000000
-14.749858,14.095361,23.200450,-0.546563,0.446517,0.708443
11.050401,-25.596272,-13.200697,0.382479,-0.802678,-0.457622
-17.735841,20.669739,-14.438434,-0.585159,0.635472,-0.503751
22.656600,-5.461989,20.189254,0.759246,-0.161443,0.630461
-7.601508,9.432756,-27.114077,0.634393,-0.773011,0.000000
-2.668215,11.849665,-27.305117,0.290285,-0.956940,0.000000
-12.062472,-1.117936,2.908876,0.995185,0.098017,-0.000000
-26.210797,3.421263,-15.895443,-0.833679,0.081179,-0.546250
-7.036928,15.803269,-9.896094,0.634393,-0.000000,0.773011
-11.719375,3.097723,-7.359991,0.956940,-0.290285,0.000000
-24.532962,6.612143,17.620228,-0.818634,0.267099,0.508425
-5.700500,24.376010,10.688899,0.471397,0.000000,-0.881921
12.097620,0.761072,-12.734060,-0.995185,-0.098017,-0.000000
-29.733972,-7.486793,-2.940569,-0.971231,-0.223787,-0.081425
9.855387,-7.246524,-7.086529,-0.773011,0.000000,0.634393
11.269260,23.305236,-16.691087,0.382234,0.759514,-0.526342
12.030140,-1.446211,-27.955315,-0.995185,0.098017,0.000000
-18.363479,24.529772,-3.554023,-0.557284,0.819634,-0.132792
-5.385049,-12.631416,-27.585959,-0.180319,-0.419240,-0.889788
12.086582,-0.873143,-21.048543,-0.995185,0.098017,0.000000
-5.103337,-11.478290,-28.173905,-0.214847,-0.371628,-0.903180
9.540453,-26.388280,-7.470279,-0.773011,-0.000000,0.634393
-12.090764,-0.830683,-11.914063,0.995185,0.098017,-0.000000
-18.628585,2.444291,24.500732,-0.551642,0.078417,0.830386
12.729248,-5.571716,-27.496092,0.437841,-0.161879,-0.884359
8.408879,24.099517,-17.321104,0.313422,0.759999,-0.569358
2.803723,26.943412,14.650144,0.078367,0.872474,0.482336
-1.521031,12.022770,-14.066870,0.098017,-0.995185,0.000000
-3.275984,26.777975,-14.872665,-0.078367,0.872474,-0.482336
-24.177458,-16.417069,-9.862142,-0.759999,-0.569358,-0.313422
8.066799,-9.050901,-22.896175,-0.634393,0.773011,0.000000
18.960827,5.317899,-23.721190,0.639869,0.158952,-0.751866
-5.011246,-11.057313,23.041014,0.471397,0.881921,0.000000
-29.710091,4.781850,-6.893063,-0.947462,0.216204,-0.235738
6.665431,15.653662,10.173132,-0.471397,-0.000000,-0.881921
7.230244,-23.566531,9.737444,-0.634393,0.000000,-0.773011
-11.948600,2.274095,-20.607710,0.995185,-0.098017,0.000000
0.306380,14.338311,12.142403,-0.098016,-0.000000,-0.995185
-11.999645,20.806448,-1.755831,0.995185,0.000000,0.098017
