x,y,z,nx,ny,nz
3.847477,-0.713500,17.234365,-0.980785,0.195090,-0.000000
-15.317502,-6.866594,-5.248970,0.000000,-0.831470,-0.555570
3.057062,-1.679666,-8.460413,0.000000,-0.195090,-0.980785
0.908999,0.052711,-8.640588,0.000000,0.065403,-0.997859
-15.147232,-4.601373,3.314497,0.000000,0.831470,-0.555570
6.075679,0.039236,5.676926,-0.000000,-0.065403,-0.997859
30.081941,-6.771292,5.360781,0.000000,-0.751840,0.659346
-7.317115,-5.946546,-6.257590,0.000000,-0.659346,-0.751840
2.618651,2.907733,22.436587,-0.659346,-0.751840,-0.000000
6.279579,-2.801250,16.277134,0.896873,-0.442289,0.000000
35.148426,3.116332,8.051094,-0.000000,0.321440,0.946930
1.549071,-3.598737,9.797300,-0.442288,0.896873,0.000000
-16.533576,7.485170,4.323204,0.000000,0.831470,0.555570
-21.943264,0.886278,8.585954,-0.000000,0.065403,0.997859
-16.743181,-5.819060,-6.369392,0.000000,-0.659346,-0.751840
20.062170,7.515006,-4.263123,0.000000,0.896873,-0.442289
-21.993440,5.646425,0.504598,0.000000,-0.997859,-0.065403
6.718507,1.443080,36.274827,0.980785,0.195091,-0.000000
-12.243457,-0.213232,5.665522,-0.000000,0.065403,-0.997859
17.645465,8.181144,2.733218,-0.000000,0.946930,0.321440
9.946083,4.991588,-7.038571,0.000000,0.555570,-0.831470
23.383136,-7.836452,3.611295,0.000000,-0.896873,0.442289
-8.498228,-4.687933,-3.184951,-0.000000,0.831470,0.555570
1.203605,3.723464,31.989668,-0.321440,-0.946930,0.000000
19.737223,0.631227,8.602670,0.000000,0.065403,0.997859
3.998011,6.005230,6.206125,0.000000,0.659346,0.751840
10.012080,8.582315,-0.941786,0.000000,0.997859,-0.065403
19.375149,3.366535,4.566602,0.000000,-0.555570,-0.831470
38.753506,7.468432,-0.102487,1.000000,0.000000,-0.000000
38.753506,7.573512,1.716755,1.000000,0.000000,-0.000000
-5.431700,-4.227184,31.706757,-0.751840,-0.659346,-0.000000
-15.553435,-5.657420,0.336839,0.000000,0.997859,-0.065403
-24.713894,4.077380,-3.946034,0.000000,-0.751840,0.659346
22.390840,-8.382196,-2.072890,0.000000,-0.980785,-0.195090
4.160801,2.823633,-4.926536,0.000000,-0.442289,0.896873
36.177803,-1.966986,-8.403262,0.000000,-0.195090,-0.980785
-0.120343,-6.877799,26.244137,-0.065403,-0.997859,0.000000
17.936579,-3.356723,7.961993,0.000000,-0.442290,0.896872
5.604065,-3.980296,22.375094,0.831470,-0.555570,0.000000
1.432052,3.645916,12.304363,-0.321440,-0.946930,0.000000
6.081819,-3.202267,23.797828,0.896873,-0.442289,0.000000
-16.361095,8.434563,-1.809623,0.000000,0.980785,-0.195090
-36.533276,8.364756,2.160569,0.000000,0.980785,0.195090
13.882677,-1.325736,-8.530814,0.000000,-0.195090,-0.980785
-38.753506,-5.792530,-5.700077,-1.000000,0.000000,-0.000000
3.839346,0.754381,29.972365,-0.980785,-0.195090,-0.000000
17.799889,0.240435,8.628284,-0.000000,0.065403,0.997859
-19.797092,2.685477,-8.197349,0.000000,0.321440,-0.946930
-6.162083,-3.039508,11.720261,-0.896873,-0.442289,0.000000
27.212811,4.083623,-3.938914,0.000000,-0.751840,0.659346
21.297200,-2.348569,5.160812,0.000000,0.442289,-0.896873
-1.070052,-3.341446,-7.969527,0.000000,-0.442289,-0.896873
16.963853,-2.069549,8.382861,0.000000,-0.195091,0.980785
-20.235993,-6.462404,-5.713000,0.000000,-0.751840,-0.659346
-28.978500,3.887149,7.700416,-0.000000,0.442289,0.896873
8.269872,4.142303,7.574588,0.000000,0.442289,0.896873
-6.087121,-0.088494,-8.638243,0.000000,-0.065403,-0.997859
6.828731,0.868978,21.396964,0.997859,0.065403,-0.000000
-1.956097,7.943876,3.393461,0.000000,0.896873,0.442289
31.259451,7.590563,4.109908,-0.000000,0.896873,0.442289
32.972365,0.530625,5.644719,-0.000000,-0.065403,-0.997859
-5.508234,3.028035,-4.792780,0.000000,-0.555570,0.831470
-11.498936,-3.094227,8.058597,0.000000,-0.321439,0.946930
0.725932,3.845004,21.937877,-0.195090,-0.980785,0.000000
-27.672336,5.513401,-6.637448,0.000000,0.659346,-0.751840
29.338473,-7.875612,-3.531886,0.000000,-0.896873,-0.442289
36.277594,3.162792,4.702738,-0.000000,-0.555570,-0.831470
-3.197021,2.258077,18.502338,0.831469,-0.555570,0.000000
-12.088090,-1.926597,5.330967,0.000000,0.321440,-0.946930
-3.904455,-0.254595,15.766428,0.997859,0.065403,-0.000000
-23.871837,-1.489186,-5.479448,0.000000,0.321440,0.946930
-23.400483,5.551252,1.141787,0.000000,-0.980785,-0.195091
-4.303342,5.364911,29.447300,-0.659346,0.751840,-0.000000
37.298474,3.888840,-4.127537,0.000000,-0.659346,0.751840
18.484966,-3.267267,7.999858,0.000000,-0.321440,0.946930
3.866716,-0.616780,27.624925,-0.980785,0.195090,0.000000
36.285837,-4.027992,-4.002349,0.000000,0.751840,0.659346
-27.699885,4.694461,-7.237105,0.000000,0.555570,-0.831470
1.967626,-8.383637,2.065649,0.000000,-0.980785,0.195090
-9.048539,5.082762,2.506839,0.000000,-0.896873,-0.442289
10.268810,-8.017375,3.215665,0.000000,-0.946930,0.321440
27.480819,-7.461509,-4.358616,0.000000,-0.831470,-0.555570
5.370638,4.296811,24.763376,0.751840,0.659346,-0.000000
-18.802810,1.412264,5.497450,0.000000,-0.195090,-0.980785
-28.407464,4.222466,7.535056,-0.000000,0.442289,0.896873
-25.857456,8.587702,-0.859597,0.000000,0.997859,-0.065403
27.220635,-2.552405,5.060291,0.000000,0.442289,-0.896873
15.703718,-3.745307,-4.253412,0.000000,0.659346,0.751840
-15.512677,4.911317,2.850632,0.000000,-0.831470,-0.555570
-27.684607,-8.595436,-0.741606,0.000000,-0.997859,-0.065403
-33.740699,-4.023713,-7.633070,0.000000,-0.442289,-0.896873
-17.711605,5.078121,-2.516250,0.000000,-0.896873,0.442289
-2.358262,-3.130079,27.011840,0.555570,0.831470,-0.000000
36.342972,-0.593056,-8.605172,0.000000,-0.065403,-0.997859
33.599299,3.065240,8.068437,-0.000000,0.321440,0.946930
24.273356,4.130451,-7.580432,0.000000,0.442289,-0.896873
-28.587820,5.551637,-1.139851,0.000000,-0.980785,0.195091
-36.547436,-5.661789,-0.270186,-0.000000,0.997859,0.065403
-3.699201,-5.791887,8.477331,-0.555570,-0.831470,0.000000
2.451017,3.054744,29.835372,-0.659346,-0.751840,-0.000000
-2.881814,2.648206,16.973282,0.751840,-0.659346,0.000000
-26.469392,3.460474,4.503204,0.000000,-0.659346,-0.751840
-4.789034,-4.448678,-3.522649,-0.000000,0.751840,0.659346
-5.116427,4.586683,14.382260,-0.751840,0.659346,0.000000
38.623591,-6.789928,-5.339530,0.000000,-0.751840,-0.659346
1.945637,4.333962,-3.653458,0.000000,-0.751840,0.659346
5.459208,-4.195817,29.294669,0.751840,-0.659346,0.000000
0.837001,7.899445,-3.483558,0.000000,0.896873,-0.442289
21.556639,-8.578685,0.997179,0.000000,-0.997859,0.065403
7.118800,8.270917,2.468753,0.000000,0.946930,0.321440
38.753506,-6.727422,0.272668,1.000000,-0.000000,0.000000
20.249582,3.104976,-4.741370,0.000000,-0.555570,0.831470
0.170148,3.909990,32.330050,-0.065403,-0.997859,0.000000
-28.181494,-0.992106,-5.581025,-0.000000,0.195091,0.980785
21.396391,5.146645,6.934965,0.000000,0.555570,0.831470
-21.704434,-5.625506,0.768487,0.000000,0.980785,-0.195091
31.609396,2.390903,8.297344,-0.000000,0.321440,0.946930
-25.519556,-0.599045,-5.640234,-0.000000,0.065403,0.997859
27.332749,7.838905,-3.606321,0.000000,0.896873,-0.442289
5.171529,5.157434,-2.355420,0.000000,-0.896873,0.442289
15.703358,-4.698206,-7.234602,0.000000,-0.555570,-0.831470
38.575626,-8.605585,0.586759,-0.000000,-0.997859,0.065403
-20.469692,-3.055231,8.071835,0.000000,-0.321439,0.946930
11.476207,-2.994255,4.815351,0.000000,0.555571,-0.831469
-7.244711,3.982348,4.045533,0.000000,-0.659346,-0.751839
-33.463091,-4.788767,-7.174091,0.000000,-0.555570,-0.831470
25.507596,-6.691106,-5.452215,0.000000,-0.751840,-0.659346
-6.641864,1.809245,35.035553,-0.946930,0.321439,0.000000
-28.104177,8.161383,-2.791431,0.000000,0.946930,-0.321440
-2.475967,6.415543,27.852223,-0.321439,0.946930,0.000000
-38.675028,6.003218,6.207889,0.000000,0.659346,0.751840
28.084266,-8.580262,0.973108,0.000000,-0.997859,0.065403
-16.402341,-6.228832,5.979338,0.000000,-0.751840,0.659346
3.410746,5.979008,18.916801,0.442289,0.896873,0.000000
5.566425,-4.036628,32.901772,0.831470,-0.555570,0.000000
-26.200482,2.767207,-8.169606,0.000000,0.321440,-0.946930
31.428280,1.559606,-8.484295,0.000000,0.195090,-0.980785
-0.086115,-6.880043,29.455508,-0.065403,-0.997859,0.000000
-0.578465,-7.775750,-3.734388,0.000000,-0.896873,-0.442289
-30.455201,1.165829,-8.562622,0.000000,0.195090,-0.980785
-2.903925,8.269678,-2.472403,0.000000,0.946930,-0.321440
14.653815,4.051823,3.975176,0.000000,-0.751840,-0.659346
-6.509077,4.334798,-3.652505,0.000000,-0.751840,0.659346
-4.705023,3.287221,36.601547,-0.000000,-0.000000,1.000000
0.330276,-3.899494,16.616502,-0.065403,0.997859,0.000000
-20.527378,-7.639028,-4.011632,0.000000,-0.896873,-0.442289
-18.725321,4.560107,3.376256,0.000000,-0.831470,-0.555570
20.048442,-2.914160,4.868869,0.000000,0.555571,-0.831469
14.430534,-0.561333,-5.642706,-0.000000,0.065403,0.997859
24.083024,-5.663885,-0.238198,0.000000,0.997859,0.065403
-0.103866,6.878879,23.562297,-0.065403,0.997859,0.000000
30.850665,-8.001912,3.261217,0.000000,-0.946930,0.321440
26.197768,-7.727737,-3.831747,0.000000,-0.896873,-0.442289
38.753506,6.579357,4.309678,1.000000,0.000000,-0.000000
-5.961569,4.175579,-3.834059,0.000000,-0.751840,0.659346
2.693329,6.332799,15.926163,0.442289,0.896873,-0.000000
24.682747,1.402063,-8.515632,0.000000,0.195090,-0.980785
-33.290493,5.561396,1.090789,0.000000,-0.980785,-0.195091
2.661365,-8.128049,2.889629,0.000000,-0.946930,0.321440
-3.075896,3.769911,-4.231835,0.000000,-0.659346,0.751840
32.629705,-2.773786,-8.167373,0.000000,-0.321440,-0.946930
-29.910548,-7.654911,-3.979424,0.000000,-0.896873,-0.442289
7.371841,4.777174,-7.181837,0.000000,0.555570,-0.831470
28.428411,1.922089,5.332497,-0.000000,-0.321440,-0.946930
-22.709731,4.841409,7.138917,-0.000000,0.555570,0.831470
-25.364220,3.746164,-7.769942,0.000000,0.442289,-0.896873
-23.104955,8.546235,1.248210,0.000000,0.980785,0.195090
37.596446,8.595608,0.738983,-0.000000,0.997859,0.065403
8.089050,-8.114253,2.930271,0.000000,-0.946930,0.321440
-27.001819,-5.522201,-1.287836,-0.000000,0.980785,0.195091
-8.371191,4.619276,3.287703,0.000000,-0.831470,-0.555570
-21.394642,-0.368425,8.619895,0.000000,-0.065403,0.997859
-14.606529,3.826905,-7.730125,0.000000,0.442289,-0.896873
6.266513,-2.827744,28.103853,0.896873,-0.442289,0.000000
-4.339953,-5.332804,13.382042,-0.659346,-0.751839,0.000000
3.021184,-2.489285,12.972914,-0.751840,0.659346,0.000000
-2.398141,-6.441961,9.300414,-0.321439,-0.946930,0.000000
19.622400,-4.098602,-3.921835,0.000000,0.751840,0.659346
-1.600566,-3.573343,27.942230,0.442288,0.896873,0.000000
36.332729,-5.314021,1.976516,0.000000,0.946930,-0.321440
29.298965,-0.519569,-5.645443,0.000000,0.065403,0.997859
16.752135,-6.493842,-5.677153,0.000000,-0.751840,-0.659346
-9.949787,-5.676175,-0.050695,-0.000000,0.997859,0.065403
16.777054,-0.829030,5.613463,0.000000,0.195091,-0.980785
15.641232,3.145011,8.041358,0.000000,0.321439,0.946930
38.753506,4.899324,3.062827,1.000000,-0.000000,0.000000
-19.913169,2.772150,4.951925,-0.000000,-0.442289,-0.896873
-1.004425,-3.789609,29.746266,0.195090,0.980785,0.000000
6.446896,2.383601,11.068628,0.946930,0.321439,-0.000000
28.215432,5.631848,-0.726990,0.000000,-0.997859,0.065403
-6.215715,2.930752,33.742121,-0.896873,0.442289,0.000000
16.195957,3.714383,7.785615,-0.000000,0.442290,0.896872
19.507028,-8.624090,-0.304418,0.000000,-0.997859,-0.065403
-3.584030,1.410753,-8.513904,0.000000,0.195090,-0.980785
-19.819879,-2.871692,-4.897246,0.000000,0.555570,0.831470
-2.892298,-6.234678,8.013435,-0.442289,-0.896873,0.000000
-15.491895,6.652618,-5.496103,0.000000,0.751840,-0.659346
12.766090,2.961733,-8.103573,0.000000,0.321440,-0.946930
-15.874801,5.672886,-0.100873,-0.000000,-0.997859,0.065403
36.666242,-0.884294,-8.586083,0.000000,-0.065403,-0.997859
-24.555195,8.238047,2.565587,0.000000,0.946930,0.321440
0.296698,-6.866240,17.059762,0.065403,-0.997859,0.000000
-12.082394,-4.018406,-4.013281,0.000000,0.751840,0.659346
-6.185922,2.991167,33.879178,-0.896873,0.442289,0.000000
-1.452411,-6.716651,17.604176,-0.195091,-0.980785,0.000000
-10.876009,-8.423257,1.866464,0.000000,-0.980785,0.195090
-31.702780,-5.478616,-1.491637,-0.000000,0.946930,0.321440
3.175337,2.290529,29.673988,-0.831470,-0.555570,0.000000
-32.588026,3.281668,7.994970,0.000000,0.321440,0.946930
-17.657408,-5.617963,-0.806405,-0.000000,0.980785,0.195091
-10.767603,4.605647,3.308099,0.000000,-0.831470,-0.555570
1.224108,-3.716504,30.009331,-0.321440,0.946930,0.000000
-21.002148,-1.592089,-5.444517,0.000000,0.321440,0.946930
-24.674867,-8.283987,-2.430251,-0.000000,-0.946930,-0.321440
18.917694,-0.900768,-8.585004,0.000000,-0.065403,-0.997859
29.370432,0.501013,-8.611205,0.000000,0.065403,-0.997859
24.412352,-8.617477,0.405326,-0.000000,-0.997859,0.065403
-2.960480,6.821034,-5.304061,0.000000,0.751840,-0.659346
-10.384088,4.236816,-3.764232,0.000000,-0.751840,0.659346
11.742870,-5.580829,0.993092,0.000000,0.980785,-0.195091
-35.750782,5.346701,-1.880246,0.000000,-0.946930,0.321440
-3.465908,-7.817782,3.649154,0.000000,-0.896873,0.442289
-37.821169,-0.705157,-5.633279,-0.000000,0.065403,0.997859
-3.173825,2.292793,16.104702,0.831470,-0.555570,0.000000
-9.145722,3.840950,4.169536,-0.000000,-0.659347,-0.751839
38.753506,0.461880,-8.568210,1.000000,0.000000,-0.000000
-17.341352,-2.348647,8.311688,0.000000,-0.321440,0.946930
30.134932,-8.358451,-2.192265,0.000000,-0.980785,-0.195090
29.762239,5.656911,0.344607,0.000000,-0.997859,-0.065403
-32.327810,7.541011,-4.210390,0.000000,0.896873,-0.442289
3.803195,0.936124,6.494395,-0.980785,-0.195091,-0.000000
-6.429348,2.435297,20.379712,-0.946930,0.321439,0.000000
4.140238,-0.885326,36.601547,0.000000,0.000000,1.000000
18.847766,7.550315,-4.191523,0.000000,0.896873,-0.442289
10.778086,-4.624495,-7.283854,0.000000,-0.555570,-0.831470
-24.161788,0.458112,-8.614017,0.000000,0.065403,-0.997859
-17.287072,3.201850,-8.022065,0.000000,0.321440,-0.946930
31.024203,0.301845,8.624259,-0.000000,0.065403,0.997859
1.859139,6.624927,10.080756,0.321439,0.946930,-0.000000
-0.189168,6.873288,18.609732,-0.065403,0.997859,0.000000
-38.753506,8.056765,-1.213491,-1.000000,0.000000,-0.000000
7.715417,-2.173030,8.362277,0.000000,-0.195091,0.980785
16.065799,-0.483758,-5.647791,0.000000,0.065403,0.997859
-5.851241,3.610371,9.156270,-0.831470,0.555570,0.000000
31.085065,-5.580991,-0.992279,0.000000,0.980785,0.195091
16.784413,-0.901265,5.599094,0.000000,0.195091,-0.980785
18.649664,3.051233,-8.073192,0.000000,0.321440,-0.946930
-33.557872,-2.939119,-8.111249,0.000000,-0.321440,-0.946930
22.768439,2.511982,8.256243,-0.000000,0.321440,0.946930
-23.989313,8.132886,2.875380,0.000000,0.946930,0.321440
7.719394,3.404602,7.938382,-0.000000,0.442290,0.896872
-2.603222,-0.946356,-8.582016,0.000000,-0.065403,-0.997859
-38.697239,7.075202,4.936766,0.000000,0.831470,0.555570
-24.239587,8.628507,-0.237028,0.000000,0.997859,-0.065403
25.775659,-5.314249,1.975845,0.000000,0.946930,-0.321440
-18.493439,8.126883,2.893065,0.000000,0.946930,0.321440
28.373556,4.696012,-3.172859,0.000000,-0.831470,0.555570
-34.973444,-8.452254,-1.720686,-0.000000,-0.980785,-0.195090
-3.405032,4.661884,3.223935,0.000000,-0.831470,-0.555570
38.753506,4.358059,-7.385749,1.000000,-0.000000,0.000000
-20.816702,-6.759970,-5.373692,0.000000,-0.751840,-0.659346
-25.149930,-2.759685,8.172159,0.000000,-0.321440,0.946930
-32.979686,8.273738,2.460444,0.000000,0.946930,0.321440
0.666704,5.294976,-6.829002,0.000000,0.659346,-0.751840
-23.204589,3.723608,-4.272442,0.000000,-0.659346,0.751840
4.642182,5.669699,0.149501,0.000000,-0.997859,-0.065403
-1.522646,6.702681,12.576958,-0.195091,0.980785,0.000000
34.419188,3.462716,-4.501238,0.000000,-0.659346,0.751840
-36.849825,-4.536525,-7.342634,0.000000,-0.555570,-0.831470
-23.511751,4.757202,-7.195182,0.000000,0.555570,-0.831470
15.902987,-5.668642,-0.165631,-0.000000,0.997859,0.065403
-37.277518,-1.180726,8.559659,0.000000,-0.195090,0.980785
-0.009674,6.885053,25.717489,-0.065403,0.997859,0.000000
6.862803,-0.349142,17.564699,0.997859,-0.065403,0.000000
3.972415,-5.658541,0.319740,0.000000,0.997859,-0.065403
-27.017192,-3.004216,-8.089152,0.000000,-0.321440,-0.946930
33.938565,4.928130,-7.080972,0.000000,0.555570,-0.831470
-23.773590,3.892370,7.697842,-0.000000,0.442289,0.896873
-10.508670,5.591893,-0.937471,0.000000,-0.980785,0.195091
3.057248,2.448162,19.207834,-0.751840,-0.659346,0.000000
36.061461,5.982459,-6.226095,0.000000,0.659346,-0.751840
-16.744380,-0.530200,-8.609292,0.000000,-0.065403,-0.997859
-9.260861,5.651516,0.426914,0.000000,-0.997859,-0.065403
4.810405,4.920228,21.821057,0.659346,0.751840,0.000000
-32.049973,-8.031379,-3.174411,-0.000000,-0.946930,-0.321440
-6.860766,-5.337784,1.906514,0.000000,0.946930,-0.321440
36.605716,-1.397820,-5.500323,0.000000,0.195091,0.980785
1.547029,-5.480106,1.487246,0.000000,0.946930,-0.321440
3.820757,2.597270,-8.227292,0.000000,0.321440,-0.946930
2.438459,-6.428275,13.812392,0.321439,-0.946930,0.000000
13.690974,6.342366,5.849878,0.000000,0.751840,0.659346
-27.167967,-6.139146,-6.081605,0.000000,-0.751840,-0.659346
26.504304,-6.328196,5.866036,0.000000,-0.751840,0.659346
3.907246,0.212003,27.048699,-0.997859,-0.065403,-0.000000
-32.088260,-8.328854,-2.298078,-0.000000,-0.946930,-0.321440
-2.170179,-8.625350,-0.285194,0.000000,-0.997859,-0.065403
8.986059,5.553675,-1.129602,0.000000,-0.980785,0.195091
-11.380330,-0.301494,-8.624282,0.000000,-0.065403,-0.997859
-7.725968,1.152152,8.565343,-0.000000,0.195090,0.980785
-32.843966,8.500758,1.476839,0.000000,0.980785,0.195090
0.005100,-3.920807,27.442587,-0.065403,0.997859,0.000000
11.056714,-5.175140,-2.319516,-0.000000,0.896873,0.442289
-38.753506,7.058489,4.552943,-1.000000,0.000000,0.000000
-26.907517,6.130607,6.091342,-0.000000,0.751840,0.659346
-27.373150,-2.209097,-5.229592,0.000000,0.442289,0.896873
-33.246243,-2.091795,5.274890,0.000000,0.321440,-0.946930
23.951237,3.196965,4.679905,-0.000000,-0.555570,-0.831470
-13.803582,-0.123630,-5.671395,0.000000,0.065403,0.997859
-19.056124,-1.883072,-8.419953,0.000000,-0.195090,-0.980785
27.322379,-5.631955,0.725368,0.000000,0.997859,-0.065403
6.636786,-1.824204,32.193366,0.946930,-0.321439,0.000000
-30.135703,5.460465,-1.545108,0.000000,-0.946930,0.321440
-3.130030,-6.117442,20.647884,-0.442289,-0.896873,-0.000000
-17.884596,0.628054,-8.602878,0.000000,0.065403,-0.997859
23.097408,8.551709,-1.220695,0.000000,0.980785,-0.195090
12.962269,2.801926,-8.157820,0.000000,0.321440,-0.946930
-17.754539,3.610419,-7.836884,0.000000,0.442289,-0.896873
-4.258515,1.336608,-5.512499,0.000000,-0.195091,0.980785
2.581819,8.570775,1.117862,-0.000000,0.997859,0.065403
-6.632684,-1.836288,18.715074,-0.946930,-0.321439,-0.000000
4.328377,-1.033425,5.572806,0.000000,0.195090,-0.980785
-3.794803,5.728008,32.939999,-0.555570,0.831470,0.000000
-27.647805,-0.438762,-5.650740,-0.000000,0.065403,0.997859
6.879326,0.097054,29.594675,0.997859,0.065403,0.000000
25.978443,-8.555956,1.199342,0.000000,-0.980785,0.195090
-7.419154,-0.026624,-8.642298,0.000000,-0.065403,-0.997859
33.186072,-6.947481,5.127914,0.000000,-0.831470,0.555570
-0.984056,0.091501,-8.638046,0.000000,0.065403,-0.997859
6.169194,-5.534624,-1.225380,0.000000,0.980785,0.195091
-1.377141,8.159387,2.797312,-0.000000,0.946930,0.321440
14.321934,3.917574,4.102338,0.000000,-0.659347,-0.751839
-32.145585,7.979037,-3.322163,0.000000,0.896873,-0.442289
-12.553875,1.919743,5.333293,0.000000,-0.321440,-0.946930
-6.870822,-0.226793,26.313025,-0.997859,-0.065403,-0.000000
-12.433834,7.985234,-3.309595,0.000000,0.896873,-0.442289
-19.855905,5.190459,2.288451,0.000000,-0.896873,-0.442289
3.435724,-5.966691,22.329582,0.442289,-0.896873,0.000000
-11.214198,3.598327,-4.382310,0.000000,-0.659346,0.751840
-34.038924,-2.419702,5.125733,0.000000,0.442289,-0.896873
-2.454058,-6.422980,11.156776,-0.321439,-0.946930,0.000000
-35.158091,4.509518,7.360679,-0.000000,0.555570,0.831470
-18.092573,-4.367476,3.615243,0.000000,0.751840,-0.659346
-6.401617,2.516989,10.236296,-0.946930,0.321439,0.000000
-0.059884,-8.617890,0.399021,-0.000000,-0.997859,0.065403
-1.928358,3.411694,30.716868,0.442288,-0.896873,0.000000
-3.017597,6.172888,14.990323,-0.442289,0.896873,-0.000000
36.174940,5.370848,-1.809111,0.000000,-0.946930,0.321440
15.564360,-2.860098,-4.904992,0.000000,0.555570,0.831470
-28.826644,2.959525,4.838557,-0.000000,-0.555570,-0.831470
2.033075,-3.347362,17.869468,-0.555570,0.831470,0.000000
9.457933,4.320866,7.486530,0.000000,0.442289,0.896872
22.151853,6.253927,5.950722,-0.000000,0.751840,0.659346
-6.030764,-3.305796,22.720490,-0.896873,-0.442289,0.000000
28.988673,-1.663598,-5.420243,0.000000,0.321440,0.946930
-0.148927,6.875926,5.405423,-0.065403,0.997859,0.000000
-25.686228,-4.649583,3.242345,0.000000,0.831470,-0.555570
5.490212,-4.045544,3.982336,0.000000,0.751840,-0.659346
35.981738,-4.918237,2.840276,0.000000,0.831470,-0.555570
3.819948,-0.851901,30.466778,-0.980785,0.195090,0.000000
19.969285,2.332880,8.317040,-0.000000,0.321440,0.946930
23.645845,1.982502,-5.311990,0.000000,-0.321440,0.946930
-27.192932,4.016353,4.015622,0.000000,-0.751840,-0.659346
-9.691380,8.641690,-0.035902,0.000000,0.997859,-0.065403
5.985209,5.223305,2.221846,0.000000,-0.896873,-0.442289
1.901602,-5.114953,2.441562,0.000000,0.896873,-0.442289
3.464015,5.949033,29.206230,0.555570,0.831470,-0.000000
38.753506,7.417146,-2.023765,1.000000,-0.000000,-0.000000
-19.536701,0.029890,8.642084,-0.000000,0.065403,0.997859
1.328364,-3.681114,16.484436,-0.321440,0.946930,0.000000
-35.587189,5.140025,6.939388,-0.000000,0.555570,0.831470
27.844474,0.338929,-5.657283,0.000000,-0.065403,0.997859
1.044889,-3.777340,6.168758,-0.321440,0.946930,0.000000
1.359558,6.735121,17.885038,0.195091,0.980785,-0.000000
35.284137,5.492210,-6.656031,0.000000,0.659346,-0.751840
-6.847745,-0.578885,32.083504,-0.997859,-0.065403,-0.000000
29.173251,5.636731,6.529290,-0.000000,0.659346,0.751840
-21.032752,8.582382,-0.940763,0.000000,0.997859,-0.065403
-34.870131,-7.280189,-4.629980,0.000000,-0.831470,-0.555570
-4.315796,5.655496,0.366193,0.000000,-0.997859,-0.065403
-0.317429,-3.900336,12.336931,0.065403,0.997859,0.000000
-19.306161,-7.702966,3.881978,0.000000,-0.896873,0.442289
6.837067,-4.816330,2.992791,0.000000,0.831470,-0.555570
0.446433,3.891881,26.149025,-0.065403,-0.997859,0.000000
37.768660,8.383369,-2.066992,0.000000,0.980785,-0.195090
7.470958,8.573543,-1.075632,0.000000,0.997859,-0.065403
-5.632142,3.938276,28.246405,-0.831470,0.555570,0.000000
-24.180390,-2.126829,-8.371467,0.000000,-0.195090,-0.980785
1.496600,6.707861,36.316581,0.195091,0.980785,0.000000
-16.768295,-7.311144,-4.583653,0.000000,-0.831470,-0.555570
24.979885,-4.758952,-3.078662,0.000000,0.831470,0.555570
33.630186,-7.180776,-4.778763,0.000000,-0.831470,-0.555570
2.518273,-2.995762,23.168271,-0.659346,0.751839,-0.000000
17.835999,1.102345,-8.571792,0.000000,0.065403,-0.997859
-5.440898,-4.216695,16.642328,-0.751839,-0.659346,0.000000
-1.197148,-6.215977,36.601547,-0.000000,-0.000000,1.000000
-28.936601,-3.860867,-7.713377,0.000000,-0.442289,-0.896873
16.656014,-0.954492,5.588507,0.000000,0.195091,-0.980785
2.793487,2.748924,29.555144,-0.751840,-0.659346,0.000000
22.786982,0.916120,5.596140,-0.000000,-0.195091,-0.980785
34.787795,-5.653922,-0.390210,0.000000,0.997859,0.065403
-38.753506,-5.863177,-1.277483,-1.000000,0.000000,0.000000
27.891026,2.561630,5.055742,-0.000000,-0.442289,-0.896873
6.503919,-2.215619,31.292483,0.946930,-0.321439,0.000000
11.467430,-8.620016,0.366579,-0.000000,-0.997859,0.065403
6.749189,1.288832,23.467349,0.980785,0.195091,-0.000000
27.972920,8.597480,-0.710423,0.000000,0.997859,-0.065403
5.114747,-0.930793,36.601547,0.000000,0.000000,1.000000
11.446402,7.097039,-4.904084,0.000000,0.831470,-0.555570
-20.625616,0.250501,5.663079,-0.000000,-0.065403,-0.997859
-0.085320,3.915549,16.471001,0.065403,-0.997859,0.000000
-38.200916,-8.581642,-0.952056,0.000000,-0.997859,-0.065403
-3.191272,-4.390265,3.589257,0.000000,0.751840,-0.659346
-1.449992,-3.639827,19.034157,0.321440,0.946930,-0.000000
-6.699150,1.540394,33.268112,-0.980785,0.195091,-0.000000
6.044078,-3.278799,15.546209,0.896873,-0.442289,0.000000
-26.877201,-5.224097,6.883213,0.000000,-0.555570,0.831470
-3.516147,-1.716548,8.677609,0.896873,0.442288,-0.000000
-2.341205,-4.597546,-3.320224,0.000000,0.831470,0.555570
2.410335,3.090421,19.740409,-0.659346,-0.751840,-0.000000
-6.676154,1.656003,16.330842,-0.980785,0.195091,0.000000
14.672501,5.279958,-2.076862,0.000000,-0.946930,0.321440
0.873965,-6.828404,19.661406,0.065403,-0.997859,0.000000
-16.664801,6.877453,-5.232717,0.000000,0.831470,-0.555570
27.301425,3.096660,4.746927,-0.000000,-0.555570,-0.831470
-3.333004,-8.512547,-1.417574,-0.000000,-0.980785,-0.195090
-1.942279,6.596705,35.249835,-0.321439,0.946930,0.000000
11.147402,0.925725,-5.594229,0.000000,-0.195091,0.980785
1.633053,3.557322,36.397946,-0.442288,-0.896873,0.000000
-12.364774,-8.595107,0.746615,0.000000,-0.997859,0.065403
2.981654,2.534361,16.351889,-0.751840,-0.659346,0.000000
14.315120,2.071941,5.281629,0.000000,-0.321440,-0.946930
-38.753506,-8.140646,-0.738142,-1.000000,0.000000,0.000000
28.277865,-8.448522,-1.739450,0.000000,-0.980785,-0.195090
5.559111,-4.047575,30.485296,0.831470,-0.555570,0.000000
26.784646,-2.711862,8.188393,0.000000,-0.321440,0.946930
-6.298720,8.593386,0.772872,-0.000000,0.997859,0.065403
20.158227,8.571371,1.108761,-0.000000,0.997859,0.065403
28.363251,-0.293091,5.660288,0.000000,0.065403,-0.997859
26.099521,4.946355,7.068794,0.000000,0.555570,0.831470
-22.717234,8.364850,2.160093,-0.000000,0.980785,0.195090
-4.980493,4.741686,18.353988,-0.751840,0.659346,0.000000
-1.608537,3.569412,27.405480,0.442288,-0.896873,0.000000
-30.405688,-8.314839,-2.339365,-0.000000,-0.946930,-0.321440
-35.271200,-1.016173,8.577440,-0.000000,-0.065403,0.997859
23.130791,5.358099,-1.846668,0.000000,-0.946930,0.321440
16.718837,-3.378792,4.558412,0.000000,0.555570,-0.831470
-22.740536,-0.077296,8.638977,0.000000,-0.065403,0.997859
-35.959714,-5.614593,-6.548704,0.000000,-0.659346,-0.751840
-21.200496,8.622415,-0.329982,0.000000,0.997859,-0.065403
-26.750841,2.812796,8.154130,0.000000,0.321440,0.946930
-1.854471,6.626512,18.098573,-0.321439,0.946930,0.000000
15.978142,1.266264,5.526491,0.000000,-0.195090,-0.980785
-1.235547,-6.759788,18.605453,-0.195091,-0.980785,0.000000
-15.575851,-5.100555,6.965761,0.000000,-0.555570,0.831470
38.753506,-0.953883,-6.967679,1.000000,0.000000,-0.000000
12.693456,3.193640,-8.024851,0.000000,0.321440,-0.946930
38.753506,4.776020,3.150409,1.000000,-0.000000,0.000000
-0.557295,6.849160,8.484518,-0.065403,0.997859,0.000000
22.777382,-7.569493,4.152634,0.000000,-0.896873,0.442289
0.324747,3.899857,13.338373,-0.065403,-0.997859,0.000000
-5.227180,8.643437,-0.009245,0.000000,0.997859,-0.065403
38.753506,0.906417,-5.752029,1.000000,-0.000000,-0.000000
19.627459,-1.441867,5.491562,0.000000,0.195090,-0.980785
-5.410171,3.128560,-4.725611,0.000000,-0.555570,0.831470
-6.614443,-1.890024,16.817459,-0.946930,-0.321439,-0.000000
35.887676,6.554725,5.607729,-0.000000,0.751840,0.659346
9.393504,-7.341866,4.537675,0.000000,-0.831470,0.555570
-7.530091,-4.480011,-7.380395,0.000000,-0.555570,-0.831470
-36.131392,-7.470265,4.345512,0.000000,-0.831470,0.555570
-10.756710,8.612959,0.474249,-0.000000,0.997859,0.065403
-2.403310,3.096582,29.596370,0.659346,-0.751840,0.000000
-32.220098,-5.510937,-1.344462,-0.000000,0.980785,0.195091
9.665413,-6.471321,-5.702832,0.000000,-0.751840,-0.659346
-6.804694,1.009791,9.297725,-0.980785,0.195091,0.000000
-4.687713,-5.860638,-6.332929,0.000000,-0.659346,-0.751840
37.808072,2.388370,8.298204,-0.000000,0.321440,0.946930
1.153546,-3.740456,30.033911,-0.321440,0.946930,0.000000
17.618455,-5.196195,-6.901857,0.000000,-0.555570,-0.831470
-16.580143,4.216145,-3.787802,0.000000,-0.751840,0.659346
19.311551,8.476993,1.596314,-0.000000,0.980785,0.195090
-10.303903,3.128183,8.047071,0.000000,0.321439,0.946930
38.381417,4.185689,-7.553192,0.000000,0.442289,-0.896873
-2.576859,2.944384,14.360013,0.659346,-0.751840,0.000000
-28.572957,-3.793056,7.746817,0.000000,-0.442289,0.896873
-10.471194,5.894605,-6.303141,0.000000,0.659346,-0.751840
-7.293905,-5.343906,6.786091,0.000000,-0.659346,0.751839
5.110015,-4.593995,23.496336,0.751839,-0.659346,-0.000000
-6.143952,-3.076273,27.250186,-0.896873,-0.442289,0.000000
-1.487629,4.119869,-3.897585,0.000000,-0.751840,0.659346
-4.959749,-4.765340,16.443780,-0.751840,-0.659346,0.000000
32.059212,-0.457128,8.614081,0.000000,-0.065403,0.997859
6.873124,-0.191679,14.265166,0.997859,-0.065403,0.000000
-0.935437,-3.985331,-4.042917,-0.000000,0.659346,0.751840
35.592813,4.762842,-3.072841,0.000000,-0.831470,0.555570
25.207490,-4.396587,-3.582048,0.000000,0.751840,0.659346
11.962716,3.891241,4.125431,0.000000,-0.659347,-0.751839
6.743077,-7.317140,4.574680,0.000000,-0.831470,0.555570
-6.823091,-0.917304,21.053310,-0.980785,-0.195091,-0.000000
-1.182150,-3.730747,29.721168,0.321440,0.946930,0.000000
9.383022,8.630149,-0.211981,0.000000,0.997859,-0.065403
-14.510423,-8.400514,-1.980802,0.000000,-0.980785,-0.195090
-37.723566,-0.927712,-8.583238,0.000000,-0.065403,-0.997859
-4.601301,-5.103608,36.219595,-0.659346,-0.751840,-0.000000
-0.355302,-3.897854,7.069406,0.065403,0.997859,0.000000
-32.032384,4.507050,-3.455660,0.000000,-0.831470,0.555570
1.837790,6.632174,36.009752,0.321439,0.946930,0.000000
27.909090,2.169875,-5.248385,0.000000,-0.321440,0.946930
8.185381,-0.557310,8.607515,0.000000,-0.065403,0.997859
-20.080992,7.564190,-4.163387,0.000000,0.896873,-0.442289
6.873992,0.178435,21.436934,0.997859,0.065403,0.000000
-0.089881,-4.601009,-3.315041,0.000000,0.831470,0.555570
-32.394697,-2.777925,8.165968,0.000000,-0.321440,0.946930
30.104476,1.396018,-5.500682,0.000000,-0.195091,0.980785
-10.388659,-1.832256,-5.362991,-0.000000,0.321440,0.946930
3.663782,-1.379422,21.423919,-0.946930,0.321439,-0.000000
-15.445085,4.362127,3.621342,0.000000,-0.751840,-0.659346
33.909636,5.962571,6.243536,-0.000000,0.659346,0.751840
-5.977366,0.101125,36.601547,-0.000000,0.000000,1.000000
-9.484706,2.351756,-8.310632,0.000000,0.321440,-0.946930
-3.272022,2.145830,8.248477,0.831469,-0.555570,0.000000
-5.167664,-6.839102,-5.283459,0.000000,-0.751840,-0.659346
29.636623,3.400916,-4.543629,0.000000,-0.555570,0.831470
-12.282716,2.174815,-5.246498,0.000000,-0.442289,0.896873
8.738042,7.531799,4.229070,-0.000000,0.896873,0.442289
-10.775058,8.516230,1.399058,0.000000,0.980785,0.195090
-11.807118,-5.635273,-0.674748,0.000000,0.997859,0.065403
-6.588926,-1.046416,5.570222,-0.000000,0.195091,-0.980785
-38.753506,4.742122,5.438489,-1.000000,0.000000,0.000000
-8.894609,2.449025,-8.277614,0.000000,0.321440,-0.946930
12.143567,3.805080,7.740888,0.000000,0.442289,0.896873
29.269783,3.800492,4.205017,-0.000000,-0.659346,-0.751840
-23.191361,-2.471648,8.269935,0.000000,-0.321440,0.946930
-10.707740,1.954446,8.405757,0.000000,0.195091,0.980785
5.783548,-3.711681,20.454699,0.831470,-0.555570,0.000000
-5.225305,-4.462531,8.127414,-0.751840,-0.659346,0.000000
18.968491,-3.581066,-7.851360,0.000000,-0.442289,-0.896873
-22.613781,-1.615028,8.473271,0.000000,-0.195090,0.980785
-24.005253,4.840663,2.956374,0.000000,-0.831470,-0.555570
13.011272,0.354121,5.656287,0.000000,-0.065403,-0.997859
-16.844460,6.759317,5.374436,0.000000,0.751840,0.659345
-19.082876,1.355395,-5.508762,0.000000,-0.195091,0.980785
34.540865,-5.359898,1.841368,0.000000,0.946930,-0.321440
-7.962134,-5.636425,-0.657171,0.000000,0.997859,0.065403
25.381051,-4.390508,3.588979,0.000000,0.751840,-0.659346
26.315923,-3.660504,7.812185,0.000000,-0.442289,0.896873
-6.052683,-4.772346,-3.058617,-0.000000,0.831470,0.555570
7.213019,-4.652389,-3.238145,0.000000,0.831470,0.555570
-35.425666,-5.666734,0.194739,0.000000,0.997859,-0.065403
26.656245,-7.739595,3.807701,0.000000,-0.896873,0.442289
-18.436500,-7.025416,5.011276,0.000000,-0.831470,0.555570
-20.919748,3.426222,4.526720,-0.000000,-0.555570,-0.831470
-3.545893,5.894324,21.800740,-0.555570,0.831470,0.000000
-3.280111,-2.133724,16.006954,0.831470,0.555570,0.000000
26.829924,8.079950,3.031324,-0.000000,0.946930,0.321440
8.602462,-4.560260,-3.376026,0.000000,0.831470,0.555570
-6.208915,-3.687896,7.798677,-0.000000,-0.442289,0.896873
22.882764,1.351420,5.509553,0.000000,-0.195090,-0.980785
26.835192,5.577110,6.581576,-0.000000,0.659346,0.751840
3.678896,8.606218,-0.577098,0.000000,0.997859,-0.065403
0.736945,6.837385,12.923747,0.065403,0.997859,0.000000
-29.427129,5.052391,2.568426,0.000000,-0.896873,-0.442289
-14.185960,3.765420,7.760446,0.000000,0.442289,0.896873
28.645133,-2.073141,-8.382146,0.000000,-0.195090,-0.980785
19.317798,-6.133730,-6.087781,0.000000,-0.751840,-0.659346
-33.437112,-7.593227,4.104507,0.000000,-0.896873,0.442289
18.504104,-5.409316,1.695787,0.000000,0.946930,-0.321440
18.964615,0.372621,-8.619620,0.000000,0.065403,-0.997859
6.636458,-8.370105,-2.133678,0.000000,-0.980785,-0.195090
-5.633617,3.936068,24.674903,-0.831470,0.555570,0.000000
12.490196,2.900420,-4.878050,0.000000,-0.555570,0.831470
31.318661,-4.408749,3.568180,0.000000,0.751840,-0.659346
12.572681,3.191426,-8.025603,0.000000,0.321440,-0.946930
-2.828198,5.918771,-6.281947,0.000000,0.659346,-0.751840
8.403756,-4.207847,7.542265,0.000000,-0.442289,0.896872
38.753506,-4.890523,5.480018,1.000000,-0.000000,-0.000000
18.088744,-8.638265,-0.088160,0.000000,-0.997859,-0.065403
-5.166833,4.529206,27.761622,-0.751840,0.659346,0.000000
34.148737,-0.506214,5.646319,0.000000,0.065403,-0.997859
35.171533,-1.877815,8.420999,0.000000,-0.195090,0.980785
12.112780,-3.039309,4.785247,0.000000,0.555570,-0.831470
-0.275156,3.903107,25.643164,0.065403,-0.997859,0.000000
-27.590726,-3.183325,-8.028353,0.000000,-0.321440,-0.946930
-4.454162,-2.210016,36.601547,0.000000,-0.000000,1.000000
34.729112,-1.645057,5.426537,-0.000000,0.321440,-0.946930
19.004347,-2.178645,-8.361160,0.000000,-0.195090,-0.980785
-3.917055,0.062356,22.582962,0.997859,-0.065403,0.000000
2.075994,5.453751,1.564885,0.000000,-0.946930,-0.321440
-22.366482,0.844835,5.610319,0.000000,-0.195091,-0.980785
34.262177,-8.482529,1.568485,0.000000,-0.980785,0.195090
-9.674961,-0.391737,8.618367,-0.000000,-0.065403,0.997859
28.035412,-5.672534,0.106245,0.000000,0.997859,-0.065403
2.225074,-8.027341,3.186304,0.000000,-0.946930,0.321440
4.536000,-2.648133,5.013083,0.000000,0.442289,-0.896873
-35.101322,-1.891942,8.418189,0.000000,-0.195090,0.980785
-32.188210,8.382072,2.073517,0.000000,0.980785,0.195090
-30.055576,4.549266,-7.334121,0.000000,0.555570,-0.831470
-9.868653,-5.101836,2.468160,0.000000,0.896873,-0.442289
-7.184544,3.941992,-4.080924,0.000000,-0.659346,0.751840
-11.597906,-2.121520,5.264799,0.000000,0.321440,-0.946930
14.283956,6.078215,-6.142119,0.000000,0.659346,-0.751840
-3.653410,1.409975,19.913801,0.946930,-0.321439,-0.000000
-10.864964,-0.152314,8.634060,-0.000000,-0.065403,0.997859
-20.646639,1.961034,-5.319277,0.000000,-0.321440,0.946930
4.100316,-0.814342,-5.616385,0.000000,0.195091,0.980785
-12.282743,-0.456037,-5.649608,-0.000000,0.065403,0.997859
28.140759,3.242566,8.008243,0.000000,0.321439,0.946930
-22.152128,5.671266,0.125586,0.000000,-0.997859,-0.065403
-24.657750,0.778726,5.623469,0.000000,-0.195091,-0.980785
26.638299,-5.485347,-6.662050,0.000000,-0.659346,-0.751840
0.741620,3.841884,11.963735,-0.195090,-0.980785,0.000000
13.737812,3.039682,4.784998,0.000000,-0.555571,-0.831469
7.196626,-4.585347,3.338481,0.000000,0.831470,-0.555570
-36.393799,5.661664,0.272098,0.000000,-0.997859,-0.065403
38.689075,7.709144,-3.869451,0.000000,0.896873,-0.442289
-13.925022,-5.342576,-6.787258,0.000000,-0.659346,-0.751840
-17.603517,-1.092449,8.572440,0.000000,-0.065404,0.997859
1.401045,-6.726869,11.479696,0.195091,-0.980785,0.000000
-11.458885,-5.423242,1.654763,0.000000,0.946930,-0.321440
27.559209,-1.994696,8.397750,0.000000,-0.195090,0.980785
0.549521,3.880095,16.528188,-0.195090,-0.980785,0.000000
-2.915044,6.929792,-5.154386,0.000000,0.831470,-0.555570
15.825574,-3.207680,4.672745,0.000000,0.555570,-0.831470
-21.229635,-1.570275,-8.482173,0.000000,-0.195090,-0.980785
25.393569,4.785985,3.038205,0.000000,-0.831470,-0.555570
-7.277040,-4.669843,3.212024,0.000000,0.831470,-0.555570
-24.076863,-0.291622,5.660384,0.000000,0.065403,-0.997859
34.669741,-2.302741,8.327271,-0.000000,-0.321439,0.946930
-1.752486,-6.656962,6.586749,-0.195091,-0.980785,0.000000
-15.790647,5.161976,2.346209,0.000000,-0.896873,-0.442289
3.104640,6.129963,22.025096,0.442289,0.896873,-0.000000
36.042631,-3.710683,4.283777,-0.000000,0.659346,-0.751840
-38.753506,5.823977,-3.009748,-1.000000,0.000000,0.000000
32.695386,3.289289,4.618216,-0.000000,-0.555570,-0.831470
-6.104090,3.157106,24.389690,-0.896873,0.442289,0.000000
-0.099053,6.879195,31.243429,-0.065403,0.997859,0.000000
-36.538082,8.534561,1.306900,0.000000,0.980785,0.195090
33.442036,3.145991,-8.041026,0.000000,0.321440,-0.946930
-26.397241,4.018828,-4.012799,0.000000,-0.751840,0.659346
-17.422887,-5.092530,-2.487032,-0.000000,0.896873,0.442289
29.037323,-7.947939,-3.385223,0.000000,-0.896873,-0.442289
-17.576917,3.993163,7.648136,-0.000000,0.442289,0.896873
-13.510164,3.342796,-7.968861,0.000000,0.442289,-0.896873
6.645309,1.799096,22.634161,0.946930,0.321439,0.000000
35.607580,-7.704910,3.878036,0.000000,-0.896873,0.442289
-32.296348,8.032787,-3.170262,0.000000,0.946930,-0.321440
-30.671940,-0.124115,-8.635908,0.000000,-0.065403,-0.997859
-0.338784,5.802278,-6.384109,0.000000,0.659346,-0.751840
17.839254,-1.398899,8.516262,0.000000,-0.195090,0.980785
1.175882,-7.015403,-5.026261,0.000000,-0.831470,-0.555570
-15.900936,8.018604,-3.212043,0.000000,0.946930,-0.321440
3.413236,-1.925230,20.772027,-0.896873,0.442288,0.000000
-0.967463,-3.796961,20.494015,0.195090,0.980785,0.000000
-28.817595,7.160174,-4.809595,0.000000,0.831470,-0.555570
23.186462,-3.606231,4.375379,-0.000000,0.659346,-0.751840
-38.753506,0.948418,-8.211035,-1.000000,0.000000,0.000000
38.753506,-4.510137,-4.909965,1.000000,-0.000000,0.000000
26.088047,0.490758,8.611877,-0.000000,0.065403,0.997859
-12.420994,4.216701,-7.537899,0.000000,0.442289,-0.896873
-38.220675,-2.722111,-4.976602,-0.000000,0.442289,0.896873
-35.793756,8.617358,0.407133,-0.000000,0.997859,0.065403
-30.609576,5.442876,-1.596924,0.000000,-0.946930,0.321440
9.263627,6.201947,-6.009995,0.000000,0.751840,-0.659346
0.218081,-6.871393,30.111380,0.065403,-0.997859,0.000000
-3.676708,-1.341343,28.894671,0.946930,0.321440,-0.000000
-6.861879,0.363242,12.516239,-0.997859,0.065403,0.000000
1.899381,6.611267,8.345252,0.321439,0.946930,-0.000000
-3.763297,6.046288,-6.170119,0.000000,0.659346,-0.751840
32.567326,1.219688,-8.551909,0.000000,0.195090,-0.980785
3.597900,5.859574,29.756785,0.555570,0.831470,-0.000000
10.920674,-5.485667,-1.470865,-0.000000,0.946930,0.321440
-13.128057,7.366816,-4.500333,0.000000,0.831470,-0.555570
-23.068929,5.887041,-6.309774,0.000000,0.659346,-0.751840
-6.726653,1.402127,11.969162,-0.980785,0.195091,0.000000
22.725815,-3.700997,4.292272,-0.000000,0.659346,-0.751840
32.574202,6.182398,-6.032286,0.000000,0.751840,-0.659346
-38.225375,4.517928,-7.355060,0.000000,0.555570,-0.831470
12.298526,-0.945316,5.590332,0.000000,0.195091,-0.980785
-25.745268,-4.564445,7.323978,0.000000,-0.555570,0.831470
21.580713,-2.256530,-8.342957,0.000000,-0.321440,-0.946930
3.673877,5.650523,-0.442076,0.000000,-0.997859,0.065403
20.368021,8.592426,-0.787526,0.000000,0.997859,-0.065403
5.272572,-4.408634,35.634239,0.751840,-0.659346,0.000000
14.202159,-0.273419,5.661577,0.000000,0.065403,-0.997859
-38.438457,-3.418725,-4.531729,-0.000000,0.555570,0.831470
-24.753918,3.986444,-4.041941,0.000000,-0.659346,0.751840
32.695567,1.305592,8.534821,-0.000000,0.195090,0.980785
1.937668,-6.295563,36.601547,0.000000,-0.000000,1.000000
-0.102786,8.248221,2.535614,0.000000,0.946930,0.321440
-12.223221,-5.678852,0.009858,0.000000,0.997859,-0.065403
6.166167,-3.031225,19.672718,0.896873,-0.442289,0.000000
8.303958,-8.287649,-2.419462,-0.000000,-0.946930,-0.321440
29.825553,6.005055,6.206278,-0.000000,0.659346,0.751840
-35.617883,-5.423485,-6.716302,0.000000,-0.659346,-0.751840
32.178024,-3.879646,-4.135601,0.000000,0.659346,0.751840
2.354519,3.132580,6.376260,-0.555570,-0.831470,0.000000
16.881952,5.006724,7.028457,0.000000,0.555570,0.831470
37.532153,-4.168679,3.841927,0.000000,0.751840,-0.659346
4.115645,-7.347543,-4.529178,0.000000,-0.831470,-0.555570
5.849145,5.301762,2.012632,0.000000,-0.946930,-0.321440
35.720932,2.519246,-8.253777,0.000000,0.321440,-0.946930
32.847648,-8.610050,-0.518641,0.000000,-0.997859,-0.065403
-37.985521,1.113531,-5.556872,0.000000,-0.195091,0.980785
25.357679,-0.297081,-8.624571,0.000000,-0.065403,-0.997859
25.187347,-7.655671,-3.977884,0.000000,-0.896873,-0.442289
-38.434214,3.189951,-4.684591,0.000000,-0.555570,0.831470
23.528751,5.812770,6.374908,-0.000000,0.659346,0.751839
0.650061,4.666585,3.216900,0.000000,-0.831470,-0.555570
19.015443,8.026143,3.189835,-0.000000,0.946930,0.321440
-13.111808,7.233659,4.699618,0.000000,0.831470,0.555570
18.607176,5.314493,1.975126,0.000000,-0.946930,-0.321440
6.659935,1.737540,23.325618,0.980785,0.195091,-0.000000
-3.122136,-6.169838,6.046608,-0.000000,-0.751840,0.659346
29.546224,1.133457,-5.552908,0.000000,-0.195091,0.980785
-9.123736,8.169482,-2.767573,0.000000,0.946930,-0.321440
-4.252054,-5.409889,12.738126,-0.659346,-0.751839,0.000000
-8.974121,-6.199499,6.012785,0.000000,-0.751840,0.659346
-0.318155,3.900289,13.814308,0.065403,-0.997859,0.000000
-0.402291,-6.859319,24.252798,-0.065403,-0.997859,0.000000
36.139227,0.009853,5.678852,-0.000000,-0.065403,-0.997859
-10.374603,-5.690079,-6.482505,0.000000,-0.659346,-0.751840
-18.119711,4.360379,3.623336,0.000000,-0.751840,-0.659346
-35.528299,-2.362344,8.307038,0.000000,-0.321440,0.946930
-38.753506,7.242397,-1.545031,-1.000000,0.000000,-0.000000
-14.283202,5.666339,0.200764,0.000000,-0.997859,-0.065403
6.287747,-2.784686,31.603107,0.896873,-0.442289,0.000000
-3.277828,-3.617084,-4.365861,0.000000,0.659346,0.751840
35.018728,8.073248,3.051068,-0.000000,0.946930,0.321440
-3.950597,-5.623909,21.451198,-0.555570,-0.831470,0.000000
33.838732,-4.347918,3.637544,0.000000,0.751840,-0.659346
9.078218,-1.729141,5.397994,-0.000000,0.321440,-0.946930
20.989635,-0.110403,8.636807,0.000000,-0.065403,0.997859
17.830987,-4.940853,-2.794602,0.000000,0.896873,0.442289
2.818320,-2.720607,23.738120,-0.751840,0.659346,0.000000
-2.769121,-2.775774,24.454750,0.659346,0.751839,-0.000000
23.838828,-3.750475,-4.248880,0.000000,0.659346,0.751840
-4.223841,7.053552,-4.969167,0.000000,0.831470,-0.555570
-27.887501,-1.770022,-8.442441,0.000000,-0.195090,-0.980785
3.606301,1.533732,22.493885,-0.896873,-0.442288,0.000000
6.426016,-3.519240,-4.451668,0.000000,0.659346,0.751840
-16.489538,-5.541515,1.190736,0.000000,0.980785,-0.195091
5.141401,-4.558205,25.504446,0.751840,-0.659346,0.000000
35.363967,7.525827,-4.241181,0.000000,0.896873,-0.442289
-32.507711,6.774645,5.356957,-0.000000,0.751840,0.659346
-0.102491,3.914424,18.402310,0.065403,-0.997859,0.000000
-27.707822,-0.376503,5.654820,0.000000,0.065403,-0.997859
3.265132,2.156141,27.360581,-0.831470,-0.555570,0.000000
21.479976,-1.033101,-5.572871,0.000000,0.195091,0.980785
35.294291,-4.995213,-2.684372,0.000000,0.896873,0.442289
-19.024343,5.672373,-0.108698,-0.000000,-0.997859,0.065403
4.077511,5.539108,26.420834,0.555570,0.831470,0.000000
-22.412373,8.537587,1.291689,0.000000,0.980785,0.195090
-20.315844,2.930541,8.114161,0.000000,0.321440,0.946930
9.617072,-7.784794,-3.716047,0.000000,-0.896873,-0.442289
6.063077,-0.314432,-5.658889,0.000000,0.065403,0.997859
24.304841,-7.699529,-3.888947,0.000000,-0.896873,-0.442289
22.660053,-4.252357,3.746511,0.000000,0.751840,-0.659346
26.553047,1.841342,-5.359907,0.000000,-0.321440,0.946930
-36.510640,-2.634986,-5.019567,-0.000000,0.442289,0.896873
-4.557087,6.022261,6.191189,0.000000,0.659346,0.751840
18.930423,1.357384,8.524519,-0.000000,0.195090,0.980785
17.598155,8.405990,1.953271,-0.000000,0.980785,0.195090
-2.490725,-3.019922,33.959027,0.659346,0.751840,0.000000
1.214309,-6.122272,-6.100846,0.000000,-0.751840,-0.659346
-6.410094,-2.492018,36.348981,-0.946930,-0.321439,-0.000000
-2.018071,-7.461097,4.359233,0.000000,-0.831470,0.555570
-30.693158,-1.921998,8.412211,0.000000,-0.195090,0.980785
-36.400003,-5.510625,-1.346029,-0.000000,0.980785,0.195091
-32.266918,-7.583055,-4.125134,0.000000,-0.896873,-0.442289
-1.122771,6.782221,11.391224,-0.195091,0.980785,0.000000
-2.636815,-2.891804,27.543081,0.659346,0.751840,0.000000
37.086394,4.240132,7.526344,-0.000000,0.442289,0.896873
1.276303,6.751681,7.384269,0.195091,0.980785,-0.000000
-12.738495,-3.814886,4.192393,0.000000,0.659345,-0.751840
11.348294,-4.859596,2.928038,0.000000,0.831470,-0.555570
-25.887797,0.709573,8.597535,-0.000000,0.065403,0.997859
2.619719,8.494414,1.508732,0.000000,0.980785,0.195090
6.375147,-2.594967,17.230786,0.946930,-0.321439,0.000000
-6.175574,-5.540843,-1.194113,0.000000,0.980785,0.195091
-16.701010,8.617703,0.401869,-0.000000,0.997859,0.065403
-2.049563,6.560287,10.034957,-0.321439,0.946930,0.000000
31.178859,-8.514724,1.406630,0.000000,-0.980785,0.195090
28.803050,5.669601,6.500464,-0.000000,0.659346,0.751840
4.851154,8.636360,-0.117216,0.000000,0.997859,-0.065403
6.279999,2.800398,21.118822,0.896873,0.442289,0.000000
3.671382,1.357033,31.319098,-0.946930,-0.321440,-0.000000
17.150704,2.388976,-5.140886,0.000000,-0.442289,0.896873
-5.663214,3.891773,25.143978,-0.831470,0.555570,0.000000
31.619597,5.351454,-6.779471,0.000000,0.659346,-0.751840
-17.175380,-0.257337,-5.662631,-0.000000,0.065403,0.997859
23.993587,5.599701,0.898216,0.000000,-0.980785,-0.195091
10.095995,-1.527462,-8.490689,0.000000,-0.195090,-0.980785
0.695809,6.840081,23.095637,0.065403,0.997859,0.000000
-16.386702,1.117776,8.570780,0.000000,0.065404,0.997859
-8.193926,-5.624982,-6.539594,0.000000,-0.659346,-0.751840
5.492361,4.147473,21.813480,0.831470,0.555570,-0.000000
30.444835,3.999510,-4.030482,0.000000,-0.659346,0.751840
23.981255,-8.613274,-0.469445,0.000000,-0.997859,-0.065403
3.453538,-1.843506,18.066453,-0.896873,0.442288,0.000000
-23.599242,-8.488329,1.539327,0.000000,-0.980785,0.195090
8.225965,8.457413,-1.694750,0.000000,0.980785,-0.195090
30.656352,-8.575807,1.041086,0.000000,-0.997859,0.065403
3.347291,-2.033182,8.605598,-0.831469,0.555570,0.000000
-6.314645,0.906949,36.601547,-0.000000,0.000000,1.000000
-2.590942,2.932033,25.432247,0.659346,-0.751840,0.000000
0.390475,5.366457,1.822045,0.000000,-0.946930,-0.321440
3.610188,8.145974,2.836823,-0.000000,0.946930,0.321440
3.159335,8.643805,0.003630,-0.000000,0.997859,0.065403
4.952297,-4.773838,11.416733,0.751840,-0.659346,0.000000
5.065958,4.644232,24.170600,0.751840,0.659346,-0.000000
21.752887,-1.099878,-5.559588,0.000000,0.195091,0.980785
-24.491796,7.887801,3.507170,0.000000,0.896873,0.442289
-26.728465,-2.475491,5.098221,0.000000,0.442289,-0.896873
0.568011,4.634336,36.601547,-0.000000,0.000000,1.000000
-16.806102,-8.639627,0.067371,-0.000000,-0.997859,0.065403
-6.772522,1.171527,28.091710,-0.980785,0.195091,-0.000000
14.125990,-1.264593,-8.542977,0.000000,-0.195090,-0.980785
-3.132330,2.354893,33.097576,0.831469,-0.555570,0.000000
13.410643,3.350957,-7.964837,0.000000,0.442289,-0.896873
16.101790,7.809719,-3.665504,0.000000,0.896873,-0.442289
-26.264518,-5.640254,-0.598744,-0.000000,0.997859,0.065403
-3.502986,-1.743236,26.759370,0.896873,0.442288,0.000000
27.883684,-5.552952,1.133237,0.000000,0.980785,-0.195091
-26.110165,7.464621,-4.353959,0.000000,0.831470,-0.555570
-5.439222,-4.218606,17.463480,-0.751839,-0.659346,0.000000
-13.478142,3.521362,7.880802,0.000000,0.442289,0.896873
-7.818502,2.361604,-5.154384,0.000000,-0.442289,0.896873
-26.804800,5.078510,2.515460,0.000000,-0.896873,-0.442289
-8.816545,-5.563886,-6.593173,0.000000,-0.659346,-0.751840
38.753506,-8.030157,-1.057866,1.000000,0.000000,-0.000000
-0.279607,6.867360,12.210013,-0.065403,0.997859,0.000000
-16.661376,6.305424,-5.892001,0.000000,0.751840,-0.659346
-29.420346,-7.366273,4.501147,0.000000,-0.831470,0.555570
20.311758,-2.273280,5.197941,0.000000,0.442289,-0.896873
-5.378192,-4.288197,11.402828,-0.751839,-0.659346,0.000000
-6.206686,-4.526083,-3.427176,0.000000,0.831470,0.555570
