x,y,z,nx,ny,nz
-12.161980,28.744129,9.496220,0.751840,0.000000,-0.659346
-34.072887,18.745420,-20.949665,0.000000,0.000000,-1.000000
-22.420488,-10.334645,-20.949665,0.000000,0.000000,-1.000000
0.274841,17.771072,15.420195,-0.065403,0.000000,-0.997859
31.015057,-23.612738,-20.949665,0.000000,0.000000,-1.000000
-27.099698,30.291908,17.628402,0.000000,1.000000,0.000000
23.411601,17.350489,1.519982,0.881921,0.000000,-0.471397
-6.978503,-0.452221,20.949665,0.000000,-0.000000,1.000000
-13.922600,20.457439,6.598300,0.896873,0.000000,-0.442289
28.649178,-7.429032,20.949665,0.000000,0.000000,1.000000
-34.185024,-2.790803,-3.159621,-1.000000,0.000000,0.000000
27.075978,-29.896918,-20.949665,0.000000,0.000000,-1.000000
-17.215555,3.769205,-20.949665,0.000000,0.000000,-1.000000
25.914092,-11.517658,-3.151075,0.098017,-0.000000,0.995185
-26.913436,-23.912997,20.949665,0.000000,0.000000,1.000000
15.765311,-27.108987,-20.949665,0.000000,0.000000,-1.000000
12.542163,-22.212831,-20.949665,0.000000,0.000000,-1.000000
-11.717819,-13.353597,3.142898,0.956940,0.000000,-0.290285
3.419642,29.709768,15.026750,-0.195090,0.000000,-0.980785
-24.852315,-0.845322,-20.949665,0.000000,0.000000,-1.000000
-9.987625,22.034035,-11.731030,0.659346,-0.000000,0.751840
31.891156,1.694998,-20.949665,0.000000,0.000000,-1.000000
15.399551,20.207134,-0.589805,-0.997859,0.000000,0.065403
-28.062852,-30.291908,7.432424,0.000000,-1.000000,0.000000
-4.353859,-9.740031,20.949665,0.000000,0.000000,1.000000
11.773977,-15.280415,-2.957769,-0.956940,0.000000,0.290285
-34.185024,11.923445,-18.683948,-1.000000,0.000000,0.000000
-24.155172,9.532315,2.425234,-0.634393,0.000000,-0.773011
34.185024,-28.129579,-15.482870,1.000000,0.000000,-0.000000
-7.815136,21.957394,-13.305715,0.555570,-0.000000,0.831470
5.178349,2.232816,-10.981175,-0.471397,0.000000,0.881921
34.185024,22.258943,16.615008,1.000000,-0.000000,0.000000
-13.579886,25.344406,-7.293256,0.896873,-0.000000,0.442289
-12.152385,15.500125,-0.323619,0.995185,-0.000000,0.098017
-9.156663,8.984774,-7.956251,0.773010,-0.000000,0.634393
-34.116004,30.291908,-6.538865,-0.000000,1.000000,0.000000
34.185024,-12.860828,-18.437739,1.000000,0.000000,-0.000000
11.327689,5.332223,-4.428982,-0.956940,0.000000,0.290285
-10.140822,-14.487475,20.949665,0.000000,0.000000,1.000000
-34.185024,15.671017,19.159032,-1.000000,0.000000,0.000000
-3.239699,16.327660,12.300468,-0.000000,1.000000,-0.000000
-9.693098,-9.812286,7.302602,0.773010,0.000000,-0.634393
-28.478413,-15.114158,-20.949665,0.000000,0.000000,-1.000000
34.185024,1.343486,-5.474540,1.000000,0.000000,-0.000000
3.828287,-1.464330,-20.949665,0.000000,0.000000,-1.000000
18.056109,21.879395,-20.949665,0.000000,0.000000,-1.000000
34.185024,-9.601253,-19.695799,1.000000,0.000000,-0.000000
-27.766357,-27.536165,-20.949665,0.000000,0.000000,-1.000000
8.503847,-9.288869,8.707262,-0.634393,-0.000000,-0.773010
6.183540,28.282093,20.949665,0.000000,-0.000000,1.000000
34.185024,27.678969,20.067227,1.000000,-0.000000,0.000000
-14.975175,-10.112797,-20.949665,0.000000,0.000000,-1.000000
-34.185024,12.182874,12.981748,-1.000000,0.000000,0.000000
-34.185024,13.196988,12.473198,-1.000000,0.000000,0.000000
34.185024,-13.863487,13.705139,1.000000,-0.000000,0.000000
19.630691,-30.291908,4.526431,0.000000,-1.000000,0.000000
-23.058773,4.579888,0.522950,-0.995185,0.000000,-0.098016
34.185024,1.324389,-9.803342,1.000000,0.000000,-0.000000
7.668399,27.218724,-20.949665,0.000000,0.000000,-1.000000
11.182469,8.352131,-4.801754,-0.881921,0.000000,0.471397
-34.185024,-15.979229,-15.049641,-1.000000,0.000000,0.000000
-34.185024,-27.771345,6.715989,-1.000000,0.000000,0.000000
31.244033,30.291908,-13.413708,0.000000,1.000000,-0.000000
23.419009,-19.457332,-1.533842,0.881921,-0.000000,0.471398
21.716186,-30.291908,12.879770,-0.000000,-1.000000,0.000000
27.522026,-7.996928,20.949665,0.000000,0.000000,1.000000
-28.406639,23.677039,-2.267862,0.634394,0.000000,0.773010
-34.185024,20.389301,8.226040,-1.000000,0.000000,0.000000
3.984084,-5.703230,-20.949665,0.000000,0.000000,-1.000000
-34.185024,-23.703759,-2.684400,-1.000000,0.000000,0.000000
-0.005807,1.738343,20.949665,0.000000,-0.000000,1.000000
-34.185024,-29.243515,0.336320,-1.000000,0.000000,0.000000
-25.297434,-18.589183,20.949665,0.000000,-0.000000,1.000000
34.185024,13.532511,-14.415056,1.000000,0.000000,-0.000000
-34.185024,22.859767,-18.000640,-1.000000,0.000000,0.000000
-6.353812,-4.221974,20.949665,0.000000,-0.000000,1.000000
34.185024,5.115185,-14.460603,1.000000,0.000000,-0.000000
-27.091203,-30.291908,7.391184,0.000000,-1.000000,0.000000
-12.039593,-29.555199,-1.468813,0.995185,0.000000,0.098017
18.605469,-30.291908,-11.248743,0.000000,-1.000000,0.000000
-6.487029,11.796172,-20.949665,0.000000,0.000000,-1.000000
24.324576,24.872315,-2.564261,0.634394,0.000000,0.773010
29.244677,18.544980,20.949665,0.000000,0.000000,1.000000
-34.185024,2.603791,11.133376,-1.000000,0.000000,0.000000
4.748826,-30.291908,15.760259,0.000000,-1.000000,0.000000
-0.539108,17.138322,-20.949665,0.000000,0.000000,-1.000000
27.134443,14.297642,20.949665,0.000000,0.000000,1.000000
-0.067961,-18.349711,-20.949665,0.000000,0.000000,-1.000000
11.961892,-18.979019,2.257731,-0.995185,0.000000,-0.098017
-20.474662,13.668219,20.949665,0.000000,-0.000000,1.000000
-11.737333,-13.146253,3.078568,0.956940,0.000000,-0.290285
-25.286036,-11.854691,20.949665,0.000000,-0.000000,1.000000
34.185024,10.846347,17.801516,1.000000,-0.000000,0.000000
23.171268,12.599105,-0.959304,0.956941,0.000000,0.290283
23.452129,30.291908,-5.871213,-0.000000,1.000000,-0.000000
-17.986463,30.291908,-8.167798,-0.000000,1.000000,0.000000
3.184313,-23.581992,-20.949665,0.000000,0.000000,-1.000000
9.816261,-5.884240,-7.152529,-0.773010,0.000000,0.634393
-28.595698,25.688587,-20.949665,0.000000,0.000000,-1.000000
-23.904508,10.665607,-20.949665,0.000000,0.000000,-1.000000
-13.168966,-20.247385,20.949665,0.000000,0.000000,1.000000
28.442092,12.204714,-2.234768,-0.773011,0.000000,0.634393
-11.824775,-12.760186,2.790310,0.956940,0.000000,-0.290285
3.745388,18.210500,-20.949665,0.000000,0.000000,-1.000000
-0.107640,16.327660,-12.862549,0.000000,1.000000,0.000000
-34.185024,0.376562,-11.259781,-1.000000,0.000000,0.000000
32.906896,10.331055,20.949665,0.000000,0.000000,1.000000
-24.765411,-7.579131,-20.949665,0.000000,0.000000,-1.000000
23.089426,-1.300766,-0.689504,0.956941,0.000000,0.290283
1.822009,-3.672809,12.004807,-0.098017,-0.000000,-0.995185
-11.216738,-11.978043,-20.949665,0.000000,0.000000,-1.000000
10.217376,5.949078,-6.607317,-0.881921,0.000000,0.471397
-14.392826,25.769186,-5.525623,0.946930,-0.000000,0.321440
-12.661958,16.340099,8.778585,0.831470,0.000000,-0.555570
-3.095345,23.234132,15.091257,0.195090,0.000000,-0.980785
-24.370062,-6.637605,-2.601590,-0.634394,0.000000,0.773010
-6.320443,-18.939736,-10.370713,0.471397,0.000000,0.881921
14.157548,4.505955,20.949665,0.000000,0.000000,1.000000
34.185024,-9.837184,4.679340,1.000000,0.000000,-0.000000
27.378277,9.414363,-2.942790,-0.290286,0.000000,0.956940
34.185024,-13.286820,4.123144,1.000000,0.000000,-0.000000
-34.185024,17.499240,-15.635353,-1.000000,0.000000,0.000000
-34.185024,-25.482395,11.104521,-1.000000,0.000000,0.000000
-2.258349,-12.804778,11.961831,0.098017,0.000000,-0.995185
34.185024,-27.163028,8.932094,1.000000,0.000000,-0.000000
-0.327366,17.069063,20.949665,0.000000,-0.000000,1.000000
-2.172836,-30.291908,16.062914,0.000000,-1.000000,0.000000
-15.456813,30.291908,-6.882531,-0.000000,1.000000,0.000000
-34.185024,1.538138,-16.338652,-1.000000,0.000000,0.000000
-18.584782,10.295422,-20.949665,0.000000,0.000000,-1.000000
33.042541,28.002712,-20.949665,0.000000,0.000000,-1.000000
-8.237009,-21.026336,8.926251,0.634393,0.000000,-0.773010
-34.185024,-19.608174,-8.035593,-1.000000,0.000000,0.000000
20.660594,-26.897570,-20.949665,0.000000,0.000000,-1.000000
30.424923,14.296368,-20.949665,0.000000,0.000000,-1.000000
1.883359,12.674213,-11.998764,-0.098017,0.000000,0.995185
26.906820,23.125786,-3.085805,-0.290284,0.000000,0.956940
-20.226726,-30.291908,8.622601,0.000000,-1.000000,0.000000
-7.451274,-20.409178,-20.949665,0.000000,0.000000,-1.000000
-9.630266,-28.518780,-20.949665,0.000000,0.000000,-1.000000
-34.185024,-24.526120,9.745995,-1.000000,0.000000,0.000000
15.500706,-2.926655,20.949665,0.000000,0.000000,1.000000
34.185024,-24.630647,-10.523129,1.000000,0.000000,-0.000000
-26.940837,-24.369465,3.075486,0.290285,0.000000,-0.956940
20.613983,-20.719813,-20.949665,0.000000,0.000000,-1.000000
-29.329953,-14.064580,0.333348,0.995185,-0.000000,-0.098017
-18.034203,-30.291908,2.438957,0.000000,-1.000000,0.000000
25.914628,8.803928,-3.151127,0.098017,0.000000,0.995185
27.386194,29.359718,2.940389,-0.290284,-0.000000,-0.956940
27.305476,-1.287775,-20.949665,0.000000,0.000000,-1.000000
-28.365574,-19.078670,20.949665,0.000000,-0.000000,1.000000
-34.185024,29.870775,-19.237924,-1.000000,0.000000,0.000000
34.185024,24.366521,-17.612760,1.000000,0.000000,-0.000000
-30.913563,30.291908,-2.717323,-0.000000,1.000000,0.000000
-2.547202,-28.748751,-11.898521,0.290285,0.000000,0.956940
8.510009,-30.291908,14.374434,0.000000,-1.000000,0.000000
-17.680259,30.291908,-12.102398,-0.000000,1.000000,0.000000
34.185024,8.320774,9.708071,1.000000,-0.000000,0.000000
34.185024,-7.792145,-11.981053,1.000000,0.000000,-0.000000
2.336246,-9.520067,20.949665,0.000000,0.000000,1.000000
32.072325,9.526955,-20.949665,0.000000,0.000000,-1.000000
27.705310,-30.291908,16.408966,-0.000000,-1.000000,0.000000
11.120455,-19.546695,4.917774,-0.881921,0.000000,-0.471397
-28.974890,10.760447,-1.489227,0.881921,0.000000,0.471398
34.185024,20.945418,-3.710797,1.000000,-0.000000,0.000000
-34.185024,22.105058,-5.144991,-1.000000,0.000000,0.000000
34.185024,14.733328,-10.615033,1.000000,0.000000,-0.000000
-11.627261,5.788200,3.441426,0.956940,0.000000,-0.290285
-32.362777,-23.435551,-20.949665,0.000000,0.000000,-1.000000
-14.669130,-30.291908,5.202407,0.000000,-1.000000,0.000000
26.801382,30.291908,-4.779190,-0.000000,1.000000,-0.000000
16.524573,30.291908,-2.630075,-0.000000,1.000000,0.000000
-3.435525,1.694244,11.629051,0.290285,0.000000,-0.956940
-16.890766,-1.912579,20.949665,0.000000,-0.000000,1.000000
15.867952,-25.826838,20.949665,0.000000,0.000000,1.000000
-30.293619,-4.985360,-20.949665,0.000000,0.000000,-1.000000
25.716134,10.274012,20.949665,0.000000,0.000000,1.000000
34.185024,-18.704604,-19.219412,1.000000,0.000000,-0.000000
34.185024,19.851290,8.711431,1.000000,-0.000000,0.000000
-23.881307,30.291908,5.190057,0.000000,1.000000,0.000000
-23.593056,30.291908,-16.470090,-0.000000,1.000000,0.000000
-34.185024,-8.296440,5.507691,-1.000000,0.000000,0.000000
-12.023408,-1.184604,-1.633145,0.995185,-0.000000,0.098017
1.786482,-30.291908,-14.404182,0.000000,-1.000000,0.000000
-0.167117,-26.894161,12.167799,0.098017,0.000000,-0.995185
34.185024,-23.014264,4.810603,1.000000,0.000000,-0.000000
9.172786,9.304153,7.936605,-0.773010,0.000000,-0.634393
-23.086238,30.291908,-6.162547,0.000000,1.000000,0.000000
27.950902,0.388330,2.641876,-0.634394,0.000000,-0.773010
34.185024,10.874601,18.021753,1.000000,-0.000000,0.000000
-24.678047,30.291908,-7.157373,0.000000,1.000000,0.000000
29.355340,-12.111372,0.075591,-0.995185,-0.000000,-0.098016
-34.185024,-18.405623,-14.215394,-1.000000,0.000000,0.000000
25.671830,-12.721965,20.949665,0.000000,0.000000,1.000000
10.807355,-11.053411,-5.503542,-0.881921,0.000000,0.471397
10.518374,-14.747681,-6.044189,-0.881921,0.000000,0.471397
-34.185024,-29.527114,-10.099802,-1.000000,0.000000,0.000000
2.312466,-13.338548,-11.956501,-0.098017,0.000000,0.995185
-1.738781,8.747882,-20.949665,0.000000,0.000000,-1.000000
13.189783,-30.291908,-14.959803,0.000000,-1.000000,0.000000
34.185024,-21.372402,8.916157,1.000000,0.000000,-0.000000
-10.758859,-26.760114,5.594273,0.881921,0.000000,-0.471397
16.087924,-6.307793,20.949665,0.000000,0.000000,1.000000
-3.523623,30.291908,-18.100984,-0.000000,1.000000,0.000000
-5.426212,-11.369022,10.848689,0.471397,0.000000,-0.881921
24.637181,-30.291908,9.369681,0.000000,-1.000000,0.000000
-9.887985,-30.291908,-17.290924,0.000000,-1.000000,0.000000
-21.073847,-30.291908,-0.650042,0.000000,-1.000000,0.000000
15.020517,19.156423,-20.949665,0.000000,0.000000,-1.000000
15.196816,-7.188820,-20.949665,0.000000,0.000000,-1.000000
34.185024,27.161561,14.961177,1.000000,-0.000000,0.000000
34.185024,7.114956,20.245983,1.000000,-0.000000,0.000000
29.382139,25.227617,20.949665,0.000000,0.000000,1.000000
28.245273,20.607855,-2.400292,-0.634394,0.000000,0.773010
-13.228317,-23.379496,-20.949665,0.000000,0.000000,-1.000000
32.335924,-14.851211,20.949665,0.000000,0.000000,1.000000
34.185024,-16.300137,4.442398,1.000000,0.000000,-0.000000
-11.252873,-26.999733,4.670036,0.881921,0.000000,-0.471397
23.393708,4.860205,20.949665,0.000000,0.000000,1.000000
21.921341,-5.490899,-20.949665,0.000000,0.000000,-1.000000
-29.011722,-2.791541,20.949665,0.000000,-0.000000,1.000000
-15.551940,30.291908,-8.185622,-0.000000,1.000000,0.000000
34.185024,0.913617,-17.836935,1.000000,0.000000,-0.000000
-3.328030,-12.518488,20.949665,0.000000,0.000000,1.000000
-6.930764,11.181260,-9.998258,0.634393,-0.000000,0.773010
-16.486093,-19.596702,-20.949665,0.000000,0.000000,-1.000000
31.081666,-30.291908,6.389835,-0.000000,-1.000000,0.000000
24.093832,25.299552,-20.949665,0.000000,0.000000,-1.000000
-32.763976,-5.205901,-20.949665,0.000000,0.000000,-1.000000
-6.440342,9.907004,20.949665,0.000000,-0.000000,1.000000
34.185024,-26.066841,-5.846226,1.000000,0.000000,-0.000000
31.656902,6.033639,20.949665,0.000000,0.000000,1.000000
4.740589,11.969670,-11.215162,-0.471397,0.000000,0.881921
34.185024,23.720053,-6.076241,1.000000,-0.000000,0.000000
14.667656,25.951494,4.716000,-0.946930,0.000000,-0.321440
23.093644,8.931989,0.703409,0.956940,0.000000,-0.290287
-5.711927,-3.728611,20.949665,0.000000,-0.000000,1.000000
4.305142,27.147492,-20.949665,0.000000,0.000000,-1.000000
31.456818,-30.291908,4.311601,-0.000000,-1.000000,0.000000
-15.755890,-30.291908,2.809195,0.000000,-1.000000,0.000000
1.801977,-5.821772,-12.006780,-0.098017,0.000000,0.995185
10.495992,23.283266,-20.949665,0.000000,0.000000,-1.000000
2.958193,-0.533792,-20.949665,0.000000,0.000000,-1.000000
33.831244,18.500184,20.949665,0.000000,0.000000,1.000000
-31.306284,-30.291908,15.564919,0.000000,-1.000000,0.000000
1.373821,13.885349,20.949665,0.000000,-0.000000,1.000000
-11.963089,10.922817,2.245577,0.995185,0.000000,-0.098017
-22.763149,-25.904009,-20.949665,0.000000,0.000000,-1.000000
19.957449,11.562900,20.949665,0.000000,0.000000,1.000000
-29.933389,30.291908,3.071129,-0.000000,1.000000,-0.000000
28.315357,-30.291908,8.963251,0.000000,-1.000000,0.000000
-14.354848,30.291908,-7.331578,-0.000000,1.000000,0.000000
-27.657859,-12.695426,-20.949665,0.000000,0.000000,-1.000000
-13.818077,-10.924447,-20.949665,0.000000,0.000000,-1.000000
-11.337354,5.713098,4.397120,0.956940,0.000000,-0.290285
3.015770,-30.181926,11.756382,-0.290285,-0.000000,-0.956940
8.857579,-6.206828,20.949665,0.000000,0.000000,1.000000
13.797360,-30.291908,13.863964,-0.000000,-1.000000,0.000000
34.185024,-13.387614,-14.172180,1.000000,0.000000,-0.000000
-23.688178,4.243820,-1.942593,-0.773011,0.000000,0.634393
8.690292,17.612282,-20.949665,0.000000,0.000000,-1.000000
7.923414,30.230800,-13.233365,-0.555570,0.000000,0.831470
-12.133502,-5.100162,-0.515343,0.995185,0.000000,0.098017
34.185024,-28.778465,-2.455645,1.000000,0.000000,-0.000000
-2.152340,-18.848418,-11.972272,0.098017,0.000000,0.995185
13.436093,-30.291908,0.162017,-0.000000,-1.000000,0.000000
12.718785,27.559888,-8.693538,-0.831470,0.000000,0.555570
11.431875,4.435016,4.085527,-0.956940,0.000000,-0.290285
-6.337832,16.327660,12.831323,0.000000,1.000000,-0.000000
-4.019720,9.365967,11.451837,0.290285,0.000000,-0.956940
-2.184538,30.291908,-18.173221,-0.000000,1.000000,0.000000
-7.238287,13.986222,-9.745880,0.634393,-0.000000,0.773010
3.324657,-18.491661,-11.662683,-0.290285,0.000000,0.956940
15.058240,28.002263,-3.261329,-0.980785,0.000000,0.195090
7.448434,24.815494,20.949665,0.000000,-0.000000,1.000000
-25.883057,-21.247348,-20.949665,0.000000,0.000000,-1.000000
-13.241304,16.327660,2.574601,-0.000000,1.000000,0.000000
-11.719338,30.291908,15.325878,0.000000,1.000000,0.000000
34.113403,26.198073,20.949665,0.000000,0.000000,1.000000
2.160036,-8.901022,20.949665,0.000000,0.000000,1.000000
24.127864,-8.434589,20.949665,0.000000,0.000000,1.000000
-23.821524,-9.388546,20.949665,0.000000,-0.000000,1.000000
-7.863419,14.440682,9.232848,0.634393,0.000000,-0.773010
-28.921148,13.481423,-1.589773,0.881921,0.000000,0.471398
-28.730826,-0.380189,1.882944,0.773011,-0.000000,-0.634393
-9.137220,-17.539510,7.979942,0.773010,0.000000,-0.634393
-23.783620,-29.731716,-2.058888,-0.773011,0.000000,0.634393
-34.185024,-1.712635,-17.791953,-1.000000,0.000000,0.000000
8.413485,26.850075,-20.949665,0.000000,0.000000,-1.000000
15.014346,30.291908,13.937103,-0.000000,1.000000,0.000000
-3.115312,-23.796460,20.949665,0.000000,0.000000,1.000000
-11.380104,26.108277,10.387779,0.751840,0.000000,-0.659346
-28.955526,-29.060266,20.949665,0.000000,0.000000,1.000000
8.792758,-0.190673,8.399670,-0.773010,0.000000,-0.634393
24.075359,30.291908,-3.534453,-0.000000,1.000000,-0.000000
7.144795,-0.975084,20.949665,0.000000,0.000000,1.000000
27.161739,24.475109,3.008476,-0.290284,-0.000000,-0.956940
34.185024,3.389807,4.067424,1.000000,-0.000000,0.000000
-5.839354,23.191716,-14.286328,0.321440,0.000000,0.946930
-19.109813,-30.291908,-8.592218,0.000000,-1.000000,0.000000
-34.185024,8.277656,19.649055,-1.000000,0.000000,0.000000
-34.185024,29.988201,-6.176265,-1.000000,0.000000,0.000000
-4.789225,30.291908,18.737766,-0.000000,1.000000,0.000000
-26.738834,24.215358,20.949665,0.000000,-0.000000,1.000000
-12.157570,-23.371759,-0.270977,0.995185,0.000000,0.098017
13.020610,30.291908,8.766895,-0.000000,1.000000,0.000000
28.881073,27.993114,-1.664747,-0.881921,0.000000,0.471398
24.710856,-28.002115,20.949665,0.000000,0.000000,1.000000
-3.379176,11.657710,20.949665,0.000000,-0.000000,1.000000
6.823315,15.887091,10.086440,-0.634393,0.000000,-0.773010
33.583441,-0.654894,-20.949665,0.000000,0.000000,-1.000000
-34.185024,3.898165,12.624440,-1.000000,0.000000,0.000000
25.570446,-17.931586,3.117228,0.098017,0.000000,-0.995185
-34.185024,-9.064159,-13.797604,-1.000000,0.000000,0.000000
34.185024,-20.244372,-11.675205,1.000000,0.000000,-0.000000
-28.886397,30.291908,-18.170786,-0.000000,1.000000,0.000000
15.334330,-26.027798,20.949665,0.000000,0.000000,1.000000
-13.335249,-15.206430,20.949665,0.000000,0.000000,1.000000
-11.610029,1.373394,-3.498232,0.956940,-0.000000,0.290285
-30.755763,-11.280922,20.949665,0.000000,-0.000000,1.000000
-5.857112,-30.291908,19.558693,0.000000,-1.000000,0.000000
24.243533,-6.886744,2.497751,0.634392,-0.000000,-0.773011
34.185024,-13.300850,14.985490,1.000000,-0.000000,0.000000
17.539494,30.291908,14.070287,-0.000000,1.000000,0.000000
-34.185024,-8.176735,-2.143423,-1.000000,0.000000,0.000000
-34.185024,20.396177,15.497950,-1.000000,0.000000,0.000000
28.108749,-30.291908,-10.143756,0.000000,-1.000000,0.000000
-20.437770,-12.831216,20.949665,0.000000,-0.000000,1.000000
23.801197,-13.395795,2.080306,0.773010,-0.000000,-0.634394
-6.253684,10.981571,10.406397,0.471397,0.000000,-0.881921
14.688870,-17.983442,20.949665,0.000000,0.000000,1.000000
34.185024,-8.427862,14.485052,1.000000,-0.000000,0.000000
34.185024,19.686494,-19.004390,1.000000,0.000000,-0.000000
-34.185024,28.000931,-17.923102,-1.000000,0.000000,0.000000
28.941326,-27.406286,-20.949665,0.000000,0.000000,-1.000000
16.975847,30.291908,19.571946,-0.000000,1.000000,0.000000
2.532092,-1.592579,20.949665,0.000000,0.000000,1.000000
5.724296,-30.291908,-11.979329,0.000000,-1.000000,0.000000
-8.352676,25.803331,-12.946541,0.555570,0.000000,0.831470
25.706714,30.291908,-8.217137,-0.000000,1.000000,-0.000000
-19.388849,-30.291908,3.345553,0.000000,-1.000000,0.000000
-34.185024,19.410107,8.126775,-1.000000,0.000000,0.000000
11.993232,9.316969,1.939529,-0.995185,0.000000,-0.098017
-31.924996,13.220625,-20.949665,0.000000,0.000000,-1.000000
-0.207157,-14.788052,12.163855,0.098017,0.000000,-0.995185
-32.184927,23.341634,20.949665,0.000000,-0.000000,1.000000
20.867496,27.102495,-20.949665,0.000000,0.000000,-1.000000
-0.853438,-1.407679,-12.100202,0.098017,-0.000000,0.995185
-13.371929,18.538503,-7.714950,0.896873,-0.000000,0.442289
-2.139308,28.769798,-15.281424,0.195090,-0.000000,0.980785
4.565344,0.900303,20.949665,0.000000,0.000000,1.000000
26.685395,-30.291908,-10.541185,0.000000,-1.000000,0.000000
29.480701,-22.323720,20.949665,0.000000,0.000000,1.000000
15.623336,13.051693,-20.949665,0.000000,0.000000,-1.000000
-18.076910,30.291908,-11.558772,-0.000000,1.000000,0.000000
33.117865,-19.923549,-20.949665,0.000000,0.000000,-1.000000
5.270933,10.529530,-20.949665,0.000000,0.000000,-1.000000
9.968920,-1.114681,-6.966513,-0.773010,0.000000,0.634393
12.103000,-9.650702,0.825036,-0.995185,-0.000000,-0.098017
34.185024,23.553712,-1.584299,1.000000,-0.000000,0.000000
23.252124,-3.612783,-20.949665,0.000000,0.000000,-1.000000
-25.216421,-4.368219,-3.010936,-0.290284,0.000000,0.956940
4.774624,-6.746919,-11.196970,-0.471397,0.000000,0.881921
-18.138438,-30.291908,6.151641,0.000000,-1.000000,0.000000
-12.936452,21.802254,-8.367776,0.831470,0.000000,0.555570
-13.586219,19.057675,-7.280413,0.896873,-0.000000,0.442289
-19.864569,1.512492,-20.949665,0.000000,0.000000,-1.000000
-5.776736,6.042021,-10.661330,0.471397,-0.000000,0.881921
-8.533467,12.783092,-20.949665,0.000000,0.000000,-1.000000
-34.185024,-15.718717,0.134200,-1.000000,0.000000,0.000000
-29.317359,28.562764,-0.461225,0.995185,0.000000,0.098019
28.002181,-30.291908,-14.869362,0.000000,-1.000000,0.000000
34.185024,-4.636963,4.230368,1.000000,-0.000000,0.000000
-17.946990,-30.291908,6.016775,0.000000,-1.000000,0.000000
29.341192,-29.862073,-0.219239,-0.995185,0.000000,0.098017
32.836823,30.213320,20.949665,0.000000,-0.000000,1.000000
-34.185024,24.066997,-6.615591,-1.000000,0.000000,0.000000
-28.761989,2.539013,1.844972,0.773011,-0.000000,-0.634393
-1.165118,3.432636,12.069505,0.098017,0.000000,-0.995185
23.113895,27.117526,0.770168,0.956941,-0.000000,-0.290282
-10.571673,-15.131913,20.949665,0.000000,0.000000,1.000000
-21.248802,30.291908,0.121513,-0.000000,1.000000,-0.000000
-34.185024,-15.038211,0.304127,-1.000000,0.000000,0.000000
-5.754952,27.033322,-20.949665,0.000000,0.000000,-1.000000
-17.383555,-30.291908,-5.182444,0.000000,-1.000000,0.000000
11.138600,26.199216,-20.949665,0.000000,0.000000,-1.000000
-1.702058,17.320955,-20.949665,0.000000,0.000000,-1.000000
1.611713,10.081383,-12.025519,-0.098017,0.000000,0.995185
20.213946,30.291908,8.676630,0.000000,1.000000,-0.000000
-31.510222,30.291908,-17.237185,0.000000,1.000000,0.000000
-5.796504,6.645170,-20.949665,0.000000,0.000000,-1.000000
23.172002,0.677512,-0.961724,0.956941,-0.000000,0.290283
-4.275388,-9.385495,-20.949665,0.000000,0.000000,-1.000000
34.185024,-2.632938,11.826373,1.000000,-0.000000,0.000000
-30.003447,30.291908,-7.355925,-0.000000,1.000000,0.000000
-34.185024,-12.298255,16.226819,-1.000000,0.000000,0.000000
-29.192297,24.951016,0.980686,0.956941,0.000000,-0.290282
25.475634,-8.107021,-20.949665,0.000000,0.000000,-1.000000
-5.217557,-15.614655,-20.949665,0.000000,0.000000,-1.000000
34.185024,28.292929,11.184539,1.000000,-0.000000,0.000000
-28.555597,5.520167,2.096462,0.773011,0.000000,-0.634393
10.856491,12.802776,-5.411615,-0.881921,0.000000,0.471397
-0.443186,-12.699637,12.140609,0.098017,0.000000,-0.995185
-11.712448,-14.289914,3.160601,0.956940,0.000000,-0.290285
-26.474094,14.275004,-3.149288,0.098017,0.000000,0.995185
-20.580340,-30.291908,10.359098,0.000000,-1.000000,0.000000
-2.485962,-11.806251,-20.949665,0.000000,0.000000,-1.000000
-11.913451,-0.821870,2.497985,0.956940,0.000000,-0.290285
23.020480,9.065572,0.134155,0.995185,-0.000000,-0.098017
-34.185024,-23.191677,-8.185403,-1.000000,0.000000,0.000000
-34.185024,2.880757,14.390625,-1.000000,0.000000,0.000000
25.214883,-13.618611,20.949665,0.000000,0.000000,1.000000
-34.185024,-22.758445,-14.087369,-1.000000,0.000000,0.000000
-8.618873,-8.325720,8.611550,0.773010,0.000000,-0.634393
30.754992,-30.291908,-8.640815,-0.000000,-1.000000,0.000000
30.548131,-30.291908,-14.002011,0.000000,-1.000000,0.000000
12.750444,-10.111199,-20.949665,0.000000,0.000000,-1.000000
16.044744,29.265098,20.949665,0.000000,-0.000000,1.000000
-7.618610,30.291908,-15.028927,-0.000000,1.000000,0.000000
26.869640,-12.835028,-3.097084,-0.290284,0.000000,0.956940
34.185024,7.375625,12.655507,1.000000,-0.000000,0.000000
-34.185024,19.109025,7.313697,-1.000000,0.000000,0.000000
-13.495631,22.511448,20.949665,0.000000,-0.000000,1.000000
-32.297369,30.291908,-1.660025,-0.000000,1.000000,0.000000
-22.270226,30.291908,0.009036,-0.000000,1.000000,-0.000000
30.534646,30.291908,-9.309628,0.000000,1.000000,-0.000000
11.781879,-11.129700,-2.931718,-0.956940,0.000000,0.290285
11.092475,2.254561,-4.970120,-0.881921,0.000000,0.471397
-17.682848,-3.354241,-20.949665,0.000000,0.000000,-1.000000
-11.388483,-10.589444,-4.228572,0.956940,-0.000000,0.290285
-26.109940,-30.291908,-19.491243,0.000000,-1.000000,0.000000
6.549204,15.070036,-10.248438,-0.471397,0.000000,0.881921
27.118650,-30.291908,20.685579,0.000000,-1.000000,0.000000
12.366689,19.671090,9.220486,-0.831470,0.000000,-0.555570
-26.815416,1.630752,-20.949665,0.000000,0.000000,-1.000000
28.805629,30.291908,-12.697255,-0.000000,1.000000,-0.000000
29.512773,27.688263,-20.949665,0.000000,0.000000,-1.000000
-34.185024,20.132104,-12.757623,-1.000000,0.000000,0.000000
34.185024,-9.209877,10.062361,1.000000,-0.000000,0.000000
8.909137,17.480229,20.949665,0.000000,-0.000000,1.000000
-26.256160,-8.195097,3.170753,0.098017,0.000000,-0.995185
-28.904847,30.291908,20.634354,-0.000000,1.000000,0.000000
-3.868402,-3.654917,11.497739,0.290285,0.000000,-0.956940
-34.185024,-13.094970,-0.366008,-1.000000,0.000000,0.000000
-5.018809,-2.222802,20.949665,0.000000,-0.000000,1.000000
34.185024,7.911431,-16.103194,1.000000,0.000000,-0.000000
-15.384751,10.399842,-20.949665,0.000000,0.000000,-1.000000
-34.185024,24.548400,-8.719851,-1.000000,0.000000,0.000000
-1.317774,30.291908,19.326143,-0.000000,1.000000,0.000000
18.077799,17.717868,-20.949665,0.000000,0.000000,-1.000000
25.641178,-13.476828,3.124195,0.098017,0.000000,-0.995185
-34.185024,-20.774395,12.999991,-1.000000,0.000000,0.000000
34.185024,15.295957,17.890327,1.000000,-0.000000,0.000000
34.185024,-28.949430,15.771792,1.000000,0.000000,-0.000000
-31.247650,-30.291908,-13.919092,0.000000,-1.000000,0.000000
-34.185024,7.365688,4.892662,-1.000000,0.000000,0.000000
-0.580613,7.182831,-12.127073,0.098017,-0.000000,0.995185
-19.217642,9.391644,-20.949665,0.000000,0.000000,-1.000000
-23.290160,30.291908,-8.406176,0.000000,1.000000,0.000000
-26.967917,-30.291908,-17.891574,0.000000,-1.000000,0.000000
-34.185024,10.737595,8.953858,-1.000000,0.000000,0.000000
-21.637712,-0.434264,20.949665,0.000000,-0.000000,1.000000
6.560465,-25.522170,-10.242418,-0.471397,0.000000,0.881921
9.848703,-0.789214,-20.949665,0.000000,0.000000,-1.000000
-9.106920,-12.655304,-20.949665,0.000000,0.000000,-1.000000
-9.420109,-30.291908,-20.707285,0.000000,-1.000000,0.000000
-22.623396,-22.394274,-20.949665,0.000000,0.000000,-1.000000
-34.185024,26.915214,8.833605,-1.000000,0.000000,0.000000
6.447109,25.036898,20.949665,0.000000,-0.000000,1.000000
-20.974720,18.621574,-20.949665,0.000000,0.000000,-1.000000
2.964004,-9.699612,20.949665,0.000000,0.000000,1.000000
3.627304,29.619058,20.949665,0.000000,-0.000000,1.000000
31.453520,-9.010950,-20.949665,0.000000,0.000000,-1.000000
11.619947,5.213337,-3.465537,-0.956940,0.000000,0.290285
24.419737,22.817326,2.642306,0.471395,0.000000,-0.881922
-9.854283,5.863953,-7.106198,0.773010,0.000000,0.634393
-29.277420,-19.128605,0.700076,0.956941,-0.000000,-0.290282
34.185024,-9.888469,10.445840,1.000000,-0.000000,0.000000
27.067511,22.135423,20.949665,0.000000,0.000000,1.000000
-12.133058,-0.903398,0.519845,0.995185,-0.000000,-0.098017
0.689775,26.736681,-15.392998,-0.065403,0.000000,0.997859
-11.428038,-24.901475,20.949665,0.000000,0.000000,1.000000
-1.156369,-22.714116,-12.070366,0.098017,0.000000,0.995185
34.185024,0.472979,-9.741336,1.000000,0.000000,-0.000000
-10.258092,4.651875,6.531141,0.881921,0.000000,-0.471397
-34.185024,-10.268843,-7.654016,-1.000000,0.000000,0.000000
0.525652,-9.834615,-12.132486,-0.098017,0.000000,0.995185
-27.094742,-17.594498,3.028800,0.290284,0.000000,-0.956940
6.876406,-1.455638,-20.949665,0.000000,0.000000,-1.000000
-9.624281,21.653038,-12.049674,0.659346,-0.000000,0.751840
-34.185024,20.677495,11.998616,-1.000000,0.000000,0.000000
17.221266,6.340586,20.949665,0.000000,0.000000,1.000000
19.306307,12.693038,20.949665,0.000000,0.000000,1.000000
20.031094,-30.291908,-16.825959,0.000000,-1.000000,0.000000
-34.185024,9.141582,15.909146,-1.000000,0.000000,0.000000
-25.170439,10.131964,20.949665,0.000000,-0.000000,1.000000
13.027953,17.053964,-8.230835,-0.831470,0.000000,0.555570
9.542326,-19.302893,-7.486320,-0.773010,0.000000,0.634393
13.082493,21.646563,-8.149211,-0.831470,0.000000,0.555570
32.539696,0.033456,20.949665,0.000000,0.000000,1.000000
-13.699536,-30.291908,0.529710,0.000000,-1.000000,0.000000
2.523761,-0.053950,-20.949665,0.000000,0.000000,-1.000000
26.510080,-30.291908,-10.085455,0.000000,-1.000000,0.000000
10.883261,4.883260,5.361533,-0.881921,0.000000,-0.471397
-19.472784,12.213228,20.949665,0.000000,-0.000000,1.000000
-12.161490,-14.997519,0.231169,0.995185,-0.000000,-0.098017
29.901899,30.291908,-10.735821,0.000000,1.000000,-0.000000
-22.184200,-19.484805,20.949665,0.000000,-0.000000,1.000000
-25.138024,10.851823,2.987155,-0.290284,-0.000000,-0.956940
-28.081674,30.291908,9.661478,0.000000,1.000000,0.000000
-24.820059,-2.348181,-20.949665,0.000000,0.000000,-1.000000
-34.185024,16.513595,-5.551974,-1.000000,0.000000,0.000000
-14.803718,30.291908,13.183119,0.000000,1.000000,0.000000
23.892669,3.128312,-2.191765,0.773011,-0.000000,0.634393
24.596067,12.784098,2.736556,0.471397,-0.000000,-0.881921
4.836463,-30.291908,12.141057,0.000000,-1.000000,0.000000
33.194172,-0.131858,20.949665,0.000000,0.000000,1.000000
-13.827164,17.978131,-6.791826,0.896873,-0.000000,0.442289
-8.706019,16.008897,-20.949665,0.000000,0.000000,-1.000000
25.624792,-23.311799,-3.122581,0.098017,0.000000,0.995185
-15.247852,28.875751,-2.308083,0.980785,0.000000,0.195090
19.655151,30.291908,20.029983,-0.000000,1.000000,0.000000
-2.830591,30.070756,-15.143919,0.195090,0.000000,0.980785
24.399004,-30.291908,15.924448,-0.000000,-1.000000,0.000000
-4.479693,6.576271,-20.949665,0.000000,0.000000,-1.000000
-25.283490,30.291908,-9.577528,0.000000,1.000000,0.000000
7.626203,18.634547,20.949665,0.000000,-0.000000,1.000000
-34.185024,22.214202,-14.244710,-1.000000,0.000000,0.000000
-9.049213,-30.291908,15.592365,0.000000,-1.000000,0.000000
-25.571113,14.063695,-20.949665,0.000000,0.000000,-1.000000
24.849342,3.923075,20.949665,0.000000,0.000000,1.000000
-17.063434,-13.902838,-20.949665,0.000000,0.000000,-1.000000
13.467519,8.861265,-20.949665,0.000000,0.000000,-1.000000
-33.880148,-30.291908,-3.682888,0.000000,-1.000000,0.000000
-18.437361,-8.569928,20.949665,0.000000,-0.000000,1.000000
8.654874,16.327660,11.348279,-0.000000,1.000000,0.000000
31.670179,-30.291908,5.796443,-0.000000,-1.000000,0.000000
9.796556,30.273716,-11.898593,-0.659346,0.000000,0.751840
-34.185024,4.009437,1.466805,-1.000000,0.000000,0.000000
22.259399,30.291908,11.881349,0.000000,1.000000,-0.000000
-34.185024,-13.212464,-8.580123,-1.000000,0.000000,0.000000
-21.508680,25.601241,-20.949665,0.000000,0.000000,-1.000000
-14.888635,30.291908,-8.625472,-0.000000,1.000000,0.000000
-23.826338,-21.111508,-2.110940,-0.773011,0.000000,0.634393
-9.710494,5.335582,20.949665,0.000000,-0.000000,1.000000
-33.697496,-18.711586,20.949665,0.000000,-0.000000,1.000000
-27.296772,30.291908,19.115103,0.000000,1.000000,0.000000
-12.108354,-7.393416,-0.770673,0.995185,0.000000,0.098017
-10.463352,-30.291908,-11.756105,0.000000,-1.000000,0.000000
31.723566,19.146250,-20.949665,0.000000,0.000000,-1.000000
-3.438253,-6.120746,11.628224,0.290285,0.000000,-0.956940
-28.828967,-22.366842,-20.949665,0.000000,0.000000,-1.000000
-34.185024,-28.639549,14.344949,-1.000000,0.000000,0.000000
22.377663,0.229477,20.949665,0.000000,0.000000,1.000000
-32.393700,-13.461438,-20.949665,0.000000,0.000000,-1.000000
34.185024,-9.093479,-17.360379,1.000000,0.000000,-0.000000
2.202016,4.601529,-11.967379,-0.098017,0.000000,0.995185
-13.992074,-28.943388,20.949665,0.000000,0.000000,1.000000
14.687092,-2.298757,20.949665,0.000000,0.000000,1.000000
-21.546312,-30.291908,2.622238,0.000000,-1.000000,0.000000
24.706650,5.205581,2.795664,0.471397,-0.000000,-0.881921
34.185024,3.476185,1.985476,1.000000,-0.000000,0.000000
30.857079,26.476103,20.949665,0.000000,0.000000,1.000000
5.213861,-1.706980,-10.962193,-0.471397,0.000000,0.881921
-17.411089,-30.291908,-13.062175,0.000000,-1.000000,0.000000
29.141054,-21.991083,-1.149615,-0.956941,0.000000,0.290283
10.088761,8.397974,6.820487,-0.773010,0.000000,-0.634393
29.123723,17.348721,-1.206748,-0.956941,0.000000,0.290283
-14.093357,-6.414112,-20.949665,0.000000,0.000000,-1.000000
-32.942458,30.291908,1.413626,-0.000000,1.000000,0.000000
-25.198669,30.291908,3.877876,0.000000,1.000000,0.000000
23.121393,-18.722509,-20.949665,0.000000,0.000000,-1.000000
1.961204,-27.896160,20.949665,0.000000,0.000000,1.000000
24.131640,-0.041662,-2.405923,0.634394,0.000000,0.773010
-0.398944,-29.246064,-20.949665,0.000000,0.000000,-1.000000
23.453921,12.708281,1.599158,0.881921,0.000000,-0.471397
-34.185024,23.427996,6.482019,-1.000000,0.000000,0.000000
12.013438,-6.612246,-1.734376,-0.995185,0.000000,0.098017
7.141880,-12.065439,9.825000,-0.634393,0.000000,-0.773010
-34.185024,-4.789832,11.858355,-1.000000,0.000000,0.000000
-29.208295,0.374170,0.927951,0.956940,-0.000000,-0.290286
28.902079,30.291908,12.813202,-0.000000,1.000000,0.000000
26.511878,-0.193109,3.145567,-0.098017,0.000000,-0.995185
24.768158,-18.944372,2.828541,0.471397,-0.000000,-0.881921
-34.185024,28.476842,-9.158952,-1.000000,0.000000,0.000000
34.185024,5.429409,-11.602748,1.000000,0.000000,-0.000000
-6.267601,13.358813,20.949665,0.000000,-0.000000,1.000000
22.338311,-19.671555,-20.949665,0.000000,0.000000,-1.000000
33.064571,-30.291908,8.009348,-0.000000,-1.000000,0.000000
29.254324,-10.983427,-0.776211,-0.956941,0.000000,0.290283
-10.537620,-7.770826,20.949665,0.000000,-0.000000,1.000000
-6.298346,21.054878,-20.949665,0.000000,0.000000,-1.000000
9.636621,-30.291908,7.937660,-0.000000,-1.000000,0.000000
-15.359930,17.578162,20.949665,0.000000,-0.000000,1.000000
-17.681694,30.291908,6.587135,0.000000,1.000000,0.000000
-34.185024,-28.977010,-11.903791,-1.000000,0.000000,0.000000
-4.155346,-30.291908,-15.297336,0.000000,-1.000000,0.000000
-21.454882,-30.291908,8.561415,0.000000,-1.000000,0.000000
-19.462780,13.682268,20.949665,0.000000,-0.000000,1.000000
-1.998090,-12.234422,20.949665,0.000000,0.000000,1.000000
6.655880,24.694538,13.894205,-0.442289,0.000000,-0.896873
-13.744774,20.089309,-20.949665,0.000000,0.000000,-1.000000
28.298965,-10.254800,-2.356228,-0.634394,0.000000,0.773010
-16.429192,-30.291908,-18.924416,0.000000,-1.000000,0.000000
3.236260,-30.291908,18.320442,0.000000,-1.000000,0.000000
-34.185024,10.112211,5.378081,-1.000000,0.000000,0.000000
17.945486,10.173823,20.949665,0.000000,0.000000,1.000000
26.378456,30.291908,-8.876354,-0.000000,1.000000,-0.000000
34.185024,-1.037632,17.455709,1.000000,-0.000000,0.000000
-24.038035,14.030520,-20.949665,0.000000,0.000000,-1.000000
21.458805,30.291908,15.160703,0.000000,1.000000,-0.000000
10.598733,9.205132,-5.893847,-0.881921,0.000000,0.471397
29.343535,-2.241024,-0.195450,-0.995185,0.000000,0.098017
-2.929067,12.780194,-20.949665,0.000000,0.000000,-1.000000
-27.983651,19.289052,-20.949665,0.000000,0.000000,-1.000000
34.185024,27.976358,18.789296,1.000000,-0.000000,0.000000
-20.886008,29.865858,-20.949665,0.000000,0.000000,-1.000000
-13.716115,-0.448899,-20.949665,0.000000,0.000000,-1.000000
-16.867092,-30.291908,-8.276546,0.000000,-1.000000,0.000000
-29.312916,-30.010235,-0.506332,0.995185,0.000000,0.098016
-29.272260,27.874091,0.717085,0.956940,0.000000,-0.290287
27.750499,-5.941249,20.949665,0.000000,0.000000,1.000000
-34.185024,4.092800,12.773396,-1.000000,0.000000,0.000000
-9.098845,-29.541368,8.026702,0.773010,0.000000,-0.634393
34.185024,-15.128425,3.783192,1.000000,0.000000,-0.000000
-3.970096,30.291908,17.041564,-0.000000,1.000000,0.000000
-23.871973,9.394552,2.166547,-0.773011,0.000000,-0.634392
30.195601,-30.291908,9.358678,0.000000,-1.000000,0.000000
-25.993416,-15.403848,-20.949665,0.000000,0.000000,-1.000000
32.004850,-4.478993,20.949665,0.000000,0.000000,1.000000
34.185024,-7.273021,9.682454,1.000000,-0.000000,0.000000
-9.747238,-6.263793,-7.236633,0.773010,0.000000,0.634393
34.185024,-10.090193,-3.518016,1.000000,0.000000,-0.000000
7.950526,20.245449,-20.949665,0.000000,0.000000,-1.000000
16.110729,18.298849,-20.949665,0.000000,0.000000,-1.000000
7.379485,-21.440997,20.949665,0.000000,0.000000,1.000000
3.359036,-1.256964,20.949665,0.000000,0.000000,1.000000
34.185024,23.594123,8.806070,1.000000,-0.000000,0.000000
-26.638776,17.577305,-3.133069,0.098017,0.000000,0.995185
-27.592330,19.832004,-20.949665,0.000000,0.000000,-1.000000
-23.405501,-5.468944,-1.508570,-0.881921,0.000000,0.471398
29.785761,-30.291908,1.699651,-0.000000,-1.000000,0.000000
-18.095293,-30.291908,12.088130,0.000000,-1.000000,0.000000
-8.897761,15.446299,8.271723,0.773010,0.000000,-0.634393
-17.867677,-24.716368,20.949665,0.000000,0.000000,1.000000
31.473987,30.291908,-1.866679,0.000000,1.000000,-0.000000
-0.078295,-6.335780,20.949665,0.000000,0.000000,1.000000
1.932151,-15.960108,-20.949665,0.000000,0.000000,-1.000000
24.046610,30.291908,-20.917579,-0.000000,1.000000,0.000000
-1.972115,-9.552167,-20.949665,0.000000,0.000000,-1.000000
-34.185024,2.563417,20.494456,-1.000000,0.000000,0.000000
-9.932448,5.278075,-20.949665,0.000000,0.000000,-1.000000
-32.229488,0.441885,20.949665,0.000000,-0.000000,1.000000
21.619159,-30.291908,13.740746,-0.000000,-1.000000,0.000000
-21.975199,-24.709978,20.949665,0.000000,0.000000,1.000000
-34.185024,-22.748662,4.841036,-1.000000,0.000000,0.000000
-34.185024,-20.211860,-19.400719,-1.000000,0.000000,0.000000
24.423786,29.264375,-2.644471,0.471397,0.000000,0.881921
1.235983,-14.304612,12.062525,-0.098017,-0.000000,-0.995185
2.485947,-16.639227,-11.917102,-0.290285,0.000000,0.956940
-24.513772,-20.709940,20.949665,0.000000,-0.000000,1.000000
21.156141,-25.205765,20.949665,0.000000,0.000000,1.000000
24.626021,0.517373,20.949665,0.000000,0.000000,1.000000
-2.305756,0.012672,-20.949665,0.000000,0.000000,-1.000000
8.362284,-19.687423,-8.823440,-0.634393,0.000000,0.773010
-29.362319,-23.749517,-20.949665,0.000000,0.000000,-1.000000
-2.629559,-30.083069,20.949665,0.000000,0.000000,1.000000
30.247955,-30.291908,-2.716439,-0.000000,-1.000000,0.000000
26.799848,-3.559469,-3.117204,-0.098017,0.000000,0.995185
-32.726824,-2.788845,-20.949665,0.000000,0.000000,-1.000000
-24.458890,-20.363764,-20.949665,0.000000,0.000000,-1.000000
9.141774,8.122704,7.974393,-0.773010,0.000000,-0.634393
-2.521449,19.349307,-20.949665,0.000000,0.000000,-1.000000
3.578562,6.475719,-20.949665,0.000000,0.000000,-1.000000
-1.048372,-2.844408,-12.081003,0.098017,-0.000000,0.995185
-3.057461,-1.537631,20.949665,0.000000,-0.000000,1.000000
-31.044785,25.663117,20.949665,0.000000,-0.000000,1.000000
-34.185024,-1.890968,9.922810,-1.000000,0.000000,0.000000
-34.185024,-4.581554,-6.029585,-1.000000,0.000000,0.000000
-34.185024,12.138024,-5.594860,-1.000000,0.000000,0.000000
-5.615107,14.595990,-20.949665,0.000000,0.000000,-1.000000
-34.185024,7.367585,8.740119,-1.000000,0.000000,0.000000
2.952340,19.187963,20.949665,0.000000,-0.000000,1.000000
34.185024,28.827178,-8.347619,1.000000,-0.000000,0.000000
32.352307,13.483283,-20.949665,0.000000,0.000000,-1.000000
-34.185024,14.076985,3.392873,-1.000000,0.000000,0.000000
29.657890,-14.839060,-20.949665,0.000000,0.000000,-1.000000
16.627189,-13.323064,20.949665,0.000000,0.000000,1.000000
-31.030936,30.291908,-6.268735,-0.000000,1.000000,0.000000
23.015079,28.257873,0.079321,0.995185,0.000000,-0.098017
-34.185024,-9.614927,-1.890177,-1.000000,0.000000,0.000000
-20.033454,-21.508470,-20.949665,0.000000,0.000000,-1.000000
31.873222,-22.960228,-20.949665,0.000000,0.000000,-1.000000
-31.157906,14.949690,20.949665,0.000000,-0.000000,1.000000
3.543983,-28.221736,-11.596151,-0.290285,0.000000,0.956940
-9.319220,6.003178,7.758175,0.773010,0.000000,-0.634393
26.713073,-10.030579,-3.125751,-0.098017,0.000000,0.995185
-17.206065,-8.959450,20.949665,0.000000,-0.000000,1.000000
11.688168,6.244726,3.240642,-0.956940,0.000000,-0.290285
34.185024,-25.637119,-6.394937,1.000000,0.000000,-0.000000
0.654866,2.978277,20.949665,0.000000,-0.000000,1.000000
-16.738218,18.255556,-20.949665,0.000000,0.000000,-1.000000
-11.404236,-19.177912,-20.949665,0.000000,0.000000,-1.000000
-27.103709,2.782789,-3.026079,0.290284,0.000000,0.956941
-5.150989,-30.291908,-16.240508,0.000000,-1.000000,0.000000
13.937952,1.543309,20.949665,0.000000,0.000000,1.000000
27.768516,12.693601,2.739480,-0.471397,0.000000,-0.881921
-9.138681,-30.291908,20.710002,0.000000,-1.000000,0.000000
10.156735,-30.291908,19.201312,0.000000,-1.000000,0.000000
10.668809,16.051750,5.762745,-0.881921,0.000000,-0.471397
34.185024,27.048920,5.920045,1.000000,-0.000000,0.000000
-7.273988,-21.244262,-9.716582,0.634393,0.000000,0.773010
4.054548,-4.683520,11.441273,-0.290285,-0.000000,-0.956940
25.300962,-30.291908,15.646297,-0.000000,-1.000000,0.000000
23.868302,14.459834,20.949665,0.000000,0.000000,1.000000
-0.632800,-12.230771,-12.121933,0.098017,-0.000000,0.995185
-34.185024,-11.922861,18.995049,-1.000000,0.000000,0.000000
-34.185024,23.256912,-18.933671,-1.000000,0.000000,0.000000
34.185024,3.082192,2.611249,1.000000,-0.000000,0.000000
12.654413,11.966635,20.949665,0.000000,-0.000000,1.000000
-15.560051,14.034475,-20.949665,0.000000,0.000000,-1.000000
-34.185024,-6.674887,4.848385,-1.000000,0.000000,0.000000
23.989261,-30.291908,-11.948921,0.000000,-1.000000,0.000000
-19.371831,-30.291908,-6.718822,0.000000,-1.000000,0.000000
-2.501875,-11.659286,11.912271,0.290285,0.000000,-0.956940
-4.897304,-8.758831,-11.131396,0.471397,-0.000000,0.881921
34.185024,15.141836,-6.247127,1.000000,-0.000000,0.000000
4.213833,-15.033388,-20.949665,0.000000,0.000000,-1.000000
5.527598,29.355704,-20.949665,0.000000,0.000000,-1.000000
5.365671,-23.313781,-20.949665,0.000000,0.000000,-1.000000
8.816330,2.701333,-20.949665,0.000000,0.000000,-1.000000
33.840336,26.971276,-20.949665,0.000000,0.000000,-1.000000
14.812482,4.186494,20.949665,0.000000,0.000000,1.000000
22.355548,-17.811165,-20.949665,0.000000,0.000000,-1.000000
34.185024,-14.930586,-18.359353,1.000000,0.000000,-0.000000
-12.165039,-30.291908,-19.125245,0.000000,-1.000000,0.000000
6.205655,-18.555515,20.949665,0.000000,0.000000,1.000000
-3.768175,-6.761894,20.949665,0.000000,0.000000,1.000000
-18.209297,-6.826395,-20.949665,0.000000,0.000000,-1.000000
26.010607,20.246052,3.160580,0.098017,0.000000,-0.995185
-11.510225,30.291908,-16.167690,-0.000000,1.000000,0.000000
-12.165124,9.747771,-0.194276,0.995185,0.000000,0.098017
26.508913,30.076476,-20.949665,0.000000,0.000000,-1.000000
0.240635,-1.825864,-12.160558,-0.098017,0.000000,0.995185
1.106225,13.963769,12.075305,-0.098017,0.000000,-0.995185
-21.425618,30.291908,18.034143,0.000000,1.000000,0.000000
-34.185024,-28.362845,-1.854644,-1.000000,0.000000,0.000000
-10.434791,-22.528838,-20.949665,0.000000,0.000000,-1.000000
-16.025407,19.868155,-20.949665,0.000000,0.000000,-1.000000
34.185024,26.808544,12.560294,1.000000,-0.000000,0.000000
-11.665659,-13.420502,-3.314846,0.956940,0.000000,0.290285
33.371727,30.291908,-9.121227,0.000000,1.000000,-0.000000
-34.185024,3.829078,-4.516862,-1.000000,0.000000,0.000000
11.846772,-30.236727,-2.717794,-0.956940,0.000000,0.290285
28.549337,29.825717,2.104090,-0.773011,0.000000,-0.634393
34.185024,-18.046076,14.460112,1.000000,-0.000000,0.000000
18.901144,-3.098546,-20.949665,0.000000,0.000000,-1.000000
26.602921,-29.720524,-20.949665,0.000000,0.000000,-1.000000
33.259051,30.291908,13.735768,0.000000,1.000000,-0.000000
-13.528447,-13.645556,20.949665,0.000000,0.000000,1.000000
-6.304548,-4.709739,10.379209,0.471397,0.000000,-0.881921
-2.203163,12.133454,-11.967266,0.098017,0.000000,0.995185
-24.420863,27.753456,20.949665,0.000000,-0.000000,1.000000
-34.185024,1.120876,-18.527441,-1.000000,0.000000,0.000000
34.185024,-17.080925,11.423124,1.000000,0.000000,-0.000000
-24.378126,-19.365921,-2.608209,-0.634394,0.000000,0.773010
23.321689,-30.291908,-18.605884,0.000000,-1.000000,0.000000
-34.185024,-28.085363,5.709839,-1.000000,0.000000,0.000000
-1.050466,-9.928919,-12.080797,0.098017,0.000000,0.995185
-31.769266,30.291908,-14.881004,-0.000000,1.000000,0.000000
-6.446396,13.893772,10.303390,0.471397,0.000000,-0.881921
7.506585,29.325127,-13.474683,-0.442289,0.000000,0.896873
15.100358,-1.875880,20.949665,0.000000,0.000000,1.000000
-1.749357,21.189419,15.323549,0.065403,0.000000,-0.997859
28.830325,16.924361,-20.949665,0.000000,0.000000,-1.000000
28.092267,25.581405,-2.525861,-0.634394,0.000000,0.773010
5.400221,-12.755009,-20.949665,0.000000,0.000000,-1.000000
-10.857385,-4.442773,5.409943,0.881921,0.000000,-0.471397
12.076285,-17.987387,1.096273,-0.995185,-0.000000,-0.098017
30.883213,30.291908,-18.215522,-0.000000,1.000000,0.000000
34.185024,19.769497,18.959118,1.000000,-0.000000,0.000000
-4.237508,30.291908,15.633868,0.000000,1.000000,0.000000
-34.185024,19.742305,0.560620,-1.000000,0.000000,0.000000
34.185024,-0.375648,-5.003658,1.000000,0.000000,-0.000000
-34.185024,-29.468756,-9.238035,-1.000000,0.000000,0.000000
34.185024,-10.262929,7.197138,1.000000,-0.000000,0.000000
-34.185024,-12.994014,3.054971,-1.000000,0.000000,0.000000
-23.199055,26.561436,1.050905,-0.956940,0.000000,-0.290287
13.958622,15.173311,20.949665,0.000000,-0.000000,1.000000
-34.185024,-22.747934,2.544967,-1.000000,0.000000,0.000000
-23.579555,30.291908,-12.163993,-0.000000,1.000000,0.000000
-9.510645,23.126751,20.949665,0.000000,-0.000000,1.000000
33.548081,30.291908,6.218960,0.000000,1.000000,-0.000000
-34.185024,-26.329791,7.342482,-1.000000,0.000000,0.000000
-8.108736,8.245305,9.031522,0.634393,0.000000,-0.773010
-34.185024,-16.216784,-7.225878,-1.000000,0.000000,0.000000
34.185024,4.448920,10.376533,1.000000,-0.000000,0.000000
-16.430777,-14.317783,-20.949665,0.000000,0.000000,-1.000000
34.185024,5.084874,4.315509,1.000000,-0.000000,0.000000
-23.020486,-18.230217,-0.134215,-0.995185,0.000000,0.098017
22.488907,30.291908,-2.185068,-0.000000,1.000000,-0.000000
-34.185024,-29.607334,-6.835153,-1.000000,0.000000,0.000000
-0.797457,-27.438741,12.105716,0.098017,0.000000,-0.995185
-34.185024,21.306865,10.268966,-1.000000,0.000000,0.000000
-12.027243,0.561297,1.594206,0.995185,0.000000,-0.098017
11.088389,-11.081822,-20.949665,0.000000,0.000000,-1.000000
-20.781314,30.291908,-6.359673,-0.000000,1.000000,0.000000
1.857441,21.796180,-15.316465,-0.065403,0.000000,0.997859
10.077844,0.883913,-20.949665,0.000000,0.000000,-1.000000
-10.257927,24.315429,-11.493982,0.659346,0.000000,0.751840
-27.144799,-0.694677,-20.949665,0.000000,0.000000,-1.000000
-10.721916,-29.611403,-5.663388,0.881921,0.000000,0.471397
-23.723206,29.930763,-20.949665,0.000000,0.000000,-1.000000
14.773646,-30.291908,4.178623,-0.000000,-1.000000,0.000000
25.654034,-21.822325,-20.949665,0.000000,0.000000,-1.000000
9.391957,-23.386192,7.669544,-0.773010,0.000000,-0.634393
26.723036,23.163178,20.949665,0.000000,0.000000,1.000000
22.349762,30.291908,7.697659,-0.000000,1.000000,0.000000
30.828864,8.232371,20.949665,0.000000,0.000000,1.000000
