x,y,z,nx,ny,nz
27.002322,24.807294,-5.950094,0.096828,0.087760,0.991425
30.509856,31.590249,-7.433870,0.409130,0.451405,-0.792999
13.581944,36.096607,-5.707896,-0.129055,-0.360685,0.923716
18.957120,25.646956,8.962852,-0.228199,-0.307691,0.923716
31.642683,0.130894,8.803239,-0.608489,-0.029893,0.792999
17.318854,28.687152,-4.892135,0.313203,0.522548,0.792999
29.273016,34.286975,6.029240,0.533022,0.588099,0.608299
28.045451,2.096241,5.316187,-0.792752,-0.038946,0.608300
26.222107,37.954853,4.270406,0.550451,0.742198,0.382290
32.599899,0.678962,4.163108,0.792751,0.038945,-0.608300
42.032738,12.214374,7.553008,0.590966,0.148029,0.792998
30.558242,0.343099,-7.979118,-0.608489,-0.029893,-0.792999
28.910202,15.060590,9.245344,-0.346298,-0.163787,0.923716
31.707360,22.487738,10.008807,0.104964,0.077846,0.991424
20.502910,42.307019,-0.846244,0.423906,0.896274,-0.130372
39.272578,4.472135,-9.924423,0.129266,0.019175,-0.991424
32.534714,4.289583,-4.356298,0.602630,0.089392,0.792998
27.213009,21.287368,5.449193,0.307691,0.228199,-0.923716
11.200197,39.530789,9.279877,0.093080,0.371597,0.923716
36.717896,23.223913,-7.789209,0.522548,0.313204,-0.792999
31.781481,2.179818,8.945263,-0.382616,-0.018797,0.923716
42.719936,10.238263,-7.409770,0.590966,0.148029,-0.792998
21.812210,28.694690,5.867626,0.077846,0.104964,-0.991425
31.929704,0.000000,-8.382497,0.000000,-1.000000,0.000000
26.279996,22.448218,9.967481,-0.096828,-0.087760,0.991424
41.178173,3.603712,-3.935029,-0.792752,-0.038946,0.608299
27.790657,4.851970,5.430056,-0.785117,-0.116461,0.608299
30.387047,0.000000,3.125757,0.000000,-1.000000,0.000000
14.443174,36.129080,10.006256,0.044025,0.123042,0.991424
41.016023,12.964738,8.132915,0.573611,0.205241,0.792998
24.291940,15.861479,-6.458921,-0.680786,-0.408047,-0.608300
17.972590,42.297516,-4.718400,0.395079,0.835325,-0.382289
22.121242,33.513617,9.673583,0.196941,0.328576,0.923716
34.435182,1.734814,-5.424419,0.382616,0.018797,0.923716
27.623716,6.992819,-5.812607,-0.769921,-0.192856,-0.608299
36.649511,2.684134,10.256091,-0.130523,-0.006412,0.991425
25.828195,21.948310,-5.174508,0.451404,0.409129,0.792999
19.536718,26.059454,9.243442,-0.228199,-0.307691,0.923716
12.125194,26.768158,-6.970396,-0.339354,-0.717503,-0.608299
33.004814,26.790197,1.930782,-0.742198,-0.550451,-0.382291
31.557888,27.021474,-3.642795,-0.588099,-0.533022,0.608299
17.489606,21.655796,4.739854,-0.550451,-0.742198,0.382290
13.410009,32.348561,-10.023999,-0.055873,-0.118134,-0.991424
31.613059,27.290750,3.353504,-0.588099,-0.533022,-0.608299
11.208786,24.773538,3.228526,-0.395079,-0.835324,0.382290
12.704744,29.241175,-3.212880,0.339354,0.717503,0.608299
9.800391,35.999166,9.175670,-0.964883,0.262679,0.000000
20.697254,29.336501,10.144786,-0.077847,-0.104964,0.991424
23.646496,17.662872,-7.143264,-0.637512,-0.472811,-0.608300
45.081719,12.920123,-1.920096,0.961752,0.240906,-0.130373
15.106303,31.564678,10.026191,-0.055873,-0.118134,0.991424
32.761505,26.733649,8.706477,0.489333,0.362914,0.792999
20.117576,37.052409,-2.765183,-0.475053,-0.792577,0.382292
32.373615,8.762217,-4.909807,0.590965,0.148029,0.792999
17.511082,27.541064,-4.203960,0.408047,0.680786,0.608299
27.932878,14.012651,1.897616,0.835325,0.395079,-0.382290
34.734306,31.039241,3.122296,0.684670,0.620549,0.382290
15.421613,39.087572,-8.891969,0.205241,0.573610,-0.792999
20.388646,40.060251,6.201761,0.339354,0.717503,0.608300
36.984749,0.000000,-9.299980,-0.000000,-1.000000,0.000000
23.613029,29.230193,-10.182712,0.077846,0.104964,-0.991424
41.951270,21.286578,0.743823,0.896274,0.423906,0.130372
37.796525,8.682594,10.020672,0.126765,0.031753,0.991424
20.375743,37.497294,-1.469162,-0.509715,-0.850408,0.130370
11.204163,41.155555,3.585019,-0.964883,0.262680,-0.000000
39.978986,24.347251,-2.390860,0.850408,0.509715,-0.130372
45.926381,6.991126,-3.426843,0.914041,0.135585,-0.382289
40.675600,13.235649,-0.563412,-0.933508,-0.334014,0.130372
23.629340,31.446791,-5.387689,-0.228199,-0.307691,0.923716
14.143373,27.998727,8.608587,-0.260477,-0.550731,0.792999
35.859283,0.048236,-5.838252,0.130523,0.006412,0.991425
33.739684,9.454541,5.651262,0.371597,0.093080,-0.923716
12.189912,44.776443,3.378167,-0.964883,0.262679,-0.000000
43.732708,17.220102,-1.102272,0.933508,0.334015,-0.130372
35.138730,0.000000,-6.587885,-0.000000,-1.000000,-0.000000
38.897942,4.480845,-5.470579,-0.378931,-0.056209,0.923716
31.154801,0.000000,-7.338733,-0.000000,-1.000000,0.000000
46.372628,8.353865,-0.197822,0.980734,0.145478,-0.130373
15.697182,40.709294,-7.647585,0.205241,0.573611,-0.792998
24.244609,14.468684,5.471663,-0.680785,-0.408047,0.608300
25.148860,34.281077,1.816307,-0.550451,-0.742197,-0.382291
34.189688,32.354708,0.467767,0.734627,0.665827,0.130372
26.109364,25.966779,-10.262276,-0.096828,-0.087760,-0.991424
33.584066,30.943883,-5.244711,0.588099,0.533021,-0.608299
33.231111,29.223993,-7.092996,0.588099,0.533022,-0.608299
27.135540,7.752415,-5.435549,-0.769921,-0.192856,-0.608299
7.551893,27.739900,-2.142520,-0.964883,0.262679,0.000000
33.844636,22.040801,9.572987,0.328576,0.196941,0.923716
17.346877,30.542267,10.042292,-0.067183,-0.112089,0.991424
40.693432,0.000000,-5.199758,-0.000000,-1.000000,0.000000
35.861772,1.567371,-10.145161,-0.130523,-0.006412,-0.991425
35.447524,1.184069,5.791389,0.130523,0.006412,-0.991425
12.768772,40.098366,2.928014,-0.311301,-0.870027,-0.382289
45.046997,10.417465,3.975231,0.896350,0.224524,0.382289
26.288181,16.285888,0.206201,0.850408,0.509715,-0.130372
43.780956,0.801939,-7.532536,0.608490,0.029893,-0.792999
33.247825,29.750022,6.615904,0.588098,0.533022,0.608299
29.017759,24.885740,-5.797799,-0.096828,-0.087760,0.991425
26.466205,22.021151,-9.947864,-0.096828,-0.087760,-0.991424
28.057733,8.081343,-6.707046,-0.769921,-0.192855,-0.608300
39.767532,8.681516,-9.438439,0.371597,0.093080,-0.923716
20.817833,25.475733,4.395850,0.362914,0.489332,-0.792999
25.243542,18.992941,-8.787024,-0.489333,-0.362914,-0.792999
39.126048,15.970940,-8.721962,0.573611,0.205241,-0.792999
23.953516,16.825284,6.814000,-0.637512,-0.472811,0.608300
19.272330,32.590510,-5.844093,-0.067183,-0.112089,0.991425
30.091607,29.888498,-2.173266,-0.684670,-0.620549,0.382290
11.990340,32.768077,-10.012892,-0.044025,-0.123042,-0.991424
15.709214,38.696968,-3.384693,-0.267392,-0.747311,0.608299
27.895126,37.762342,1.326201,0.590615,0.796352,0.130371
29.299720,30.734239,-8.545484,0.409130,0.451404,-0.792999
14.059854,34.399507,5.941172,-0.044025,-0.123042,-0.991425
37.087939,20.004215,-2.832391,-0.792577,-0.475052,0.382292
39.064859,0.000000,8.738540,0.000000,-1.000000,0.000000
41.019081,5.784410,3.780459,-0.785117,-0.116461,-0.608299
20.902012,23.527202,-2.446879,0.620549,0.684670,0.382290
28.403238,12.379041,-0.572758,0.896274,0.423906,0.130372
41.794036,1.859189,3.244111,-0.792751,-0.038945,-0.608300
25.104336,32.909242,3.827789,-0.472811,-0.637512,-0.608299
13.746245,44.329192,-3.635322,0.311301,0.870027,-0.382289
45.382382,7.546969,-4.530387,0.914041,0.135585,-0.382289
11.525726,34.647289,-5.928726,0.044025,0.123042,0.991424
28.412334,13.717498,2.640227,0.835325,0.395079,-0.382290
41.081241,6.312755,-9.074451,0.378931,0.056209,-0.923716
39.320988,13.446258,3.612804,-0.747311,-0.267392,-0.608299
19.933295,21.301346,6.692894,-0.533022,-0.588098,0.608299
43.618833,0.000000,3.584945,0.000000,-1.000000,0.000000
24.122775,28.129930,-5.952047,-0.087760,-0.096828,0.991425
8.359459,30.706281,-6.444179,-0.964883,0.262679,-0.000000
41.045136,12.174217,0.439209,-0.961752,-0.240906,-0.130372
23.730553,22.074967,9.176533,-0.283841,-0.257259,0.923716
39.537256,25.251524,-1.736805,0.850408,0.509715,-0.130371
22.114324,18.555063,-6.271200,-0.588099,-0.533021,-0.608300
26.615942,19.799226,-4.633272,0.489333,0.362914,0.792999
38.578142,26.613491,-2.149148,0.796352,0.590615,-0.130371
23.916454,28.613953,-5.923038,-0.087760,-0.096828,0.991425
31.139505,29.163325,1.316922,-0.734627,-0.665827,-0.130371
31.925818,26.425902,3.808953,-0.588099,-0.533022,-0.608299
18.585171,42.973010,2.503268,0.423906,0.896274,0.130372
17.812179,28.416524,-9.642312,-0.196941,-0.328576,-0.923716
45.182983,12.184166,-2.532997,0.961752,0.240906,-0.130373
23.545247,40.787786,-0.250698,0.509715,0.850408,-0.130372
22.243105,29.968543,-10.212107,0.077846,0.104964,-0.991424
43.057725,0.000000,-4.156263,0.000000,-1.000000,0.000000
36.651066,7.299055,5.914687,-0.126764,-0.031753,-0.991424
11.247078,41.313191,-1.686236,-0.964883,0.262680,0.000001
35.087993,0.000000,6.813968,0.000000,-1.000000,0.000000
29.104720,26.219678,9.967984,0.096828,0.087760,0.991424
10.713343,32.119833,5.154872,0.205241,0.573610,-0.792999
25.848045,16.259186,-7.972381,-0.522548,-0.313203,-0.792999
17.684121,34.945598,9.970864,0.055873,0.118134,0.991424
21.303559,23.921430,-3.428849,0.533021,0.588098,0.608300
27.192379,34.127638,7.653544,0.362914,0.489333,0.792999
33.596090,10.596300,10.053750,-0.123042,-0.044025,0.991424
17.307422,38.993252,-1.380696,-0.423906,-0.896274,0.130370
44.683869,7.675156,5.686231,0.785117,0.116461,0.608300
14.132116,31.679788,-5.508034,0.163787,0.346298,0.923716
21.317626,22.234140,-8.172859,-0.409129,-0.451405,-0.792999
26.906186,0.238449,-2.155443,-0.990271,-0.048649,-0.130371
13.624228,31.168753,9.837381,-0.163786,-0.346298,0.923716
27.801779,17.726206,-4.469604,0.522548,0.313203,0.792999
12.353099,34.340168,10.224107,-0.044025,-0.123042,0.991424
21.110876,37.227074,8.288252,0.313203,0.522548,0.792999
13.506047,31.950610,-9.981993,-0.055873,-0.118134,-0.991424
32.141834,4.267434,9.181630,-0.378931,-0.056209,0.923716
9.716477,25.478933,3.411104,-0.311300,-0.870027,0.382290
19.686431,18.232144,1.738423,-0.734628,-0.665827,0.130371
23.951530,33.960361,3.622228,-0.472811,-0.637512,-0.608299
32.701913,6.985621,9.595984,-0.371597,-0.093080,0.923716
26.632978,1.220823,-0.446796,-0.990271,-0.048649,-0.130371
40.468855,11.130012,-3.080349,-0.769921,-0.192855,0.608299
23.028309,16.136538,5.309022,-0.637512,-0.472811,0.608300
32.278452,4.207803,4.101201,0.785116,0.116461,-0.608300
15.647783,26.713546,-0.486027,0.509715,0.850408,0.130372
13.113369,36.721032,-5.529542,-0.129055,-0.360685,0.923716
43.248695,0.000000,-3.401364,0.000000,-1.000000,0.000000
24.144535,14.845442,5.612394,-0.680785,-0.408047,0.608300
11.981402,44.010538,3.100182,-0.964883,0.262679,-0.000000
24.515724,13.259057,-4.816503,-0.792577,-0.475053,-0.382290
25.533909,7.855275,-0.651083,-0.933508,-0.334014,-0.130372
30.542418,7.600213,-8.697843,-0.590966,-0.148029,-0.792999
32.936022,33.701367,-0.250536,0.665827,0.734627,-0.130372
34.413813,29.368210,5.823200,0.588099,0.533022,0.608299
41.990082,15.764467,6.312547,0.747311,0.267392,0.608300
42.416708,15.628169,-5.848340,0.747311,0.267392,-0.608300
31.165402,4.425453,2.466197,0.914041,0.135585,-0.382290
25.207442,19.049858,-8.790796,-0.489333,-0.362914,-0.792999
12.105979,34.820420,-10.272453,0.044025,0.123042,-0.991424
18.540573,39.698561,7.496718,0.260477,0.550731,0.792999
14.058740,43.709871,-4.790326,0.311301,0.870027,-0.382289
39.969447,24.878255,-0.377012,0.850408,0.509715,-0.130371
22.914376,13.977692,1.811762,-0.850408,-0.509715,0.130372
20.784657,36.227306,3.343629,-0.408047,-0.680786,-0.608299
27.291973,2.529328,3.701851,-0.922929,-0.045341,0.382290
23.844993,30.418902,-5.676804,-0.228199,-0.307691,0.923716
26.698848,37.571714,-4.327801,0.550452,0.742197,-0.382290
24.724059,11.017638,2.922870,-0.835325,-0.395079,0.382290
10.616053,37.132040,5.692732,-0.093080,-0.371597,-0.923716
29.300520,29.236626,-9.165066,0.283842,0.257259,-0.923716
7.541660,27.702309,6.055422,-0.964883,0.262679,0.000000
14.919540,41.057078,-7.597284,0.205241,0.573611,-0.792998
41.362346,14.841691,7.396618,0.573611,0.205241,0.792998
45.091012,8.645785,-4.837331,0.914041,0.135585,-0.382289
17.109465,26.121679,1.798831,0.475053,0.792578,-0.382290
37.298466,21.115579,8.239351,0.522548,0.313203,0.792999
30.666527,13.037541,-4.728511,0.550731,0.260476,0.792999
45.855911,0.000000,-3.513816,0.000000,-1.000000,0.000000
19.427094,36.857565,-3.518013,-0.339354,-0.717503,0.608299
11.859154,43.561487,-5.614016,-0.964883,0.262679,-0.000000
30.391460,34.639029,4.344441,0.620549,0.684670,0.382290
21.669592,18.610398,5.889725,-0.588098,-0.533021,0.608300
47.035206,2.157554,0.289565,0.990271,0.048649,0.130371
35.944527,14.920463,5.579077,-0.346298,-0.163787,-0.923716
14.791952,38.510983,9.207087,0.129055,0.360684,0.923716
41.034359,16.907218,-6.984354,0.747311,0.267392,-0.608300
32.181080,27.123709,2.918996,-0.684671,-0.620549,-0.382290
35.548620,0.097778,10.094429,-0.130523,-0.006412,0.991425
13.981860,27.596039,0.235057,0.423906,0.896274,-0.130372
30.651224,22.934814,-10.085518,0.104964,0.077846,-0.991424
9.764024,30.230911,8.905027,-0.129055,-0.360684,0.923716
18.303156,27.881793,4.750203,0.313203,0.522548,-0.792999
15.034480,37.278043,-9.654629,0.129055,0.360684,-0.923716
31.778043,10.610596,9.627413,-0.360684,-0.129055,0.923716
37.301025,5.815746,10.155497,0.129266,0.019175,0.991424
38.070336,17.104594,9.005832,0.346298,0.163787,0.923716
25.481578,24.294123,-10.052901,-0.096828,-0.087760,-0.991424
30.020036,2.874397,7.661559,-0.608490,-0.029893,0.792999
41.891734,2.709222,8.903864,0.382616,0.018796,0.923716
24.376789,31.150017,-5.301892,-0.228199,-0.307691,0.923716
30.064812,16.262342,5.287206,0.328577,0.196941,-0.923716
41.730977,6.682021,8.690916,0.602630,0.089392,0.792999
7.577982,27.835728,0.275951,-0.964883,0.262679,-0.000000
41.823249,19.400209,-4.279318,0.835325,0.395079,-0.382289
17.053425,35.685085,-9.909126,0.163787,0.346298,-0.923716
36.724776,6.438259,-5.921835,-0.129266,-0.019175,0.991424
24.081393,22.478954,-4.453937,0.451404,0.409129,0.792999
26.706611,22.238095,-9.990547,-0.096828,-0.087760,-0.991424
29.373244,36.788599,0.577901,0.590615,0.796352,0.130372
19.653947,17.962798,-0.179789,-0.734627,-0.665827,-0.130371
46.793829,0.548376,-2.679319,0.922930,0.045341,-0.382289
24.956960,20.864265,9.216201,-0.283842,-0.257259,0.923716
17.993655,19.735222,-0.795360,-0.665827,-0.734627,-0.130372
22.700452,16.870850,-5.536176,-0.637512,-0.472811,-0.608300
10.347588,38.009149,7.518226,-0.964883,0.262680,-0.000000
14.930273,30.222237,-9.714114,-0.163787,-0.346298,-0.923716
30.526932,24.845923,-5.393545,-0.307691,-0.228199,0.923716
30.137639,10.659661,3.345134,0.747311,0.267392,-0.608299
41.631047,15.673773,6.793497,0.747311,0.267392,0.608300
14.292913,26.892285,-7.889292,-0.260476,-0.550731,-0.792999
36.192556,1.185334,-5.889482,0.130523,0.006412,0.991425
22.762508,31.206438,5.681897,-0.228199,-0.307691,-0.923716
39.679857,11.412444,3.989438,-0.769921,-0.192855,-0.608299
15.866394,27.662195,-3.236268,0.408047,0.680786,0.608299
24.950090,26.558700,5.919408,0.087760,0.096828,-0.991425
34.910611,16.440124,5.697233,-0.346298,-0.163787,-0.923716
33.388989,17.281004,5.882305,-0.118134,-0.055873,-0.991425
24.170215,30.110923,-10.045717,0.077846,0.104964,-0.991424
41.612150,11.024429,8.088569,0.590966,0.148029,0.792998
30.030362,0.000000,-6.894029,-0.000000,-1.000000,0.000000
22.007394,28.604176,-5.873369,0.077846,0.104964,0.991425
45.058225,8.028525,-5.134644,0.914041,0.135585,-0.382289
10.697827,34.709379,10.196425,-0.044025,-0.123042,0.991424
26.799722,11.816026,-6.835150,-0.717503,-0.339354,-0.608299
19.757510,28.250980,9.956071,-0.077847,-0.104964,0.991424
41.990420,8.964514,-8.191197,0.590966,0.148029,-0.792999
37.633838,11.652239,-9.943440,0.123042,0.044025,-0.991424
26.255456,36.345884,-6.329191,0.472811,0.637512,-0.608300
15.678639,22.024522,2.848145,-0.550451,-0.742198,0.382290
13.115736,45.264909,-0.207247,0.240905,0.961753,-0.130371
39.520825,16.245825,-1.119893,-0.933508,-0.334015,0.130371
23.033787,16.338609,5.471826,-0.637512,-0.472811,0.608300
8.092937,29.727281,6.436284,-0.964883,0.262679,0.000000
32.732175,27.996932,8.080328,0.451405,0.409130,0.792999
19.645781,42.699407,0.935639,0.423906,0.896274,0.130372
18.717231,29.918726,5.758637,0.196941,0.328577,-0.923716
34.862136,2.830728,10.021727,-0.130523,-0.006412,0.991425
14.160760,40.301952,0.868719,-0.334014,-0.933508,-0.130372
38.116859,4.273357,5.782199,-0.129266,-0.019175,-0.991424
28.534449,12.050116,0.405301,0.896274,0.423906,-0.130372
38.525116,13.881056,9.328832,0.360684,0.129055,0.923716
37.235295,19.690386,-2.872454,-0.835324,-0.395078,0.382292
38.661428,2.770864,10.023663,0.130524,0.006412,0.991424
24.205547,27.728189,5.967720,0.087760,0.096828,-0.991425
32.651384,20.712636,5.669625,-0.328576,-0.196941,-0.923716
30.571254,5.066338,-0.685375,0.980734,0.145478,0.130371
14.917323,26.593621,-7.933697,-0.313203,-0.522548,-0.792999
17.340732,30.766616,-10.067240,-0.067183,-0.112089,-0.991424
38.177408,12.308614,4.986416,-0.573610,-0.205241,-0.792999
25.944033,8.510452,3.487518,-0.870027,-0.311300,0.382290
19.090764,42.494680,3.131999,0.395079,0.835325,0.382290
28.142218,14.493609,-2.852085,0.835325,0.395079,0.382290
29.313153,8.268061,7.906426,-0.590966,-0.148029,0.792999
20.606558,37.515631,0.447113,-0.509715,-0.850408,-0.130370
41.892868,0.000000,-4.240479,-0.000000,-1.000000,0.000000
30.475267,0.434967,7.918912,-0.608489,-0.029893,0.792999
31.376328,29.111142,0.248962,-0.734627,-0.665827,-0.130371
23.259880,29.413184,5.894311,-0.077846,-0.104964,-0.991425
12.368286,29.634837,-3.489513,0.339354,0.717503,0.608299
31.145892,11.333012,-9.481507,-0.360684,-0.129055,-0.923716
26.954911,4.405281,-3.523820,-0.914041,-0.135585,-0.382290
36.161739,6.669949,-5.960911,0.129266,0.019175,0.991424
43.568334,17.536529,-1.468556,0.933508,0.334015,-0.130372
28.837855,14.746775,9.162578,-0.346298,-0.163787,0.923716
27.989627,16.611845,-9.234542,-0.328576,-0.196941,-0.923716
41.357299,9.866874,1.817878,-0.896350,-0.224524,-0.382290
9.711026,24.881044,0.730797,-0.334015,-0.933508,0.130372
40.345641,23.749506,-2.336189,0.850408,0.509715,-0.130372
9.342830,34.318438,-5.842063,-0.964883,0.262680,0.000000
14.168289,30.101374,9.533694,-0.163786,-0.346298,0.923716
17.907679,38.698279,-1.456821,-0.423906,-0.896274,0.130370
34.257396,0.000000,6.629135,0.000000,-1.000000,0.000000
31.003496,3.963008,-8.525465,-0.602629,-0.089391,-0.792999
33.908007,25.105689,2.602762,-0.742198,-0.550451,-0.382291
8.245775,30.177583,-8.546465,-0.148029,-0.590966,-0.792999
27.791294,0.389220,-4.653494,-0.922929,-0.045341,-0.382290
24.990229,31.662076,9.590766,0.228199,0.307691,0.923716
25.819941,9.223275,3.785560,-0.870027,-0.311301,0.382290
25.227333,33.005059,9.084842,0.228199,0.307691,0.923716
44.347759,14.666679,-2.843550,0.870027,0.311301,-0.382289
19.076728,23.532780,-7.769716,-0.362914,-0.489333,-0.792999
19.538956,18.291270,1.209387,-0.734627,-0.665827,0.130372
14.582525,32.858651,5.854102,0.055873,0.118134,-0.991425
19.292487,33.934495,5.515991,-0.196941,-0.328576,-0.923716
42.416446,5.261028,-0.772707,-0.980734,-0.145478,0.130374
33.311158,1.005346,-4.746859,0.608489,0.029893,0.792999
25.237589,9.240597,2.078544,-0.933508,-0.334015,0.130372
24.427083,35.651325,-7.978859,0.362914,0.489333,-0.792999
42.121574,16.796462,-5.697371,0.747311,0.267392,-0.608300
15.645637,34.711807,5.816848,-0.055873,-0.118134,-0.991425
36.658610,3.524256,5.965967,0.130523,0.006412,-0.991425
13.714431,32.224912,-5.638338,0.163787,0.346298,0.923716
37.008169,8.593114,-10.124338,0.126765,0.031753,-0.991424
15.468044,43.067213,5.105305,0.311301,0.870027,0.382289
17.266988,35.780399,-5.224539,-0.163787,-0.346298,0.923716
18.199945,37.687830,3.223290,-0.339354,-0.717503,-0.608299
10.776758,35.367345,-5.966846,-0.044025,-0.123042,0.991424
18.712295,20.774148,5.093704,-0.620549,-0.684670,0.382290
23.050437,14.962282,3.895129,-0.792577,-0.475053,0.382290
21.250355,23.754800,-8.954326,-0.257259,-0.283841,-0.923716
20.279479,21.896722,7.445181,-0.409129,-0.451405,0.792999
26.706549,16.975962,2.845508,0.792578,0.475053,-0.382290
33.638736,12.423269,10.140171,-0.123042,-0.044025,0.991424
28.709142,35.025039,5.806299,0.472811,0.637512,0.608299
28.809340,31.553435,-0.792331,-0.665827,-0.734627,0.130371
33.883122,2.845201,9.829331,-0.382616,-0.018797,0.923716
22.046396,22.337486,-2.173745,0.620549,0.684670,0.382290
29.412023,19.413699,-10.054565,-0.112089,-0.067183,-0.991424
33.030532,20.701842,9.994231,0.112089,0.067183,0.991424
17.518001,27.022490,3.628233,0.408047,0.680786,-0.608299
19.168932,34.572750,-5.315299,-0.196941,-0.328576,0.923716
18.994313,35.949531,4.581740,-0.260477,-0.550732,-0.792998
43.245536,18.446913,-1.079272,0.896274,0.423906,-0.130372
31.640377,21.365680,-5.807247,-0.104964,-0.077846,0.991425
8.827481,26.682191,5.292467,-0.267391,-0.747311,0.608300
37.246373,17.414358,4.182258,-0.717503,-0.339354,-0.608299
21.957137,40.821063,-3.797849,0.475052,0.792578,-0.382290
41.213134,0.887174,-4.063388,-0.792751,-0.038945,0.608300
31.365341,32.754728,5.677205,0.533021,0.588099,0.608299
23.025320,30.602317,-5.786833,-0.077846,-0.104964,0.991425
28.333546,12.077915,-8.162675,-0.550731,-0.260476,-0.792999
40.454920,14.015339,0.145986,-0.933508,-0.334015,-0.130372
33.302131,0.917626,4.736626,0.608489,0.029893,-0.792999
33.286273,29.841221,6.498821,0.588098,0.533022,0.608299
29.922111,11.854884,9.076569,-0.360684,-0.129055,0.923716
46.492126,4.313401,-2.961148,0.922930,0.045341,-0.382289
46.441594,0.314106,-3.557475,0.922929,0.045341,-0.382290
11.571154,42.503595,-5.536918,-0.964883,0.262679,0.000001
30.721886,0.000000,-4.749287,-0.000000,-1.000000,0.000000
43.214733,18.333078,-1.661171,0.896274,0.423906,-0.130372
21.135038,18.264785,-5.013632,-0.684670,-0.620549,-0.382290
16.117315,37.927537,-4.102395,-0.339354,-0.717504,0.608299
31.392523,28.323617,8.674363,0.451404,0.409130,0.792999
21.618250,28.171275,-5.796982,0.077846,0.104964,0.991425
34.322348,16.570694,10.107877,0.118134,0.055873,0.991424
33.980615,28.547806,6.960890,0.588099,0.533022,0.608299
16.460279,34.956329,10.038557,0.055873,0.118134,0.991424
19.826881,18.647470,-3.291948,-0.684671,-0.620549,-0.382290
22.163549,29.955989,-10.219683,0.077846,0.104964,-0.991424
26.620976,8.781489,5.197046,-0.747311,-0.267392,0.608299
9.826054,30.995635,4.032772,0.267392,0.747311,-0.608299
26.791975,8.061488,5.066628,-0.896350,-0.224524,0.382290
37.617530,9.949187,10.002992,0.126765,0.031753,0.991424
39.555012,14.755051,-2.547156,-0.870027,-0.311301,0.382289
28.086943,13.662032,1.871908,0.835325,0.395079,-0.382290
43.720398,15.627443,3.488962,0.870027,0.311301,0.382289
30.097502,29.796788,-2.311577,-0.684670,-0.620549,0.382290
37.535185,1.816241,-10.178110,0.130524,0.006412,-0.991424
9.943344,26.650901,-5.744530,-0.267392,-0.747311,-0.608299
38.430745,8.095517,-9.958382,0.126765,0.031753,-0.991424
29.036236,10.613608,0.158805,0.933508,0.334015,-0.130372
28.191376,37.360831,2.436673,0.590615,0.796352,0.130371
34.950944,1.393434,-5.631108,0.382616,0.018797,0.923716
43.941611,13.976930,-4.329543,0.870027,0.311301,-0.382289
28.943544,8.377018,7.651322,-0.590966,-0.148029,0.792999
26.503401,19.790337,9.453977,-0.307690,-0.228199,0.923716
34.685864,2.872678,-5.551410,0.382616,0.018797,0.923716
41.265075,11.077160,-0.843903,-0.961752,-0.240907,0.130372
20.811480,34.529538,-4.814440,-0.313204,-0.522548,0.792999
35.484070,30.461457,2.717373,0.684670,0.620549,0.382290
14.659868,27.737855,2.140349,0.395079,0.835325,-0.382290
21.496672,24.137193,3.806662,0.533021,0.588098,-0.608300
33.012864,29.117243,-7.342551,0.451405,0.409129,-0.792999
37.376705,22.979442,-7.451642,0.522548,0.313204,-0.792999
41.616614,7.110118,-8.729566,0.602629,0.089392,-0.792999
20.581249,35.696244,-4.074419,-0.408047,-0.680786,0.608299
30.901115,34.695173,3.416595,0.620549,0.684670,0.382290
32.211281,14.473054,5.767741,0.346298,0.163787,-0.923716
24.009790,13.496144,4.062198,-0.792577,-0.475053,0.382290
41.515752,21.640791,2.586166,0.896274,0.423906,0.130372
32.305666,5.538606,9.326190,-0.378931,-0.056209,0.923716
22.067252,27.118295,-10.017513,-0.077847,-0.104964,-0.991424
25.540070,18.341110,2.375145,0.742198,0.550452,-0.382290
24.894482,9.453295,-0.166711,-0.933508,-0.334014,-0.130372
34.276155,14.096147,-10.251625,0.123042,0.044025,-0.991424
7.686467,26.516862,-4.201318,-0.224524,-0.896350,-0.382290
26.596553,30.687328,-4.597216,-0.409129,-0.451404,0.792999
15.076805,22.347027,-2.498163,-0.590615,-0.796352,-0.130371
23.923407,34.987326,-2.209662,-0.550451,-0.742197,0.382291
30.903321,20.075483,-5.971258,0.112089,0.067183,0.991425
26.923484,16.630537,8.827713,-0.522548,-0.313203,0.792999
21.296192,20.047400,6.787896,-0.588098,-0.533021,0.608300
29.777623,0.000000,-6.707131,-0.000000,-1.000000,0.000000
15.010066,43.267813,-5.021707,0.311301,0.870027,-0.382289
43.407297,0.188089,-7.842393,0.608489,0.029893,-0.792999
29.403388,29.617404,-3.431690,-0.533021,-0.588098,0.608300
9.941296,32.247265,-9.717121,-0.129055,-0.360684,-0.923716
38.431112,27.144857,-0.640033,0.796352,0.590615,-0.130372
11.226164,38.896745,-9.532327,0.093080,0.371597,-0.923716
39.230664,13.630202,-3.642913,-0.747311,-0.267392,0.608299
38.262026,17.392932,8.871347,0.550731,0.260477,0.792999
40.400819,20.184983,5.913673,0.717503,0.339354,0.608300
18.435059,24.664118,-8.174168,-0.362914,-0.489333,-0.792999
26.978204,32.405228,2.753746,-0.620548,-0.684670,-0.382291
34.151957,31.029791,-4.180608,0.684670,0.620549,-0.382290
33.878969,12.286755,10.163923,-0.123042,-0.044025,0.991424
39.788149,23.153427,-4.452753,0.792578,0.475053,-0.382290
28.443868,28.756511,-9.553017,0.257259,0.283842,-0.923716
24.450817,32.604947,9.409953,0.228199,0.307691,0.923716
19.681839,23.353466,-7.966075,-0.409129,-0.451405,-0.792999
14.142267,40.261206,-1.207848,-0.334014,-0.933508,0.130371
31.311167,32.382030,-6.084996,0.533022,0.588098,-0.608299
21.891611,26.021585,5.218474,0.257259,0.283842,-0.923716
45.845983,0.000000,-1.196638,0.000000,-1.000000,0.000000
38.744615,17.790373,-1.519693,-0.896274,-0.423906,0.130371
27.371261,29.374471,9.661855,0.257259,0.283841,0.923716
46.366977,7.217465,1.508401,0.980734,0.145478,0.130373
26.929096,38.641066,-0.335015,0.590615,0.796352,-0.130371
37.155158,2.434313,10.224144,0.130524,0.006412,0.991424
15.903445,26.597854,0.730939,0.509715,0.850408,-0.130372
17.726742,34.480673,-10.023860,0.055873,0.118134,-0.991424
14.664697,22.587998,-2.368803,-0.509715,-0.850408,-0.130372
22.047704,18.289944,-5.974483,-0.588099,-0.533021,-0.608300
11.389126,41.834967,7.212755,-0.964883,0.262679,-0.000000
40.171692,22.617620,-4.323398,0.792578,0.475053,-0.382290
13.818145,24.515876,-5.338874,-0.408047,-0.680785,-0.608300
25.697389,32.503087,-9.135925,0.228199,0.307691,-0.923716
7.865623,28.297284,6.941852,-0.192855,-0.769921,0.608300
46.699868,4.365690,2.012722,0.990271,0.048649,0.130372
38.185879,0.548765,5.803886,-0.130523,-0.006412,-0.991425
13.378291,30.535361,-4.749344,0.260476,0.550731,0.792999
40.083062,7.042586,-4.532973,-0.602629,-0.089391,0.792999
28.419831,37.303098,1.754368,0.590615,0.796352,0.130371
40.759328,4.902475,4.260300,-0.602629,-0.089391,-0.792999
25.379149,25.004656,-5.809037,0.096828,0.087760,0.991425
14.905049,27.989500,-8.852367,-0.260476,-0.550731,-0.792999
26.326979,29.734414,-5.231100,-0.257259,-0.283842,0.923716
21.800202,41.521774,-2.026444,0.423906,0.896274,-0.130372
9.330169,31.526294,-9.359304,-0.093081,-0.371597,-0.923716
29.551479,9.655476,1.393377,0.933508,0.334015,-0.130372
24.047374,32.068292,-9.688382,0.228199,0.307691,-0.923716
46.092087,8.086487,-2.606555,0.980734,0.145478,-0.130372
25.646789,13.273025,6.288059,-0.717503,-0.339354,0.608299
12.273286,28.914090,2.244065,0.395079,0.835325,-0.382290
34.951117,29.663959,4.966409,0.684670,0.620549,0.382290
38.682504,11.047573,-4.897898,-0.590965,-0.148029,0.792999
40.294685,6.967659,9.357264,0.378931,0.056209,0.923716
42.637083,19.885211,0.585595,0.896274,0.423906,0.130372
38.057116,10.087161,5.373883,-0.371597,-0.093080,-0.923716
36.583850,18.660179,-9.287285,0.346298,0.163787,-0.923716
35.006673,0.000000,-7.373830,0.000000,-1.000000,-0.000000
34.610882,26.566424,-7.641818,0.489333,0.362914,-0.792999
38.327415,15.371028,-9.197861,0.360684,0.129055,-0.923716
28.821757,15.172310,-4.094754,0.717503,0.339354,0.608299
27.532458,27.419597,5.603423,-0.283842,-0.257259,-0.923716
14.714595,39.171128,8.960128,0.129055,0.360684,0.923716
30.592080,26.613551,4.642664,-0.451404,-0.409129,-0.792999
33.968120,4.870068,5.356500,0.378931,0.056209,-0.923716
19.291461,24.465764,-1.657823,0.550452,0.742198,0.382290
38.824946,13.176499,9.310193,0.360684,0.129055,0.923716
13.544656,28.445400,8.722137,-0.260477,-0.550731,0.792999
19.539809,28.835074,10.000817,-0.077847,-0.104964,0.991424
42.539236,5.083699,0.046886,-0.980734,-0.145478,-0.130374
40.246668,18.899092,-6.812861,0.717503,0.339354,-0.608300
27.790905,34.605222,-6.959992,0.472811,0.637512,-0.608299
36.194080,4.552007,10.220922,-0.129266,-0.019175,0.991425
17.100328,28.504399,4.685400,0.313203,0.522548,-0.792999
26.562579,35.158372,-7.305739,0.362914,0.489333,-0.792999
41.802586,1.419889,8.967027,0.382616,0.018796,0.923716
44.030982,0.000000,2.038298,0.000000,-1.000000,0.000000
38.697305,17.978307,1.233865,-0.896274,-0.423906,-0.130370
42.545467,3.617318,1.210687,-0.990271,-0.048649,-0.130374
31.421415,18.272553,5.907658,0.112088,0.067183,-0.991425
22.042039,14.942923,-0.028677,-0.796352,-0.590615,-0.130371
41.233243,10.852072,1.494657,-0.961752,-0.240906,-0.130372
38.752866,19.180077,7.943437,0.550731,0.260477,0.792999
32.651022,30.877968,-6.204527,0.588099,0.533021,-0.608299
38.502328,14.489903,4.159790,-0.747311,-0.267392,-0.608299
32.107239,9.399699,4.830294,0.590965,0.148029,-0.792999
44.148613,6.478221,-6.606229,0.785117,0.116461,-0.608300
40.328706,6.895513,-4.362878,-0.602629,-0.089391,0.792999
45.461979,11.979880,0.852342,0.961752,0.240906,0.130373
14.852131,27.818575,2.515422,0.395079,0.835325,-0.382290
45.595970,10.699738,2.229380,0.961752,0.240906,0.130373
31.862691,30.917716,-6.931849,0.588099,0.533021,-0.608299
40.833458,12.179616,-1.687817,-0.896350,-0.224524,0.382289
37.072787,4.766268,-5.908797,-0.129266,-0.019175,0.991424
21.003106,34.788355,-9.458537,0.196941,0.328576,-0.923716
42.927244,7.574503,7.681221,0.602630,0.089392,0.792999
41.533307,8.165700,2.382033,-0.914041,-0.135585,-0.382290
29.340155,30.175335,8.842772,0.409130,0.451405,0.792999
13.178330,45.093595,-1.355358,0.240906,0.961752,-0.130373
26.146020,32.407310,-3.544157,-0.472811,-0.637513,0.608299
18.365489,24.859316,0.105466,0.590615,0.796352,-0.130372
28.882059,17.535788,9.748980,-0.328576,-0.196941,0.923716
36.187920,22.644274,-1.140839,-0.850408,-0.509715,0.130370
31.992554,8.184063,9.431383,-0.371597,-0.093080,0.923716
45.367833,7.988606,-4.408539,0.914041,0.135585,-0.382289
45.535569,11.999608,-0.273019,0.961752,0.240906,-0.130373
44.148471,0.000000,-2.993679,0.000000,-1.000000,0.000000
39.624953,0.000000,8.976220,0.000000,-1.000000,0.000000
31.359025,0.777382,2.180887,0.922929,0.045341,-0.382290
23.802489,18.023443,-7.454111,-0.489333,-0.362914,-0.792999
20.773548,19.552759,-5.849179,-0.588098,-0.533022,-0.608299
38.670389,20.524527,-7.559105,0.550731,0.260477,-0.792999
33.497667,23.428044,9.365258,0.307690,0.228199,0.923716
31.720772,8.832143,-9.387355,-0.371597,-0.093080,-0.923716
25.589120,37.985783,-5.121780,0.550451,0.742198,-0.382290
26.967215,6.756897,4.711306,-0.896350,-0.224524,0.382290
32.009036,32.051729,5.792822,0.533021,0.588099,0.608299
40.897572,17.417432,-6.871683,0.717503,0.339354,-0.608300
34.771412,23.766002,8.824366,0.489333,0.362914,0.792999
22.843339,33.972738,4.369845,-0.362914,-0.489333,-0.792999
27.373686,27.774481,5.541840,-0.257259,-0.283842,-0.923716
20.637049,17.280469,2.234697,-0.734628,-0.665827,0.130371
31.093078,33.155532,-5.528282,0.533022,0.588099,-0.608299
31.551085,33.753731,4.047632,0.620549,0.684670,0.382290
37.523321,6.069565,-10.121604,0.129266,0.019175,-0.991424
22.486485,32.311643,9.944929,0.077846,0.104964,0.991424
22.190895,21.685762,0.851799,0.734627,0.665827,-0.130371
38.288161,2.577093,5.777301,-0.130523,-0.006412,-0.991425
8.407427,30.882476,-8.615667,-0.964883,0.262679,0.000000
9.070923,33.319658,-9.305924,-0.964883,0.262680,-0.000000
34.046096,28.960222,6.536204,0.588099,0.533022,0.608299
20.963060,22.902974,-1.173318,0.665827,0.734627,0.130371
46.855258,4.544656,-0.765640,0.990271,0.048649,-0.130372
23.872464,23.517045,-9.621765,-0.283842,-0.257259,-0.923716
43.332795,17.836743,-2.385939,0.933508,0.334015,-0.130372
26.624529,0.373412,-0.066398,-0.990271,-0.048649,-0.130371
11.503738,38.344995,-5.064267,-0.148028,-0.590965,0.792999
9.326270,30.498396,3.202210,0.267392,0.747311,-0.608299
42.379359,7.706699,8.082678,0.602630,0.089392,0.792999
32.498755,3.667562,9.291545,-0.378931,-0.056209,0.923716
8.158853,28.099415,-6.784375,-0.192856,-0.769921,-0.608300
38.664602,18.327032,0.324793,-0.896274,-0.423906,-0.130371
35.532651,25.462366,-7.578294,0.489333,0.362914,-0.792999
42.673813,3.790312,-0.171262,-0.990271,-0.048648,0.130374
29.806292,34.171617,5.673484,0.533021,0.588099,0.608299
43.975254,16.324607,1.659823,0.933508,0.334015,0.130372
11.688478,42.934557,4.086222,-0.964883,0.262679,0.000001
30.202771,14.855479,-5.003575,0.550731,0.260476,0.792999
31.847053,26.804117,-3.553691,-0.588099,-0.533022,0.608299
23.873986,39.762557,-3.610410,0.475052,0.792578,-0.382290
35.839691,27.432540,-5.944785,0.637512,0.472811,-0.608299
27.609195,0.000000,0.102916,0.000000,-1.000000,0.000000
22.615581,35.494863,8.835398,0.313203,0.522548,0.792999
30.449803,18.332883,10.098654,-0.112089,-0.067183,0.991424
16.336216,40.507836,-7.627916,0.205241,0.573610,-0.792999
8.591541,30.704213,3.220622,0.192856,0.769921,-0.608299
42.285709,15.178618,-6.206887,0.747311,0.267392,-0.608300
44.107546,13.287872,4.492122,0.896350,0.224524,0.382289
20.447629,41.919193,2.987213,0.395079,0.835325,0.382290
40.637117,23.468748,1.532590,0.850408,0.509715,0.130372
9.345718,34.329046,-8.700870,-0.964883,0.262680,-0.000000
25.534146,22.125774,-9.744896,-0.283842,-0.257259,-0.923716
41.526779,18.926468,5.287669,0.717503,0.339354,0.608300
28.946414,30.576833,2.833471,-0.620548,-0.684670,-0.382291
26.088573,37.827190,4.710530,0.550451,0.742198,0.382290
41.474070,18.575975,5.545371,0.717503,0.339354,0.608300
36.363383,9.364088,-10.182088,0.126765,0.031753,-0.991424
17.025407,30.635773,10.031079,-0.067183,-0.112089,0.991424
45.071829,0.000000,-5.601972,0.000000,-1.000000,0.000000
20.377211,28.870901,-5.773606,0.077846,0.104964,0.991425
40.394864,12.553158,-2.428810,-0.870027,-0.311301,0.382289
28.642425,17.376210,4.885315,0.522548,0.313203,-0.792999
45.531498,11.012644,2.126794,0.961752,0.240906,0.130373
10.989744,24.481715,1.733003,-0.423906,-0.896274,0.130372
23.494487,34.196288,-3.730215,-0.472811,-0.637512,0.608299
18.138687,25.262090,-1.538269,0.590615,0.796352,0.130372
18.550758,36.400754,-9.375329,0.163787,0.346298,-0.923716
14.711644,40.183744,-0.303752,-0.334015,-0.933508,0.130372
31.766885,16.719615,10.141206,-0.118134,-0.055873,0.991424
33.603938,27.681715,-7.746716,0.451405,0.409130,-0.792999
23.421335,12.870726,-0.790714,-0.850408,-0.509715,-0.130372
24.040106,26.448661,-5.828110,0.087760,0.096828,0.991425
21.733483,29.268112,-5.922154,0.077846,0.104964,0.991425
27.343258,14.466108,0.071791,0.896274,0.423906,-0.130372
41.225951,9.490376,-2.346972,-0.896350,-0.224524,0.382290
29.087168,12.981286,-3.185500,0.717503,0.339354,0.608299
31.139591,24.700795,5.225321,-0.307691,-0.228199,-0.923716
22.867762,41.025637,-1.347972,0.509715,0.850408,-0.130372
42.498957,5.009944,0.432187,-0.980734,-0.145478,-0.130374
9.146041,33.595583,-6.189064,-0.964883,0.262679,0.000000
42.131782,12.197342,7.482377,0.590966,0.148029,0.792999
31.019316,28.835645,-8.622637,0.451405,0.409130,-0.792999
10.776005,29.350348,-1.952655,0.311301,0.870027,0.382290
27.216562,11.781967,7.289729,-0.550731,-0.260476,0.792999
12.926466,41.633093,7.696467,0.205241,0.573611,0.792998
34.510893,1.058797,-9.964025,-0.130523,-0.006412,-0.991425
17.876465,23.377879,-7.027767,-0.472811,-0.637512,-0.608300
19.335962,25.202549,3.076671,0.472811,0.637512,-0.608299
10.087065,37.052185,-9.882915,-0.964883,0.262679,0.000000
33.511829,29.331586,-6.727322,0.588099,0.533022,-0.608299
33.465552,26.462915,8.395933,0.489333,0.362914,0.792999
10.992338,31.147557,9.434561,-0.129055,-0.360684,0.923716
28.983337,0.065721,-6.408463,-0.792752,-0.038946,-0.608299
28.660299,20.507992,5.738746,0.307691,0.228199,-0.923716
32.691456,13.047825,5.713598,0.360684,0.129055,-0.923716
37.475495,25.280227,-5.903346,0.637512,0.472811,-0.608300
44.106277,10.082132,5.806516,0.769921,0.192855,0.608300
41.136130,10.641209,1.881673,-0.896350,-0.224524,-0.382290
43.873799,0.000000,0.668378,0.000000,-1.000000,0.000000
35.442875,20.375648,4.384731,-0.522549,-0.313204,-0.792998
18.501478,32.285674,-10.227550,0.067183,0.112089,-0.991424
26.099524,29.751164,-5.289300,-0.257259,-0.283842,0.923716
28.349192,24.283837,10.213131,0.096828,0.087760,0.991424
11.201983,41.147548,-7.965302,-0.964883,0.262679,0.000000
26.727304,1.841976,-1.395064,-0.990271,-0.048649,-0.130372
30.029655,30.234977,8.453090,0.409129,0.451405,0.792999
36.116242,1.164277,10.176055,-0.130523,-0.006412,0.991425
12.077707,30.477960,-9.324743,-0.129055,-0.360684,-0.923716
39.495007,24.512789,3.371297,0.792578,0.475052,0.382290
33.069712,21.777402,5.293807,-0.328576,-0.196941,-0.923716
33.517428,20.491104,-5.408795,-0.328576,-0.196941,0.923716
25.635927,25.305998,10.157545,-0.096828,-0.087760,0.991424
17.841933,38.829552,-8.329721,0.260477,0.550731,-0.792999
31.636452,1.362815,-8.844897,-0.608489,-0.029893,-0.792999
27.655221,26.668269,-10.069841,0.096828,0.087760,-0.991424
31.279402,0.000000,8.412374,0.000000,-1.000000,0.000000
33.477958,24.360430,-9.141483,0.307691,0.228199,-0.923716
44.963038,10.794807,3.950469,0.896350,0.224524,0.382289
12.943712,38.227110,-4.786090,-0.205241,-0.573610,0.792999
36.471784,28.823366,-3.404213,0.742198,0.550452,-0.382290
30.086574,36.034806,1.654471,0.665828,0.734627,0.130372
41.233468,2.890862,-3.908606,-0.792751,-0.038945,0.608300
29.250953,22.641101,10.256829,0.104964,0.077846,0.991424
43.923816,14.291260,-4.114079,0.870027,0.311301,-0.382289
41.667756,9.937597,-8.250010,0.590966,0.148029,-0.792999
25.209573,20.554054,-9.211673,-0.307691,-0.228199,-0.923716
22.573082,26.352016,5.509802,0.257259,0.283842,-0.923716
10.182626,26.253052,-5.360944,-0.267392,-0.747311,-0.608299
16.341224,41.195709,-7.034927,0.267392,0.747311,-0.608300
40.880121,10.315064,-2.673486,-0.896350,-0.224524,0.382290
33.202277,5.733456,-9.705859,-0.378931,-0.056209,-0.923716
23.874883,33.879888,-3.766140,-0.472811,-0.637512,0.608299
42.517718,12.981983,-6.887437,0.747310,0.267391,-0.608300
18.400791,24.245893,-7.900413,-0.362914,-0.489333,-0.792999
10.243763,36.067542,10.191741,0.031753,0.126764,0.991424
39.337825,0.325049,-9.950432,0.130524,0.006412,-0.991424
36.111631,22.338345,1.956003,-0.792577,-0.475053,-0.382292
26.333710,15.186249,7.868643,-0.522548,-0.313203,0.792999
15.651007,37.062224,4.907161,-0.260476,-0.550731,-0.792999
13.782010,35.288714,10.139910,0.044025,0.123042,0.991424
17.137635,25.895198,0.972871,0.509715,0.850408,-0.130372
37.680019,18.821101,2.799075,-0.835324,-0.395079,-0.382292
27.459476,37.622741,-3.133523,0.550452,0.742197,-0.382290
45.745090,11.022555,0.532821,0.961752,0.240906,0.130373
28.469462,16.466291,9.374192,-0.328576,-0.196941,0.923716
24.021997,12.902474,-3.349780,-0.792577,-0.475053,-0.382290
32.609078,2.790279,-4.275419,0.608489,0.029893,0.792999
30.322026,12.948160,-4.459899,0.550731,0.260476,0.792999
34.557755,1.616284,-9.973800,-0.130523,-0.006412,-0.991425
40.565217,2.155280,9.464598,0.382616,0.018797,0.923716
37.049289,26.932455,5.005699,0.742198,0.550451,0.382290
14.189512,43.155731,-5.572827,0.267392,0.747310,-0.608300
32.296383,25.436921,-4.211572,-0.637512,-0.472811,0.608299
15.967217,27.033599,8.638288,-0.313203,-0.522548,0.792999
8.906436,31.147610,3.881661,0.192855,0.769922,-0.608299
14.001396,36.483774,-5.498116,-0.129055,-0.360685,0.923716
26.030220,18.179379,-8.898381,-0.307691,-0.228199,-0.923716
13.692349,30.508217,4.833651,0.260476,0.550731,-0.792999
38.147696,10.282203,-9.924539,0.126765,0.031753,-0.991424
21.026612,25.405597,-4.458421,0.409129,0.451404,0.792999
15.335270,42.681339,-5.651985,0.267392,0.747310,-0.608300
36.122669,22.274954,2.011891,-0.792577,-0.475053,-0.382292
23.403002,39.654048,4.420643,0.475053,0.792578,0.382290
29.948987,23.380015,-5.828152,-0.104964,-0.077846,0.991425
31.345978,13.643910,5.296325,0.346298,0.163787,-0.923716
7.702139,28.291788,-1.191194,-0.964883,0.262679,-0.000000
34.632966,30.466577,4.233364,0.684670,0.620549,0.382290
44.769872,13.436950,2.851615,0.896350,0.224524,0.382289
36.256555,18.792032,-9.386608,0.346298,0.163787,-0.923716
35.061338,31.246531,1.215761,0.734627,0.665827,0.130372
11.758710,29.924280,-9.063979,-0.129055,-0.360684,-0.923716
37.870742,15.429810,4.400424,-0.573610,-0.205241,-0.792999
37.886018,26.542447,3.942795,0.742197,0.550452,0.382290
12.396396,23.892573,2.256548,-0.423906,-0.896274,0.130372
31.029159,9.914892,4.113008,0.747311,0.267392,-0.608299
31.300023,1.238211,-2.093099,0.922929,0.045341,0.382290
13.220304,39.376071,-3.644457,-0.267392,-0.747311,0.608299
46.348343,1.202120,3.677280,0.922929,0.045341,0.382290
11.538286,24.005147,0.240304,-0.423906,-0.896274,0.130372
25.554888,10.174933,-3.957285,-0.870027,-0.311300,-0.382290
16.160736,26.384805,0.347167,0.509715,0.850408,-0.130372
21.851255,24.512024,9.354361,-0.257259,-0.283842,0.923716
41.088341,18.642444,-5.963266,0.717503,0.339354,-0.608300
45.035007,5.695959,5.611950,0.785117,0.116461,0.608300
8.320431,30.511490,8.809238,-0.148029,-0.590966,0.792999
20.876690,18.735351,-5.232644,-0.588099,-0.533021,-0.608300
46.016837,2.680723,-4.302241,0.922929,0.045341,-0.382290
11.202083,40.985462,-8.522434,0.148030,0.590966,-0.792998
9.177363,33.710638,7.974224,-0.964883,0.262680,0.000000
24.920046,19.835698,-3.169031,0.637512,0.472811,0.608299
38.755723,26.427414,1.907402,0.796352,0.590615,0.130371
26.992681,4.380245,-3.605247,-0.914041,-0.135585,-0.382290
42.835399,18.498481,2.999608,0.835325,0.395079,0.382289
14.882115,44.676015,-0.337822,0.334015,0.933508,-0.130373
29.123214,18.824015,9.981953,-0.112089,-0.067183,0.991424
9.190519,33.572636,5.557456,0.093080,0.371596,-0.923717
10.260420,31.146883,4.333872,0.205241,0.573610,-0.792999
22.182955,38.994625,6.306385,0.408047,0.680786,0.608300
18.076590,35.538808,5.168430,-0.260476,-0.550731,-0.792999
35.498824,15.291467,5.680386,-0.346298,-0.163787,-0.923716
7.966022,29.261092,-1.868290,-0.964883,0.262679,-0.000000
35.419851,4.780309,-10.124390,-0.129266,-0.019175,-0.991425
11.467520,25.829181,5.495952,-0.339354,-0.717503,0.608299
38.352429,27.225278,-0.756327,0.796352,0.590615,-0.130372
27.630464,27.656312,-9.984562,0.087760,0.096828,-0.991424
13.648603,38.262665,-4.577935,-0.205241,-0.573610,0.792999
31.555988,2.073623,-2.810137,0.922929,0.045341,0.382290
27.522200,12.777026,7.828839,-0.550731,-0.260476,0.792999
32.487271,25.098288,-4.254506,-0.489333,-0.362913,0.792999
34.507179,24.928484,-1.694656,-0.742197,-0.550451,0.382291
13.401810,31.190664,5.195171,0.163787,0.346298,-0.923716
34.905743,0.000000,9.913445,0.000000,-1.000000,0.000000
21.069537,24.187130,3.480664,0.533021,0.588098,-0.608300
36.494952,14.206729,-9.971348,0.123042,0.044025,-0.991424
28.959791,5.442228,-7.052036,-0.785117,-0.116461,-0.608299
43.258835,14.401725,-5.352879,0.747311,0.267392,-0.608300
43.230270,0.000000,-1.637786,0.000000,-1.000000,0.000000
35.280286,10.032039,10.246008,-0.126764,-0.031753,0.991425
29.681184,30.061666,-2.563410,-0.620549,-0.684671,0.382290
30.136519,21.487582,-10.253647,0.104964,0.077846,-0.991424
42.674695,3.189452,0.388775,-0.990271,-0.048649,-0.130374
28.881718,10.947738,-8.242878,-0.573610,-0.205241,-0.792999
8.674508,31.863529,7.934885,-0.964883,0.262679,-0.000000
43.761549,7.284067,-6.951521,0.785117,0.116461,-0.608300
16.887295,25.986627,-0.590499,0.509715,0.850408,0.130372
30.988722,23.975914,9.968040,0.104964,0.077846,0.991424
28.621248,5.923678,-6.736217,-0.769921,-0.192856,-0.608299
27.143053,27.274591,5.759680,-0.257259,-0.283842,-0.923716
17.847139,26.965162,9.133499,-0.196941,-0.328576,0.923716
28.865449,31.007568,-2.193462,-0.620549,-0.684671,0.382290
32.881369,15.203509,-5.891805,0.118134,0.055873,0.991425
46.057301,2.167668,4.265400,0.922930,0.045341,0.382289
9.114391,28.103836,-7.165109,-0.267392,-0.747310,-0.608300
17.377937,32.823150,5.944266,-0.055873,-0.118134,-0.991425
17.950450,35.342922,5.267361,-0.163787,-0.346298,-0.923716
34.120368,30.743593,-4.701750,0.684670,0.620549,-0.382290
23.995215,11.853048,-1.195479,-0.896274,-0.423906,-0.130372
20.228488,25.478152,4.059240,0.472811,0.637512,-0.608300
29.199274,28.111385,9.509562,0.283842,0.257259,0.923716
22.341454,33.945295,4.595148,-0.313203,-0.522548,-0.792999
29.356683,10.607879,-1.830167,0.870027,0.311301,0.382289
23.665568,34.930676,-8.772053,0.362914,0.489333,-0.792999
29.138038,0.000000,-5.070846,-0.000000,-1.000000,0.000000
29.175952,13.609160,-3.640496,0.717503,0.339354,0.608299
26.610667,15.490818,-8.171438,-0.522548,-0.313203,-0.792999
38.263854,23.667853,6.128167,0.680785,0.408047,0.608300
26.431608,7.937124,-4.148639,-0.896350,-0.224524,-0.382290
8.682179,31.761371,4.438605,0.148029,0.590966,-0.792999
39.089625,0.000000,7.880309,0.000000,-1.000000,0.000000
32.922832,24.776273,4.068537,-0.637513,-0.472811,-0.608299
34.544026,29.678986,5.424994,0.588099,0.533022,0.608299
10.998940,40.401721,6.811455,-0.964883,0.262679,-0.000000
43.012545,0.000000,5.664392,0.000000,-1.000000,0.000000
14.424489,31.526698,9.983241,-0.055873,-0.118134,0.991424
42.287216,0.888256,-2.387024,-0.922929,-0.045341,0.382290
24.274682,35.312039,-0.057819,-0.590615,-0.796353,0.130370
24.897011,31.910239,4.702687,-0.362913,-0.489333,-0.792999
38.957172,18.382887,-8.063403,0.550731,0.260477,-0.792999
32.839632,20.448096,-5.659064,-0.328576,-0.196941,0.923716
14.700170,44.739146,0.351930,0.334015,0.933508,0.130372
14.253110,37.705075,-9.597053,0.129055,0.360684,-0.923716
21.997541,35.593872,3.238942,-0.408047,-0.680786,-0.608299
17.171296,43.825326,0.564134,0.334015,0.933508,0.130372
11.757624,43.188545,-6.069275,-0.964883,0.262679,0.000001
11.569467,36.626146,-5.775420,-0.044025,-0.123042,0.991424
28.903774,0.000000,-2.024251,0.000000,-1.000000,0.000000
23.111754,40.799016,1.872273,0.509715,0.850408,0.130372
36.632169,9.771733,-5.837909,-0.126764,-0.031753,0.991424
11.315562,41.564749,-5.465249,-0.964883,0.262679,0.000001
34.208357,17.958630,5.691255,-0.346298,-0.163787,-0.923716
46.675584,4.999323,-1.662030,0.980734,0.145478,-0.130372
30.117821,36.146627,-0.864791,0.665827,0.734627,-0.130372
29.754349,10.195681,2.399532,0.870027,0.311301,-0.382289
37.757343,14.603731,4.696253,-0.573610,-0.205241,-0.792999
20.563561,30.767471,-5.962645,-0.077846,-0.104964,0.991425
38.582284,1.564338,10.041886,0.130524,0.006412,0.991424
29.301227,29.003497,-9.229776,0.283842,0.257259,-0.923716
43.430354,7.351944,7.323977,0.602629,0.089392,0.792999
40.939487,13.559027,-8.034465,0.573611,0.205241,-0.792998
34.290193,4.853153,-9.978509,-0.129266,-0.019175,-0.991425
21.384389,16.286959,-2.100344,-0.796352,-0.590615,-0.130371
38.671246,10.212636,-9.725172,0.371597,0.093080,-0.923716
35.036181,0.000000,5.688413,0.000000,-1.000000,0.000000
38.646519,10.208834,-5.081283,-0.590965,-0.148029,0.792999
16.768402,26.578556,-2.322225,0.475053,0.792578,0.382290
20.210333,24.408580,8.839350,-0.409129,-0.451405,0.792999
25.225045,12.048063,5.082449,-0.835324,-0.395079,0.382290
24.815835,18.487626,-0.393175,0.796352,0.590615,0.130372
32.309805,3.758445,-9.219563,-0.378931,-0.056209,-0.923716
30.745196,5.130903,-1.711700,0.914041,0.135585,0.382290
25.261173,36.969030,6.448943,0.472811,0.637512,0.608300
38.626899,1.954552,10.033488,0.130524,0.006412,0.991424
26.447458,19.827620,9.444552,-0.307690,-0.228199,0.923716
37.335948,1.153035,5.911873,-0.130523,-0.006412,-0.991425
13.563307,40.422454,-1.536561,-0.334014,-0.933508,0.130371
18.904002,36.947296,3.703992,-0.339354,-0.717503,-0.608299
34.396893,31.869347,-1.779003,0.734627,0.665828,-0.130372
40.597450,17.888178,6.963067,0.717503,0.339354,0.608300
