x,y,z,nx,ny,nz
-26.870324,-3.602992,-3.039596,0.000000,0.000000,-1.000000
-36.888239,-6.763170,-1.763457,-0.976296,-0.216440,-0.000000
0.045545,-19.376584,-3.039596,0.000000,0.000000,-1.000000
-24.070427,-2.851208,-3.039596,0.000000,0.000000,-1.000000
-30.639662,-21.633402,0.727277,-0.793353,-0.608761,-0.000000
-35.775399,11.167242,-0.009293,-0.953717,0.300706,0.000000
1.556606,-11.210377,2.683361,-0.098017,0.995185,0.000000
-25.901118,-13.519527,-3.039596,0.000000,-0.000000,-1.000000
-18.084996,-7.727776,3.039596,0.000000,-0.000000,1.000000
22.848366,-0.700709,3.039596,0.000000,0.000000,1.000000
30.947614,2.556766,-1.264508,0.290284,-0.956940,0.000000
-5.869745,31.733045,-3.039596,0.000000,0.000000,-1.000000
-24.915703,-19.358584,-3.039596,0.000000,0.000000,-1.000000
-10.641172,-22.420187,3.039596,0.000000,-0.000000,1.000000
30.488994,2.336334,-0.037625,0.471398,-0.881921,0.000000
-16.763333,33.525197,2.241854,-0.461749,0.887011,0.000000
-33.818601,16.199710,-0.073511,-0.887011,0.461749,0.000000
12.812604,11.815133,3.039596,0.000000,-0.000000,1.000000
-0.700622,32.203339,-3.039596,0.000000,-0.000000,-1.000000
-16.255662,-20.090003,3.039596,-0.000000,0.000000,1.000000
12.124696,26.470215,3.039596,0.000000,-0.000000,1.000000
4.156833,21.745722,-3.039596,0.000000,0.000000,-1.000000
5.313551,24.773309,3.039596,0.000000,-0.000000,1.000000
-10.416339,-31.760487,3.039596,-0.000000,0.000000,1.000000
-25.469272,-24.471041,-3.039596,0.000000,-0.000000,-1.000000
-21.855096,16.125299,-3.039596,0.000000,0.000000,-1.000000
34.536440,2.262998,3.039596,-0.000000,0.000000,1.000000
5.623532,-32.571987,-3.039596,0.000000,0.000000,-1.000000
-10.207039,9.757906,3.039596,-0.000000,-0.000000,1.000000
-14.859276,-20.277230,-3.039596,0.000000,-0.000000,-1.000000
-15.614343,14.735590,3.039596,-0.000000,-0.000000,1.000000
-15.498541,33.610749,-3.039596,0.000000,0.000000,-1.000000
-24.176217,-3.230246,-3.039596,0.000000,0.000000,-1.000000
-17.683561,25.525047,2.699500,0.634394,0.773010,0.000000
36.959733,-5.572494,3.039596,-0.000000,0.000000,1.000000
3.626300,14.842118,-3.039596,0.000000,0.000000,-1.000000
4.570195,-16.528290,3.039596,0.000000,-0.000000,1.000000
24.724169,-28.176985,-2.931462,0.675590,-0.737277,0.000000
-4.703441,18.796994,-3.039596,0.000000,0.000000,-1.000000
-31.064612,5.762986,-3.039596,0.000000,0.000000,-1.000000
-10.618503,35.948416,0.833313,-0.300706,0.953717,0.000000
-25.931260,-16.141245,3.039596,0.000000,-0.000000,1.000000
-7.807296,-15.176136,3.039596,0.000000,-0.000000,1.000000
-14.571076,-1.921730,3.039596,0.000000,-0.000000,1.000000
-18.038486,16.400534,-3.039596,0.000000,0.000000,-1.000000
-25.963664,-27.041197,2.847916,-0.675590,-0.737277,0.000000
-20.110541,-31.363225,3.039596,-0.000000,0.000000,1.000000
-14.625908,-19.185646,-3.039596,0.000000,-0.000000,-1.000000
31.868020,-2.739110,3.039596,-0.000000,-0.000000,1.000000
15.356523,-21.215225,3.039596,0.000000,0.000000,1.000000
-11.364046,-31.737660,3.039596,-0.000000,0.000000,1.000000
18.548727,7.566618,3.039596,0.000000,-0.000000,1.000000
16.357651,-31.204375,-3.039596,0.000000,0.000000,-1.000000
15.492323,24.926469,-2.263899,0.098015,0.995185,-0.000000
-17.616135,-29.759081,0.194071,0.634392,0.773012,0.000000
8.913894,-11.480739,3.039596,-0.000000,-0.000000,1.000000
-11.329390,-16.653898,-3.039596,0.000000,-0.000000,-1.000000
-8.926452,24.578833,-3.039596,0.000000,0.000000,-1.000000
-7.243118,-33.253314,-3.039596,0.000000,-0.000000,-1.000000
-7.558255,25.041427,3.039596,0.000000,0.000000,1.000000
-0.430612,-33.263848,3.039596,-0.000000,0.000000,1.000000
0.279325,-17.856476,-3.039596,0.000000,0.000000,-1.000000
20.374173,-26.848131,3.039596,0.000000,0.000000,1.000000
10.658423,-5.528008,3.039596,-0.000000,-0.000000,1.000000
-16.767154,-13.604240,3.039596,0.000000,-0.000000,1.000000
1.211440,12.004008,3.039596,-0.000000,0.000000,1.000000
-7.416343,35.537817,3.039596,0.000000,0.000000,1.000000
5.378311,23.520453,3.039596,0.000000,-0.000000,1.000000
33.940577,-14.251575,3.039596,-0.000000,0.000000,1.000000
32.302530,-14.135838,-3.039596,0.000000,-0.000000,-1.000000
6.951710,-25.127600,-3.039596,0.000000,0.000000,-1.000000
15.234260,-6.226816,-3.039596,0.000000,-0.000000,-1.000000
20.613637,31.304515,-2.294038,0.537300,0.843391,0.000000
28.516269,6.129652,-3.039596,0.000000,0.000000,-1.000000
-26.586865,2.008933,3.039596,-0.000000,0.000000,1.000000
-6.547764,24.572036,3.039596,0.000000,0.000000,1.000000
-16.075449,-30.333702,0.818965,0.098018,0.995185,0.000000
-9.876177,12.102910,3.039596,-0.000000,0.000000,1.000000
7.076147,-10.374723,3.039596,0.000000,0.000000,1.000000
11.401265,34.033034,3.039596,0.000000,-0.000000,1.000000
10.204176,35.721822,-3.039596,0.000000,0.000000,-1.000000
13.083140,-29.574598,3.039596,0.000000,-0.000000,1.000000
-7.971270,-30.720552,-3.039596,0.000000,-0.000000,-1.000000
-27.310399,4.450826,3.039596,-0.000000,-0.000000,1.000000
5.893685,-27.987348,-3.039596,0.000000,0.000000,-1.000000
-34.237147,1.370322,0.691086,0.881921,-0.471397,0.000000
4.385947,-10.478769,-2.397997,-0.471397,0.881921,0.000000
10.071262,-30.150026,3.039596,0.000000,-0.000000,1.000000
28.675574,1.722574,-3.039596,0.000000,-0.000000,-1.000000
-18.867952,-0.193173,3.039596,0.000000,-0.000000,1.000000
-11.852531,16.503902,-3.039596,0.000000,0.000000,-1.000000
32.066806,2.714560,2.145250,-0.098017,-0.995185,0.000000
-1.713427,36.339221,3.039596,-0.000000,0.000000,1.000000
20.632798,28.922466,3.039596,0.000000,-0.000000,1.000000
0.416480,31.734508,-3.039596,0.000000,0.000000,-1.000000
4.279710,10.519607,1.733410,-0.290285,-0.956940,0.000000
-10.690227,5.324517,-3.039596,0.000000,-0.000000,-1.000000
-1.887153,-32.810708,-3.039596,0.000000,-0.000000,-1.000000
16.245642,4.499722,3.039596,0.000000,-0.000000,1.000000
4.999523,-31.048427,-3.039596,0.000000,0.000000,-1.000000
-18.715406,-28.287107,-3.039596,0.000000,0.000000,-1.000000
-11.007755,22.617115,3.039596,0.000000,0.000000,1.000000
-6.943849,24.627794,-3.039596,0.000000,0.000000,-1.000000
5.810530,9.717313,2.882281,-0.471397,-0.881921,0.000000
-1.798354,19.431096,3.039596,-0.000000,-0.000000,1.000000
-5.799734,21.411459,3.039596,0.000000,0.000000,1.000000
9.993056,25.986962,-3.039596,0.000000,0.000000,-1.000000
17.253520,31.014978,3.039596,0.000000,-0.000000,1.000000
33.937442,-15.971418,1.212955,0.887011,-0.461749,0.000000
6.767941,-22.196594,3.039596,0.000000,-0.000000,1.000000
3.830205,26.122778,-3.039596,0.000000,-0.000000,-1.000000
-21.534903,-11.233585,3.039596,-0.000000,0.000000,1.000000
-24.310503,16.941945,-3.039596,0.000000,0.000000,-1.000000
16.617871,-30.251261,0.700805,-0.290284,0.956941,0.000000
-31.203459,-20.772264,2.647931,-0.843391,-0.537300,0.000000
11.261420,1.038357,2.255947,-0.995185,-0.098017,0.000000
-21.832956,-23.824315,3.039596,0.000000,-0.000000,1.000000
21.125216,-4.799913,-3.039596,0.000000,-0.000000,-1.000000
17.304279,5.127247,-3.039596,0.000000,0.000000,-1.000000
-14.529848,14.595508,3.039596,-0.000000,-0.000000,1.000000
1.189113,22.489955,-3.039596,0.000000,0.000000,-1.000000
-8.269286,29.309013,-3.039596,0.000000,0.000000,-1.000000
-26.944777,26.068888,-2.619841,-0.737277,0.675590,0.000000
-1.948602,-29.774786,-3.039596,0.000000,-0.000000,-1.000000
19.296131,4.713611,-3.039596,0.000000,0.000000,-1.000000
-21.245771,8.363419,-3.039596,0.000000,0.000000,-1.000000
0.089841,21.169473,3.039596,0.000000,-0.000000,1.000000
-23.931929,-23.313949,-3.039596,0.000000,-0.000000,-1.000000
13.261139,-2.853162,-3.039596,0.000000,-0.000000,-1.000000
3.812357,33.365629,-3.039596,0.000000,0.000000,-1.000000
18.623609,28.141368,-2.785067,-0.995185,-0.098019,0.000000
0.739547,28.089503,-3.039596,0.000000,0.000000,-1.000000
14.469330,-19.108682,-3.039596,-0.000000,-0.000000,-1.000000
15.376296,21.961280,3.039596,0.000000,-0.000000,1.000000
-12.361611,35.398815,2.961552,-0.300706,0.953717,0.000000
18.574917,0.235494,-3.039596,0.000000,-0.000000,-1.000000
-23.176233,-15.643628,3.039596,0.000000,-0.000000,1.000000
-31.442663,2.688632,1.233577,-0.098017,-0.995185,0.000000
29.793624,5.882595,-3.039596,0.000000,0.000000,-1.000000
19.719456,20.083849,-3.039596,0.000000,0.000000,-1.000000
13.216772,6.621648,-3.039596,0.000000,0.000000,-1.000000
-11.851173,3.488524,3.039596,-0.000000,0.000000,1.000000
-7.234893,18.554453,-3.039596,0.000000,0.000000,-1.000000
37.201113,-0.479123,-3.039596,0.000000,-0.000000,-1.000000
13.796676,-34.850755,0.721681,0.382683,-0.923880,0.000000
31.079778,2.596857,1.282465,0.290284,-0.956940,0.000000
-25.674674,-12.290481,3.039596,-0.000000,0.000000,1.000000
10.241725,15.965585,3.039596,0.000000,-0.000000,1.000000
-0.907123,26.242980,-3.039596,0.000000,-0.000000,-1.000000
10.529128,19.287844,3.039596,0.000000,-0.000000,1.000000
13.419241,-28.660777,-1.156379,0.881921,0.471398,-0.000000
-4.701086,30.847468,-3.039596,0.000000,0.000000,-1.000000
-18.455263,-11.191089,-3.039596,0.000000,0.000000,-1.000000
-17.225878,7.384622,3.039596,-0.000000,-0.000000,1.000000
9.245757,7.762488,3.039596,-0.000000,0.000000,1.000000
-12.285304,-7.799771,-3.039596,0.000000,-0.000000,-1.000000
10.908098,-2.999024,2.988310,-0.956940,0.290285,0.000000
11.227820,35.756299,-1.239660,0.300706,0.953717,0.000000
-21.742878,0.185362,3.039596,-0.000000,-0.000000,1.000000
27.218074,6.278944,3.039596,0.000000,-0.000000,1.000000
2.504875,-29.178208,3.039596,0.000000,-0.000000,1.000000
10.016992,34.748107,3.039596,0.000000,-0.000000,1.000000
21.280863,-3.184063,3.039596,-0.000000,0.000000,1.000000
3.071287,34.056122,3.039596,-0.000000,0.000000,1.000000
-1.241764,-11.241386,-0.937079,0.098017,0.995185,-0.000000
-33.438765,16.929368,0.201923,-0.887011,0.461749,0.000000
6.342572,-31.171591,3.039596,0.000000,-0.000000,1.000000
-10.303727,7.081394,3.039596,-0.000000,0.000000,1.000000
13.219500,25.162903,-3.039596,0.000000,0.000000,-1.000000
-22.539423,4.440139,-3.039596,0.000000,0.000000,-1.000000
14.914329,-25.084965,2.833950,0.290288,-0.956939,0.000000
35.510187,-11.442353,-3.039596,0.000000,-0.000000,-1.000000
8.076799,-29.119322,3.039596,0.000000,-0.000000,1.000000
1.853181,-29.606922,-3.039596,0.000000,0.000000,-1.000000
-7.835686,-34.639662,3.039596,-0.000000,0.000000,1.000000
8.747286,-18.617370,-3.039596,0.000000,0.000000,-1.000000
-8.872853,-36.420534,-0.897677,-0.216440,-0.976296,0.000000
14.870079,-34.118430,-3.039596,0.000000,0.000000,-1.000000
-9.910405,-20.630367,3.039596,0.000000,-0.000000,1.000000
-31.280697,7.430446,3.039596,-0.000000,-0.000000,1.000000
6.149792,-13.957677,3.039596,-0.000000,0.000000,1.000000
16.595074,33.612787,0.473849,0.461749,0.887011,-0.000000
18.772592,6.160671,-3.039596,0.000000,0.000000,-1.000000
-11.028080,-12.329652,-3.039596,0.000000,0.000000,-1.000000
8.665175,-23.000675,3.039596,0.000000,-0.000000,1.000000
-35.986265,-10.498461,-1.134153,-0.953717,-0.300706,-0.000000
8.782447,-16.097867,3.039596,-0.000000,-0.000000,1.000000
-35.047901,-8.780181,-3.039596,0.000000,0.000000,-1.000000
-26.286030,15.043893,-3.039596,0.000000,-0.000000,-1.000000
-9.738481,36.225886,0.190938,-0.300706,0.953717,0.000000
16.785020,9.737607,3.039596,0.000000,-0.000000,1.000000
26.055102,7.783021,-3.039596,0.000000,0.000000,-1.000000
-20.633555,-31.291826,0.335015,-0.537300,-0.843391,0.000000
11.432730,-19.561555,3.039596,-0.000000,-0.000000,1.000000
19.765686,31.844719,2.422108,0.537300,0.843391,-0.000000
14.039947,19.140854,3.039596,0.000000,-0.000000,1.000000
25.805313,18.897526,3.039596,0.000000,-0.000000,1.000000
28.436855,24.440570,2.892791,0.737277,0.675590,-0.000000
-12.942553,19.245526,-3.039596,0.000000,0.000000,-1.000000
-23.980324,-28.838806,0.904556,-0.608761,-0.793353,0.000000
9.307075,6.485729,-1.445329,-0.773010,-0.634393,0.000000
18.467998,-28.658456,-3.030868,-0.956941,0.290284,0.000000
33.073498,16.793714,-3.039596,0.000000,0.000000,-1.000000
-17.524720,-15.142361,-3.039596,0.000000,0.000000,-1.000000
6.662259,-29.285283,-3.039596,0.000000,0.000000,-1.000000
6.157001,22.522043,-3.039596,0.000000,0.000000,-1.000000
-0.377226,-28.716885,-3.039596,0.000000,-0.000000,-1.000000
-19.183309,4.292682,-3.039596,0.000000,0.000000,-1.000000
4.154182,-19.828396,-3.039596,0.000000,0.000000,-1.000000
5.809494,-33.111805,3.039596,0.000000,0.000000,1.000000
17.782091,-19.913789,3.039596,-0.000000,0.000000,1.000000
3.934232,27.003113,-3.039596,0.000000,0.000000,-1.000000
10.760920,-3.484206,2.669123,-0.956940,0.290285,0.000000
-13.724483,29.799471,-3.039596,0.000000,0.000000,-1.000000
27.808487,4.792129,-3.039596,0.000000,0.000000,-1.000000
17.987275,29.409920,1.253336,-0.773012,-0.634392,0.000000
23.592995,11.918207,-3.039596,0.000000,0.000000,-1.000000
-14.425114,12.703526,-3.039596,0.000000,-0.000000,-1.000000
14.651754,31.521395,-3.039596,0.000000,-0.000000,-1.000000
-15.610773,8.920029,-3.039596,0.000000,-0.000000,-1.000000
4.609460,-17.489042,-3.039596,0.000000,0.000000,-1.000000
-15.760200,-17.308063,3.039596,0.000000,-0.000000,1.000000
25.577704,27.394864,0.461880,0.675590,0.737277,0.000000
-13.755233,-33.293846,-3.039596,0.000000,-0.000000,-1.000000
15.960753,-33.942994,-1.519065,0.461749,-0.887011,0.000000
-4.237837,19.402800,-3.039596,0.000000,0.000000,-1.000000
-14.823967,-13.900846,3.039596,-0.000000,0.000000,1.000000
-27.815915,-17.600688,3.039596,0.000000,-0.000000,1.000000
-13.231790,27.827039,2.268656,-0.995185,-0.098017,0.000000
3.727005,-10.687268,-0.930803,-0.290285,0.956940,0.000000
-3.470965,-35.668166,-3.039596,0.000000,-0.000000,-1.000000
-27.766768,25.171842,-1.272906,-0.737277,0.675590,0.000000
-23.980331,-15.613489,3.039596,0.000000,-0.000000,1.000000
-27.746469,-25.193995,2.847547,-0.737277,-0.675590,0.000000
13.699091,-25.132334,-3.039596,0.000000,-0.000000,-1.000000
15.026606,0.766420,-3.039596,0.000000,0.000000,-1.000000
2.862710,23.531514,-3.039596,0.000000,0.000000,-1.000000
-36.005616,4.576869,-3.039596,0.000000,0.000000,-1.000000
-24.019091,3.651843,3.039596,-0.000000,-0.000000,1.000000
14.083926,8.256744,3.039596,0.000000,-0.000000,1.000000
-24.798009,-21.088661,3.039596,-0.000000,0.000000,1.000000
-13.458270,13.832291,-3.039596,0.000000,0.000000,-1.000000
18.507731,28.527474,-0.660349,-0.956941,-0.290284,0.000000
-13.943259,-25.765045,-3.018424,-0.773010,-0.634393,0.000000
-19.382020,3.171028,-3.039596,0.000000,-0.000000,-1.000000
-5.755381,34.243970,3.039596,-0.000000,-0.000000,1.000000
26.258861,9.122301,-3.039596,0.000000,0.000000,-1.000000
-29.007110,3.694905,-3.039596,-0.000000,-0.000000,-1.000000
22.768758,-18.887444,-3.039596,0.000000,0.000000,-1.000000
-13.267351,35.070008,1.247960,-0.382683,0.923880,0.000000
12.543320,6.004276,3.039596,0.000000,-0.000000,1.000000
-17.737964,-0.552942,3.039596,0.000000,-0.000000,1.000000
11.145173,-21.049096,3.039596,-0.000000,0.000000,1.000000
-7.364074,22.113280,-3.039596,0.000000,0.000000,-1.000000
-0.280823,-36.583457,-3.039596,0.000000,-0.000000,-1.000000
21.332184,-0.104968,-3.039596,0.000000,0.000000,-1.000000
9.956416,34.376403,-3.039596,0.000000,0.000000,-1.000000
4.109613,20.339250,-3.039596,0.000000,0.000000,-1.000000
-4.449410,12.380145,3.039596,0.000000,-0.000000,1.000000
13.544000,2.981623,-3.039596,0.000000,0.000000,-1.000000
11.438610,-24.045714,-3.039596,0.000000,0.000000,-1.000000
-15.384152,-14.583709,3.039596,-0.000000,0.000000,1.000000
-4.058785,11.760581,3.039596,0.000000,-0.000000,1.000000
14.194971,29.697323,1.242394,0.634393,-0.773011,0.000000
1.381743,20.528719,-3.039596,0.000000,0.000000,-1.000000
-5.861667,-24.536706,-3.039596,0.000000,-0.000000,-1.000000
16.021653,-30.339000,2.863171,-0.098018,0.995185,0.000000
0.608948,-20.518477,-3.039596,0.000000,0.000000,-1.000000
15.840354,11.323827,3.039596,0.000000,-0.000000,1.000000
-24.845917,-11.964828,3.039596,-0.000000,0.000000,1.000000
30.607351,-9.942054,-3.039596,0.000000,-0.000000,-1.000000
9.456648,15.225904,-3.039596,0.000000,0.000000,-1.000000
-29.202382,23.506503,-0.782785,-0.793353,0.608761,0.000000
-11.295704,25.032407,3.039596,0.000000,0.000000,1.000000
-6.494453,-15.253022,-3.039596,0.000000,-0.000000,-1.000000
0.291654,-35.447109,-3.039596,0.000000,0.000000,-1.000000
-18.637268,-28.002696,-1.355335,0.995185,0.098019,0.000000
0.845205,36.504752,-3.039596,0.000000,0.000000,-1.000000
-16.625332,-15.393828,-3.039596,0.000000,-0.000000,-1.000000
-6.323815,-31.308555,-3.039596,0.000000,-0.000000,-1.000000
-22.530556,-5.028217,-3.039596,0.000000,0.000000,-1.000000
-7.798495,19.010169,-3.039596,0.000000,0.000000,-1.000000
24.162546,-6.898000,-3.039596,0.000000,-0.000000,-1.000000
29.300226,6.909581,-3.039596,0.000000,0.000000,-1.000000
-31.998748,-8.004215,3.039596,0.000000,-0.000000,1.000000
25.431588,4.592785,-3.039596,0.000000,0.000000,-1.000000
-33.270998,2.425801,-3.039596,0.000000,-0.000000,-1.000000
-29.353504,23.309556,2.701124,-0.793353,0.608761,0.000000
14.811034,25.136301,1.263120,0.471394,0.881923,0.000000
-10.637753,-35.334500,-3.039596,0.000000,-0.000000,-1.000000
-8.438285,24.696752,3.039596,0.000000,-0.000000,1.000000
21.590838,25.003279,3.039596,0.000000,-0.000000,1.000000
-36.871783,0.370448,-3.039596,0.000000,0.000000,-1.000000
2.469525,11.068720,-2.765673,-0.290285,-0.956940,0.000000
-16.360944,33.734668,2.915628,-0.461749,0.887011,0.000000
-8.850885,-36.425404,0.814223,-0.216440,-0.976296,0.000000
-19.058169,-27.528535,3.039596,0.000000,0.000000,1.000000
29.026804,-6.795389,-3.039596,0.000000,-0.000000,-1.000000
-15.515555,-12.493622,-3.039596,0.000000,0.000000,-1.000000
-21.032053,-7.370249,3.039596,0.000000,-0.000000,1.000000
35.503365,-8.908166,-3.039596,0.000000,-0.000000,-1.000000
-7.384739,-31.967597,-3.039596,0.000000,-0.000000,-1.000000
-27.328295,20.429704,-3.039596,0.000000,0.000000,-1.000000
21.122977,-26.086274,3.039596,0.000000,0.000000,1.000000
-5.483847,35.779178,-3.039596,0.000000,0.000000,-1.000000
23.943997,15.475334,3.039596,0.000000,-0.000000,1.000000
17.833111,-32.968306,-1.772877,0.461749,-0.887011,0.000000
31.503411,8.980400,-3.039596,0.000000,0.000000,-1.000000
-5.689279,-27.209098,-3.039596,0.000000,-0.000000,-1.000000
2.576326,-30.705026,-3.039596,0.000000,0.000000,-1.000000
33.701335,-15.829204,-3.039596,0.000000,-0.000000,-1.000000
7.090999,25.384853,3.039596,-0.000000,0.000000,1.000000
-5.117576,16.886691,-3.039596,0.000000,0.000000,-1.000000
-6.734690,-9.102758,-1.406568,0.634393,0.773010,0.000000
-13.955599,1.293871,3.039596,-0.000000,0.000000,1.000000
-10.125956,-5.046014,-1.196494,0.881921,0.471397,-0.000000
-5.917214,-37.022036,1.391933,-0.130526,-0.991445,0.000000
7.496394,8.477644,1.121413,-0.634393,-0.773010,0.000000
22.495140,12.830386,-3.039596,0.000000,0.000000,-1.000000
-30.403768,-21.584301,-3.039596,0.000000,0.000000,-1.000000
-6.369621,-35.000222,-3.039596,0.000000,-0.000000,-1.000000
-5.623126,27.067854,-3.039596,0.000000,0.000000,-1.000000
-26.227532,23.223209,3.039596,-0.000000,-0.000000,1.000000
-36.880485,1.984952,3.039596,0.000000,-0.000000,1.000000
4.280066,36.625834,3.039596,0.000000,-0.000000,1.000000
16.327261,-14.041607,3.039596,-0.000000,0.000000,1.000000
0.221164,-13.833729,3.039596,0.000000,-0.000000,1.000000
4.411841,10.464928,0.794514,-0.471397,-0.881921,0.000000
8.776441,23.537722,-3.039596,0.000000,-0.000000,-1.000000
13.845894,-3.390593,3.039596,-0.000000,-0.000000,1.000000
11.866141,2.819901,3.039596,0.000000,-0.000000,1.000000
16.411423,9.425948,-3.039596,0.000000,0.000000,-1.000000
-16.004075,-12.011534,3.039596,0.000000,-0.000000,1.000000
-32.754245,-6.155027,-3.039596,0.000000,0.000000,-1.000000
9.395184,-13.488699,-3.039596,0.000000,0.000000,-1.000000
-33.352484,3.889490,3.039596,-0.000000,-0.000000,1.000000
-22.388430,9.920601,-3.039596,0.000000,0.000000,-1.000000
34.597699,5.665954,3.039596,0.000000,0.000000,1.000000
-9.747069,8.917640,3.039596,-0.000000,0.000000,1.000000
-17.788228,-32.991671,-0.183833,-0.461749,-0.887011,-0.000000
-18.221602,22.040845,-3.039596,0.000000,0.000000,-1.000000
21.605059,-22.368823,-3.039596,0.000000,-0.000000,-1.000000
9.577505,-6.072091,-2.491134,-0.881921,0.471397,0.000000
-10.766425,12.394018,3.039596,-0.000000,0.000000,1.000000
-0.304438,22.632830,-3.039596,0.000000,-0.000000,-1.000000
-14.887184,12.945507,-3.039596,0.000000,-0.000000,-1.000000
27.968163,6.880632,3.039596,0.000000,-0.000000,1.000000
30.637414,16.249205,-3.039596,0.000000,0.000000,-1.000000
25.795539,18.435074,-3.039596,0.000000,-0.000000,-1.000000
-35.269292,0.456516,-3.039596,0.000000,0.000000,-1.000000
-13.153565,28.341860,3.039596,0.000000,0.000000,1.000000
-15.606950,-20.980744,-3.039596,0.000000,-0.000000,-1.000000
4.207543,25.834266,3.039596,0.000000,-0.000000,1.000000
18.365479,-11.073160,-3.039596,0.000000,0.000000,-1.000000
-32.598448,-6.396749,-3.039596,0.000000,0.000000,-1.000000
0.268285,-32.598236,-3.039596,0.000000,0.000000,-1.000000
-6.899840,-36.427766,-3.039596,0.000000,-0.000000,-1.000000
24.067028,8.130757,3.039596,0.000000,-0.000000,1.000000
27.618957,-25.333149,-1.222541,0.737277,-0.675590,0.000000
-34.222801,-14.765784,3.039596,0.000000,-0.000000,1.000000
-1.380187,28.433572,3.039596,-0.000000,0.000000,1.000000
-29.164837,-23.555432,0.125374,-0.793353,-0.608761,0.000000
-17.367534,-30.864349,-3.039596,0.000000,0.000000,-1.000000
-14.377814,-8.516685,3.039596,0.000000,-0.000000,1.000000
36.037389,-10.336317,-2.225772,0.953717,-0.300706,0.000000
-6.448829,20.565439,-3.039596,0.000000,0.000000,-1.000000
-16.273620,33.780126,-0.929951,-0.461749,0.887011,0.000000
-36.592939,8.095183,2.326795,-0.976296,0.216440,0.000000
33.212645,6.381944,-3.039596,0.000000,0.000000,-1.000000
10.322866,4.677620,-0.866982,-0.881921,-0.471397,0.000000
9.565056,6.095381,0.448545,-0.881921,-0.471397,0.000000
-35.833005,-3.266071,3.039596,0.000000,-0.000000,1.000000
-34.206963,1.426793,0.048567,0.881921,-0.471397,0.000000
31.051695,19.995278,3.039596,0.000000,-0.000000,1.000000
-27.141422,-25.854287,2.380541,-0.737277,-0.675590,0.000000
-9.009453,26.440979,3.039596,0.000000,-0.000000,1.000000
-9.402365,23.247022,3.039596,0.000000,0.000000,1.000000
10.910695,17.306347,-3.039596,0.000000,0.000000,-1.000000
36.673889,-7.730043,2.266614,0.976296,-0.216440,0.000000
-26.445261,-13.688000,-3.039596,0.000000,-0.000000,-1.000000
-26.666079,3.971953,-3.039596,0.000000,-0.000000,-1.000000
-9.683423,14.561954,3.039596,0.000000,0.000000,1.000000
22.056761,-5.537969,3.039596,-0.000000,-0.000000,1.000000
-21.201367,-4.055840,3.039596,0.000000,-0.000000,1.000000
-21.327440,7.681754,3.039596,-0.000000,-0.000000,1.000000
28.289504,-16.009553,3.039596,-0.000000,0.000000,1.000000
-9.621789,7.303044,3.039596,-0.000000,0.000000,1.000000
-10.551752,-17.546343,-3.039596,0.000000,-0.000000,-1.000000
-6.349304,-15.743940,3.039596,-0.000000,0.000000,1.000000
-16.895623,-24.429094,3.039596,0.000000,0.000000,1.000000
13.474074,-14.910581,-3.039596,0.000000,-0.000000,-1.000000
-28.148639,2.672076,3.039596,0.000000,0.000000,1.000000
-34.164448,11.615902,3.039596,-0.000000,-0.000000,1.000000
24.776936,6.521423,3.039596,0.000000,-0.000000,1.000000
-12.973263,-33.504185,-3.039596,0.000000,-0.000000,-1.000000
-23.781499,26.573463,3.039596,-0.000000,-0.000000,1.000000
8.975401,-24.562344,-3.039596,0.000000,0.000000,-1.000000
-12.412044,-33.560171,3.039596,-0.000000,0.000000,1.000000
37.153211,4.920841,2.999039,0.991445,0.130526,-0.000000
-2.700214,25.689213,-3.039596,0.000000,0.000000,-1.000000
-26.576469,26.470825,-1.418721,-0.737277,0.675590,0.000000
-4.621068,-13.045378,3.039596,0.000000,-0.000000,1.000000
-25.258866,-22.631200,-3.039596,0.000000,-0.000000,-1.000000
35.540201,-11.913194,0.859455,0.953717,-0.300706,0.000000
-28.917983,10.333742,3.039596,-0.000000,-0.000000,1.000000
32.764788,-13.388477,-3.039596,0.000000,-0.000000,-1.000000
18.359308,8.757814,3.039596,0.000000,-0.000000,1.000000
4.879810,10.214793,-2.721294,-0.471397,-0.881921,0.000000
-8.184314,-21.429213,3.039596,-0.000000,0.000000,1.000000
-12.843905,6.585437,3.039596,-0.000000,0.000000,1.000000
-0.817869,24.419905,3.039596,-0.000000,0.000000,1.000000
29.532084,-15.871898,3.039596,-0.000000,0.000000,1.000000
-22.268340,-22.363658,-3.039596,0.000000,0.000000,-1.000000
-32.920781,-17.924406,-0.229053,-0.887011,-0.461749,0.000000
37.174533,4.758886,0.028726,0.991445,0.130526,0.000000
10.478717,4.386044,2.168087,-0.881921,-0.471397,0.000000
3.247435,13.653542,3.039596,-0.000000,0.000000,1.000000
29.890952,3.761877,3.039596,0.000000,0.000000,1.000000
19.692882,-16.633439,-3.039596,0.000000,0.000000,-1.000000
-34.795487,6.864557,-3.039596,0.000000,0.000000,-1.000000
-18.244874,-10.026794,3.039596,0.000000,-0.000000,1.000000
-33.094790,-17.411478,3.039596,-0.000000,0.000000,1.000000
-34.839575,-6.676534,-3.039596,0.000000,0.000000,-1.000000
-20.829355,16.889578,3.039596,-0.000000,-0.000000,1.000000
-17.001158,32.557220,3.039596,0.000000,-0.000000,1.000000
-18.643736,-27.291766,0.565728,0.995185,-0.098018,0.000000
29.300606,6.587799,3.039596,0.000000,-0.000000,1.000000
-10.577938,35.247585,-3.039596,0.000000,0.000000,-1.000000
-17.521117,5.659132,3.039596,-0.000000,0.000000,1.000000
-0.717805,-23.435287,-3.039596,0.000000,-0.000000,-1.000000
18.146702,-26.013135,1.632702,-0.773010,-0.634393,0.000000
-15.224127,34.259486,1.559252,-0.382683,0.923880,0.000000
-20.516282,-18.513734,-3.039596,0.000000,-0.000000,-1.000000
35.966436,-10.561350,2.598654,0.953717,-0.300706,0.000000
-10.969320,-28.058549,-3.039596,0.000000,-0.000000,-1.000000
16.828691,33.436400,-3.039596,0.000000,0.000000,-1.000000
-29.832117,10.459735,3.039596,-0.000000,-0.000000,1.000000
12.881299,-32.844224,-3.039596,0.000000,0.000000,-1.000000
-0.402072,11.324089,-1.888677,0.098017,-0.995185,0.000000
-26.706393,19.947040,3.039596,-0.000000,-0.000000,1.000000
30.837839,-2.837517,-3.039596,-0.000000,-0.000000,-1.000000
25.405481,-4.188479,-3.039596,0.000000,0.000000,-1.000000
-11.460660,-2.912121,-3.039596,0.000000,0.000000,-1.000000
-17.055633,6.790806,-3.039596,0.000000,0.000000,-1.000000
23.429696,-29.261318,2.867067,0.608761,-0.793353,0.000000
-14.868546,34.406772,-1.333758,-0.382683,0.923880,0.000000
29.157976,-23.564374,1.845367,0.793353,-0.608761,0.000000
12.883454,3.694454,3.039596,0.000000,-0.000000,1.000000
9.605316,-14.510346,-3.039596,-0.000000,-0.000000,-1.000000
-24.978333,-10.743589,-3.039596,0.000000,0.000000,-1.000000
30.680594,5.807186,-3.039596,0.000000,0.000000,-1.000000
24.129822,16.986319,3.039596,0.000000,-0.000000,1.000000
-13.945137,-25.762757,2.615432,-0.773010,-0.634393,0.000000
-19.548439,-28.756291,3.039596,0.000000,-0.000000,1.000000
-3.993969,37.275236,-1.747497,-0.130526,0.991445,0.000000
-22.067611,-9.152350,-3.039596,0.000000,0.000000,-1.000000
-26.621483,19.906702,-3.039596,0.000000,0.000000,-1.000000
6.045720,19.859602,3.039596,-0.000000,0.000000,1.000000
33.006423,5.888737,-3.039596,0.000000,0.000000,-1.000000
-3.301137,13.828768,-3.039596,0.000000,0.000000,-1.000000
-0.852601,33.356979,-3.039596,0.000000,-0.000000,-1.000000
-27.895191,-18.298235,3.039596,0.000000,-0.000000,1.000000
9.094602,-19.679058,-3.039596,0.000000,0.000000,-1.000000
-27.280662,-3.966710,3.039596,0.000000,-0.000000,1.000000
-23.687767,1.117077,-3.039596,-0.000000,-0.000000,-1.000000
-15.966485,23.186053,3.039596,0.000000,0.000000,1.000000
-21.532634,7.093052,3.039596,-0.000000,-0.000000,1.000000
1.743750,14.670033,-3.039596,0.000000,-0.000000,-1.000000
-3.981140,32.215499,3.039596,-0.000000,-0.000000,1.000000
-36.848074,-6.944345,-0.106938,-0.976296,-0.216440,-0.000000
-7.371113,14.253206,-3.039596,0.000000,0.000000,-1.000000
21.865939,-7.126735,3.039596,-0.000000,0.000000,1.000000
-34.810025,-13.895008,1.277127,-0.923880,-0.382683,0.000000
-29.211701,0.550105,-0.401266,-0.956940,-0.290284,0.000000
27.270279,0.883702,3.039596,0.000000,0.000000,1.000000
31.932924,-19.197558,-3.039596,0.000000,-0.000000,-1.000000
7.670032,21.768865,3.039596,0.000000,-0.000000,1.000000
-15.777133,19.673369,-3.039596,0.000000,0.000000,-1.000000
21.755866,0.309174,-3.039596,0.000000,-0.000000,-1.000000
37.479339,-0.779266,-0.802255,0.999048,-0.043619,0.000000
27.431243,-11.258097,-3.039596,0.000000,-0.000000,-1.000000
10.849346,-28.265490,3.039596,0.000000,-0.000000,1.000000
0.642731,-13.337821,3.039596,0.000000,0.000000,1.000000
0.059423,35.533839,-3.039596,0.000000,0.000000,-1.000000
-13.256227,27.153638,0.868679,-0.995185,0.098016,0.000000
5.839151,-21.014135,-3.039596,0.000000,0.000000,-1.000000
-16.013673,-2.049863,3.039596,0.000000,-0.000000,1.000000
-26.443036,24.610330,-3.039596,0.000000,0.000000,-1.000000
-28.743472,5.093334,3.039596,-0.000000,-0.000000,1.000000
27.006321,-20.459525,-3.039596,0.000000,-0.000000,-1.000000
-11.756394,-25.317033,-3.039596,0.000000,0.000000,-1.000000
27.293834,6.253187,3.039596,0.000000,-0.000000,1.000000
-23.079206,7.041986,-3.039596,0.000000,0.000000,-1.000000
0.606688,31.365007,3.039596,0.000000,-0.000000,1.000000
-6.774496,12.536025,3.039596,0.000000,-0.000000,1.000000
35.712059,-10.753273,-3.039596,0.000000,-0.000000,-1.000000
-9.143110,22.872193,3.039596,0.000000,0.000000,1.000000
-24.443410,-28.434253,-1.817730,-0.675590,-0.737277,0.000000
25.678832,11.215496,3.039596,0.000000,-0.000000,1.000000
13.411299,28.635176,-2.681340,0.956940,-0.290285,0.000000
-16.761437,-2.328016,3.039596,0.000000,-0.000000,1.000000
-23.952099,-20.175971,-3.039596,0.000000,0.000000,-1.000000
-32.349747,18.972951,2.759779,-0.843391,0.537300,0.000000
0.583133,-29.234162,3.039596,0.000000,-0.000000,1.000000
-12.833706,-29.987809,-3.039596,0.000000,-0.000000,-1.000000
-22.584105,29.910162,2.611135,-0.608761,0.793353,0.000000
-12.394171,33.809342,3.039596,0.000000,0.000000,1.000000
4.034467,-37.269904,-1.300552,0.130526,-0.991445,0.000000
-6.055910,35.574288,3.039596,-0.000000,-0.000000,1.000000
20.649836,11.617579,3.039596,0.000000,-0.000000,1.000000
-29.183373,0.297961,-1.830951,-0.995185,-0.098018,-0.000000
1.495448,16.953667,3.039596,-0.000000,0.000000,1.000000
-12.125409,7.012317,-3.039596,0.000000,-0.000000,-1.000000
14.336332,-12.471225,-3.039596,0.000000,0.000000,-1.000000
-9.122142,17.334770,3.039596,0.000000,-0.000000,1.000000
-16.615182,-3.567003,-3.039596,0.000000,0.000000,-1.000000
-12.690809,35.295020,-1.613174,-0.300706,0.953717,0.000000
-16.126544,-12.055516,-3.039596,0.000000,0.000000,-1.000000
13.322309,-26.886977,-0.208758,0.956940,-0.290286,0.000000
1.104094,11.254945,-0.608870,-0.098017,-0.995185,0.000000
-4.876427,29.715973,-3.039596,0.000000,0.000000,-1.000000
-33.222776,17.344280,-2.770261,-0.887011,0.461749,0.000000
31.817414,-19.808547,0.500507,0.843391,-0.537300,0.000000
2.775126,13.648859,-3.039596,0.000000,0.000000,-1.000000
-37.429052,-1.931037,0.464357,-0.999048,-0.043619,0.000000
-9.395076,36.304760,-2.791950,-0.216440,0.976296,0.000000
30.538571,-13.588780,3.039596,-0.000000,0.000000,1.000000
29.839927,-1.792677,1.711973,0.773011,0.634392,0.000000
27.455427,11.900566,-3.039596,0.000000,0.000000,-1.000000
16.472113,18.270220,-3.039596,0.000000,0.000000,-1.000000
-10.991435,-28.349045,3.039596,-0.000000,0.000000,1.000000
-24.799933,28.107560,-0.972673,-0.675590,0.737277,0.000000
-30.552729,11.244379,3.039596,-0.000000,-0.000000,1.000000
-7.796084,22.417837,3.039596,0.000000,-0.000000,1.000000
14.040854,2.118865,3.039596,0.000000,-0.000000,1.000000
-13.339432,26.830528,1.152502,-0.956940,0.290286,0.000000
4.177062,30.412571,3.039596,0.000000,-0.000000,1.000000
1.162841,-29.041074,3.039596,0.000000,-0.000000,1.000000
0.874465,27.362122,-3.039596,0.000000,0.000000,-1.000000
14.991508,-3.136706,-3.039596,0.000000,-0.000000,-1.000000
25.502289,16.995198,-3.039596,0.000000,0.000000,-1.000000
0.903853,-15.095529,-3.039596,0.000000,0.000000,-1.000000
29.460045,-1.229024,-1.817667,0.881921,0.471397,-0.000000
32.296167,-19.057055,2.724612,0.843391,-0.537300,0.000000
-20.289755,8.892133,3.039596,-0.000000,-0.000000,1.000000
14.345640,15.526675,-3.039596,0.000000,0.000000,-1.000000
5.461506,-9.903870,0.712968,-0.471397,0.881921,0.000000
-22.038181,-1.295913,-3.039596,0.000000,0.000000,-1.000000
30.877166,15.783430,-3.039596,0.000000,0.000000,-1.000000
27.146436,-15.129205,3.039596,-0.000000,0.000000,1.000000
-8.121078,7.930870,1.140404,0.773010,-0.634393,0.000000
27.294240,21.187687,-3.039596,0.000000,0.000000,-1.000000
-26.728156,-15.182812,3.039596,0.000000,-0.000000,1.000000
33.152824,15.327830,-3.039596,0.000000,0.000000,-1.000000
-15.289582,-18.346850,-3.039596,0.000000,0.000000,-1.000000
-5.484360,21.875114,3.039596,0.000000,0.000000,1.000000
5.449859,-13.793775,3.039596,0.000000,0.000000,1.000000
18.960533,-0.288609,-3.039596,-0.000000,-0.000000,-1.000000
7.092681,20.641562,-3.039596,0.000000,-0.000000,-1.000000
36.840671,6.977737,2.385552,0.976296,0.216440,-0.000000
-13.809671,-34.845372,2.294681,-0.382683,-0.923880,0.000000
-10.883566,-32.803513,-3.039596,0.000000,-0.000000,-1.000000
-20.312989,29.642329,-3.039596,0.000000,-0.000000,-1.000000
-26.506738,21.838380,-3.039596,0.000000,0.000000,-1.000000
-26.401187,20.968742,-3.039596,0.000000,0.000000,-1.000000
17.472495,25.351829,0.413997,-0.634394,0.773010,0.000000
19.878639,-31.772761,2.710879,0.537300,-0.843391,0.000000
-4.214983,-21.609186,3.039596,-0.000000,0.000000,1.000000
31.547539,2.698962,2.777294,0.098017,-0.995185,0.000000
-27.103336,22.344530,-3.039596,0.000000,0.000000,-1.000000
8.350179,-25.037149,3.039596,0.000000,0.000000,1.000000
-31.974007,2.723700,0.346780,0.098017,-0.995185,0.000000
-13.588631,5.387584,-3.039596,0.000000,-0.000000,-1.000000
28.339516,24.546798,-0.105115,0.737277,0.675590,0.000000
-36.686658,7.672447,1.063409,-0.976296,0.216440,0.000000
-17.865755,-32.951313,2.879390,-0.461749,-0.887011,0.000000
0.123911,37.507953,1.125815,0.043619,0.999048,-0.000000
18.736485,-2.651047,-3.039596,0.000000,0.000000,-1.000000
-1.788374,11.187550,-1.907066,0.098017,-0.995185,0.000000
-29.588983,1.470249,-0.075531,-0.881921,-0.471397,0.000000
27.723691,25.218852,0.851759,0.737277,0.675590,-0.000000
-22.319576,3.484791,3.039596,-0.000000,-0.000000,1.000000
6.286196,-36.973459,-0.838002,0.130526,-0.991445,0.000000
-19.144179,-10.698243,3.039596,0.000000,-0.000000,1.000000
-19.047357,32.242676,-3.039596,0.000000,0.000000,-1.000000
-21.971534,21.505199,3.039596,-0.000000,-0.000000,1.000000
23.865814,-4.490699,3.039596,-0.000000,0.000000,1.000000
-26.151860,-26.868747,1.644550,-0.675590,-0.737277,-0.000000
-3.298929,32.684056,-3.039596,0.000000,0.000000,-1.000000
5.661879,-27.208600,3.039596,0.000000,-0.000000,1.000000
23.574245,4.874090,-3.039596,0.000000,0.000000,-1.000000
37.463097,-0.506838,-3.039596,0.000000,-0.000000,-1.000000
-20.876559,4.919039,3.039596,-0.000000,-0.000000,1.000000
-33.112511,-12.710823,3.039596,0.000000,-0.000000,1.000000
19.669263,4.061443,3.039596,0.000000,-0.000000,1.000000
19.164749,12.472419,3.039596,0.000000,-0.000000,1.000000
-9.105365,29.371067,-3.039596,0.000000,0.000000,-1.000000
-6.242166,-22.816604,-3.039596,0.000000,-0.000000,-1.000000
6.486179,28.172188,3.039596,0.000000,-0.000000,1.000000
-13.887434,29.565480,-3.039596,-0.000000,-0.000000,-1.000000
17.383114,-2.531605,3.039596,-0.000000,0.000000,1.000000
34.070515,6.944980,-3.039596,0.000000,0.000000,-1.000000
-27.868787,23.806631,-3.039596,0.000000,0.000000,-1.000000
6.806798,9.721680,-3.039596,0.000000,0.000000,-1.000000
-10.016769,-30.046381,-3.039596,0.000000,-0.000000,-1.000000
23.246571,27.641270,-3.039596,0.000000,0.000000,-1.000000
-27.288733,22.410596,-3.039596,0.000000,0.000000,-1.000000
21.212324,-16.489580,-3.039596,0.000000,-0.000000,-1.000000
-17.829702,25.032937,3.039596,-0.000000,-0.000000,1.000000
3.789833,26.158873,-3.039596,0.000000,-0.000000,-1.000000
12.371917,18.249136,3.039596,0.000000,-0.000000,1.000000
29.171977,23.546127,1.582419,0.793353,0.608761,-0.000000
5.270630,-10.005895,-0.531155,-0.471397,0.881921,0.000000
24.151632,-18.004370,-3.039596,0.000000,-0.000000,-1.000000
6.283210,-27.772623,3.039596,0.000000,-0.000000,1.000000
21.112820,30.986500,0.398573,0.537300,0.843391,0.000000
-22.874163,-6.020657,3.039596,0.000000,-0.000000,1.000000
10.973511,-11.698749,-3.039596,0.000000,-0.000000,-1.000000
18.566134,-26.893847,-0.805013,-0.956940,-0.290285,0.000000
-5.745020,-35.282064,3.039596,-0.000000,0.000000,1.000000
22.918568,28.755632,-3.039596,0.000000,0.000000,-1.000000
17.443562,-33.171093,-1.738259,0.461749,-0.887011,0.000000
33.219592,14.440558,3.039596,0.000000,-0.000000,1.000000
-17.530357,32.844030,3.039596,0.000000,-0.000000,1.000000
-6.515418,21.370901,-3.039596,0.000000,0.000000,-1.000000
-20.533633,10.560490,-3.039596,0.000000,0.000000,-1.000000
13.243172,27.942597,-0.413492,0.995185,-0.098017,0.000000
11.947362,33.056811,-3.039596,0.000000,-0.000000,-1.000000
8.634381,-25.832942,3.039596,0.000000,-0.000000,1.000000
26.608058,12.108154,-3.039596,0.000000,0.000000,-1.000000
-11.314631,0.498095,1.157015,0.995185,-0.098017,0.000000
37.107478,3.981113,-3.039596,0.000000,0.000000,-1.000000
11.246707,-25.429254,-3.039596,0.000000,0.000000,-1.000000
-7.897543,14.931444,-3.039596,0.000000,0.000000,-1.000000
-13.460696,-1.819292,3.039596,0.000000,-0.000000,1.000000
-4.849103,-26.645420,-3.039596,0.000000,-0.000000,-1.000000
-28.258464,5.618024,-3.039596,0.000000,0.000000,-1.000000
-20.850944,-29.772754,-3.039596,0.000000,-0.000000,-1.000000
1.152326,18.909167,-3.039596,0.000000,0.000000,-1.000000
-27.576929,20.146757,3.039596,-0.000000,-0.000000,1.000000
-28.654153,16.781605,-3.039596,0.000000,0.000000,-1.000000
10.870426,-33.523705,3.039596,0.000000,-0.000000,1.000000
-4.442823,-37.216143,-2.334386,-0.130526,-0.991445,0.000000
16.018051,-5.310394,-3.039596,0.000000,0.000000,-1.000000
36.200536,-8.398150,3.039596,-0.000000,0.000000,1.000000
-17.399045,29.919461,-0.337643,0.471398,-0.881921,0.000000
-23.554209,1.875539,3.039596,-0.000000,0.000000,1.000000
-8.484826,-28.926905,3.039596,-0.000000,0.000000,1.000000
-5.023488,-10.137996,2.806498,0.471397,0.881921,0.000000
23.753148,-29.013124,2.593928,0.608761,-0.793353,0.000000
-26.854492,1.183935,3.039596,-0.000000,-0.000000,1.000000
-6.515830,9.282372,2.833594,0.634393,-0.773010,0.000000
-16.032662,-33.905560,-1.110505,-0.461749,-0.887011,0.000000
-22.607941,29.891873,-0.599529,-0.608761,0.793353,0.000000
36.949640,6.467113,2.172430,0.991445,0.130526,-0.000000
-0.306106,-11.333541,0.343524,0.098017,0.995185,0.000000
3.714145,33.704677,-3.039596,0.000000,0.000000,-1.000000
13.619589,26.193191,1.359968,0.881922,0.471396,0.000000
-17.868653,32.949804,-2.558434,-0.461749,0.887011,0.000000
-26.999723,17.198473,-3.039596,0.000000,0.000000,-1.000000
12.851670,35.242189,-1.381080,0.382683,0.923880,-0.000000
-0.631176,17.339524,3.039596,-0.000000,0.000000,1.000000
15.362595,-30.279809,0.243774,0.290284,0.956940,0.000000
-33.844930,8.244459,3.039596,-0.000000,-0.000000,1.000000
29.019186,0.253618,-3.039596,0.000000,-0.000000,-1.000000
-29.302772,0.850327,-2.845538,-0.956940,-0.290284,0.000000
11.965837,-20.641083,3.039596,-0.000000,-0.000000,1.000000
-23.568169,-15.682483,3.039596,0.000000,-0.000000,1.000000
-12.704802,-30.278180,-3.039596,0.000000,-0.000000,-1.000000
-14.012605,25.681134,-0.931379,-0.634395,0.773009,0.000000
28.346628,17.853749,3.039596,0.000000,-0.000000,1.000000
16.139591,-14.420706,-3.039596,0.000000,-0.000000,-1.000000
-20.319448,26.666323,-3.039596,0.000000,0.000000,-1.000000
-11.147881,26.360445,3.039596,0.000000,0.000000,1.000000
11.422073,-10.037166,3.039596,-0.000000,-0.000000,1.000000
-3.709821,-15.673754,-3.039596,0.000000,-0.000000,-1.000000
-29.221716,0.583122,2.371417,-0.956940,-0.290284,0.000000
-9.936191,24.050657,3.039596,0.000000,0.000000,1.000000
4.751238,34.365936,3.039596,0.000000,-0.000000,1.000000
14.646503,-5.423717,-3.039596,0.000000,0.000000,-1.000000
-17.866593,19.951570,-3.039596,0.000000,0.000000,-1.000000
2.129560,-31.369853,-3.039596,0.000000,0.000000,-1.000000
11.882310,-7.800098,3.039596,-0.000000,0.000000,1.000000
11.986502,10.600955,-3.039596,0.000000,0.000000,-1.000000
-33.275483,-17.243030,-2.565373,-0.887011,-0.461749,0.000000
-26.924787,24.449899,3.039596,-0.000000,-0.000000,1.000000
-14.544340,17.452953,-3.039596,0.000000,0.000000,-1.000000
-27.199866,-6.400964,3.039596,0.000000,-0.000000,1.000000
-13.745561,29.222852,1.138970,-0.773012,-0.634392,0.000000
-0.695781,30.775563,3.039596,-0.000000,0.000000,1.000000
-32.950772,-10.193390,-3.039596,0.000000,0.000000,-1.000000
36.838066,-6.989486,2.508131,0.976296,-0.216440,0.000000
26.606483,1.570721,-3.039596,0.000000,-0.000000,-1.000000
-17.773945,-32.999106,-0.623832,-0.461749,-0.887011,-0.000000
-0.496013,37.245677,-3.039596,0.000000,-0.000000,-1.000000
-9.418671,24.446611,3.039596,0.000000,0.000000,1.000000
24.738463,-15.629927,3.039596,-0.000000,0.000000,1.000000
-8.809599,-21.950879,-3.039596,0.000000,-0.000000,-1.000000
-12.513689,-1.699919,-3.039596,0.000000,0.000000,-1.000000
-19.330366,28.466506,3.039596,-0.000000,0.000000,1.000000
33.257879,-2.350148,2.438281,-0.471396,0.881922,0.000000
9.238329,-30.394868,3.039596,0.000000,-0.000000,1.000000
-6.164456,13.615667,3.039596,0.000000,0.000000,1.000000
33.434509,4.843382,3.039596,0.000000,0.000000,1.000000
-15.622626,-15.902428,-3.039596,0.000000,0.000000,-1.000000
36.644253,3.596082,3.039596,0.000000,-0.000000,1.000000
3.853130,-26.386476,-3.039596,0.000000,0.000000,-1.000000
-14.285186,1.814869,-3.039596,0.000000,-0.000000,-1.000000
7.680680,-23.565944,3.039596,0.000000,-0.000000,1.000000
-0.753570,-24.395674,-3.039596,0.000000,-0.000000,-1.000000
-17.976031,4.939511,3.039596,-0.000000,0.000000,1.000000
11.655871,-2.185981,-3.039596,0.000000,0.000000,-1.000000
14.103226,-34.723778,0.003989,0.382683,-0.923880,0.000000
9.203444,16.652086,-3.039596,0.000000,-0.000000,-1.000000
-17.936605,-15.656933,-3.039596,0.000000,0.000000,-1.000000
32.925336,-17.915655,-2.223885,0.887011,-0.461749,0.000000
-24.977025,8.741889,3.039596,-0.000000,-0.000000,1.000000
-2.102748,11.366254,3.039596,0.000000,-0.000000,1.000000
-33.827412,14.810916,-3.039596,0.000000,0.000000,-1.000000
0.438924,-29.576355,-3.039596,0.000000,0.000000,-1.000000
18.366270,24.538405,3.039596,0.000000,-0.000000,1.000000
12.308333,32.242876,-3.039596,0.000000,0.000000,-1.000000
-16.611368,24.534198,-3.039596,0.000000,0.000000,-1.000000
-18.341184,-3.723670,3.039596,0.000000,-0.000000,1.000000
-28.926283,23.866321,0.522808,-0.793353,0.608761,0.000000
20.745492,5.444260,-3.039596,0.000000,0.000000,-1.000000
7.347029,21.012606,3.039596,0.000000,-0.000000,1.000000
7.290635,8.646506,-2.539631,-0.634393,-0.773010,0.000000
-20.779142,28.102541,3.039596,-0.000000,-0.000000,1.000000
-18.679032,-10.887217,3.039596,0.000000,-0.000000,1.000000
0.233627,23.141367,-3.039596,0.000000,0.000000,-1.000000
-14.030998,29.562754,-1.162876,-0.634393,-0.773011,0.000000
10.241765,-32.729572,-3.039596,0.000000,0.000000,-1.000000
25.797059,2.140184,3.039596,0.000000,0.000000,1.000000
-33.956856,-1.763353,1.112789,0.773009,0.634395,0.000000
-13.425477,-26.267735,-3.039596,0.000000,-0.000000,-1.000000
-11.277616,-35.740598,-0.975321,-0.300706,-0.953717,0.000000
16.072991,30.333944,2.098089,-0.098018,-0.995185,0.000000
36.534684,-8.357955,-1.185214,0.976296,-0.216440,0.000000
18.159045,8.219820,-3.039596,0.000000,0.000000,-1.000000
12.779983,9.300010,-3.039596,0.000000,-0.000000,-1.000000
0.092235,-11.354605,-0.090124,-0.098017,0.995185,0.000000
-11.384911,15.658998,3.039596,-0.000000,-0.000000,1.000000
-37.284724,-2.680693,3.039596,0.000000,-0.000000,1.000000
36.073971,-10.220294,1.701779,0.953717,-0.300706,0.000000
21.633379,5.974931,-3.039596,0.000000,0.000000,-1.000000
15.214862,-16.952857,3.039596,-0.000000,0.000000,1.000000
24.897209,-1.076062,3.039596,0.000000,0.000000,1.000000
3.481633,26.473443,-3.039596,0.000000,0.000000,-1.000000
23.620995,-29.114528,-0.354607,0.608761,-0.793353,0.000000
-15.282455,-12.017750,3.039596,0.000000,-0.000000,1.000000
34.120056,1.765027,-3.039596,0.000000,-0.000000,-1.000000
-3.828082,24.405115,-3.039596,0.000000,0.000000,-1.000000
10.821729,15.072256,3.039596,0.000000,-0.000000,1.000000
7.074005,-36.819329,1.396486,0.216440,-0.976296,0.000000
-18.292151,-28.988116,1.489313,0.881921,0.471398,0.000000
22.408817,-19.876798,3.039596,-0.000000,0.000000,1.000000
6.667646,16.297346,3.039596,0.000000,-0.000000,1.000000
10.937535,-2.901984,-1.395954,-0.956940,0.290285,0.000000
-4.656841,-37.187967,0.978744,-0.130526,-0.991445,0.000000
-23.276476,29.378887,-0.674686,-0.608761,0.793353,0.000000
-37.497326,-0.367311,0.513744,-0.999048,-0.043619,-0.000000
13.220328,-27.518132,2.364071,0.995185,-0.098016,0.000000
22.530059,15.778376,3.039596,0.000000,-0.000000,1.000000
-21.781620,-27.902264,3.039596,-0.000000,0.000000,1.000000
-27.928233,-2.508528,-3.039596,0.000000,0.000000,-1.000000
22.161537,24.863117,3.039596,0.000000,-0.000000,1.000000
-16.737108,2.492649,-3.039596,0.000000,-0.000000,-1.000000
1.649950,14.328164,3.039596,-0.000000,0.000000,1.000000
7.822135,-11.804745,3.039596,0.000000,0.000000,1.000000
32.891350,17.980943,0.592223,0.887011,0.461749,-0.000000
27.526900,-15.085865,-3.039596,0.000000,-0.000000,-1.000000
-17.776220,-8.661176,-3.039596,0.000000,0.000000,-1.000000
23.093287,-29.519454,0.690722,0.608761,-0.793353,0.000000
6.199725,16.230387,-3.039596,0.000000,-0.000000,-1.000000
-8.560361,22.218321,-3.039596,0.000000,0.000000,-1.000000
-10.340971,-36.035921,-2.010339,-0.300706,-0.953717,0.000000
-15.421160,-30.295314,-0.570034,-0.098018,0.995185,0.000000
16.966219,-33.419582,-0.971516,0.461749,-0.887011,0.000000
-11.510707,22.822747,3.039596,0.000000,0.000000,1.000000
-3.555405,-30.294324,3.039596,-0.000000,0.000000,1.000000
32.115968,-14.824157,3.039596,-0.000000,0.000000,1.000000
17.991955,25.824576,-2.200047,-0.773010,0.634393,0.000000
-16.028221,-31.643919,-3.039596,0.000000,0.000000,-1.000000
29.846489,-8.611691,-3.039596,0.000000,-0.000000,-1.000000
-10.474671,4.881100,-3.039596,0.000000,-0.000000,-1.000000
-4.961265,21.819164,-3.039596,0.000000,0.000000,-1.000000
-27.134955,-2.444031,-3.039596,0.000000,0.000000,-1.000000
-27.880705,15.666767,-3.039596,0.000000,0.000000,-1.000000
32.530247,5.378506,3.039596,0.000000,0.000000,1.000000
10.544163,-7.408880,-3.039596,0.000000,0.000000,-1.000000
23.804263,17.650297,3.039596,0.000000,-0.000000,1.000000
17.469055,17.301896,-3.039596,0.000000,0.000000,-1.000000
-27.822906,3.092109,3.039596,-0.000000,-0.000000,1.000000
-23.850236,23.724004,-3.039596,0.000000,0.000000,-1.000000
7.164357,-24.816460,-3.039596,0.000000,0.000000,-1.000000
-3.284461,12.971091,-3.039596,0.000000,0.000000,-1.000000
22.093803,13.738639,-3.039596,0.000000,0.000000,-1.000000
5.743413,-24.999761,-3.039596,0.000000,0.000000,-1.000000
13.530514,-34.082527,3.039596,0.000000,-0.000000,1.000000
3.836982,-36.866890,-3.039596,0.000000,0.000000,-1.000000
-36.679209,-7.706046,0.544838,-0.976296,-0.216440,-0.000000
-16.501444,-18.428528,3.039596,0.000000,-0.000000,1.000000
14.798730,1.766745,-3.039596,0.000000,0.000000,-1.000000
-32.806174,-15.489741,-3.039596,0.000000,-0.000000,-1.000000
-10.521023,-4.275040,0.313208,0.956940,0.290285,0.000000
0.138088,-37.507334,2.886648,0.043619,-0.999048,0.000000
6.809367,23.275329,-3.039596,0.000000,0.000000,-1.000000
37.017798,5.949404,-1.797865,0.991445,0.130526,-0.000000
-10.917861,-31.231437,3.039596,-0.000000,0.000000,1.000000
2.775474,-37.008799,3.039596,0.000000,-0.000000,1.000000
37.415166,-2.249083,-1.191930,0.999048,-0.043619,0.000000
-4.583672,-24.103163,3.039596,-0.000000,0.000000,1.000000
-8.287826,29.431888,-3.039596,0.000000,0.000000,-1.000000
1.413772,-16.378068,3.039596,0.000000,0.000000,1.000000
-14.804998,-34.433095,0.116318,-0.382683,-0.923880,0.000000
-3.414872,10.781952,-0.534087,0.290285,-0.956940,0.000000
12.965410,-35.195076,1.736139,0.382683,-0.923880,0.000000
33.150791,2.407388,1.664392,-0.471396,-0.881922,0.000000
21.230124,7.850532,3.039596,0.000000,-0.000000,1.000000
-4.377652,-17.759042,3.039596,0.000000,-0.000000,1.000000
-21.015030,20.412471,3.039596,-0.000000,-0.000000,1.000000
-20.316356,8.635722,3.039596,-0.000000,-0.000000,1.000000
12.060425,-3.884627,-3.039596,0.000000,0.000000,-1.000000
-4.034556,17.321754,3.039596,0.000000,0.000000,1.000000
